ply
format ascii 1.0
element vertex 2174
property float32 x
property float32 y
property float32 z
end_header
-5.2852 9.2201 2.2368
-5.6121 9.0236 2.2368
-5.9318 8.8155 2.2368
-6.2437 8.5960 2.2368
-6.4503 8.2413 2.2036
-6.5268 7.7491 2.1335
-6.7999 7.5089 2.1335
-7.0641 7.2591 2.1335
-7.3191 7.0000 2.1335
-7.5650 6.7323 2.1336
-7.8007 6.4555 2.1336
-8.0262 6.1704 2.1336
-8.2412 5.8775 2.1336
-8.4455 5.5771 2.1336
-8.6389 5.2695 2.1336
-8.8210 4.9552 2.1336
-8.9918 4.6347 2.1336
-9.1508 4.3082 2.1336
-9.2979 3.9763 2.1336
-9.4331 3.6394 2.1336
-9.5560 3.2979 2.1336
-9.6665 2.9523 2.1336
-9.7645 2.6029 2.1336
-9.8499 2.2503 2.1336
-9.9225 1.8950 2.1335
-6.8113 1.0490 1.4558
-10.0293 1.1778 2.1335
-10.0633 0.8169 2.1335
-10.0843 0.4551 2.1335
-10.0923 0.0927 2.1335
-10.0873 -0.2695 2.1335
-10.0694 -0.6314 2.1335
-10.0384 -0.9922 2.1335
-9.9946 -1.3517 2.1335
-9.9378 -1.7093 2.1335
-9.8684 -2.0646 2.1336
-9.7862 -2.4171 2.1336
-9.6914 -2.7664 2.1336
-9.5843 -3.1120 2.1336
-9.4648 -3.4534 2.1336
-9.3332 -3.7904 2.1336
-9.1896 -4.1223 2.1336
-9.0343 -4.4489 2.1336
-8.8674 -4.7696 2.1336
-8.6892 -5.0841 2.1336
-8.4998 -5.3920 2.1336
-8.2996 -5.6929 2.1336
-8.0887 -5.9863 2.1337
-7.8676 -6.2720 2.1337
-7.6363 -6.5496 2.1337
-7.4255 -6.8465 2.1424
-7.4900 -7.4209 2.2368
-7.2179 -7.6841 2.2368
-6.9365 -7.9373 2.2368
-6.6464 -8.1803 2.2368
-6.3477 -8.4127 2.2368
-6.0409 -8.6343 2.2368
-5.7265 -8.8448 2.2368
-5.4048 -9.0439 2.2368
-5.0761 -9.2313 2.2368
-4.7410 -9.4068 2.2368
-4.3999 -9.5703 2.2368
-4.0532 -9.7214 2.2368
-3.7013 -9.8600 2.2368
-3.3447 -9.9860 2.2368
-2.9839 -10.0992 2.2368
-2.6193 -10.1993 2.2368
-2.2513 -10.2864 2.2368
-1.8805 -10.3603 2.2368
-1.5072 -10.4208 2.2368
-1.1321 -10.4681 2.2368
-0.7555 -10.5018 2.2368
-0.3780 -10.5221 2.2368
0.0000 -9.4740 2.2368
0.3402 -9.4680 2.2368
0.6799 -9.4498 2.2368
1.0188 -9.4195 2.2368
1.3564 -9.3770 2.2368
1.6923 -9.3225 2.2368
2.0260 -9.2561 2.2368
2.3571 -9.1778 2.2368
2.6852 -9.0877 2.2368
3.0099 -8.9859 2.2368
3.3308 -8.8725 2.2368
3.6475 -8.7478 2.2368
3.9594 -8.6117 2.2368
4.0695 -8.0739 2.1335
4.3571 -7.9232 2.1335
4.6391 -7.7623 2.1335
4.9153 -7.5915 2.1335
5.1852 -7.4108 2.1335
5.4484 -7.2206 2.1335
5.7047 -7.0210 2.1335
5.9538 -6.8124 2.1335
6.1952 -6.5950 2.1335
5.6973 -5.6444 1.8908
6.6540 -6.1349 2.1335
5.6615 -4.8556 1.7580
5.7002 -4.5439 1.7180
7.2890 -5.3942 2.1368
7.4790 -5.1297 2.1368
2.0161 -1.2789 0.5625
2.0995 -1.2284 0.5729
7.9905 -4.2977 2.1368
8.1409 -4.0086 2.1368
5.6873 -2.5510 1.4676
8.4100 -3.4152 2.1368
8.5285 -3.1116 2.1368
8.6361 -2.8038 2.1368
8.7325 -2.4924 2.1368
8.8178 -2.1777 2.1368
8.8917 -1.8600 2.1368
8.9542 -1.5399 2.1368
9.0051 -1.2176 2.1368
9.0445 -0.8937 2.1368
9.0723 -0.5686 2.1368
9.0883 -0.2426 2.1368
9.0927 0.0838 2.1368
9.0853 0.4102 2.1368
9.0662 0.7362 2.1368
9.0354 1.0613 2.1368
8.9929 1.3852 2.1368
8.9388 1.7073 2.1368
8.8732 2.0274 2.1368
8.7961 2.3450 2.1368
8.7077 2.6596 2.1368
8.6079 2.9709 2.1368
8.4970 3.2785 2.1368
8.3751 3.5819 2.1368
8.2424 3.8807 2.1368
8.0990 4.1747 2.1368
7.9450 4.4633 2.1368
7.7808 4.7463 2.1368
7.6065 5.0232 2.1368
7.4223 5.2936 2.1368
7.2285 5.5573 2.1368
5.6979 4.7154 1.7331
5.6899 5.0636 1.7846
6.5917 6.3044 2.1368
6.3619 6.5377 2.1368
6.1238 6.7625 2.1368
5.8778 6.9787 2.1368
5.6260 7.1883 2.1375
5.3554 7.3731 2.1337
5.0878 7.5612 2.1337
4.8135 7.7396 2.1337
4.5330 7.9080 2.1337
4.2466 8.0662 2.1337
3.9547 8.2140 2.1337
3.6576 8.3512 2.1337
3.3557 8.4776 2.1337
3.0495 8.5930 2.1337
2.7392 8.6974 2.1337
2.4255 8.7905 2.1337
2.1085 8.8722 2.1337
1.7888 8.9424 2.1337
1.5376 9.4360 2.2368
1.1980 9.4853 2.2368
0.8569 9.5223 2.2368
0.5146 9.5470 2.2368
0.1716 9.5593 2.2368
-0.1715 9.5593 2.2368
-0.5145 9.5469 2.2368
-0.8567 9.5221 2.2368
-1.1979 9.4850 2.2368
-1.5375 9.4357 2.2368
-1.8751 9.3741 2.2368
-2.2102 9.3004 2.2368
-2.5424 9.2147 2.2368
-2.8713 9.1171 2.2368
-3.1965 9.0077 2.2368
-3.5175 8.8866 2.2368
-3.8339 8.7541 2.2368
-4.1453 8.6102 2.2368
-4.4513 8.4552 2.2368
-4.7515 8.2894 2.2368
-5.0455 8.1128 2.2368
-5.3329 7.9258 2.2368
-5.6134 7.7285 2.2368
-5.8865 7.5213 2.2368
-6.1520 7.3044 2.2368
-6.4095 7.0781 2.2368
-6.4465 6.6247 2.1655
-6.5812 6.2944 2.1337
-6.8020 6.0534 2.1337
-7.0139 5.8046 2.1337
-7.2168 5.5484 2.1337
-7.4102 5.2851 2.1337
-7.5941 5.0150 2.1336
-7.7681 4.7385 2.1336
-7.9320 4.4560 2.1336
-8.0856 4.1678 2.1336
-8.2287 3.8743 2.1336
-8.3612 3.5759 2.1336
-8.4829 3.2730 2.1336
-8.5935 2.9660 2.1336
-8.6931 2.6552 2.1336
-8.7814 2.3411 2.1336
-8.8583 2.0240 2.1336
-8.9238 1.7045 2.1336
-6.7169 1.0346 1.5963
-9.0201 1.0595 2.1336
-9.0509 0.7349 2.1336
-9.0699 0.4095 2.1336
-9.0773 0.0836 2.1336
-9.0729 -0.2422 2.1336
-9.0569 -0.5676 2.1336
-9.0293 -0.8923 2.1336
-8.9900 -1.2156 2.1336
-8.9391 -1.5373 2.1336
-8.8767 -1.8569 2.1336
-8.8030 -2.1740 2.1336
-8.7179 -2.4883 2.1336
-8.6216 -2.7992 2.1336
-8.5143 -3.1064 2.1336
-8.3961 -3.4096 2.1336
-8.2670 -3.7082 2.1336
-8.1274 -4.0021 2.1336
-7.9774 -4.2907 2.1336
-7.8171 -4.5737 2.1336
-7.6469 -4.8507 2.1337
-7.4668 -5.1215 2.1337
-7.2772 -5.3855 2.1337
-7.0908 -5.6526 2.1375
-7.0012 -6.0047 2.1743
-6.9750 -6.4309 2.2368
-6.7389 -6.6764 2.2368
-6.4941 -6.9133 2.2368
-6.2410 -7.1412 2.2368
-5.9800 -7.3599 2.2368
-5.7113 -7.5691 2.2368
-5.4354 -7.7686 2.2368
-5.1525 -7.9580 2.2368
-4.8631 -8.1372 2.2368
-4.5674 -8.3059 2.2368
-4.2659 -8.4640 2.2368
-3.9590 -8.6111 2.2368
-3.6471 -8.7471 2.2368
-3.3305 -8.8719 2.2368
-3.0096 -8.9853 2.2368
-2.6850 -9.0872 2.2368
-2.3569 -9.1774 2.2368
-2.0258 -9.2557 2.2368
-1.6921 -9.3222 2.2368
-1.3563 -9.3768 2.2368
-1.0187 -9.4193 2.2368
-0.6798 -9.4497 2.2368
-0.3401 -9.4679 2.2368
0.0001 -8.6029 2.2368
0.3089 -8.5974 2.2368
0.6175 -8.5809 2.2368
0.9252 -8.5533 2.2368
1.2317 -8.5148 2.2368
1.5367 -8.4653 2.2368
1.8397 -8.4049 2.2368
2.1404 -8.3338 2.2368
2.4383 -8.2519 2.2368
2.7332 -8.1594 2.2368
3.0245 -8.0565 2.2368
3.1592 -7.5765 2.1335
3.4294 -7.4586 2.1335
3.6952 -7.3312 2.1335
3.9563 -7.1943 2.1335
4.2124 -7.0481 2.1335
4.4631 -6.8929 2.1335
4.7081 -6.7288 2.1335
4.9471 -6.5560 2.1335
5.1798 -6.3748 2.1335
5.4059 -6.1853 2.1335
5.6251 -5.9879 2.1335
5.8370 -5.7827 2.1335
6.0416 -5.5700 2.1335
6.2383 -5.3501 2.1335
6.4370 -5.1311 2.1368
6.6178 -4.8973 2.1368
5.6763 -3.8931 1.7862
2.0161 -1.2789 0.6195
2.1007 -1.2290 0.6314
7.2544 -3.9016 2.1368
7.3908 -3.6391 2.1368
5.6873 -2.5509 1.6165
7.6350 -3.1003 2.1368
7.7424 -2.8246 2.1368
7.8400 -2.5452 2.1368
7.9274 -2.2624 2.1368
8.0047 -1.9767 2.1368
8.0717 -1.6883 2.1368
8.1283 -1.3976 2.1368
8.1744 -1.1051 2.1368
8.2101 -0.8111 2.1368
8.2352 -0.5159 2.1368
8.2496 -0.2200 2.1368
8.2534 0.0763 2.1368
8.2466 0.3725 2.1368
8.2292 0.6684 2.1368
8.2011 0.9635 2.1368
8.1624 1.2575 2.1368
8.1132 1.5499 2.1368
8.0535 1.8403 2.1368
7.9835 2.1285 2.1368
7.9031 2.4141 2.1368
7.8124 2.6966 2.1368
7.7117 2.9756 2.1368
7.6010 3.2510 2.1368
7.4804 3.5222 2.1368
7.3501 3.7889 2.1368
7.2104 4.0508 2.1368
5.7076 3.4817 1.7271
5.6883 3.7566 1.7608
5.7350 4.0904 1.8193
6.5597 5.0434 2.1368
6.3752 5.2762 2.1368
6.1825 5.5022 2.1368
5.9817 5.7212 2.1368
5.7731 5.9328 2.1368
5.5485 6.1274 2.1335
5.3256 6.3232 2.1335
5.0957 6.5109 2.1335
4.8592 6.6902 2.1335
4.6167 6.8613 2.1337
4.3678 7.0232 2.1337
4.1132 7.1759 2.1337
3.8533 7.3194 2.1337
3.5884 7.4535 2.1337
3.3188 7.5779 2.1337
3.0449 7.6926 2.1337
2.7670 7.7973 2.1337
2.4855 7.8919 2.1337
2.2008 7.9763 2.1337
1.9132 8.0504 2.1337
1.6231 8.1142 2.1337
1.3952 8.5620 2.2368
1.0870 8.6067 2.2368
0.7775 8.6403 2.2368
0.4669 8.6627 2.2368
0.1557 8.6739 2.2368
-0.1556 8.6738 2.2368
-0.4668 8.6626 2.2368
-0.7774 8.6401 2.2368
-1.0869 8.6065 2.2368
-1.3951 8.5617 2.2368
-1.7014 8.5059 2.2368
-2.0054 8.4391 2.2368
-2.3069 8.3613 2.2368
-2.6054 8.2728 2.2368
-2.9004 8.1735 2.2368
-3.1917 8.0637 2.2368
-3.4788 7.9435 2.2368
-3.7614 7.8130 2.2368
-4.0391 7.6725 2.2368
-4.3115 7.5220 2.2368
-4.5783 7.3618 2.2368
-4.8392 7.1922 2.2368
-5.0937 7.0132 2.2368
-5.3416 6.8253 2.2368
-5.5826 6.6285 2.2368
-5.8163 6.4232 2.2368
-6.0424 6.2097 2.2368
-6.2607 5.9882 2.2368
-6.4412 5.7326 2.2265
-6.4475 5.3360 2.1613
-6.5493 5.0354 2.1337
-6.7250 4.7965 2.1337
-6.8919 4.5515 2.1337
-7.0499 4.3006 2.1337
-7.1987 4.0443 2.1337
-7.3382 3.7828 2.1337
-7.4682 3.5165 2.1337
-7.5886 3.2457 2.1336
-7.6991 2.9708 2.1336
-7.7996 2.6922 2.1336
-7.8901 2.4101 2.1336
-7.9703 2.1250 2.1336
-8.0403 1.8373 2.1336
-8.0998 1.5473 2.1336
-6.7101 1.0337 1.7569
-8.1875 0.9619 2.1336
-8.2155 0.6673 2.1336
-8.2329 0.3719 2.1336
-8.2397 0.0761 2.1336
-8.2359 -0.2197 2.1336
-8.2215 -0.5151 2.1336
-8.1965 -0.8098 2.1336
-8.1609 -1.1033 2.1336
-8.1149 -1.3954 2.1336
-8.0584 -1.6855 2.1336
-7.9915 -1.9734 2.1336
-7.9144 -2.2587 2.1336
-7.8271 -2.5410 2.1336
-7.7298 -2.8200 2.1336
-7.6225 -3.0953 2.1336
-7.5055 -3.3664 2.1337
-7.3788 -3.6332 2.1337
-7.2427 -3.8953 2.1337
-7.0973 -4.1523 2.1337
-6.9428 -4.4039 2.1337
-6.7794 -4.6497 2.1337
-6.6331 -4.9086 2.1420
-6.7372 -5.3705 2.2368
-6.5393 -5.6083 2.2368
-6.3331 -5.8388 2.2368
-6.1187 -6.0618 2.2368
-5.8965 -6.2769 2.2368
-5.6668 -6.4840 2.2368
-5.4298 -6.6826 2.2368
-5.1859 -6.8726 2.2368
-4.9354 -7.0538 2.2368
-4.6786 -7.2259 2.2368
-4.4158 -7.3886 2.2368
-4.1474 -7.5419 2.2368
-3.8736 -7.6854 2.2368
-3.5950 -7.8190 2.2368
-3.3117 -7.9426 2.2368
-3.0243 -8.0560 2.2368
-2.7329 -8.1590 2.2368
-2.4381 -8.2515 2.2368
-2.1402 -8.3334 2.2368
-1.8395 -8.4046 2.2368
-1.5365 -8.4650 2.2368
-1.2316 -8.5146 2.2368
-0.9250 -8.5532 2.2368
-0.6173 -8.5808 2.2368
-0.3088 -8.5974 2.2368
0.0001 -7.8707 2.2368
0.2827 -7.8657 2.2368
0.5649 -7.8505 2.2368
0.8464 -7.8253 2.2368
1.1269 -7.7900 2.2368
1.4059 -7.7447 2.2368
1.6832 -7.6895 2.2368
1.9582 -7.6243 2.2368
2.2308 -7.5494 2.2368
2.5006 -7.4648 2.2368
2.7671 -7.3706 2.2368
2.8903 -6.9314 2.1335
3.1375 -6.8236 2.1335
3.3806 -6.7069 2.1335
3.6195 -6.5817 2.1335
3.8538 -6.4479 2.1335
4.0831 -6.3059 2.1335
4.3073 -6.1557 2.1335
4.5259 -5.9976 2.1335
4.7387 -5.8317 2.1335
4.9455 -5.6583 2.1335
5.1459 -5.4777 2.1335
5.3398 -5.2899 2.1335
5.5269 -5.0953 2.1335
5.7068 -4.8941 2.1335
5.8795 -4.6866 2.1335
6.0539 -4.4798 2.1368
6.2115 -4.2600 2.1368
2.0161 -1.2788 0.6772
2.1018 -1.2297 0.6907
6.6359 -3.5687 2.1368
5.7073 -2.8100 1.8039
5.6873 -2.5508 1.7672
5.6908 -2.3107 1.7412
5.7140 -2.0844 1.7240
5.7380 -1.8626 1.7097
7.2511 -2.0692 2.1368
7.3217 -1.8078 2.1368
7.3829 -1.5440 2.1368
7.4345 -1.2782 2.1368
7.4767 -1.0106 2.1368
7.5092 -0.7417 2.1368
7.5320 -0.4717 2.1368
7.5451 -0.2010 2.1368
7.5485 0.0699 2.1368
7.5422 0.3409 2.1368
7.5262 0.6115 2.1368
7.5004 0.8814 2.1368
7.4649 1.1502 2.1368
7.4199 1.4176 2.1368
7.3652 1.6832 2.1368
5.7362 1.5295 1.6788
7.2274 2.2079 2.1368
5.7297 1.9778 1.7137
5.7051 2.2015 1.7286
5.6895 2.4336 1.7490
5.6891 2.6789 1.7771
6.7214 3.4650 2.1368
6.5935 3.7044 2.1368
6.4571 3.9391 2.1368
6.3123 4.1688 2.1368
6.1593 4.3932 2.1368
5.9983 4.6119 2.1368
5.8295 4.8248 2.1368
5.6532 5.0314 2.1368
5.4612 5.2236 2.1335
5.2708 5.4167 2.1335
5.0734 5.6029 2.1335
4.8695 5.7819 2.1335
4.6593 5.9535 2.1335
4.4430 6.1173 2.1335
4.2209 6.2733 2.1335
3.9934 6.4212 2.1335
3.7606 6.5609 2.1335
3.5229 6.6920 2.1335
3.2807 6.8146 2.1335
3.0345 6.9288 2.1337
2.7840 7.0336 2.1337
2.5299 7.1293 2.1337
2.2725 7.2158 2.1337
2.0122 7.2930 2.1337
1.7492 7.3607 2.1337
1.5557 7.7774 2.2368
1.2756 7.8284 2.2368
0.9939 7.8693 2.2368
0.7109 7.9000 2.2368
0.4269 7.9204 2.2368
0.1424 7.9307 2.2368
-0.1423 7.9306 2.2368
-0.4268 7.9204 2.2368
-0.7107 7.8998 2.2368
-0.9938 7.8691 2.2368
-1.2755 7.8282 2.2368
-1.5555 7.7772 2.2368
-1.8336 7.7161 2.2368
-2.1092 7.6450 2.2368
-2.3821 7.5641 2.2368
-2.6519 7.4734 2.2368
-2.9182 7.3730 2.2368
-3.1808 7.2631 2.2368
-3.4392 7.1439 2.2368
-3.6931 7.0154 2.2368
-3.9422 6.8779 2.2368
-4.1862 6.7314 2.2368
-4.4247 6.5764 2.2368
-4.6575 6.4128 2.2368
-4.8842 6.2410 2.2368
-5.1046 6.0611 2.2368
-5.3183 5.8735 2.2368
-5.5251 5.6783 2.2368
-5.7248 5.4758 2.2368
-5.9170 5.2662 2.2368
-6.1015 5.0499 2.2368
-6.2782 4.8272 2.2368
-6.4410 4.5942 2.2348
-6.4429 4.2552 2.1813
-6.4534 3.9369 2.1359
-6.5830 3.6986 2.1337
-6.7107 3.4595 2.1337
-6.8296 3.2160 2.1337
-6.9397 2.9684 2.1337
-7.0409 2.7170 2.1337
-7.1329 2.4622 2.1337
-7.2157 2.2043 2.1337
-7.2892 1.9436 2.1337
-7.3533 1.6805 2.1337
-7.4078 1.4153 2.1337
-6.7032 1.0328 1.9190
-7.4882 0.8799 2.1337
-7.5139 0.6105 2.1336
-7.5299 0.3403 2.1336
-7.5362 0.0698 2.1336
-7.5328 -0.2007 2.1336
-7.5197 -0.4709 2.1336
-7.4969 -0.7405 2.1337
-7.4645 -1.0090 2.1337
-7.4225 -1.2761 2.1337
-7.3709 -1.5415 2.1337
-7.3098 -1.8049 2.1337
-7.2393 -2.0659 2.1337
-7.1596 -2.3241 2.1337
-7.0706 -2.5793 2.1337
-6.9726 -2.8312 2.1337
-6.8656 -3.0793 2.1337
-6.7498 -3.3233 2.1337
-6.6253 -3.5631 2.1337
-6.4980 -3.8015 2.1355
-6.4956 -4.1200 2.1822
-6.5013 -4.4588 2.2368
-6.3363 -4.6888 2.2368
-6.1632 -4.9128 2.2368
-5.9822 -5.1303 2.2368
-5.7936 -5.3413 2.2368
-5.5975 -5.5453 2.2368
-5.3943 -5.7421 2.2368
-5.1842 -5.9316 2.2368
-4.9674 -6.1134 2.2368
-4.7443 -6.2872 2.2368
-4.5152 -6.4530 2.2368
-4.2803 -6.6105 2.2368
-4.0399 -6.7594 2.2368
-3.7943 -6.8997 2.2368
-3.5439 -7.0310 2.2368
-3.2890 -7.1533 2.2368
-3.0299 -7.2664 2.2368
-2.7669 -7.3701 2.2368
-2.5003 -7.4644 2.2368
-2.2306 -7.5491 2.2368
-1.9581 -7.6241 2.2368
-1.6830 -7.6892 2.2368
-1.4058 -7.7445 2.2368
-1.1268 -7.7898 2.2368
-0.8463 -7.8252 2.2368
-0.5648 -7.8504 2.2368
-0.2826 -7.8656 2.2368
0.0001 -7.2460 2.2368
0.2602 -7.2414 2.2368
0.5201 -7.2274 2.2368
0.7793 -7.2042 2.2368
1.0375 -7.1717 2.2368
1.2944 -7.1300 2.2368
1.5496 -7.0791 2.2368
1.8029 -7.0191 2.2368
2.0538 -6.9501 2.2368
2.3021 -6.8722 2.2368
2.4299 -6.4722 2.1335
2.6609 -6.3811 2.1335
2.8884 -6.2818 2.1335
3.1123 -6.1744 2.1335
3.3322 -6.0590 2.1335
3.5479 -5.9359 2.1335
3.7590 -5.8051 2.1335
3.9653 -5.6668 2.1335
4.1665 -5.5212 2.1335
4.3624 -5.3685 2.1335
4.5527 -5.2088 2.1335
4.7373 -5.0424 2.1335
4.9157 -4.8696 2.1335
5.0878 -4.6904 2.1335
5.2535 -4.5051 2.1335
5.4124 -4.3140 2.1335
5.5644 -4.1174 2.1335
5.7179 -3.9213 2.1368
2.0161 -1.2787 0.7357
5.9859 -3.5017 2.1368
6.1084 -3.2849 2.1368
6.2232 -3.0638 2.1368
5.6874 -2.5506 1.9199
6.4285 -2.6100 2.1368
6.5189 -2.3778 2.1368
6.6008 -2.1426 2.1368
6.6743 -1.9044 2.1368
5.7374 -1.4165 1.8191
5.6931 -1.1905 1.7901
5.6918 -0.9784 1.7773
5.6907 -0.7691 1.7670
5.6910 -0.5619 1.7594
5.6913 -0.3563 1.7542
5.6913 -0.1515 1.7512
5.6911 0.0529 1.7503
5.6907 0.2574 1.7517
5.6901 0.4624 1.7553
5.6892 0.6687 1.7611
5.6891 0.8767 1.7694
5.6900 1.0872 1.7804
5.6966 1.3020 1.7958
5.7360 1.5296 1.8241
6.6515 2.0321 2.1368
6.5751 2.2698 2.1368
6.4901 2.5046 2.1368
6.3968 2.7363 2.1368
6.2952 2.9645 2.1368
6.1855 3.1889 2.1368
6.0677 3.4092 2.1368
5.9421 3.6252 2.1368
5.8088 3.8365 2.1368
5.6680 4.0429 2.1368
5.5114 4.2377 2.1335
5.3563 4.4333 2.1335
5.1942 4.6231 2.1335
5.0255 4.8070 2.1335
4.8501 4.9847 2.1335
4.6685 5.1560 2.1335
4.4809 5.3206 2.1335
4.2874 5.4785 2.1335
4.0883 5.6292 2.1335
3.8840 5.7727 2.1335
3.6745 5.9088 2.1335
3.4604 6.0372 2.1335
3.2417 6.1579 2.1335
3.0188 6.2706 2.1335
2.7919 6.3752 2.1335
2.5615 6.4716 2.1335
2.3277 6.5597 2.1335
2.0909 6.6392 2.1335
1.8513 6.7102 2.1335
1.6146 6.7946 2.1405
1.4314 7.1564 2.2368
1.1737 7.2033 2.2368
0.9145 7.2409 2.2368
0.6541 7.2692 2.2368
0.3928 7.2880 2.2368
0.1310 7.2974 2.2368
-0.1309 7.2974 2.2368
-0.3927 7.2880 2.2368
-0.6540 7.2691 2.2368
-0.9144 7.2408 2.2368
-1.1736 7.2032 2.2368
-1.4313 7.1562 2.2368
-1.6871 7.1000 2.2368
-1.9408 7.0347 2.2368
-2.1919 6.9602 2.2368
-2.4401 6.8768 2.2368
-2.6852 6.7845 2.2368
-2.9268 6.6834 2.2368
-3.1646 6.5737 2.2368
-3.3982 6.4555 2.2368
-3.6275 6.3289 2.2368
-3.8520 6.1943 2.2368
-4.0715 6.0516 2.2368
-4.2857 5.9011 2.2368
-4.4944 5.7431 2.2368
-4.6972 5.5776 2.2368
-4.8939 5.4050 2.2368
-5.0843 5.2254 2.2368
-5.2680 5.0391 2.2368
-5.4449 4.8463 2.2368
-5.6148 4.6473 2.2368
-5.7774 4.4423 2.2368
-5.9325 4.2317 2.2368
-6.0798 4.0156 2.2368
-6.2194 3.7944 2.2368
-6.3508 3.5683 2.2368
-6.4413 3.3208 2.2254
-6.4422 3.0337 2.1870
-6.4491 2.7587 2.1546
-6.4798 2.5007 2.1337
-6.5646 2.2662 2.1337
-6.6408 2.0289 2.1337
-6.7085 1.7890 2.1337
-6.7676 1.5468 2.1337
-6.8178 1.3028 2.1337
-6.6962 1.0319 2.0829
-6.8920 0.8101 2.1337
-6.9157 0.5621 2.1337
-6.9305 0.3134 2.1337
-6.9364 0.0644 2.1337
-6.9333 -0.1846 2.1337
-6.9213 -0.4333 2.1337
-6.9005 -0.6814 2.1337
-6.8707 -0.9285 2.1337
-6.8320 -1.1744 2.1337
-6.7846 -1.4188 2.1337
-6.7285 -1.6612 2.1337
-6.6637 -1.9014 2.1337
-6.5903 -2.1392 2.1337
-6.5085 -2.3741 2.1337
-6.4702 -2.6270 2.1510
-6.4634 -2.8987 2.1822
-6.4660 -3.1834 2.2205
-6.3934 -3.4382 2.2368
-6.2652 -3.6651 2.2368
-6.1289 -3.8873 2.2368
-5.9847 -4.1044 2.2368
-5.8329 -4.3161 2.2368
-5.6736 -4.5223 2.2368
-5.5070 -4.7226 2.2368
-5.3334 -4.9168 2.2368
-5.1530 -5.1047 2.2368
-4.9659 -5.2860 2.2368
-4.7725 -5.4604 2.2368
-4.5730 -5.6278 2.2368
-4.3677 -5.7879 2.2368
-4.1567 -5.9405 2.2368
-3.9405 -6.0855 2.2368
-3.7192 -6.2227 2.2368
-3.4931 -6.3518 2.2368
-3.2626 -6.4728 2.2368
-3.0279 -6.5854 2.2368
-2.7894 -6.6895 2.2368
-2.5473 -6.7851 2.2368
-2.3019 -6.8719 2.2368
-2.0536 -6.9499 2.2368
-1.8027 -7.0189 2.2368
-1.5495 -7.0789 2.2368
-1.2942 -7.1298 2.2368
-1.0374 -7.1716 2.2368
-0.7792 -7.2041 2.2368
-0.5200 -7.2274 2.2368
-0.2601 -7.2413 2.2368
0.0000 -6.7063 2.2368
0.2409 -6.7020 2.2368
0.4814 -6.6891 2.2368
0.7213 -6.6676 2.2368
0.9602 -6.6375 2.2368
1.1980 -6.5989 2.2368
1.4342 -6.5518 2.2368
1.6686 -6.4963 2.2368
1.9008 -6.4324 2.2368
2.1307 -6.3602 2.2368
2.2490 -5.9900 2.1335
2.4627 -5.9057 2.1335
2.6733 -5.8137 2.1335
2.8805 -5.7143 2.1335
3.0840 -5.6075 2.1335
3.2836 -5.4935 2.1335
3.4789 -5.3724 2.1335
3.6698 -5.2444 2.1335
3.8561 -5.1096 2.1335
4.0374 -4.9683 2.1335
4.2135 -4.8205 2.1335
4.3842 -4.6665 2.1335
4.5493 -4.5064 2.1335
4.7086 -4.3406 2.1335
4.8619 -4.1691 2.1335
5.0089 -3.9923 2.1335
5.1495 -3.8102 2.1335
5.2835 -3.6233 2.1335
2.0161 -1.2787 0.7950
5.5311 -3.2354 2.1335
5.6529 -3.0397 2.1368
5.7590 -2.8351 2.1368
5.8577 -2.6268 2.1368
5.9489 -2.4151 2.1368
6.0324 -2.2003 2.1368
6.1083 -1.9825 2.1368
6.1762 -1.7622 2.1368
6.2362 -1.5395 2.1368
6.2882 -1.3148 2.1368
6.3321 -1.0883 2.1368
6.3679 -0.8604 2.1368
6.3954 -0.6313 2.1368
6.4148 -0.4014 2.1368
6.4258 -0.1709 2.1368
6.4286 0.0599 2.1368
6.4231 0.2906 2.1368
6.4093 0.5211 2.1368
6.3872 0.7509 2.1368
6.3569 0.9798 2.1368
6.3184 1.2075 2.1368
6.2718 1.4337 2.1368
6.2170 1.6581 2.1368
6.1542 1.8803 2.1368
6.0834 2.1003 2.1368
6.0048 2.3175 2.1368
5.9185 2.5318 2.1368
5.8244 2.7429 2.1368
5.7228 2.9505 2.1368
5.6053 3.1495 2.1335
5.4892 3.3490 2.1335
5.3660 3.5442 2.1335
5.2359 3.7349 2.1335
5.0990 3.9208 2.1335
4.9555 4.1016 2.1335
4.8055 4.2772 2.1335
4.6493 4.4473 2.1335
4.4871 4.6117 2.1335
4.3190 4.7701 2.1335
4.1454 4.9225 2.1335
3.9664 5.0684 2.1335
3.7822 5.2079 2.1335
3.5931 5.3406 2.1335
3.3994 5.4665 2.1335
3.2012 5.5853 2.1335
2.9989 5.6969 2.1335
2.7927 5.8011 2.1335
2.5828 5.8979 2.1335
2.3696 5.9870 2.1335
2.1533 6.0685 2.1335
1.9343 6.1421 2.1335
1.7127 6.2077 2.1335
1.5609 6.5685 2.2368
1.3242 6.6205 2.2368
1.0858 6.6639 2.2368
0.8460 6.6986 2.2368
0.6051 6.7247 2.2368
0.3634 6.7422 2.2368
0.1212 6.7509 2.2368
-0.1211 6.7509 2.2368
-0.3633 6.7421 2.2368
-0.6050 6.7247 2.2368
-0.8459 6.6985 2.2368
-1.0857 6.6637 2.2368
-1.3241 6.6203 2.2368
-1.5607 6.5683 2.2368
-1.7954 6.5079 2.2368
-2.0277 6.4390 2.2368
-2.2573 6.3619 2.2368
-2.4841 6.2765 2.2368
-2.7076 6.1830 2.2368
-2.9276 6.0815 2.2368
-3.1437 5.9722 2.2368
-3.3558 5.8552 2.2368
-3.5635 5.7306 2.2368
-3.7666 5.5987 2.2368
-3.9649 5.4595 2.2368
-4.1579 5.3133 2.2368
-4.3456 5.1602 2.2368
-4.5276 5.0006 2.2368
-4.7037 4.8344 2.2368
-4.8737 4.6621 2.2368
-5.0375 4.4838 2.2368
-5.1946 4.2997 2.2368
-5.3451 4.1101 2.2368
-5.4886 3.9152 2.2368
-5.6250 3.7153 2.2368
-5.7541 3.5107 2.2368
-5.8758 3.3016 2.2368
-5.9898 3.0882 2.2368
-6.0962 2.8709 2.2368
-6.1946 2.6500 2.2368
-6.2850 2.4257 2.2368
-6.3673 2.1983 2.2368
-6.4413 1.9681 2.2368
-6.4427 1.7183 2.2147
-6.4435 1.4729 2.1956
-6.4450 1.2317 2.1799
-6.4480 0.9938 2.1677
-6.4505 0.7583 2.1582
-6.4523 0.5246 2.1514
-6.4536 0.2920 2.1472
-6.4542 0.0601 2.1456
-6.4543 -0.1717 2.1465
-6.4537 -0.4039 2.1501
-6.4526 -0.6370 2.1562
-6.4508 -0.8716 2.1649
-6.4484 -1.1083 2.1763
-6.4468 -1.3480 2.1910
-6.4466 -1.5914 2.2092
-6.4464 -1.8393 2.2305
-6.3932 -2.0750 2.2368
-6.3139 -2.3030 2.2368
-6.2264 -2.5279 2.2368
-6.1310 -2.7495 2.2368
-6.0277 -2.9675 2.2368
-5.9166 -3.1816 2.2368
-5.7980 -3.3916 2.2368
-5.6719 -3.5973 2.2368
-5.5385 -3.7982 2.2368
-5.3980 -3.9942 2.2368
-5.2507 -4.1850 2.2368
-5.0965 -4.3705 2.2368
-4.9359 -4.5502 2.2368
-4.7690 -4.7241 2.2368
-4.5959 -4.8919 2.2368
-4.4169 -5.0533 2.2368
-4.2323 -5.2083 2.2368
-4.0423 -5.3565 2.2368
-3.8471 -5.4978 2.2368
-3.6469 -5.6320 2.2368
-3.4421 -5.7590 2.2368
-3.2329 -5.8785 2.2368
-3.0196 -5.9905 2.2368
-2.8024 -6.0947 2.2368
-2.5816 -6.1912 2.2368
-2.3576 -6.2796 2.2368
-2.1305 -6.3600 2.2368
-1.9007 -6.4321 2.2368
-1.6684 -6.4960 2.2368
-1.4341 -6.5516 2.2368
-1.1979 -6.5987 2.2368
-0.9601 -6.6374 2.2368
-0.7211 -6.6675 2.2368
-0.4813 -6.6890 2.2368
-0.2408 -6.7020 2.2368
0.0000 -6.2349 2.2368
0.2239 -6.2309 2.2368
0.4475 -6.2188 2.2368
0.6706 -6.1989 2.2368
0.8928 -6.1709 2.2368
1.1138 -6.1350 2.2368
1.3334 -6.0912 2.2368
1.5513 -6.0395 2.2368
1.7673 -5.9801 2.2368
1.9809 -5.9130 2.2368
2.0909 -5.5688 2.1335
2.2896 -5.4904 2.1335
2.4854 -5.4049 2.1335
2.6780 -5.3125 2.1335
2.8672 -5.2132 2.1335
3.0527 -5.1071 2.1335
3.2343 -4.9945 2.1335
3.4118 -4.8755 2.1335
3.5849 -4.7502 2.1335
3.7535 -4.6188 2.1335
3.9172 -4.4813 2.1335
4.0759 -4.3381 2.1335
4.2294 -4.1893 2.1335
4.3774 -4.0351 2.1335
4.5199 -3.8757 2.1335
4.6565 -3.7112 2.1335
4.7872 -3.5420 2.1335
4.9118 -3.3682 2.1335
2.0161 -1.2786 0.8552
5.1418 -3.0076 2.1335
5.2470 -2.8213 2.1335
5.3455 -2.6314 2.1335
5.4371 -2.4381 2.1335
5.5217 -2.2415 2.1335
5.5992 -2.0421 2.1335
5.6781 -1.8428 2.1368
5.7413 -1.6379 2.1368
5.7970 -1.4309 2.1368
5.8453 -1.2220 2.1368
5.8861 -1.0115 2.1368
5.9193 -0.7996 2.1368
5.9448 -0.5867 2.1368
5.9628 -0.3730 2.1368
5.9730 -0.1587 2.1368
5.9755 0.0558 2.1368
5.9704 0.2703 2.1368
5.9575 0.4845 2.1368
5.9369 0.6981 2.1368
5.9087 0.9109 2.1368
5.8729 1.1225 2.1368
5.8295 1.3327 2.1368
5.7785 1.5413 2.1368
5.7201 1.7479 2.1368
5.6543 1.9523 2.1368
5.5727 2.1509 2.1335
5.4925 2.3498 2.1335
5.4052 2.5456 2.1335
5.3109 2.7383 2.1335
5.2097 2.9274 2.1335
5.1018 3.1128 2.1335
4.9873 3.2942 2.1335
4.8663 3.4714 2.1335
4.7390 3.6441 2.1335
4.6056 3.8122 2.1335
4.4662 3.9754 2.1335
4.3210 4.1334 2.1335
4.1702 4.2862 2.1335
4.0140 4.4334 2.1335
3.8526 4.5749 2.1335
3.6862 4.7106 2.1335
3.5150 4.8402 2.1335
3.3393 4.9635 2.1335
3.1592 5.0804 2.1335
2.9751 5.1908 2.1335
2.7870 5.2945 2.1335
2.5954 5.3914 2.1335
0.8579 1.9590 0.7625
2.2022 5.5641 2.1335
2.0012 5.6398 2.1335
1.8125 5.7556 2.1513
1.6101 5.8361 2.1583
1.4506 6.1045 2.2368
1.2306 6.1528 2.2368
1.0091 6.1931 2.2368
0.7862 6.2254 2.2368
0.5623 6.2496 2.2368
0.3377 6.2658 2.2368
0.1127 6.2739 2.2368
-0.1125 6.2739 2.2368
-0.3376 6.2658 2.2368
-0.5622 6.2496 2.2368
-0.7861 6.2253 2.2368
-1.0090 6.1930 2.2368
-1.2305 6.1526 2.2368
-1.4505 6.1043 2.2368
-1.6685 6.0482 2.2368
-1.8844 5.9842 2.2368
-2.0978 5.9125 2.2368
-2.3086 5.8332 2.2368
-0.8578 1.9590 0.7625
-0.9276 1.9269 0.7626
-2.9216 5.5504 2.2368
-3.1187 5.4417 2.2368
-3.3118 5.3260 2.2368
-3.5006 5.2033 2.2368
-3.6848 5.0740 2.2368
-3.8642 4.9382 2.2368
-4.0386 4.7960 2.2368
-4.2078 4.6476 2.2368
-4.3716 4.4932 2.2368
-4.5296 4.3331 2.2368
-4.6818 4.1674 2.2368
-4.8279 3.9963 2.2368
-4.9678 3.8201 2.2368
-5.1012 3.6390 2.2368
-5.2280 3.4533 2.2368
-5.3480 3.2631 2.2368
-5.4612 3.0687 2.2368
-5.5672 2.8705 2.2368
-5.6660 2.6685 2.2368
-5.7576 2.4632 2.2368
-5.8416 2.2547 2.2368
-5.9182 2.0434 2.2368
-5.9870 1.8294 2.2368
-6.0482 1.6132 2.2368
-6.1015 1.3949 2.2368
-6.1469 1.1749 2.2368
-6.1844 0.9534 2.2368
-6.2139 0.7307 2.2368
-6.2354 0.5071 2.2368
-6.2489 0.2829 2.2368
-6.2543 0.0584 2.2368
-6.2517 -0.1661 2.2368
-6.2410 -0.3904 2.2368
-6.2222 -0.6141 2.2368
-6.1955 -0.8370 2.2368
-6.1607 -1.0587 2.2368
-6.1181 -1.2790 2.2368
-6.0675 -1.4977 2.2368
-6.0092 -1.7144 2.2368
-5.9431 -1.9288 2.2368
-5.8694 -2.1407 2.2368
-5.7881 -2.3498 2.2368
-5.6994 -2.5558 2.2368
-5.6035 -2.7585 2.2368
-5.5002 -2.9576 2.2368
-5.3900 -3.1528 2.2368
-5.2728 -3.3440 2.2368
-5.1488 -3.5308 2.2368
-5.0183 -3.7130 2.2368
-4.8813 -3.8905 2.2368
-4.7380 -4.0629 2.2368
-4.5887 -4.2300 2.2368
-4.4335 -4.3917 2.2368
-4.2727 -4.5477 2.2368
-4.1063 -4.6978 2.2368
-3.9347 -4.8419 2.2368
-3.7580 -4.9797 2.2368
-3.5766 -5.1111 2.2368
-3.3905 -5.2359 2.2368
-3.2001 -5.3540 2.2368
-3.0057 -5.4651 2.2368
-2.8074 -5.5692 2.2368
-2.6054 -5.6662 2.2368
-2.4002 -5.7558 2.2368
-2.1919 -5.8381 2.2368
-1.9808 -5.9128 2.2368
-1.7671 -5.9799 2.2368
-1.5512 -6.0393 2.2368
-1.3333 -6.0910 2.2368
-1.1137 -6.1348 2.2368
-0.8926 -6.1708 2.2368
-0.6705 -6.1988 2.2368
-0.4474 -6.2188 2.2368
-0.2238 -6.2308 2.2368
0.0000 -5.8191 2.2368
0.2090 -5.8154 2.2368
0.4177 -5.8042 2.2368
0.6259 -5.7855 2.2368
0.8333 -5.7594 2.2368
1.0396 -5.7259 2.2368
1.2445 -5.6850 2.2368
1.4479 -5.6368 2.2368
1.6494 -5.5813 2.2368
1.8489 -5.5187 2.2368
1.9515 -5.1974 2.1335
2.1369 -5.1242 2.1335
2.3197 -5.0444 2.1335
2.4994 -4.9581 2.1335
2.6760 -4.8654 2.1335
2.8492 -4.7664 2.1335
3.0187 -4.6613 2.1335
3.1843 -4.5502 2.1335
3.3458 -4.4332 2.1335
3.5031 -4.3105 2.1335
3.6559 -4.1823 2.1335
3.8040 -4.0486 2.1335
3.9472 -3.9097 2.1335
4.0854 -3.7658 2.1335
4.2183 -3.6170 2.1335
4.3458 -3.4635 2.1335
4.4678 -3.3055 2.1335
4.5840 -3.1432 2.1335
2.0161 -1.2785 0.9163
4.7986 -2.8067 2.1335
4.8968 -2.6329 2.1335
4.9886 -2.4556 2.1335
5.0741 -2.2751 2.1335
5.1530 -2.0917 2.1335
5.2253 -1.9056 2.1335
5.2909 -1.7169 2.1335
5.3497 -1.5260 2.1335
5.4016 -1.3332 2.1335
5.4466 -1.1385 2.1335
5.4845 -0.9424 2.1335
5.5154 -0.7449 2.1335
5.5392 -0.5465 2.1335
5.5558 -0.3474 2.1335
5.5654 -0.1477 2.1335
5.5677 0.0521 2.1335
5.5628 0.2520 2.1335
5.5508 0.4516 2.1335
5.5316 0.6506 2.1335
5.5053 0.8488 2.1335
5.4719 1.0460 2.1335
5.4314 1.2418 2.1335
5.3839 1.4361 2.1335
5.3294 1.6286 2.1335
5.2681 1.8190 2.1335
5.1999 2.0071 2.1335
5.1250 2.1927 2.1335
5.0435 2.3754 2.1335
4.9555 2.5552 2.1335
4.8611 2.7317 2.1335
4.7603 2.9046 2.1335
4.6535 3.0739 2.1335
4.5405 3.2392 2.1335
4.4218 3.4003 2.1335
4.2972 3.5571 2.1335
4.1672 3.7094 2.1335
4.0317 3.8568 2.1335
3.8910 3.9993 2.1335
3.7452 4.1367 2.1335
3.5946 4.2687 2.1335
3.4393 4.3952 2.1335
3.2796 4.5161 2.1335
3.1156 4.6312 2.1335
2.9476 4.7403 2.1335
2.7758 4.8432 2.1335
2.6003 4.9400 2.1335
0.8656 1.7982 0.7627
0.8005 1.8281 0.7626
0.7344 1.8557 0.7626
0.6674 1.8808 0.7626
0.5994 1.9036 0.7626
0.5308 1.9239 0.7625
0.4614 1.9417 0.7625
0.3914 1.9570 0.7625
0.9415 5.7783 2.2368
0.7335 5.8084 2.2368
0.5246 5.8310 2.2368
0.3151 5.8461 2.2368
0.1051 5.8537 2.2368
-0.1050 5.8537 2.2368
-0.3150 5.8461 2.2368
-0.5245 5.8310 2.2368
-0.7334 5.8083 2.2368
-0.9414 5.7781 2.2368
-0.3914 1.9570 0.7625
-0.4614 1.9417 0.7626
-0.5307 1.9239 0.7626
-0.5994 1.9036 0.7626
-0.6673 1.8808 0.7626
-0.7344 1.8557 0.7626
-0.8005 1.8281 0.7627
-0.8656 1.7982 0.7627
-0.9295 1.7660 0.7627
-2.9098 5.0773 2.2368
-3.0900 4.9694 2.2368
-3.2661 4.8550 2.2368
-3.4380 4.7344 2.2368
-3.6054 4.6076 2.2368
-3.7682 4.4749 2.2368
-3.9261 4.3365 2.2368
-4.0788 4.1925 2.2368
-4.2263 4.0431 2.2368
-4.3684 3.8885 2.2368
-4.5047 3.7289 2.2368
-4.6352 3.5646 2.2368
-4.7597 3.3956 2.2368
-4.8781 3.2223 2.2368
-4.9901 3.0449 2.2368
-5.0957 2.8636 2.2368
-5.1947 2.6786 2.2368
-5.2870 2.4901 2.2368
-5.3724 2.2986 2.2368
-5.4509 2.1041 2.2368
-5.5223 1.9068 2.2368
-5.5866 1.7072 2.2368
-5.6437 1.5055 2.2368
-5.6935 1.3018 2.2368
-5.7359 1.0965 2.2368
-5.7710 0.8898 2.2368
-5.7986 0.6820 2.2368
-5.8186 0.4734 2.2368
-5.8313 0.2642 2.2368
-5.8363 0.0547 2.2368
-5.8339 -0.1549 2.2368
-5.8239 -0.3641 2.2368
-5.8065 -0.5729 2.2368
-5.7816 -0.7809 2.2368
-5.7492 -0.9878 2.2368
-5.7094 -1.1935 2.2368
-5.6623 -1.3975 2.2368
-5.6079 -1.5997 2.2368
-5.5463 -1.7998 2.2368
-5.4775 -1.9976 2.2368
-5.4017 -2.1927 2.2368
-5.3190 -2.3850 2.2368
-5.2294 -2.5742 2.2368
-5.1331 -2.7600 2.2368
-5.0302 -2.9423 2.2368
-4.9209 -3.1207 2.2368
-4.8053 -3.2951 2.2368
-4.6835 -3.4652 2.2368
-4.5556 -3.6308 2.2368
-4.4220 -3.7917 2.2368
-4.2826 -3.9477 2.2368
-4.1378 -4.0986 2.2368
-3.9877 -4.2442 2.2368
-3.8324 -4.3844 2.2368
-3.6723 -4.5188 2.2368
-3.5074 -4.6475 2.2368
-3.3381 -4.7701 2.2368
-3.1645 -4.8866 2.2368
-2.9868 -4.9968 2.2368
-2.8053 -5.1006 2.2368
-2.6202 -5.1978 2.2368
-2.4317 -5.2883 2.2368
-2.2402 -5.3720 2.2368
-2.0458 -5.4487 2.2368
-1.8487 -5.5185 2.2368
-1.6493 -5.5811 2.2368
-1.4478 -5.6366 2.2368
-1.2444 -5.6849 2.2368
-1.0394 -5.7258 2.2368
-0.8331 -5.7593 2.2368
-0.6258 -5.7854 2.2368
-0.4176 -5.8041 2.2368
-0.2089 -5.8154 2.2368
0.0000 -5.4494 2.2368
0.1958 -5.4459 2.2368
0.3912 -5.4354 2.2368
0.5861 -5.4179 2.2368
0.7803 -5.3935 2.2368
0.9735 -5.3621 2.2368
1.1655 -5.3238 2.2368
1.3559 -5.2786 2.2368
1.5447 -5.2267 2.2368
1.7314 -5.1680 2.2368
1.8275 -4.8671 2.1335
2.0012 -4.7986 2.1335
2.1723 -4.7238 2.1335
2.3407 -4.6430 2.1335
2.5060 -4.5562 2.1335
2.6681 -4.4635 2.1335
2.8269 -4.3651 2.1335
2.9820 -4.2610 2.1335
3.1332 -4.1514 2.1335
3.2805 -4.0365 2.1335
3.4236 -3.9164 2.1335
3.5622 -3.7912 2.1335
3.6963 -3.6611 2.1335
3.8257 -3.5263 2.1335
3.9502 -3.3869 2.1335
4.0696 -3.2432 2.1335
4.1837 -3.0952 2.1335
4.2925 -2.9432 2.1335
2.0161 -1.2785 0.9785
4.4935 -2.6281 2.1335
4.5854 -2.4653 2.1335
4.6714 -2.2993 2.1335
4.7513 -2.1303 2.1335
4.8252 -1.9585 2.1335
4.8929 -1.7842 2.1335
4.9543 -1.6076 2.1335
5.0093 -1.4288 2.1335
5.0579 -1.2482 2.1335
5.1000 -1.0659 2.1335
5.1355 -0.8822 2.1335
5.1644 -0.6974 2.1335
5.1866 -0.5116 2.1335
5.2022 -0.3251 2.1335
5.2110 -0.1382 2.1335
5.2132 0.0490 2.1335
5.2086 0.2361 2.1335
5.1973 0.4229 2.1335
5.1793 0.6093 2.1335
5.1546 0.7949 2.1335
5.1233 0.9795 2.1335
5.0854 1.1629 2.1335
5.0408 1.3448 2.1335
4.9898 1.5250 2.1335
4.9324 1.7033 2.1335
4.8685 1.8794 2.1335
4.7984 2.0531 2.1335
4.7221 2.2242 2.1335
4.6396 2.3924 2.1335
4.5512 2.5577 2.1335
4.4569 2.7196 2.1335
4.3568 2.8780 2.1335
4.2511 3.0328 2.1335
4.1398 3.1836 2.1335
4.0232 3.3304 2.1335
3.9014 3.4729 2.1335
3.7746 3.6110 2.1335
3.6428 3.7444 2.1335
3.5063 3.8729 2.1335
3.3653 3.9965 2.1335
3.2199 4.1150 2.1335
3.0704 4.2281 2.1335
2.9169 4.3358 2.1335
2.7596 4.4380 2.1335
2.5987 4.5344 2.1335
0.8704 1.6536 0.7628
0.8105 1.6838 0.7628
0.7496 1.7118 0.7628
0.6877 1.7376 0.7627
0.6249 1.7611 0.7627
0.5613 1.7824 0.7627
0.4970 1.8014 0.7627
0.4320 1.8181 0.7627
0.3665 1.8324 0.7626
0.3005 1.8444 0.7626
0.2341 1.8540 0.7626
0.1675 1.8612 0.7626
0.1006 1.8660 0.7626
0.0335 1.8684 0.7626
-0.0335 1.8684 0.7626
-0.1005 1.8660 0.7626
-0.1674 1.8612 0.7626
-0.2341 1.8540 0.7626
-0.3005 1.8444 0.7626
-0.3665 1.8324 0.7627
-0.4320 1.8181 0.7627
-0.4969 1.8014 0.7627
-0.5612 1.7824 0.7627
-0.6248 1.7611 0.7627
-0.6876 1.7376 0.7628
-0.7495 1.7118 0.7628
-0.8105 1.6838 0.7628
-0.8704 1.6536 0.7629
-0.9291 1.6213 0.7629
-2.8928 4.6525 2.2368
-3.0577 4.5454 2.2368
-3.2187 4.4325 2.2368
-3.3755 4.3138 2.2368
-3.5278 4.1897 2.2368
-3.6757 4.0601 2.2368
-3.8187 3.9253 2.2368
-3.9568 3.7854 2.2368
-4.0898 3.6407 2.2368
-4.2175 3.4913 2.2368
-4.3397 3.3374 2.2368
-4.4563 3.1793 2.2368
-4.5671 3.0170 2.2368
-4.6720 2.8509 2.2368
-4.7709 2.6812 2.2368
-4.8636 2.5080 2.2368
-4.9500 2.3316 2.2368
-5.0300 2.1522 2.2368
-5.1035 1.9701 2.2368
-5.1705 1.7855 2.2368
-5.2307 1.5986 2.2368
-5.2842 1.4097 2.2368
-5.3308 1.2190 2.2368
-5.3706 1.0268 2.2368
-5.4034 0.8333 2.2368
-5.4293 0.6387 2.2368
-5.4481 0.4433 2.2368
-5.4600 0.2475 2.2368
-5.4648 0.0513 2.2368
-5.4625 -0.1449 2.2368
-5.4532 -0.3408 2.2368
-5.4369 -0.5363 2.2368
-5.4136 -0.7311 2.2368
-5.3833 -0.9248 2.2368
-5.3461 -1.1174 2.2368
-5.3020 -1.3085 2.2368
-5.2511 -1.4978 2.2368
-5.1934 -1.6852 2.2368
-5.1291 -1.8704 2.2368
-5.0581 -2.0531 2.2368
-4.9807 -2.2332 2.2368
-4.8968 -2.4103 2.2368
-4.8067 -2.5843 2.2368
-4.7104 -2.7550 2.2368
-4.6080 -2.9221 2.2368
-4.4998 -3.0854 2.2368
-4.3857 -3.2447 2.2368
-4.2661 -3.3998 2.2368
-4.1409 -3.5505 2.2368
-4.0104 -3.6967 2.2368
-3.8748 -3.8380 2.2368
-3.7343 -3.9744 2.2368
-3.5889 -4.1056 2.2368
-3.4389 -4.2316 2.2368
-3.2846 -4.3520 2.2368
-3.1260 -4.4669 2.2368
-2.9634 -4.5760 2.2368
-2.7970 -4.6792 2.2368
-2.6271 -4.7764 2.2368
-2.4537 -4.8674 2.2368
-2.2773 -4.9522 2.2368
-2.0979 -5.0306 2.2368
-1.9158 -5.1025 2.2368
-1.7313 -5.1678 2.2368
-1.5445 -5.2265 2.2368
-1.3558 -5.2785 2.2368
-1.1654 -5.3236 2.2368
-0.9734 -5.3620 2.2368
-0.7802 -5.3934 2.2368
-0.5860 -5.4179 2.2368
-0.3911 -5.4354 2.2368
-0.1957 -5.4459 2.2368
0.0001 -5.1182 2.2368
0.1839 -5.1149 2.2368
0.3674 -5.1050 2.2368
0.5505 -5.0886 2.2368
0.7329 -5.0656 2.2368
0.9144 -5.0361 2.2368
1.0947 -5.0001 2.2368
1.2736 -4.9577 2.2368
1.4508 -4.9089 2.2368
1.6262 -4.8538 2.2368
1.7325 -4.6140 2.1535
1.8796 -4.5068 2.1335
2.0403 -4.4366 2.1335
2.1984 -4.3607 2.1335
2.3537 -4.2791 2.1335
2.5060 -4.1921 2.1335
2.6550 -4.0996 2.1335
2.8007 -4.0018 2.1335
2.9428 -3.8989 2.1335
3.0811 -3.7910 2.1335
3.2154 -3.6781 2.1335
3.3457 -3.5605 2.1335
3.4716 -3.4384 2.1335
3.5931 -3.3117 2.1335
3.7100 -3.1808 2.1335
3.8221 -3.0458 2.1335
3.9293 -2.9068 2.1335
4.0314 -2.7641 2.1335
2.0161 -1.2784 1.0419
4.2201 -2.4681 2.1335
4.3064 -2.3152 2.1335
4.3871 -2.1593 2.1335
4.4622 -2.0006 2.1335
4.5316 -1.8392 2.1335
4.5951 -1.6755 2.1335
4.6528 -1.5096 2.1335
4.7044 -1.3417 2.1335
4.7500 -1.1721 2.1335
4.7895 -1.0009 2.1335
4.8228 -0.8284 2.1335
4.8499 -0.6548 2.1335
4.8708 -0.4803 2.1335
4.8854 -0.3052 2.1335
4.8937 -0.1296 2.1335
4.8957 0.0461 2.1335
4.8913 0.2218 2.1335
4.8807 0.3973 2.1335
4.8638 0.5723 2.1335
4.8406 0.7466 2.1335
4.8111 0.9199 2.1335
4.7755 1.0921 2.1335
4.7337 1.2629 2.1335
4.6857 1.4322 2.1335
4.6317 1.5996 2.1335
4.5718 1.7649 2.1335
4.5059 1.9281 2.1335
4.4342 2.0887 2.1335
4.3568 2.2467 2.1335
4.2737 2.4018 2.1335
4.1851 2.5539 2.1335
4.0911 2.7027 2.1335
3.9918 2.8479 2.1335
3.8873 2.9896 2.1335
3.7778 3.1274 2.1335
3.6634 3.2612 2.1335
3.5443 3.3908 2.1335
3.4206 3.5161 2.1335
3.2924 3.6368 2.1335
3.1600 3.7528 2.1335
3.0235 3.8640 2.1335
2.8830 3.9703 2.1335
2.7389 4.0714 2.1335
2.5912 4.1673 2.1335
0.8726 1.5226 0.7629
0.8174 1.5529 0.7629
0.7611 1.5813 0.7629
0.7039 1.6076 0.7629
0.6458 1.6318 0.7628
0.5868 1.6539 0.7628
0.5271 1.6739 0.7628
0.4667 1.6918 0.7628
0.4057 1.7074 0.7628
0.3442 1.7209 0.7628
0.2822 1.7321 0.7627
0.2199 1.7412 0.7627
0.1573 1.7479 0.7627
0.0944 1.7524 0.7627
0.0315 1.7547 0.7627
-0.0315 1.7547 0.7627
-0.0944 1.7524 0.7627
-0.1572 1.7479 0.7627
-0.2199 1.7412 0.7627
-0.2822 1.7321 0.7628
-0.3442 1.7209 0.7628
-0.4057 1.7074 0.7628
-0.4667 1.6918 0.7628
-0.5271 1.6739 0.7628
-0.5868 1.6539 0.7628
-0.6458 1.6318 0.7629
-0.7039 1.6076 0.7629
-0.7611 1.5813 0.7629
-0.8174 1.5529 0.7630
-0.8725 1.5226 0.7630
-0.9266 1.4903 0.7630
-0.9795 1.4561 0.7631
-3.0223 4.1622 2.2368
-3.1695 4.0508 2.2368
-3.3126 3.9342 2.2368
-3.4514 3.8125 2.2368
-3.5858 3.6860 2.2368
-3.7155 3.5547 2.2368
-3.8403 3.4188 2.2368
-3.9603 3.2785 2.2368
-4.0750 3.1340 2.2368
-4.1845 2.9855 2.2368
-4.2886 2.8332 2.2368
-4.3872 2.6772 2.2368
-4.4800 2.5178 2.2368
-4.5671 2.3552 2.2368
-4.6483 2.1896 2.2368
-4.7234 2.0212 2.2368
-4.7925 1.8502 2.2368
-4.8553 1.6768 2.2368
-4.9119 1.5013 2.2368
-4.9622 1.3240 2.2368
-5.0060 1.1449 2.2368
-5.0434 0.9644 2.2368
-5.0742 0.7826 2.2368
-5.0986 0.5999 2.2368
-5.1163 0.4165 2.2368
-5.1274 0.2325 2.2368
-5.1320 0.0483 2.2368
-5.1299 -0.1359 2.2368
-5.1212 -0.3199 2.2368
-5.1059 -0.5035 2.2368
-5.0840 -0.6864 2.2368
-5.0556 -0.8684 2.2368
-5.0207 -1.0492 2.2368
-4.9793 -1.2287 2.2368
-4.9315 -1.4065 2.2368
-4.8774 -1.5825 2.2368
-4.8170 -1.7564 2.2368
-4.7504 -1.9281 2.2368
-4.6777 -2.0972 2.2368
-4.5989 -2.2636 2.2368
-4.5143 -2.4270 2.2368
-4.4239 -2.5873 2.2368
-4.3278 -2.7443 2.2368
-4.2261 -2.8976 2.2368
-4.1190 -3.0473 2.2368
-4.0066 -3.1929 2.2368
-3.8891 -3.3345 2.2368
-3.7666 -3.4717 2.2368
-3.6392 -3.6045 2.2368
-3.5072 -3.7326 2.2368
-3.3707 -3.8559 2.2368
-3.2299 -3.9742 2.2368
-3.0849 -4.0873 2.2368
-2.9360 -4.1953 2.2368
-2.7833 -4.2978 2.2368
-2.6270 -4.3947 2.2368
-2.4674 -4.4860 2.2368
-2.3046 -4.5715 2.2368
-2.1389 -4.6511 2.2368
-1.9704 -4.7248 2.2368
-1.7994 -4.7923 2.2368
-1.6261 -4.8537 2.2368
-1.4507 -4.9088 2.2368
-1.2734 -4.9576 2.2368
-1.0946 -5.0000 2.2368
-0.9143 -5.0360 2.2368
-0.7328 -5.0655 2.2368
-0.5504 -5.0886 2.2368
-0.3673 -5.1050 2.2368
-0.1838 -5.1149 2.2368
0.0001 -4.8194 2.2368
0.1731 -4.8163 2.2368
0.3460 -4.8070 2.2368
0.5184 -4.7915 2.2368
0.6902 -4.7699 2.2368
0.8610 -4.7421 2.2368
1.0308 -4.7082 2.2368
1.1993 -4.6683 2.2368
1.3662 -4.6224 2.2368
1.5313 -4.5704 2.2368
1.6945 -4.5126 2.2368
1.7699 -4.2437 2.1335
1.9212 -4.1775 2.1335
2.0701 -4.1060 2.1335
2.2163 -4.0292 2.1335
2.3597 -3.9472 2.1335
2.5001 -3.8602 2.1335
2.6372 -3.7681 2.1335
2.7710 -3.6712 2.1335
2.9012 -3.5695 2.1335
3.0277 -3.4633 2.1335
3.1503 -3.3525 2.1335
3.2689 -3.2375 2.1335
3.3833 -3.1182 2.1335
3.4933 -2.9949 2.1335
3.5989 -2.8678 2.1335
3.6998 -2.7369 2.1335
3.7960 -2.6025 2.1335
2.0161 -1.2784 1.1065
3.9736 -2.3238 2.1335
4.0548 -2.1798 2.1335
4.1308 -2.0330 2.1335
4.2015 -1.8835 2.1335
4.2668 -1.7316 2.1335
4.3266 -1.5775 2.1335
4.3809 -1.4213 2.1335
4.4295 -1.2632 2.1335
4.4724 -1.1034 2.1335
4.5095 -0.9423 2.1335
4.5409 -0.7798 2.1335
4.5664 -0.6164 2.1335
4.5860 -0.4521 2.1335
4.5997 -0.2872 2.1335
4.6075 -0.1219 2.1335
4.6094 0.0435 2.1335
4.6053 0.2090 2.1335
4.5952 0.3742 2.1335
4.5793 0.5389 2.1335
4.5574 0.7030 2.1335
4.5297 0.8662 2.1335
4.4961 1.0284 2.1335
4.4567 1.1892 2.1335
4.4115 1.3485 2.1335
4.3607 1.5061 2.1335
4.3042 1.6618 2.1335
4.2422 1.8153 2.1335
4.1747 1.9666 2.1335
4.1017 2.1153 2.1335
4.0235 2.2613 2.1335
3.9401 2.4045 2.1335
3.8516 2.5445 2.1335
3.7581 2.6813 2.1335
3.6597 2.8147 2.1335
3.5566 2.9444 2.1335
3.4489 3.0704 2.1335
3.3367 3.1924 2.1335
3.2202 3.3103 2.1335
3.0996 3.4239 2.1335
2.9749 3.5331 2.1335
2.8464 3.6378 2.1335
2.7142 3.7378 2.1335
2.5784 3.8330 2.1335
0.8724 1.4032 0.7631
0.8216 1.4336 0.7630
0.7696 1.4622 0.7630
0.7166 1.4888 0.7630
0.6627 1.5136 0.7630
0.6080 1.5364 0.7629
0.5525 1.5573 0.7629
0.4963 1.5761 0.7629
0.4394 1.5929 0.7629
0.3820 1.6076 0.7629
0.3241 1.6203 0.7629
0.2657 1.6309 0.7628
0.2070 1.6394 0.7628
0.1481 1.6458 0.7628
0.0889 1.6500 0.7628
0.0297 1.6521 0.7628
-0.0296 1.6521 0.7628
-0.0889 1.6500 0.7628
-0.1480 1.6457 0.7628
-0.2070 1.6394 0.7629
-0.2657 1.6309 0.7629
-0.3240 1.6203 0.7629
-0.3819 1.6076 0.7629
-0.4394 1.5929 0.7629
-0.4962 1.5761 0.7629
-0.5525 1.5572 0.7629
-0.6080 1.5364 0.7630
-0.6627 1.5136 0.7630
-0.7166 1.4888 0.7630
-0.7695 1.4622 0.7630
-0.8215 1.4336 0.7631
-0.8724 1.4032 0.7631
-0.9222 1.3710 0.7631
-0.9708 1.3370 0.7632
-2.9838 3.8136 2.2368
-3.1186 3.7039 2.2368
-3.2493 3.5894 2.2368
-3.3758 3.4702 2.2368
-3.4979 3.3466 2.2368
-3.6155 3.2187 2.2368
-3.7283 3.0867 2.2368
-3.8364 2.9507 2.2368
-3.9395 2.8109 2.2368
-4.0375 2.6675 2.2368
-4.1303 2.5206 2.2368
-4.2178 2.3706 2.2368
-4.2998 2.2175 2.2368
-4.3762 2.0616 2.2368
-4.4470 1.9030 2.2368
-4.5120 1.7420 2.2368
-4.5712 1.5788 2.2368
-4.6245 1.4136 2.2368
-4.6718 1.2466 2.2368
-4.7131 1.0780 2.2368
-4.7483 0.9081 2.2368
-4.7774 0.7370 2.2368
-4.8003 0.5650 2.2368
-4.8171 0.3923 2.2368
-4.8276 0.2191 2.2368
-4.8319 0.0457 2.2368
-4.8299 -0.1278 2.2368
-4.8218 -0.3011 2.2368
-4.8074 -0.4739 2.2368
-4.7868 -0.6462 2.2368
-4.7601 -0.8175 2.2368
-4.7273 -0.9878 2.2368
-4.6883 -1.1567 2.2368
-4.6433 -1.3242 2.2368
-4.5924 -1.4899 2.2368
-4.5355 -1.6537 2.2368
-4.4728 -1.8153 2.2368
-4.4044 -1.9745 2.2368
-4.3303 -2.1312 2.2368
-4.2506 -2.2851 2.2368
-4.1655 -2.4361 2.2368
-4.0750 -2.5838 2.2368
-3.9793 -2.7283 2.2368
-3.8785 -2.8692 2.2368
-3.7727 -3.0064 2.2368
-3.6620 -3.1397 2.2368
-3.5467 -3.2689 2.2368
-3.4268 -3.3939 2.2368
-3.3025 -3.5146 2.2368
-3.1739 -3.6306 2.2368
-3.0413 -3.7421 2.2368
-2.9048 -3.8486 2.2368
-2.7646 -3.9502 2.2368
-2.6208 -4.0468 2.2368
-2.4737 -4.1381 2.2368
-2.3234 -4.2240 2.2368
-2.1701 -4.3046 2.2368
-2.0140 -4.3796 2.2368
-1.8554 -4.4489 2.2368
-1.6944 -4.5125 2.2368
-1.5312 -4.5703 2.2368
-1.3660 -4.6222 2.2368
-1.1991 -4.6682 2.2368
-1.0307 -4.7081 2.2368
-0.8609 -4.7420 2.2368
-0.6900 -4.7698 2.2368
-0.5183 -4.7915 2.2368
-0.3459 -4.8070 2.2368
-0.1730 -4.8163 2.2368
0.0001 -4.5483 2.2368
0.1634 -4.5454 2.2368
0.3265 -4.5366 2.2368
0.4893 -4.5220 2.2368
0.6514 -4.5016 2.2368
0.8126 -4.4753 2.2368
0.9728 -4.4434 2.2368
1.1318 -4.4057 2.2368
1.2893 -4.3623 2.2368
1.4452 -4.3133 2.2368
1.5992 -4.2588 2.2368
1.6761 -4.0187 2.1409
1.8132 -3.9425 2.1335
1.9537 -3.8750 2.1335
2.0917 -3.8025 2.1335
2.2270 -3.7251 2.1335
2.3595 -3.6429 2.1335
2.4889 -3.5560 2.1335
2.6151 -3.4645 2.1335
2.7380 -3.3686 2.1335
2.8574 -3.2683 2.1335
2.9731 -3.1638 2.1335
3.0850 -3.0552 2.1335
3.1929 -2.9427 2.1335
3.2967 -2.8263 2.1335
3.3964 -2.7063 2.1335
3.4916 -2.5828 2.1335
3.5823 -2.4559 2.1335
2.0161 -1.2783 1.1725
3.7499 -2.1929 2.1335
3.8266 -2.0570 2.1335
3.8983 -1.9184 2.1335
3.9650 -1.7774 2.1335
4.0266 -1.6340 2.1335
4.0830 -1.4885 2.1335
4.1342 -1.3411 2.1335
4.1800 -1.1919 2.1335
4.2205 -1.0412 2.1335
4.2556 -0.8891 2.1335
4.2851 -0.7358 2.1335
4.3092 -0.5815 2.1335
4.3277 -0.4265 2.1335
4.3406 -0.2709 2.1335
4.3479 -0.1149 2.1335
4.3496 0.0412 2.1335
4.3458 0.1973 2.1335
4.3363 0.3532 2.1335
4.3212 0.5087 2.1335
4.3005 0.6635 2.1335
4.2743 0.8175 2.1335
4.2426 0.9705 2.1335
4.2054 1.1223 2.1335
4.1628 1.2726 2.1335
4.1148 1.4213 2.1335
4.0615 1.5682 2.1335
4.0029 1.7131 2.1335
3.9392 1.8558 2.1335
3.8704 1.9961 2.1335
3.7966 2.1339 2.1335
3.7178 2.2690 2.1335
3.6343 2.4011 2.1335
3.5460 2.5302 2.1335
3.4532 2.6560 2.1335
3.3559 2.7784 2.1335
3.2543 2.8972 2.1335
3.1484 3.0123 2.1335
3.0385 3.1236 2.1335
2.9247 3.2308 2.1335
2.8070 3.3339 2.1335
2.6857 3.4326 2.1335
0.9161 1.2617 0.7632
0.8703 1.2937 0.7632
0.8233 1.3242 0.7631
0.7753 1.3529 0.7631
0.7262 1.3798 0.7631
0.6763 1.4050 0.7631
0.6254 1.4284 0.7630
0.5738 1.4499 0.7630
0.5214 1.4695 0.7630
0.4683 1.4873 0.7630
0.4147 1.5032 0.7630
0.3605 1.5171 0.7630
0.3058 1.5290 0.7630
0.2507 1.5390 0.7629
0.1954 1.5470 0.7629
0.1397 1.5531 0.7629
0.0839 1.5571 0.7629
0.0280 1.5591 0.7629
-0.0280 1.5591 0.7629
-0.0839 1.5571 0.7629
-0.1397 1.5531 0.7629
-0.1953 1.5471 0.7629
-0.2507 1.5390 0.7630
-0.3058 1.5290 0.7630
-0.3604 1.5171 0.7630
-0.4146 1.5032 0.7630
-0.4683 1.4873 0.7630
-0.5213 1.4696 0.7630
-0.5737 1.4499 0.7631
-0.6254 1.4284 0.7631
-0.6762 1.4050 0.7631
-0.7262 1.3798 0.7631
-0.7752 1.3529 0.7632
-0.8233 1.3242 0.7632
-0.8702 1.2938 0.7632
-0.9161 1.2617 0.7633
-0.9608 1.2280 0.7633
-2.9426 3.4950 2.2368
-3.0659 3.3869 2.2368
-3.1853 3.2745 2.2368
-3.3005 3.1579 2.2368
-3.4114 3.0372 2.2368
-3.5180 2.9127 2.2368
-3.6200 2.7843 2.2368
-3.7173 2.6524 2.2368
-3.8098 2.5171 2.2368
-3.8974 2.3786 2.2368
-3.9799 2.2370 2.2368
-4.0573 2.0926 2.2368
-4.1294 1.9455 2.2368
-4.1962 1.7958 2.2368
-4.2576 1.6439 2.2368
-4.3135 1.4899 2.2368
-4.3638 1.3340 2.2368
-4.4085 1.1765 2.2368
-4.4475 1.0174 2.2368
-4.4807 0.8570 2.2368
-4.5082 0.6956 2.2368
-4.5298 0.5333 2.2368
-4.5456 0.3703 2.2368
-4.5556 0.2069 2.2368
-4.5596 0.0432 2.2368
-4.5578 -0.1205 2.2368
-4.5501 -0.2840 2.2368
-4.5366 -0.4471 2.2368
-4.5172 -0.6096 2.2368
-4.4920 -0.7713 2.2368
-4.4610 -0.9320 2.2368
-4.4243 -1.0915 2.2368
-4.3819 -1.2495 2.2368
-4.3338 -1.4059 2.2368
-4.2802 -1.5604 2.2368
-4.2210 -1.7129 2.2368
-4.1564 -1.8632 2.2368
-4.0865 -2.0111 2.2368
-4.0114 -2.1564 2.2368
-3.9310 -2.2988 2.2368
-3.8457 -2.4383 2.2368
-3.7553 -2.5746 2.2368
-3.6602 -2.7076 2.2368
-3.5604 -2.8371 2.2368
-3.4560 -2.9629 2.2368
-3.3471 -3.0849 2.2368
-3.2340 -3.2028 2.2368
-3.1167 -3.3167 2.2368
-2.9954 -3.4263 2.2368
-2.8702 -3.5314 2.2368
-2.7414 -3.6320 2.2368
-2.6091 -3.7279 2.2368
-2.4734 -3.8190 2.2368
-2.3346 -3.9052 2.2368
-2.1927 -3.9864 2.2368
-2.0480 -4.0624 2.2368
-1.9008 -4.1331 2.2368
-1.7511 -4.1986 2.2368
-1.5991 -4.2586 2.2368
-1.4451 -4.3132 2.2368
-1.2892 -4.3622 2.2368
-1.1317 -4.4056 2.2368
-0.9727 -4.4433 2.2368
-0.8125 -4.4753 2.2368
-0.6513 -4.5015 2.2368
-0.4892 -4.5219 2.2368
-0.3264 -4.5366 2.2368
-0.1633 -4.5454 2.2368
0.0001 -4.3009 2.2368
0.1545 -4.2982 2.2368
0.3088 -4.2899 2.2368
0.4627 -4.2761 2.2368
0.6160 -4.2567 2.2368
0.7685 -4.2319 2.2368
0.9200 -4.2017 2.2368
1.0703 -4.1660 2.2368
1.2193 -4.1250 2.2368
1.3666 -4.0787 2.2368
1.5123 -4.0271 2.2368
0.9046 -2.1687 1.2218
1.7146 -3.7280 2.1335
1.8475 -3.6642 2.1335
1.9779 -3.5956 2.1335
2.1059 -3.5224 2.1335
2.2312 -3.4447 2.1335
2.3535 -3.3625 2.1335
2.4729 -3.2760 2.1335
2.5891 -3.1853 2.1335
2.7020 -3.0904 2.1335
2.8114 -2.9916 2.1335
2.9172 -2.8889 2.1335
3.0192 -2.7825 2.1335
3.1174 -2.6724 2.1335
3.2116 -2.5589 2.1335
3.3016 -2.4421 2.1335
3.3874 -2.3222 2.1335
2.0160 -1.2782 1.2400
3.5459 -2.0734 2.1335
3.6183 -1.9449 2.1335
3.6861 -1.8139 2.1335
3.7492 -1.6805 2.1335
3.8074 -1.5450 2.1335
3.8608 -1.4074 2.1335
3.9092 -1.2680 2.1335
3.9525 -1.1269 2.1335
3.9907 -0.9844 2.1335
4.0239 -0.8405 2.1335
4.0518 -0.6956 2.1335
4.0745 -0.5497 2.1335
4.0920 -0.4032 2.1335
4.1042 -0.2560 2.1335
4.1111 -0.1086 2.1335
4.1127 0.0391 2.1335
4.1090 0.1867 2.1335
4.1000 0.3341 2.1335
4.0858 0.4811 2.1335
4.0662 0.6275 2.1335
4.0414 0.7731 2.1335
4.0114 0.9178 2.1335
3.9763 1.0612 2.1335
3.9359 1.2034 2.1335
3.8906 1.3439 2.1335
3.8401 1.4828 2.1335
3.7848 1.6198 2.1335
3.7245 1.7547 2.1335
3.6594 1.8874 2.1335
3.5896 2.0177 2.1335
3.5151 2.1454 2.1335
3.4361 2.2703 2.1335
3.3527 2.3923 2.1335
3.2649 2.5113 2.1335
3.1729 2.6270 2.1335
3.0768 2.7393 2.1335
2.9767 2.8482 2.1335
2.8728 2.9533 2.1335
2.7651 3.0547 2.1335
2.6539 3.1521 2.1335
0.9085 1.1611 0.7633
0.8662 1.1930 0.7633
0.8229 1.2233 0.7633
0.7784 1.2521 0.7632
0.7330 1.2792 0.7632
0.6867 1.3047 0.7632
0.6394 1.3285 0.7631
0.5914 1.3506 0.7631
0.5425 1.3710 0.7631
0.4930 1.3895 0.7631
0.4428 1.4064 0.7631
0.3921 1.4213 0.7631
0.3408 1.4345 0.7630
0.2891 1.4458 0.7630
0.2371 1.4553 0.7630
0.1847 1.4628 0.7630
0.1321 1.4685 0.7630
0.0793 1.4723 0.7630
0.0265 1.4742 0.7630
-0.0264 1.4742 0.7630
-0.0793 1.4723 0.7630
-0.1321 1.4685 0.7630
-0.1847 1.4628 0.7630
-0.2370 1.4553 0.7630
-0.2891 1.4458 0.7630
-0.3408 1.4345 0.7631
-0.3920 1.4213 0.7631
-0.4428 1.4063 0.7631
-0.4929 1.3896 0.7631
-0.5425 1.3710 0.7631
-0.5913 1.3506 0.7632
-0.6394 1.3285 0.7632
-0.6866 1.3047 0.7632
-0.7330 1.2792 0.7632
-0.7784 1.2521 0.7633
-0.8228 1.2233 0.7633
-0.8662 1.1930 0.7633
-0.9084 1.1611 0.7634
-0.9495 1.1278 0.7634
-2.8987 3.2023 2.2368
-3.0115 3.0961 2.2368
-3.1205 2.9858 2.2368
-3.2254 2.8717 2.2368
-3.3262 2.7539 2.2368
-3.4226 2.6326 2.2368
-3.5146 2.5079 2.2368
-3.6021 2.3800 2.2368
-3.6849 2.2490 2.2368
-3.7629 2.1152 2.2368
-3.8361 1.9786 2.2368
-3.9043 1.8395 2.2368
-3.9675 1.6981 2.2368
-4.0256 1.5545 2.2368
-4.0784 1.4089 2.2368
-4.1260 1.2615 2.2368
-4.1683 1.1125 2.2368
-4.2051 0.9621 2.2368
-4.2366 0.8105 2.2368
-4.2626 0.6578 2.2368
-4.2830 0.5043 2.2368
-4.2980 0.3502 2.2368
-4.3074 0.1957 2.2368
-4.3113 0.0410 2.2368
-4.3096 -0.1138 2.2368
-4.3023 -0.2684 2.2368
-4.2896 -0.4227 2.2368
-4.2713 -0.5763 2.2368
-4.2474 -0.7292 2.2368
-4.2181 -0.8811 2.2368
-4.1834 -1.0319 2.2368
-4.1433 -1.1813 2.2368
-4.0979 -1.3292 2.2368
-4.0472 -1.4754 2.2368
-3.9913 -1.6196 2.2368
-3.9302 -1.7617 2.2368
-3.8642 -1.9015 2.2368
-3.7931 -2.0389 2.2368
-3.7171 -2.1736 2.2368
-3.6364 -2.3055 2.2368
-3.5510 -2.4344 2.2368
-3.4611 -2.5602 2.2368
-3.3667 -2.6826 2.2368
-3.2680 -2.8016 2.2368
-3.1651 -2.9169 2.2368
-3.0581 -3.0285 2.2368
-2.9472 -3.1362 2.2368
-2.8325 -3.2398 2.2368
-2.7142 -3.3393 2.2368
-2.5923 -3.4344 2.2368
-2.4672 -3.5251 2.2368
-2.3389 -3.6112 2.2368
-2.2076 -3.6927 2.2368
-2.0735 -3.7695 2.2368
-1.9367 -3.8414 2.2368
-1.7974 -3.9083 2.2368
-0.9046 -2.1689 1.2219
-1.5122 -4.0270 2.2368
-1.3665 -4.0786 2.2368
-1.2191 -4.1249 2.2368
-1.0702 -4.1659 2.2368
-0.9198 -4.2016 2.2368
-0.7683 -4.2319 2.2368
-0.6158 -4.2567 2.2368
-0.4626 -4.2760 2.2368
-0.3087 -4.2898 2.2368
-0.1544 -4.2981 2.2368
0.0001 -4.0741 2.2368
