ply
format ascii 1.0
element vertex 2053
property float32 x
property float32 y
property float32 z
end_header
23.4710 0.2130 -0.9127
23.4765 1.0566 -0.9116
23.4821 1.9034 -0.9118
23.4876 2.7555 -0.9132
23.4932 3.6152 -0.9157
23.4989 4.4849 -0.9196
23.5047 5.3670 -0.9247
23.5106 6.2642 -0.9311
15.1822 4.6348 -0.6062
14.6475 5.0531 -0.5904
23.5289 9.0746 -0.9590
53.5728 22.9032 -2.2111
52.9126 24.9038 -2.2149
26.7504 13.7842 -1.1375
52.2838 29.3626 -2.2624
49.3768 30.1109 -2.1780
15.1095 9.9752 -0.6806
14.6829 10.4692 -0.6768
46.9591 36.0936 -2.2191
49.7269 41.1428 -2.4143
42.6719 37.9665 -2.1333
38.7106 37.0153 -1.9976
33.9225 34.8521 -1.8114
31.7887 35.0967 -1.7613
28.5475 33.8873 -1.6461
27.6666 35.3421 -1.6655
26.3413 36.2588 -1.6612
27.4585 40.7997 -1.8211
29.3145 47.1254 -2.0533
2.5169 4.3901 -0.1870
26.8885 51.0637 -2.1318
24.6360 51.1603 -2.0961
21.5392 49.1702 -1.9805
36.2873 91.6557 -3.6351
26.8848 75.7433 -2.9627
23.8665 75.7630 -2.9272
20.9142 75.7824 -2.8964
18.8610 79.3461 -3.0044
2.9934 23.6934 -0.8799
1.8917 35.0801 -1.2952
0.6306 35.0883 -1.2943
-0.6293 35.0965 -1.2953
-1.8122 33.6322 -1.2436
-3.0267 33.6402 -1.2480
-4.2496 33.6482 -1.2541
-5.4843 33.6562 -1.2620
-6.7342 33.6644 -1.2717
-8.0027 33.6727 -1.2834
-9.2937 33.6811 -1.2970
-22.4976 51.3635 -2.0924
-22.6836 47.1104 -1.9540
-22.5526 42.8333 -1.8118
-22.3536 38.9926 -1.6849
-22.5958 36.3274 -1.6065
-23.7199 35.2475 -1.5982
-25.6138 35.2599 -1.6423
-26.4523 33.7933 -1.6202
-19.5649 23.2261 -1.1487
-30.6309 33.8206 -1.7294
-32.9310 33.8356 -1.7931
-40.0940 38.3404 -2.1111
-6.9691 6.2010 -0.3557
-42.7494 35.3719 -2.1205
-44.1140 33.9088 -2.1310
-31.4410 22.4193 -1.4822
-57.9837 38.2827 -2.6729
-59.8283 36.4863 -2.7019
-61.6735 34.6377 -2.7336
-44.1892 22.7714 -1.9255
-72.9742 34.3479 -3.1314
-54.4827 23.2935 -2.3059
-55.3441 21.3461 -2.3138
-73.3560 25.3078 -3.0340
-96.3502 25.6732 -3.9172
-37.0311 5.6988 -1.4823
-27.6013 3.2383 -1.1021
-27.2967 2.2128 -1.0886
-40.6651 1.8304 -1.6218
-27.6620 0.2511 -1.1047
-28.3284 -0.7601 -1.1342
-28.4884 -1.7895 -1.1451
-39.5088 -3.9097 -1.5962
-35.5964 -4.8183 -1.4474
-36.0877 -6.2113 -1.4786
-37.7073 -7.8933 -1.5589
-38.1262 -9.4214 -1.5925
-40.1286 -11.4594 -1.6958
-39.4476 -12.8134 -1.6887
-39.9855 -14.5947 -1.7365
-39.3090 -15.9691 -1.7342
-29.5871 -13.2762 -1.3280
-29.4032 -14.4833 -1.3447
-38.3615 -20.6392 -1.7903
-40.8703 -23.9194 -1.9495
-42.1940 -26.7727 -2.0606
-42.5278 -29.1772 -2.1301
-43.1214 -31.9201 -2.2192
-41.8223 -33.3475 -2.2159
-32.8266 -28.1605 -1.7942
-23.8506 -21.9950 -1.3477
-20.8313 -20.6428 -1.2198
-20.2805 -21.5941 -1.2336
-19.7832 -22.6413 -1.2535
-19.2187 -23.6583 -1.2721
-19.4250 -25.7487 -1.3474
-18.3185 -26.1870 -1.3363
-22.0614 -34.0801 -1.6990
-16.5848 -27.7560 -1.3542
-15.5843 -28.3456 -1.3557
-15.0545 -29.8748 -1.4029
-14.5623 -31.6795 -1.4629
-16.9001 -40.5404 -1.8438
-15.0785 -40.1744 -1.8020
-15.3198 -45.7461 -2.0265
-21.1511 -71.5989 -3.1369
-18.9061 -73.6323 -3.1946
-13.7433 -62.8057 -2.7019
-12.0435 -66.3656 -2.8345
-13.2060 -91.3244 -3.8774
5.6418 -78.4199 -1.5241
8.3672 -77.3707 -1.5065
5.2074 -36.0056 -0.7032
6.4374 -35.4696 -0.6956
7.8799 -36.0078 -0.7099
9.4655 -36.8626 -0.7314
11.0734 -37.4831 -0.7495
12.2620 -36.6143 -0.7387
2.7018 -7.1983 -0.1467
18.2481 -43.7736 -0.9026
15.6244 -33.9898 -0.7099
16.6624 -33.0656 -0.7006
17.7350 -32.2575 -0.6944
18.8761 -31.5911 -0.6919
21.1873 -32.7303 -0.7305
22.3678 -31.9762 -0.7286
23.4383 -31.0693 -0.7239
26.3699 -32.4624 -0.7750
32.0262 -36.6543 -0.8984
32.3307 -34.4262 -0.8681
34.5949 -34.2831 -0.8915
36.6706 -33.8191 -0.9092
16.7223 -14.3461 -0.3998
17.9906 -14.3459 -0.4156
18.2455 -13.5068 -0.4082
18.5090 -12.6994 -0.4017
18.7671 -11.9089 -0.3958
18.4400 -10.7929 -0.3786
22.5558 -12.1366 -0.4516
21.3873 -10.5360 -0.4182
21.5616 -9.6761 -0.4125
21.8255 -8.8677 -0.4090
22.0881 -8.0633 -0.4061
22.3616 -7.2647 -0.4039
44.5050 -12.7115 -0.7907
45.2436 -11.1826 -0.7919
45.6779 -9.5644 -0.7886
46.4755 -8.0018 -0.7925
44.0451 -5.9644 -0.7428
44.1136 -4.3679 -0.7367
44.2470 -2.7819 -0.7327
44.0742 -1.1853 -0.7247
23.4710 0.2116 -0.3836
23.4765 1.0553 -0.3820
23.3284 1.8896 -0.3783
23.3339 2.7361 -0.3777
23.3395 3.5903 -0.3775
23.3451 4.4543 -0.3779
23.3509 5.3306 -0.3788
23.3567 6.2219 -0.3803
15.1822 4.6340 -0.2484
14.6475 5.0523 -0.2412
23.3749 9.0139 -0.3881
41.3425 17.6722 -0.6930
44.5596 20.9699 -0.7553
26.7534 13.7842 -0.4594
50.9712 28.6225 -0.8881
48.4082 29.5174 -0.8574
15.1108 9.9752 -0.2726
14.6829 10.4683 -0.2703
43.5481 33.4692 -0.8200
40.1923 33.2516 -0.7757
38.7880 34.5085 -0.7691
37.4514 35.8088 -0.7648
32.0861 32.9633 -0.6766
30.9503 34.1690 -0.6758
31.4564 37.3382 -0.7135
27.6551 35.3255 -0.6537
26.3030 36.2042 -0.6503
26.7067 39.6809 -0.6933
29.4517 47.3439 -0.8063
2.5168 4.3896 -0.0730
42.5347 80.7740 -1.3148
22.8521 47.4541 -0.7573
21.5947 49.2952 -0.7728
20.3080 51.2931 -0.7911
26.8855 75.7433 -1.1514
23.8670 75.7630 -1.1370
20.9145 75.7824 -1.1247
19.2228 80.8677 -1.1888
2.9927 23.6886 -0.3417
2.0753 38.4927 -0.5524
0.7378 41.0740 -0.5893
-0.6910 38.5108 -0.5533
-2.2046 40.9042 -0.5893
-3.6650 40.7271 -0.5893
-4.8679 38.5381 -0.5609
-6.5501 40.1913 -0.5893
-7.9694 39.8345 -0.5893
-9.1667 38.5661 -0.5766
-9.3001 33.7006 -0.5099
-22.5402 51.4560 -0.8302
-22.6951 47.1300 -0.7759
-22.5960 42.9118 -0.7222
-25.5810 44.6183 -0.7690
-26.8088 43.0969 -0.7621
-26.0298 38.6764 -0.7030
-29.8517 41.0901 -0.7693
-26.4701 33.8129 -0.6535
-29.9043 35.4969 -0.7096
-33.6165 37.1136 -0.7693
-34.3952 35.3367 -0.7614
-40.0266 38.2722 -0.8594
-6.9688 6.2001 -0.1455
-42.7777 35.3915 -0.8705
-44.1445 33.9285 -0.8776
-31.5210 22.4738 -0.6134
-51.4672 33.9763 -0.9825
-58.1734 35.4727 -1.0915
-61.6735 34.6332 -1.1393
-43.9682 22.6544 -0.8011
-73.6006 34.6376 -1.3248
-54.9558 23.4920 -0.9788
-73.8189 25.4627 -1.2932
-96.5770 25.7276 -1.6737
-41.3459 6.3604 -0.7122
-27.8507 3.2659 -0.4800
-37.4259 3.0317 -0.6462
-41.9206 1.8845 -0.7260
-40.4616 0.3650 -0.7038
-29.5913 -0.7957 -0.5176
-42.7642 -2.6886 -0.7531
-40.0469 -3.9652 -0.7108
-35.1415 -4.7587 -0.6295
-35.5120 -6.1142 -0.6428
-39.0987 -8.1868 -0.7161
-38.8002 -9.5901 -0.7198
-39.8104 -11.3707 -0.7491
-40.5572 -13.1760 -0.7750
-39.3314 -14.3581 -0.7643
-39.6128 -16.0948 -0.7839
-39.1635 -17.5755 -0.7902
-29.7594 -14.6605 -0.6132
-38.7713 -20.8619 -0.8170
-40.2024 -23.5309 -0.8677
-42.6416 -27.0593 -0.9441
-44.5163 -30.5442 -1.0128
-42.6889 -31.6025 -0.9998
-40.8162 -32.5477 -0.9858
-24.9430 -21.3990 -0.6225
-24.1970 -22.3160 -0.6253
-21.0022 -20.8134 -0.5633
-20.4485 -21.7744 -0.5705
-19.8853 -22.7594 -0.5787
-19.4786 -23.9795 -0.5929
-19.0662 -25.2744 -0.6089
-18.1466 -25.9425 -0.6101
-19.0577 -29.4415 -0.6771
-21.2724 -35.6027 -0.8021
-16.1830 -29.4357 -0.6506
-15.2758 -30.3149 -0.6583
-14.6677 -31.9097 -0.6819
-13.4556 -32.2787 -0.6797
-22.8990 -61.0128 -1.2676
-21.7659 -64.9965 -1.3342
-22.8769 -77.4425 -1.5725
-20.4589 -79.6812 -1.6025
-14.0525 -64.2191 -1.2808
-12.1099 -66.7308 -1.3213
-13.5939 -94.0043 -1.8501
1.9837 -27.5791 0.0868
5.4095 -50.0300 0.1593
5.2552 -36.3416 0.1173
6.5089 -35.8681 0.1177
7.8910 -36.0626 0.1205
2.1747 -8.4699 0.0289
10.9142 -36.9482 0.1289
12.0915 -36.1086 0.1291
2.7009 -7.1968 0.0264
15.5324 -37.2627 0.1409
15.4974 -33.7166 0.1315
16.4662 -32.6792 0.1318
17.4636 -31.7669 0.1327
18.6424 -31.2027 0.1353
22.2094 -34.3124 0.1547
22.2167 -31.7630 0.1493
23.4588 -31.0992 0.1527
25.6953 -31.6349 0.1627
28.8961 -33.0749 0.1785
32.2516 -34.3452 0.1951
34.1748 -33.8702 0.2029
36.1861 -33.3757 0.2115
16.7195 -14.3451 0.0964
17.9910 -14.3477 0.1026
19.5616 -14.4828 0.1106
24.7036 -16.9516 0.1386
19.1154 -12.1314 0.1067
18.4347 -10.7912 0.1026
22.5481 -12.1341 0.1252
21.3782 -10.5330 0.1187
21.6861 -9.7335 0.1205
41.1206 -16.7100 0.2291
43.9577 -16.0497 0.2458
22.3604 -7.2657 0.1257
43.0122 -12.2878 0.2432
43.7339 -10.8122 0.2492
44.4930 -9.3190 0.2556
44.1550 -7.6050 0.2561
43.4205 -5.8824 0.2546
43.6456 -4.3241 0.2589
43.8290 -2.7582 0.2632
43.7157 -1.1782 0.2662
23.4710 0.2103 0.1450
23.4765 1.0540 0.1473
23.3494 1.8900 0.1489
23.4489 2.7483 0.1522
23.4545 3.6066 0.1551
23.4602 4.4749 0.1581
23.4660 5.3556 0.1614
23.4718 6.2513 0.1649
15.1822 4.6331 0.1091
14.6475 5.0515 0.1077
23.4902 9.0570 0.1770
40.7146 17.4015 0.3148
40.7091 19.1555 0.3232
26.7563 13.7841 0.2185
49.4068 27.7412 0.4153
47.5032 28.9627 0.4116
15.1121 9.9752 0.1352
14.6829 10.4674 0.1358
43.8389 33.6900 0.4197
40.2425 33.2907 0.3996
38.4081 34.1681 0.3962
37.0728 35.4445 0.3981
32.3746 33.2576 0.3627
31.2292 34.4749 0.3657
31.0282 36.8279 0.3808
33.5620 42.8685 0.4329
28.1838 38.7910 0.3831
26.8470 39.8873 0.3860
29.3696 47.2096 0.4482
2.5166 4.3891 0.0409
25.0055 47.4838 0.4357
23.1935 48.1612 0.4353
21.7631 49.6782 0.4428
27.0268 68.2611 0.6007
26.8862 75.7433 0.6587
23.8675 75.7630 0.6519
20.9148 75.7824 0.6458
19.6919 82.8405 0.6999
2.9920 23.6839 0.1960
2.0750 38.4927 0.3158
-0.6915 38.5108 0.3142
-2.3148 42.9368 0.3498
-3.8655 42.9469 0.3497
-4.8687 38.5381 0.3139
-9.1677 38.5661 0.3162
-9.3010 33.7007 0.2774
-22.2315 50.7467 0.4290
-22.2610 46.2245 0.3944
-22.2865 42.3203 0.3649
-22.3088 38.9075 0.3395
-22.3285 35.8913 0.3173
-23.4921 34.9026 0.3131
-25.3677 34.9149 0.3182
-26.1587 33.4121 0.3099
-28.1616 33.4252 0.3161
-30.2911 33.4391 0.3230
-32.5658 33.4539 0.3306
-35.0077 33.4699 0.3392
-6.9685 6.1992 0.0646
-43.7064 36.1561 0.3881
-44.1493 33.9285 0.3764
-29.8304 21.2660 0.2446
-51.6595 34.0992 0.4079
-58.2130 35.4925 0.4434
-61.7166 34.6529 0.4540
-69.6483 35.8810 0.4956
-64.4157 24.8365 0.4179
-96.3891 25.6716 0.5762
-40.0179 7.6333 0.2277
-37.0597 5.6988 0.2061
-37.6790 4.4162 0.2050
-38.0499 3.0800 0.2028
-40.1291 1.8017 0.2097
-43.0697 0.3861 0.2209
-40.3427 -1.0871 0.2033
-39.1670 -2.4646 0.1942
-39.3264 -3.8961 0.1920
-35.2305 -4.7727 0.1696
-35.9805 -6.1969 0.1710
-34.8648 -7.3022 0.1637
-24.7705 -6.1238 0.1151
-39.7556 -11.3573 0.1831
-38.0515 -12.3641 0.1739
-40.5767 -14.8150 0.1843
-39.7788 -16.1645 0.1799
-25.4991 -11.4448 0.1150
-29.7470 -14.6561 0.1339
-40.1677 -21.6156 0.1809
-40.7411 -23.8486 0.1839
-41.3224 -26.2245 0.1874
-16.5501 -11.3565 0.0757
-40.3739 -29.8912 0.1858
-24.6129 -19.6284 0.1145
-23.8746 -20.4839 0.1126
-23.7840 -21.9365 0.1141
-21.1757 -20.9868 0.1035
-20.6193 -21.9575 0.1031
-19.9883 -22.8787 0.1025
-19.7454 -24.3093 0.1043
-20.0213 -26.5419 0.1094
-17.9780 -25.7028 0.1020
-19.1261 -29.5484 0.1132
-21.3584 -35.7482 0.1326
-20.6901 -37.6353 0.1355
-15.3702 -30.5036 0.1069
-6.6966 -14.5691 0.0498
-17.8105 -42.7270 0.1429
-23.6938 -63.1320 0.2071
-20.7439 -61.9460 0.1998
-22.8697 -77.4193 0.2461
-21.9434 -85.4636 0.2685
-6.8902 -31.4882 0.0980
-0.0013 -87.2377 2.2350
2.9830 -83.0874 2.1317
4.6413 -64.5420 1.6607
4.0232 -37.2147 0.9616
5.2043 -35.9943 0.9354
6.5133 -35.8968 0.9396
1.8519 -8.4644 0.2235
2.1744 -8.4699 0.2259
2.5013 -8.4686 0.2285
12.0028 -35.8471 0.9798
2.7001 -7.1953 0.1996
14.8698 -35.6762 1.0056
15.4198 -33.5509 0.9627
16.4073 -32.5651 0.9527
17.3585 -31.5784 0.9436
18.4897 -30.9500 0.9463
19.8618 -30.6883 0.9618
22.0635 -31.5468 1.0155
23.5010 -31.1581 1.0322
25.5724 -31.4865 1.0757
28.6173 -32.7589 1.1567
32.3098 -34.4104 1.2587
34.1034 -33.8028 1.2842
36.0444 -33.2484 1.3153
16.7167 -14.3442 0.5926
17.9914 -14.3495 0.6210
19.5612 -14.4841 0.6589
24.6982 -16.9499 0.8134
19.1062 -12.1270 0.6165
18.4294 -10.7895 0.5836
22.5405 -12.1316 0.7018
21.3692 -10.5301 0.6553
21.6740 -9.7296 0.6555
41.0381 -16.6792 1.2265
43.7521 -15.9775 1.2940
22.3593 -7.2668 0.6553
42.9356 -12.2687 1.2488
43.2915 -10.7055 1.2513
43.8672 -9.1906 1.2617
43.3788 -7.4739 1.2433
43.0479 -5.8345 1.2310
43.2382 -4.2863 1.2353
43.4360 -2.7360 1.2413
43.3811 -1.1716 1.2418
23.4710 0.2090 0.6738
23.4765 1.0526 0.6767
23.3494 1.8887 0.6767
23.4489 2.7470 0.6841
23.4545 3.6053 0.6897
23.4602 4.4736 0.6962
23.4660 5.3543 0.7036
14.5629 3.8777 0.4418
15.1822 4.6323 0.4667
14.6475 5.0506 0.4568
14.5743 5.6185 0.4617
40.5280 17.3195 1.3063
20.0431 9.4300 0.6582
26.7592 13.7841 0.8966
42.7063 23.9765 1.4624
14.9405 9.1084 0.5237
14.6006 9.6366 0.5247
14.6829 10.4665 0.5420
14.6110 11.2276 0.5550
40.4223 33.4369 1.5833
38.3805 34.1412 1.5532
36.4355 34.8328 1.5269
32.6684 33.5574 1.4211
32.1985 35.5428 1.4575
31.3164 37.1678 1.4793
29.3971 37.5467 1.4535
27.6793 38.0948 1.4372
26.5013 39.3719 1.4502
25.5690 41.0986 1.4807
2.5164 4.3885 0.1549
24.1113 45.7841 1.5859
23.0462 47.8536 1.6292
21.5431 49.1744 1.6478
20.4449 51.6357 1.7056
19.7976 55.7719 1.8184
21.1614 67.1719 2.1647
19.8483 71.9172 2.2937
17.2513 72.5729 2.2937
14.6344 73.1432 2.2937
12.0000 73.6265 2.2937
2.9912 23.6791 0.7337
6.7223 74.6979 2.3050
1.8722 34.7368 1.0687
0.6234 34.7450 1.0670
-0.5974 33.2450 1.0203
-1.7932 33.2528 1.0212
-2.9942 33.2607 1.0232
-4.2036 33.2686 1.0265
-5.4246 33.2766 1.0310
-6.6606 33.2846 1.0368
-7.9150 33.2928 1.0439
-9.1918 33.3012 1.0525
-13.0760 41.5027 1.3237
-23.7352 66.8590 2.1550
-16.4042 41.4274 1.3512
-22.2315 50.7421 1.6771
-22.2611 46.2204 1.5502
-22.2866 42.3166 1.4424
-22.3088 38.9040 1.3498
-22.3285 35.8882 1.2695
-23.4942 34.9026 1.2610
-25.3700 34.9149 1.2906
-26.1611 33.4121 1.2660
-28.1642 33.4252 1.3008
-30.2940 33.4391 1.3395
-32.5690 33.4540 1.3825
-35.0111 33.4699 1.4304
-6.9681 6.1982 0.2747
-42.3445 35.0258 1.6141
-43.6307 33.5263 1.6116
-47.0651 33.5487 1.6879
-50.8693 33.5736 1.7747
-57.7338 35.1960 1.9630
-61.1275 34.3176 2.0290
-43.6130 22.4652 1.4155
-67.7925 31.8948 2.1550
-69.1119 29.5340 2.1550
-64.4241 24.8354 1.9734
-61.3213 21.1439 1.8479
-71.8075 21.9090 2.1319
-31.8708 8.4862 0.9335
-31.8787 7.2737 0.9224
-31.8865 6.0803 0.9127
-31.8942 4.9026 0.9043
-31.9018 3.7372 0.8972
-31.9094 2.5811 0.8912
-31.9169 1.4311 0.8865
-31.9244 0.2843 0.8829
-31.9319 -0.8623 0.8805
-31.9394 -2.0116 0.8793
-31.9469 -3.1668 0.8792
-31.9546 -4.3307 0.8802
-31.9622 -5.5066 0.8825
-25.8976 -5.4255 0.7177
-31.9779 -7.9075 0.8907
-31.9860 -9.1395 0.8967
-31.9942 -10.3977 0.9041
-32.0026 -11.6863 0.9129
-26.3141 -10.6945 0.7588
-24.6424 -11.0616 0.7196
-29.7411 -14.6548 0.8808
-32.0390 -17.2431 0.9639
-30.0522 -17.5933 0.9201
-27.7433 -17.6084 0.8660
-25.6785 -17.6219 0.8187
-23.9017 -17.6972 0.7800
-24.7564 -19.7444 0.8285
-24.0137 -20.6048 0.8261
-24.0737 -22.2053 0.8532
-21.3522 -21.1631 0.7816
-20.7929 -22.1438 0.7882
-20.0924 -22.9992 0.7910
-19.9025 -24.5040 0.8163
-19.4654 -25.8063 0.8345
-17.8125 -25.4674 0.8011
-19.1949 -29.6562 0.9094
-20.1723 -33.7644 1.0112
-20.3349 -36.9908 1.0840
-15.1896 -30.1462 0.8660
-6.6964 -14.5691 0.4110
-17.8018 -42.7075 1.1851
-20.6765 -55.0938 1.5063
-19.9476 -59.5692 1.6072
-20.5628 -69.6112 1.8564
-20.0891 -78.2422 2.0655
-17.8817 -81.7192 2.1387
-15.0506 -82.9342 2.1550
-12.0622 -83.4084 2.1550
-7.0949 -65.6095 1.6879
-6.2674 -87.1183 2.2350
-3.1347 -87.2400 2.2350
-0.0012 -46.3963 2.2350
1.5865 -44.2057 2.1317
3.1705 -44.0985 2.1317
4.1439 -38.3377 1.8603
5.3700 -37.1454 1.8118
6.4658 -35.6395 1.7497
7.9178 -36.1934 1.7911
2.1742 -8.4699 0.4231
10.9609 -37.1136 1.8740
12.0981 -36.1353 1.8470
2.6993 -7.1938 0.3728
18.2563 -43.8054 2.3050
15.6637 -34.0847 1.8239
16.6013 -32.9533 1.7962
17.4795 -31.8014 1.7687
18.6356 -31.1970 1.7734
25.6279 -39.6009 2.3050
22.3893 -32.0157 1.9117
23.8203 -31.5843 1.9385
26.4477 -32.5672 2.0587
28.7714 -32.9385 2.1494
29.8895 -31.8358 2.1494
30.9644 -30.6943 2.1494
31.9948 -29.5158 2.1494
16.7139 -14.3433 1.0893
17.9918 -14.3514 1.1401
19.5608 -14.4854 1.2079
24.6928 -16.9481 1.4888
19.0983 -12.1235 1.1264
18.4241 -10.7877 1.0650
22.5327 -12.1290 1.2788
21.3602 -10.5271 1.1921
21.6619 -9.7256 1.1908
39.6294 -16.1093 2.1494
40.1088 -14.6496 2.1494
22.3581 -7.2678 1.1856
40.9059 -11.6913 2.1494
41.2232 -10.1966 2.1494
41.4863 -8.6943 2.1494
41.6950 -7.1862 2.1494
41.8493 -5.6745 2.1494
41.9495 -4.1610 2.1494
41.9957 -2.6477 2.1494
41.9880 -1.1364 2.1494
23.4710 0.2076 1.2032
23.4765 1.0513 1.2068
23.3494 1.8874 1.2051
23.3967 2.7396 1.2139
23.4023 3.5960 1.2222
23.4080 4.4623 1.2322
23.4137 5.3410 1.2438
14.5629 3.8769 0.7818
15.1822 4.6314 0.8248
14.6475 5.0498 0.8063
14.5743 5.6177 0.8141
20.3375 8.6900 1.1544
19.0221 8.9486 1.0989
18.9423 9.7564 1.1154
35.7558 20.0722 2.1494
14.7634 8.9995 0.9075
14.6006 9.6357 0.9194
14.6829 10.4656 0.9488
14.6110 11.2267 0.9707
31.4033 25.9746 2.1494
30.4178 27.0561 2.1494
29.3966 28.1017 2.1494
28.3411 29.1105 2.1494
27.2526 30.0814 2.1494
26.1326 31.0137 2.1494
24.9820 31.9059 2.1494
23.8026 32.7576 2.1494
22.5956 33.5677 2.1494
22.8184 36.6757 2.2959
2.5162 4.3880 0.2690
20.0872 38.1413 2.2937
18.6964 38.8203 2.2937
17.2838 39.4509 2.2937
15.8511 40.0326 2.2937
14.3998 40.5650 2.2937
12.9315 41.0473 2.2937
11.4479 41.4790 2.2937
9.9505 41.8598 2.2937
8.4411 42.1892 2.2937
6.9213 42.4668 2.2937
2.9905 23.6743 1.2719
3.8763 43.0760 2.3050
1.8719 34.7368 1.8535
0.6230 34.7450 1.8510
-0.5978 33.2450 1.7705
-1.7937 33.2528 1.7725
-2.9948 33.2607 1.7766
-4.2042 33.2686 1.7830
-5.4253 33.2766 1.7917
-6.6613 33.2846 1.8026
-7.9159 33.2928 1.8160
-9.1927 33.3012 1.8319
-12.3868 39.3113 2.1837
-13.8024 38.8758 2.1837
-15.2034 38.3913 2.1837
-16.5883 37.8584 2.1837
-17.9556 37.2775 2.1837
-19.3034 36.6490 2.1837
-20.3587 35.5001 2.1550
-21.6460 34.7880 2.1550
-22.8962 34.0112 2.1537
-24.1336 33.2102 2.1537
-25.3440 32.3656 2.1537
-19.0706 22.6308 1.5484
-27.6785 30.5492 2.1537
-28.7993 29.5790 2.1537
-29.8874 28.5689 2.1537
-6.9678 6.1973 0.4850
-31.6811 26.2027 2.1350
-32.6536 25.0886 2.1350
-31.2140 22.2473 1.9841
-34.4304 22.7213 2.1317
-35.2835 21.5070 2.1317
-37.0331 20.7881 2.1872
-38.6481 19.9050 2.2350
-39.4069 18.5373 2.2350
-40.1180 17.1412 2.2350
-22.3622 8.6191 1.2256
-24.9950 8.6168 1.3496
-28.4049 8.6648 1.5132
-31.8708 8.4842 1.6774
-29.6885 6.7721 1.5459
-31.8865 6.0784 1.6449
-31.8942 4.9007 1.6322
-31.9018 3.7353 1.6217
-31.9094 2.5793 1.6133
-31.9169 1.4293 1.6071
-31.9244 0.2825 1.6030
-31.9319 -0.8641 1.6010
-31.9394 -2.0134 1.6011
-31.9470 -3.1686 1.6033
-31.9546 -4.3325 1.6076
-26.2812 -4.5293 1.3271
-31.9700 -6.6995 1.6227
-31.9779 -7.9092 1.6337
-31.9860 -9.1413 1.6470
-31.9942 -10.3995 1.6629
-26.1661 -9.5565 1.3747
-32.0113 -13.0117 1.7025
-32.0202 -14.3752 1.7266
-29.6879 -14.6304 1.6257
-32.0390 -17.2449 1.7846
-30.0492 -17.5933 1.7054
-27.7407 -17.6084 1.6070
-25.6763 -17.6219 1.5210
-23.8144 -17.6340 1.4454
-22.1226 -17.6451 1.3786
-20.5747 -17.6552 1.3192
-19.1496 -17.6645 1.2663
-17.8300 -17.6731 1.2189
-16.6015 -17.6811 1.1763
-15.4522 -17.6886 1.1381
-14.3719 -17.6957 1.1036
-13.3520 -17.7024 1.0725
-12.3853 -17.7087 1.0444
-11.4653 -17.7147 1.0191
-10.5865 -17.7204 0.9962
-17.8218 -32.4205 1.7844
-17.8637 -35.4548 1.9139
-17.7249 -38.5648 2.0451
-16.9020 -40.5503 2.1160
-15.7256 -41.9030 2.1550
-14.2152 -42.4516 2.1550
-12.6849 -42.9428 2.1550
-11.1368 -43.3759 2.1550
-9.4708 -43.2816 2.1319
-7.9112 -43.5931 2.1319
-6.5033 -44.9680 2.1865
-4.9927 -46.1674 2.2350
-3.3317 -46.3067 2.2350
-1.6671 -46.3830 2.2350
-0.0012 -31.5799 2.2350
1.1318 -31.5504 2.2350
2.0804 -28.9431 2.0550
3.2331 -29.9164 2.1317
4.3029 -29.7684 2.1317
5.3660 -29.5808 2.1317
6.4740 -29.5968 2.1494
2.1887 -8.5273 0.6249
8.5704 -29.0225 2.1494
9.6004 -28.6778 2.1494
2.6985 -7.1923 0.5463
11.6166 -27.8762 2.1494
12.6000 -27.4205 2.1494
13.5652 -26.9291 2.1494
14.5109 -26.4029 2.1494
15.4358 -25.8426 2.1494
16.3386 -25.2491 2.1494
17.2182 -24.6235 2.1494
18.0734 -23.9665 2.1494
18.9032 -23.2791 2.1494
19.7064 -22.5626 2.1494
20.4819 -21.8178 2.1494
21.2289 -21.0459 2.1494
21.9465 -20.2481 2.1494
16.7111 -14.3424 1.5869
17.9921 -14.3532 1.6604
19.5604 -14.4867 1.7581
24.5048 -16.8210 2.1494
19.0973 -12.1243 1.6378
18.4188 -10.7860 1.5472
22.5251 -12.1265 1.8567
21.3511 -10.5241 1.7298
21.6498 -9.7217 1.7266
27.3312 -11.1119 2.1494
27.6774 -10.1109 2.1494
22.3570 -7.2689 1.7170
28.2596 -8.0786 2.1494
28.4949 -7.0500 2.1494
28.6930 -6.0149 2.1494
28.8536 -4.9747 2.1494
28.9768 -3.9308 2.1494
29.0624 -2.8844 2.1494
29.1105 -1.8370 2.1494
29.1212 -0.7899 2.1494
23.4710 0.2063 1.7339
23.4765 1.0500 1.7381
23.3494 1.8860 1.7347
23.3967 2.7382 1.7465
23.4023 3.5947 1.7575
23.4080 4.4610 1.7709
23.4137 5.3397 1.7868
14.5629 3.8761 1.1225
15.1822 4.6306 1.1836
14.6475 5.0490 1.1566
14.5743 5.6169 1.1672
20.1516 8.6094 1.6393
18.4119 8.6605 1.5237
18.1009 9.3220 1.5262
24.9803 14.0217 2.1494
14.7807 9.0092 1.3000
14.6006 9.6349 1.3149
14.6829 10.4648 1.3565
14.6110 11.2258 1.3873
21.9800 18.1789 2.1494
21.2969 18.9419 2.1494
20.5883 19.6801 2.1494
19.8549 20.3926 2.1494
19.0976 21.0786 2.1494
18.3173 21.7374 2.1494
17.5151 22.3683 2.1494
16.6919 22.9705 2.1494
15.8487 23.5435 2.1494
14.9865 24.0866 2.1494
2.5160 4.3875 0.3834
13.2093 25.0806 2.1494
12.2964 25.5306 2.1494
11.3686 25.9483 2.1494
10.4273 26.3336 2.1494
9.4733 26.6860 2.1494
8.5078 27.0049 2.1494
7.5320 27.2901 2.1494
6.5470 27.5414 2.1494
5.5538 27.7583 2.1494
4.5538 27.9406 2.1494
2.9898 23.6696 1.8112
2.5427 28.2582 2.1537
1.5267 28.3359 2.1537
0.5085 28.3782 2.1537
-0.5108 28.3853 2.1537
-1.5301 28.3570 2.1537
-2.5480 28.2932 2.1537
-3.5635 28.1942 2.1537
-3.0169 18.5021 1.4201
-3.7976 18.9730 1.4651
-4.6244 19.4472 1.5128
-5.4901 19.8861 1.5605
-6.3898 20.2769 1.6072
-7.2894 20.5294 1.6458
-8.1837 20.6634 1.6780
-9.0917 20.7475 1.7090
-10.0290 20.8192 1.7422
-13.2082 25.0746 2.1350
-12.0365 20.9865 1.8211
-13.0719 21.0064 1.8608
-15.8447 23.5343 2.1319
-16.6944 22.9711 2.1319
-17.5248 22.3779 2.1319
-18.3346 21.7553 2.1319
-19.1228 21.1041 2.1319
-20.1443 20.6876 2.1593
-21.6281 20.6719 2.2350
-6.9674 6.1964 0.6958
-23.1056 19.1081 2.2350
-23.8034 18.2868 2.2350
-11.9883 8.5435 1.0949
-12.9574 8.5498 1.1532
-14.0398 8.5569 1.2200
-15.2874 8.5803 1.2992
-16.6268 8.5621 1.3843
-14.5824 6.8586 1.1914
-26.5508 11.3425 2.1319
-22.3623 8.6177 1.7674
-25.0344 8.6288 1.9503
-27.2840 8.3211 2.0983
-27.4611 7.3087 2.0878
-27.2146 6.2062 2.0482
-26.1085 4.9754 1.9477
-25.3103 3.8875 1.8741
-25.4923 2.9834 1.8761
-26.6658 2.1539 1.9530
-27.5844 1.2337 2.0132
-27.7774 0.2442 2.0228
-27.8506 -0.7553 2.0262
-27.8355 -1.7563 2.0259
-27.6940 -2.7483 2.0190
-27.5484 -3.7366 2.0144
-27.4296 -4.7288 2.0144
-27.3414 -5.7311 2.0193
-27.1889 -6.7263 2.0222
-24.9464 -7.1308 1.8711
-26.5523 -8.6321 2.0112
-26.2827 -9.6006 2.0133
-25.9630 -10.5547 2.0144
-25.5947 -11.4920 2.0144
-25.1920 -12.4162 2.0144
-24.7552 -13.3259 2.0144
-24.2848 -14.2198 2.0144
-23.7815 -15.0967 2.0144
-16.4237 -11.2727 1.4232
-22.6783 -16.7942 2.0144
-22.0799 -17.6124 2.0144
-20.5732 -17.6552 1.9319
-19.1483 -17.6645 1.8550
-17.8288 -17.6731 1.7862
-16.6005 -17.6811 1.7244
-15.4513 -17.6886 1.6689
-14.3711 -17.6957 1.6188
-13.3513 -17.7024 1.5736
-12.3847 -17.7087 1.5328
-11.4647 -17.7147 1.4960
-10.5860 -17.7204 1.4627
-14.6171 -26.5918 2.1494
-13.6937 -27.1794 2.1550
-12.7135 -27.6622 2.1550
-11.7157 -28.1084 2.1550
-10.7018 -28.5172 2.1550
-9.5696 -28.5787 2.1319
-8.5389 -28.9076 2.1319
-7.4965 -29.1979 2.1319
-6.4440 -29.4493 2.1319
-5.6432 -31.0957 2.2350
-4.5233 -31.2764 2.2350
-3.3976 -31.4154 2.2350
-2.2675 -31.5123 2.2350
-1.1349 -31.5672 2.2350
-0.0012 -23.9175 2.2350
0.8569 -23.8969 2.2350
1.6836 -23.4280 2.1959
2.4488 -22.6632 2.1317
3.2595 -22.5533 2.1317
4.0654 -22.4138 2.1317
4.8652 -22.2448 2.1317
2.1885 -8.5274 0.8245
6.4959 -21.9997 2.1494
7.2777 -21.7418 2.1494
2.6977 -7.1908 0.7204
8.8091 -21.1411 2.1494
9.5567 -20.7994 2.1494
10.2907 -20.4306 2.1494
11.0104 -20.0354 2.1494
11.7146 -19.6144 2.1494
12.4025 -19.1681 2.1494
13.0731 -18.6973 2.1494
13.7256 -18.2027 2.1494
14.3592 -17.6849 2.1494
14.9730 -17.1447 2.1494
15.5662 -16.5830 2.1494
16.1381 -16.0005 2.1494
16.6879 -15.3980 2.1494
16.7083 -14.3415 2.0861
17.7188 -14.1367 2.1494
18.1986 -13.4796 2.1494
18.6538 -12.8061 2.1494
19.0839 -12.1172 2.1494
18.4135 -10.7843 2.0308
19.8669 -10.6969 2.1494
20.2189 -9.9675 2.1494
20.5440 -9.2265 2.1494
20.8418 -8.4750 2.1494
21.1121 -7.7139 2.1494
21.3546 -6.9444 2.1494
21.5691 -6.1674 2.1494
21.7553 -5.3839 2.1494
21.9131 -4.5950 2.1494
22.0424 -3.8017 2.1494
22.1430 -3.0051 2.1494
22.2150 -2.2061 2.1494
22.2584 -1.4059 2.1494
22.2731 -0.6054 2.1494
21.9344 0.1915 2.1180
21.8892 0.9777 2.1177
21.8944 1.7673 2.1249
21.8996 2.5618 2.1350
21.9048 3.3634 2.1478
21.7659 4.1468 2.1494
21.5838 4.9212 2.1494
14.5629 3.8753 1.4644
15.1821 4.6297 1.5437
14.6475 5.0482 1.5081
14.5743 5.6160 1.5216
20.2730 8.6602 2.1494
18.4343 8.6700 1.9877
19.5692 10.0770 2.1494
19.1807 10.7652 2.1494
14.8057 9.0235 1.6955
14.6005 9.6340 1.7118
14.6829 10.4639 1.7655
14.6109 11.2249 1.8054
16.8936 13.9711 2.1494
16.3715 14.5601 2.1494
15.8294 15.1301 2.1494
15.2679 15.6804 2.1494
14.6877 16.2103 2.1494
14.0896 16.7194 2.1494
13.4743 17.2069 2.1494
12.8425 17.6724 2.1494
12.1952 18.1152 2.1494
11.5329 18.5350 2.1494
2.5158 4.3870 0.4981
10.1670 19.3034 2.1494
9.4650 19.6511 2.1494
8.7514 19.9740 2.1494
8.0272 20.2717 2.1494
7.2931 20.5438 2.1494
6.5500 20.7901 2.1494
5.7870 20.9674 2.1450
5.0302 21.1607 2.1450
4.2672 21.3274 2.1450
3.4987 21.4674 2.1450
2.7258 21.5804 2.1450
1.9494 21.6664 2.1450
1.1704 21.7251 2.1450
0.2683 14.9829 1.4772
-0.2853 15.8419 1.5616
-0.8948 16.5788 1.6359
-1.5542 17.2547 1.7066
-2.7150 21.4774 2.1319
-3.4855 21.3730 2.1319
-4.2522 21.2416 2.1319
-4.7123 19.8145 2.0036
-5.7702 20.8986 2.1319
-6.4899 20.5924 2.1221
-7.2890 20.5262 2.1399
-8.0923 20.4306 2.1577
-8.9936 20.5218 2.1989
-9.8900 20.5289 2.2350
-10.6275 20.1735 2.2351
-11.3527 19.7925 2.2352
-12.0630 19.3834 2.2351
-12.7592 18.9497 2.2350
-13.4407 18.4923 2.2350
-14.1061 18.0109 2.2350
-14.7546 17.5059 2.2350
-15.3854 16.9778 2.2350
-15.9976 16.4275 2.2350
-12.8688 12.2987 1.7336
-6.9671 6.1954 0.9073
-17.7149 14.6485 2.2350
-18.2451 14.0152 2.2350
-11.9896 8.5435 1.4290
-12.9590 8.5498 1.5055
-14.0416 8.5569 1.5931
-15.2874 8.5792 1.6969
-13.3044 6.8503 1.4472
-14.5846 6.8587 1.5571
-20.3115 8.6757 2.1319
-20.8530 8.0347 2.1550
-21.1483 7.2879 2.1550
-21.4170 6.5304 2.1550
-21.6339 5.7564 2.1525
-21.6777 4.9422 2.1357
-21.1557 4.0303 2.0667
-20.4527 3.1402 1.9838
-20.7178 2.4234 1.9978
-21.2774 1.7174 2.0425
-20.9550 0.9360 2.0051
-21.0270 0.1836 2.0081
-21.0237 -0.5713 2.0065
-21.0097 -1.3268 2.0065
-20.9683 -2.0821 2.0065
-20.8996 -2.8360 2.0065
-20.8036 -3.5876 2.0065
-20.6802 -4.3360 2.0065
-20.5298 -5.0800 2.0065
-20.3522 -5.8187 2.0065
-20.1478 -6.5512 2.0065
-19.9167 -7.2763 2.0065
-19.6590 -7.9931 2.0065
-14.6480 -6.5778 1.5170
-19.0656 -9.3978 2.0065
-18.7305 -10.0839 2.0065
-18.3703 -10.7577 2.0065
-17.9855 -11.4184 2.0065
-17.5765 -12.0650 2.0065
-17.1437 -12.6966 2.0065
-16.6879 -13.3124 2.0065
-16.0827 -13.8026 1.9909
-15.1689 -13.9945 1.9375
-15.1614 -15.0299 2.0031
-15.5013 -16.5114 2.1238
-15.1249 -17.3161 2.1550
-14.3703 -17.6957 2.1356
-11.2411 -14.9051 1.7482
-10.4523 -14.9463 1.7072
-10.4064 -16.0801 1.7922
-10.4153 -17.4354 1.8997
-11.1011 -20.1963 2.1550
-10.2609 -20.3668 2.1319
-9.5257 -20.7270 2.1319
-8.7776 -21.0599 2.1319
-8.0175 -21.3650 2.1319
-7.2466 -21.6420 2.1319
-6.4659 -21.8903 2.1319
-5.9511 -23.1788 2.2350
-5.1155 -23.3782 2.2350
-4.2733 -23.5465 2.2350
-3.4253 -23.6837 2.2350
-2.5730 -23.7895 2.2350
-1.7174 -23.8638 2.2350
-0.8597 -23.9065 2.2350
-0.0012 -19.2316 2.2350
0.6888 -19.2158 2.2350
1.3777 -19.1747 2.2350
1.9690 -18.2257 2.1317
2.6211 -18.1385 2.1317
3.2694 -18.0276 2.1317
3.9130 -17.8930 2.1317
2.1883 -8.5276 1.0250
5.1826 -17.5537 2.1317
5.8550 -17.4930 2.1494
2.6968 -7.1893 0.8950
7.0885 -17.0133 2.1494
7.6909 -16.7402 2.1494
8.2826 -16.4453 2.1494
8.8629 -16.1292 2.1494
9.4310 -15.7923 2.1494
9.9862 -15.4351 2.1494
10.5276 -15.0581 2.1494
11.0546 -14.6618 2.1494
11.5666 -14.2469 2.1494
12.0629 -13.8138 2.1494
12.5427 -13.3633 2.1494
13.0056 -12.8960 2.1494
13.4509 -12.4125 2.1494
13.8781 -11.9134 2.1494
14.2866 -11.3996 2.1494
14.6759 -10.8716 2.1494
15.0456 -10.3303 2.1494
15.3953 -9.7763 2.1494
15.7244 -9.2105 2.1494
16.0327 -8.6336 2.1494
16.3197 -8.0464 2.1494
16.5851 -7.4497 2.1494
16.8286 -6.8442 2.1494
17.0501 -6.2309 2.1494
17.2491 -5.6104 2.1494
17.4256 -4.9837 2.1494
17.5793 -4.3515 2.1494
17.7101 -3.7147 2.1494
17.8179 -3.0742 2.1494
17.9025 -2.4307 2.1494
17.9641 -1.7851 2.1494
18.0024 -1.1381 2.1494
18.0176 -0.4908 2.1494
18.0096 0.1562 2.1494
17.9786 0.8020 2.1494
17.9246 1.4458 2.1494
17.8477 2.0868 2.1494
17.7480 2.7242 2.1494
17.6259 3.3571 2.1494
17.4814 3.9848 2.1494
14.5629 3.8744 1.8078
15.1821 4.6288 1.9054
14.6475 5.0473 1.8611
14.5743 5.6152 1.8775
15.6186 6.6711 2.0429
15.3593 7.2228 2.0429
15.0807 7.7648 2.0429
14.7833 8.2963 2.0429
14.4675 8.8166 2.0429
14.1337 9.3251 2.0429
14.0105 9.9838 2.0767
14.0156 10.7667 2.1345
13.7077 11.3355 2.1494
13.2855 11.8147 2.1494
12.8469 12.2785 2.1494
12.3924 12.7264 2.1494
11.9226 13.1578 2.1494
11.4381 13.5722 2.1494
10.9394 13.9691 2.1494
10.4273 14.3481 2.1494
9.9024 14.7088 2.1494
9.3652 15.0506 2.1494
2.5157 4.3865 0.6133
8.2569 15.6763 2.1494
7.6872 15.9594 2.1494
7.1079 16.2223 2.1494
6.5199 16.4647 2.1494
5.9117 16.6522 2.1450
5.3095 16.8522 2.1450
4.7006 17.0308 2.1450
4.0859 17.1880 2.1450
3.4661 17.3235 2.1450
1.9166 11.7599 1.4466
1.5523 12.2901 1.5039
1.1945 13.2773 1.6183
0.7605 14.1188 1.7163
0.3149 17.5925 2.1355
-0.3172 17.6035 2.1365
-0.9497 17.5920 2.1375
-1.5806 17.5441 2.1367
-2.2175 17.5397 2.1440
-2.9511 18.0935 2.2226
-3.6202 18.0825 2.2352
-4.2692 17.9494 2.2355
-4.9134 17.7936 2.2359
-5.5521 17.6152 2.2363
-6.1844 17.4141 2.2366
-6.8096 17.1907 2.2370
-7.4268 16.9449 2.2373
-8.0353 16.6775 2.2376
-8.6343 16.3884 2.2379
-9.2217 16.0758 2.2379
-9.7961 15.7394 2.2375
-10.3567 15.3801 2.2366
-10.9049 15.0022 2.2359
-11.4424 14.6084 2.2357
-6.5413 7.7603 1.2221
-12.4724 13.7621 2.2350
-12.9668 13.3140 2.2350
-12.8251 12.2557 2.1319
-6.9668 6.1945 1.1196
-13.6901 11.3191 2.1319
-14.0975 10.8279 2.1319
-9.2677 6.6031 1.3638
-9.4781 6.2526 1.3598
-14.0434 8.5569 1.9680
-9.4828 5.3209 1.3003
-13.3063 6.8503 1.7883
-14.5868 6.8587 1.9246
-16.6111 7.0940 2.1550
-16.8681 6.4982 2.1550
-17.1039 5.8931 2.1550
-17.2186 5.2491 2.1426
-17.2902 4.5995 2.1279
-17.4100 3.9681 2.1221
-17.4597 3.3251 2.1105
-17.4951 2.6850 2.1001
-17.4481 2.0399 2.0827
-17.6587 1.4242 2.0987
-17.9212 0.7994 2.1234
-17.9099 0.1554 2.1184
-17.7310 -0.4829 2.0963
-17.5709 -1.1107 2.0792
-17.4010 -1.7289 2.0635
-17.1554 -2.3289 2.0414
-16.9112 -2.9174 2.0220
-16.7392 -3.5106 2.0137
-16.7122 -4.1363 2.0256
-16.5949 -4.7455 2.0292
-16.5375 -5.3782 2.0431
-16.3102 -5.9596 2.0387
-16.0630 -6.5319 2.0344
-15.8463 -7.1168 2.0367
-15.6769 -7.7284 2.0480
-14.9285 -8.0379 1.9854
-14.7897 -8.6617 2.0058
-14.2959 -9.0768 1.9806
-13.9924 -9.6056 1.9839
-13.8191 -10.2352 2.0091
-13.6084 -10.8567 2.0327
-13.2739 -11.3928 2.0415
-12.8999 -11.9019 2.0474
-10.3979 -10.3085 1.7072
-10.3735 -11.0502 1.7664
-10.3790 -11.8833 1.8381
-10.3849 -12.7888 1.9185
-10.3914 -13.7792 2.0091
-10.3985 -14.8701 2.1116
-9.9558 -15.3846 2.1319
-9.3999 -15.7364 2.1319
-8.8314 -16.0676 2.1319
-8.2510 -16.3779 2.1319
-7.6594 -16.6667 2.1319
-7.0576 -16.9337 2.1319
-6.4463 -17.1784 2.1319
-6.1081 -18.2421 2.2350
-5.4499 -18.4510 2.2350
-4.7846 -18.6357 2.2350
-4.1128 -18.7958 2.2350
-3.4357 -18.9312 2.2350
-2.7540 -19.0417 2.2350
-2.0688 -19.1270 2.2350
-1.3809 -19.1871 2.2350
-0.6914 -19.2220 2.2350
-0.0012 -16.0672 2.2350
0.5753 -16.0544 2.2350
1.1508 -16.0207 2.2350
1.7246 -15.9659 2.2350
2.1898 -15.1562 2.1317
2.7316 -15.0642 2.1317
3.2696 -14.9525 2.1317
2.1881 -8.5277 1.2265
4.3310 -14.6707 2.1317
4.8530 -14.5010 2.1317
2.6960 -7.1877 1.0706
5.9249 -14.2220 2.1494
6.4289 -13.9947 2.1494
6.9242 -13.7493 2.1494
7.4099 -13.4861 2.1494
7.8856 -13.2056 2.1494
8.3505 -12.9081 2.1494
8.8041 -12.5940 2.1494
9.2457 -12.2638 2.1494
9.6749 -11.9179 2.1494
10.0910 -11.5569 2.1494
10.4935 -11.1812 2.1494
10.8819 -10.7913 2.1494
11.2558 -10.3879 2.1494
11.6145 -9.9714 2.1494
11.9578 -9.5424 2.1494
12.2851 -9.1016 2.1494
12.5961 -8.6495 2.1494
12.8904 -8.1867 2.1494
13.1675 -7.7138 2.1494
13.4273 -7.2316 2.1494
13.6693 -6.7406 2.1494
13.8934 -6.2416 2.1494
14.0992 -5.7351 2.1494
14.2865 -5.2219 2.1494
14.4551 -4.7026 2.1494
14.6048 -4.1779 2.1494
14.7355 -3.6485 2.1494
14.8470 -3.1151 2.1494
14.9393 -2.5784 2.1494
15.0122 -2.0391 2.1494
15.0657 -1.4979 2.1494
15.0997 -0.9555 2.1494
15.1143 -0.4126 2.1494
15.1095 0.1302 2.1494
15.0853 0.6721 2.1494
15.0418 1.2124 2.1494
14.2370 1.6638 2.0429
14.1592 2.1725 2.0429
14.0634 2.6778 2.0429
13.9661 3.1827 2.0453
13.9695 3.7158 2.0653
13.9731 4.2594 2.0883
13.9767 4.8154 2.1145
13.9805 5.3856 2.1442
13.8036 5.8950 2.1494
13.5758 6.3834 2.1494
13.3309 6.8631 2.1494
13.0692 7.3336 2.1494
12.7912 7.7943 2.1494
12.4972 8.2446 2.1494
12.1875 8.6840 2.1494
11.8626 9.1120 2.1494
11.5229 9.5281 2.1494
11.1688 9.9317 2.1494
10.8009 10.3223 2.1494
10.4195 10.6996 2.1494
10.0251 11.0630 2.1494
9.6182 11.4122 2.1494
9.1995 11.7466 2.1494
8.7693 12.0660 2.1494
8.3282 12.3698 2.1494
7.8767 12.6579 2.1494
2.5155 4.3860 0.7291
6.9451 13.1852 2.1494
6.4660 13.4238 2.1494
5.9789 13.6453 2.1494
5.4733 13.8213 2.1450
4.9426 13.9220 2.1319
4.4391 14.0894 2.1319
3.9301 14.2389 2.1319
2.3477 9.8760 1.4651
2.0277 10.1345 1.4917
1.8437 11.3127 1.6543
1.8510 14.6552 2.1319
1.3236 14.7131 2.1319
0.7945 14.7524 2.1319
0.2669 14.9192 2.1530
-0.2755 15.2778 2.2044
-0.8356 15.4728 2.2351
-1.3911 15.4381 2.2355
-1.9453 15.3838 2.2358
-2.4974 15.3100 2.2362
-3.0468 15.2168 2.2366
-3.5929 15.1042 2.2370
-4.1347 14.9720 2.2373
-4.6719 14.8209 2.2377
-5.2036 14.6509 2.2381
-5.7276 14.4578 2.2378
-6.2445 14.2460 2.2374
-6.7536 14.0160 2.2371
-7.2545 13.7682 2.2368
-7.7463 13.5026 2.2365
-8.2286 13.2197 2.2361
-8.7008 12.9199 2.2358
-9.1622 12.6034 2.2355
-9.6120 12.2705 2.2351
-9.5873 11.3729 2.1319
-9.9947 11.0271 2.1319
-10.3898 10.6669 2.1319
-10.7721 10.2928 2.1319
-6.9664 6.1936 1.3331
-11.4961 9.5041 2.1319
-11.8369 9.0907 2.1319
-9.2965 6.6230 1.6295
-9.5057 6.2700 1.6246
-10.2506 6.2451 1.7114
-9.3352 5.2374 1.5252
-13.3082 6.8503 2.1314
-10.6574 5.0103 1.6759
-10.6720 4.5569 1.6503
-10.7837 4.1535 1.6423
-11.0737 3.8147 1.6635
-14.4814 4.4137 2.1487
-14.6231 3.8891 2.1462
-14.7047 3.3506 2.1377
-14.7890 2.8155 2.1325
-14.8730 2.2817 2.1300
-14.9475 1.7466 2.1288
-15.0481 1.2128 2.1342
-15.1256 0.6738 2.1389
-15.1853 0.1309 2.1439
-15.1816 -0.4143 2.1427
-15.1381 -0.9578 2.1386
-15.1031 -1.5014 2.1385
-15.0593 -2.0452 2.1400
-14.9933 -2.5873 2.1411
-14.9096 -3.1277 2.1424
-14.8319 -3.6718 2.1475
-14.7194 -4.2100 2.1505
-11.1254 -3.6188 1.6423
-14.4267 -5.2722 2.1550
-14.2363 -5.7899 2.1550
-14.0271 -6.3006 2.1550
-13.7994 -6.8036 2.1550
-13.5264 -7.2837 2.1507
-10.5282 -6.1666 1.7072
-10.3343 -6.5621 1.7120
-10.3477 -7.1042 1.7545
-10.3514 -7.6675 1.7999
-10.3553 -8.2620 1.8501
-10.3594 -8.8920 1.9059
-10.3638 -9.5627 1.9678
-10.3685 -10.2800 2.0366
-10.3735 -11.0509 2.1134
-10.0608 -11.5197 2.1319
-9.6441 -11.8771 2.1319
-9.2145 -12.2192 2.1319
-8.7725 -12.5455 2.1319
-8.3188 -12.8556 2.1319
-7.8540 -13.1489 2.1319
-7.3787 -13.4251 2.1319
-6.8935 -13.6838 2.1319
-6.3991 -13.9247 2.1319
-6.1812 -14.8314 2.2350
-5.6457 -15.0454 2.2350
-5.1027 -15.2398 2.2350
-4.5528 -15.4141 2.2350
-3.9970 -15.5682 2.2350
-3.4358 -15.7019 2.2350
-2.8702 -15.8150 2.2350
-2.3008 -15.9074 2.2350
-1.7284 -15.9789 2.2350
-1.1538 -16.0293 2.2350
-0.5778 -16.0588 2.2350
-0.0012 -13.7847 2.2350
0.4934 -13.7741 2.2350
0.9871 -13.7455 2.2350
1.4795 -13.6989 2.2350
1.8787 -13.0045 2.1317
2.3436 -12.9260 2.1317
2.8053 -12.8306 2.1317
2.1879 -8.5278 1.4293
3.7163 -12.5899 2.1317
4.1645 -12.4449 2.1317
2.6952 -7.1862 1.2471
5.0432 -12.1066 2.1317
5.4725 -11.9137 2.1317
5.9431 -11.8023 2.1494
6.3604 -11.5771 2.1494
6.7691 -11.3370 2.1494
7.1687 -11.0823 2.1494
7.5586 -10.8134 2.1494
7.9384 -10.5306 2.1494
8.3074 -10.2344 2.1494
8.6654 -9.9251 2.1494
9.0117 -9.6032 2.1494
9.3460 -9.2691 2.1494
9.6679 -8.9233 2.1494
9.9768 -8.5663 2.1494
10.2726 -8.1985 2.1494
10.5546 -7.8204 2.1494
10.8227 -7.4326 2.1494
11.0765 -7.0356 2.1494
11.3157 -6.6298 2.1494
11.5399 -6.2160 2.1494
11.7490 -5.7945 2.1494
11.9427 -5.3661 2.1494
12.1207 -4.9311 2.1494
12.2828 -4.4903 2.1494
12.4289 -4.0442 2.1494
12.5588 -3.5934 2.1494
12.6724 -3.1385 2.1494
12.7694 -2.6800 2.1494
12.8500 -2.2186 2.1494
12.9139 -1.7549 2.1494
12.9610 -1.2895 2.1494
12.9915 -0.8229 2.1494
13.0053 -0.3558 2.1494
13.0023 0.1113 2.1494
12.9826 0.5777 2.1494
12.9463 1.0428 2.1494
12.8934 1.5060 2.1494
12.8240 1.9669 2.1494
12.7383 2.4247 2.1494
12.6363 2.8790 2.1494
12.5183 3.3291 2.1494
12.3844 3.7745 2.1494
12.2348 4.2146 2.1494
12.0697 4.6488 2.1494
11.8893 5.0768 2.1494
11.6939 5.4978 2.1494
11.4838 5.9115 2.1494
11.2591 6.3172 2.1494
11.0203 6.7146 2.1494
10.7677 7.1030 2.1494
10.5015 7.4821 2.1494
10.2222 7.8513 2.1494
9.9300 8.2103 2.1494
9.6254 8.5586 2.1494
9.3088 8.8957 2.1494
8.9805 9.2214 2.1494
8.6410 9.5350 2.1494
8.2907 9.8364 2.1494
7.9300 10.1251 2.1494
7.5595 10.4008 2.1494
7.1795 10.6631 2.1494
6.7905 10.9118 2.1494
2.5153 4.3855 0.8456
5.9877 11.3670 2.1494
5.5295 11.4790 2.1319
5.1130 11.6686 2.1319
4.6902 11.8434 2.1319
4.2615 12.0032 2.1319
3.8274 12.1476 2.1319
2.4114 8.7367 1.5172
2.1410 9.0063 1.5497
2.0477 10.2345 1.7472
1.9165 11.7599 1.9946
1.5958 12.6355 2.1319
1.1411 12.6854 2.1319
0.7180 13.3342 2.2350
0.2387 13.3542 2.2353
-0.2411 13.3578 2.2356
-0.7208 13.3444 2.2359
-1.1999 13.3140 2.2363
-1.6778 13.2667 2.2366
-2.1539 13.2025 2.2370
-2.6276 13.1216 2.2373
-3.0984 13.0239 2.2377
-3.5655 12.9096 2.2381
-4.0274 12.7751 2.2378
-4.4842 12.6242 2.2375
-4.9355 12.4571 2.2372
-5.3806 12.2741 2.2369
-5.8191 12.0754 2.2366
-6.2503 11.8613 2.2363
-6.6737 11.6319 2.2359
-7.0888 11.3875 2.2356
-7.4951 11.1285 2.2353
-7.8920 10.8552 2.2350
-7.8984 10.0819 2.1319
-8.2589 9.7962 2.1319
-8.6093 9.4976 2.1319
-8.9490 9.1867 2.1319
-6.3688 6.0847 1.4635
-6.8914 6.1263 1.5313
-9.8995 8.1833 2.1319
-10.1922 7.8266 2.1319
-9.3104 6.6321 1.8954
-9.5193 6.2782 1.8898
-10.2604 6.2503 1.9900
-9.3491 5.2445 1.7746
-10.2668 5.2840 1.9104
-10.2697 4.8274 1.8765
-10.2726 4.3857 1.8460
-10.2754 3.9571 1.8187
-10.2782 3.5399 1.7945
-10.2808 3.1328 1.7732
-10.2834 2.7343 1.7545
-10.2761 2.3409 1.7368
-10.2786 1.9562 1.7232
-10.2811 1.5766 1.7121
-10.3076 1.2038 1.7072
-10.3502 0.8336 1.7072
-10.3794 0.4618 1.7072
-10.3952 0.0890 1.7072
-10.3976 -0.2844 1.7072
-10.3866 -0.6577 1.7072
-10.3621 -1.0307 1.7072
-10.3241 -1.4027 1.7072
-10.3030 -1.7786 1.7122
-10.3055 -2.1625 1.7235
-10.3081 -2.5524 1.7372
-10.3206 -2.9524 1.7552
-10.3232 -3.3584 1.7741
-10.3260 -3.7742 1.7958
-10.3288 -4.2013 1.8204
-10.3316 -4.6413 1.8482
-10.3346 -5.0959 1.8794
-10.3377 -5.5673 1.9142
-10.3409 -6.0575 1.9530
-10.3442 -6.5691 1.9960
-10.3477 -7.1049 2.0437
-10.3514 -7.6681 2.0967
-10.2427 -8.1728 2.1319
-9.9465 -8.5382 2.1319
-9.6371 -8.8928 2.1319
-9.3148 -9.2359 2.1319
-8.9803 -9.5672 2.1319
-8.6338 -9.8863 2.1319
-8.2758 -10.1926 2.1319
-7.9068 -10.4857 2.1319
-7.5272 -10.7652 2.1319
-7.1377 -11.0308 2.1319
-6.7387 -11.2821 2.1319
-6.3307 -11.5188 2.1319
-6.2002 -12.3082 2.2350
-5.7554 -12.5245 2.2350
-5.3030 -12.7245 2.2350
-4.8435 -12.9079 2.2350
-4.3775 -13.0744 2.2350
-3.9058 -13.2239 2.2350
-3.4290 -13.3560 2.2350
-2.9476 -13.4707 2.2350
-2.4623 -13.5677 2.2350
-1.9739 -13.6470 2.2350
-1.4829 -13.7084 2.2350
-0.9900 -13.7518 2.2350
-0.4959 -13.7773 2.2350
-0.0012 -12.0591 2.2350
0.4314 -12.0500 2.2350
0.8634 -12.0252 2.2350
1.2941 -11.9847 2.2350
1.7230 -11.9285 2.2350
2.0502 -11.3091 2.1317
2.4541 -11.2259 2.1317
2.1877 -8.5280 1.6336
3.2514 -11.0160 2.1317
3.6436 -10.8895 2.1317
2.6943 -7.1847 1.4249
4.4128 -10.5943 2.1317
4.7887 -10.4260 2.1317
5.1581 -10.2443 2.1317
5.5205 -10.0493 2.1317
5.9241 -9.9227 2.1494
6.2741 -9.7003 2.1494
6.6157 -9.4654 2.1494
6.9485 -9.2184 2.1494
7.2719 -8.9596 2.1494
7.5857 -8.6893 2.1494
7.8893 -8.4080 2.1494
8.1825 -8.1160 2.1494
8.4648 -7.8137 2.1494
8.7358 -7.5015 2.1494
8.9953 -7.1799 2.1494
9.2429 -6.8493 2.1494
9.4783 -6.5101 2.1494
9.7012 -6.1628 2.1494
9.9114 -5.8078 2.1494
10.1085 -5.4457 2.1494
10.2923 -5.0768 2.1494
10.4627 -4.7018 2.1494
10.6193 -4.3211 2.1494
10.7621 -3.9351 2.1494
10.8909 -3.5445 2.1494
11.0055 -3.1497 2.1494
11.1058 -2.7512 2.1494
11.1916 -2.3496 2.1494
11.2630 -1.9453 2.1494
11.3198 -1.5390 2.1494
11.3619 -1.1310 2.1494
11.3894 -0.7221 2.1494
11.4023 -0.3126 2.1494
11.4004 0.0969 2.1494
11.3839 0.5059 2.1494
11.3528 0.9138 2.1494
11.3072 1.3201 2.1494
11.2471 1.7244 2.1494
11.1726 2.1261 2.1494
11.0839 2.5247 2.1494
10.9811 2.9196 2.1494
10.8643 3.3105 2.1494
10.7337 3.6968 2.1494
10.5894 4.0781 2.1494
10.4318 4.4538 2.1494
10.2609 4.8235 2.1494
10.0770 5.1867 2.1494
9.8804 5.5431 2.1494
9.6714 5.8921 2.1494
9.4501 6.2333 2.1494
9.2170 6.5663 2.1494
8.9722 6.8907 2.1494
8.7161 7.2061 2.1494
8.4491 7.5121 2.1494
8.1715 7.8084 2.1494
7.8836 8.0945 2.1494
7.5858 8.3702 2.1494
7.2785 8.6351 2.1494
6.9621 8.8888 2.1494
6.6370 9.1311 2.1494
6.3035 9.3617 2.1494
5.9622 9.5803 2.1494
2.5151 4.3850 0.9630
5.2147 9.8993 2.1319
4.8552 10.0789 2.1319
4.4896 10.2456 2.1319
4.1184 10.3992 2.1319
3.7419 10.5396 2.1319
2.4462 7.7638 1.5517
2.1829 7.9087 1.5641
2.3477 9.8760 1.9353
2.1423 10.7073 2.0817
1.8251 11.1990 2.1631
1.4521 11.4979 2.2093
1.0504 11.6781 2.2351
0.6304 11.7107 2.2354
0.2095 11.7284 2.2358
-0.2119 11.7311 2.2361
-0.6332 11.7190 2.2364
-1.0540 11.6920 2.2367
-1.4736 11.6501 2.2370
-1.8917 11.5933 2.2373
-2.3075 11.5218 2.2377
-2.7208 11.4355 2.2380
-3.1302 11.3323 2.2379
-3.5355 11.2138 2.2376
-3.9364 11.0809 2.2373
-4.3324 10.9339 2.2370
-4.7230 10.7730 2.2367
-5.1077 10.5982 2.2364
-5.4860 10.4099 2.2361
-5.8575 10.2082 2.2358
-6.2216 9.9935 2.2355
-6.5779 9.7659 2.2352
-6.9261 9.5257 2.2350
-6.9313 8.8467 2.1319
-7.2473 8.5955 2.1319
-7.5544 8.3331 2.1319
-6.3569 6.5252 1.7260
-6.3692 6.0846 1.6681
-6.8820 6.1172 1.7430
-8.6845 7.1781 2.1319
-8.9407 6.8648 2.1319
-9.1856 6.5424 2.1319
-9.4190 6.2113 2.1319
-9.6405 5.8719 2.1319
-9.3632 5.2517 2.0266
-10.0468 5.1701 2.1319
-10.2697 4.8266 2.1400
-10.2726 4.3849 2.1053
-10.2754 3.9564 2.0744
-10.2782 3.5393 2.0469
-10.2808 3.1321 2.0227
-10.2834 2.7336 2.0016
-10.2860 2.3425 1.9834
-10.2885 1.9575 1.9681
-10.2910 1.5775 1.9555
-10.2934 1.2015 1.9455
-10.2959 0.8286 1.9381
-10.2983 0.4576 1.9332
-10.3007 0.0876 1.9308
-10.3031 -0.2824 1.9310
-10.3056 -0.6532 1.9336
-10.3080 -1.0259 1.9388
-10.3105 -1.4014 1.9465
-10.3129 -1.7809 1.9568
-10.3154 -2.1652 1.9699
-10.3180 -2.5555 1.9857
-10.3206 -2.9530 2.0044
-10.3233 -3.3590 2.0261
-10.3260 -3.7748 2.0510
-10.3288 -4.2019 2.0793
-10.3316 -4.6419 2.1112
-10.3736 -5.1158 2.1550
-10.0783 -5.4282 2.1319
-9.8809 -5.7886 2.1319
-9.6704 -6.1417 2.1319
-9.4473 -6.4872 2.1319
-9.2116 -6.8244 2.1319
-8.9639 -7.1529 2.1319
-8.7042 -7.4724 2.1319
-8.4331 -7.7823 2.1319
-8.1508 -8.0823 2.1319
-7.8578 -8.3719 2.1319
-7.5543 -8.6507 2.1319
-7.2408 -8.9184 2.1319
-6.9177 -9.1746 2.1319
-6.5855 -9.4189 2.1319
-6.2814 -9.7080 2.1445
-6.1804 -10.3479 2.2350
-5.8061 -10.5647 2.2350
-5.4240 -10.7678 2.2350
-5.0348 -10.9568 2.2350
-4.6390 -11.1316 2.2350
-4.2370 -11.2919 2.2350
-3.8294 -11.4374 2.2350
-3.4167 -11.5681 2.2350
-2.9996 -11.6836 2.2350
-2.5785 -11.7839 2.2350
-2.1540 -11.8688 2.2350
-1.7268 -11.9382 2.2350
-1.2973 -11.9920 2.2350
-0.8661 -12.0301 2.2350
-0.4339 -12.0525 2.2350
-0.0012 -10.7075 2.2350
0.3829 -10.6995 2.2350
0.7665 -10.6776 2.2350
1.1489 -10.6418 2.2350
1.5297 -10.5922 2.2350
1.8203 -10.0423 2.1317
2.1790 -9.9687 2.1317
2.1875 -8.5281 1.8396
2.8871 -9.7828 2.1317
3.2355 -9.6707 2.1317
2.6935 -7.1831 1.6041
3.9188 -9.4092 2.1317
4.2527 -9.2600 2.1317
4.5809 -9.0989 2.1317
4.9030 -8.9260 2.1317
5.2185 -8.7417 2.1317
5.5271 -8.5461 2.1317
5.8764 -8.4084 2.1494
6.1722 -8.1893 2.1494
6.4598 -7.9598 2.1494
6.7389 -7.7200 2.1494
7.0089 -7.4704 2.1494
7.2697 -7.2113 2.1494
7.5209 -6.9431 2.1494
7.7621 -6.6661 2.1494
7.9931 -6.3806 2.1494
8.2135 -6.0871 2.1494
8.4231 -5.7860 2.1494
8.6216 -5.4776 2.1494
8.8088 -5.1624 2.1494
8.9845 -4.8408 2.1494
9.1484 -4.5132 2.1494
9.3003 -4.1801 2.1494
9.4401 -3.8419 2.1494
9.5675 -3.4990 2.1494
9.6825 -3.1519 2.1494
9.7849 -2.8010 2.1494
9.8746 -2.4469 2.1494
9.9515 -2.0899 2.1494
10.0155 -1.7305 2.1494
10.0666 -1.3692 2.1494
10.1046 -1.0065 2.1494
10.1296 -0.6428 2.1494
10.1416 -0.2786 2.1494
10.1405 0.0856 2.1494
10.1264 0.4494 2.1494
10.0992 0.8123 2.1494
10.0592 1.1738 2.1494
10.0062 1.5336 2.1494
9.9405 1.8910 2.1494
9.8620 2.2458 2.1494
9.7710 2.5973 2.1494
9.6675 2.9453 2.1494
9.5517 3.2892 2.1494
9.4238 3.6286 2.1494
9.2839 3.9632 2.1494
9.1322 4.2924 2.1494
8.9690 4.6159 2.1494
8.7944 4.9332 2.1494
8.6086 5.2441 2.1494
8.4120 5.5480 2.1494
8.2048 5.8447 2.1494
7.9872 6.1337 2.1494
7.7595 6.4147 2.1494
7.5220 6.6874 2.1494
7.2751 6.9513 2.1494
7.0190 7.2063 2.1494
6.7540 7.4519 2.1494
6.4806 7.6880 2.1494
6.1990 7.9141 2.1494
5.9096 8.1300 2.1494
5.5672 8.2678 2.1319
5.2658 8.4610 2.1319
2.5149 4.3845 1.0814
4.6436 8.8147 2.1319
4.3235 8.9747 2.1319
3.9980 9.1233 2.1319
3.6674 9.2602 2.1319
3.3322 9.3853 2.1319
2.4463 7.7638 1.7426
2.4115 8.7366 1.9403
2.3031 9.6881 2.1319
1.9537 9.7646 2.1319
1.6792 10.3038 2.2350
1.3082 10.3587 2.2352
0.9354 10.4007 2.2355
0.5614 10.4295 2.2357
0.1865 10.4451 2.2360
-0.1888 10.4473 2.2363
-0.5641 10.4362 2.2366
-0.9387 10.4118 2.2369
-1.3124 10.3742 2.2372
-1.6846 10.3232 2.2374
-2.0549 10.2591 2.2377
-2.4228 10.1819 2.2380
-2.7873 10.0897 2.2379
-3.1482 9.9841 2.2376
-3.5051 9.8656 2.2373
-3.8576 9.7346 2.2371
-4.2052 9.5911 2.2368
-4.5477 9.4353 2.2365
-4.8844 9.2674 2.2363
-5.2150 9.0877 2.2360
-5.5390 8.8963 2.2357
-5.8561 8.6933 2.2355
-6.1657 8.4792 2.2352
-6.4679 8.2544 2.2350
-6.4506 7.6497 2.1319
-6.7235 7.4159 2.1319
-6.9881 7.1723 2.1319
-6.3697 6.0844 1.8746
-6.8725 6.1081 1.9560
-7.7279 6.3868 2.1319
-7.9555 6.1077 2.1319
-8.1730 5.8205 2.1319
-8.3803 5.5257 2.1319
-8.5769 5.2235 2.1319
-8.7627 4.9143 2.1319
-8.9375 4.5985 2.1319
-9.1008 4.2766 2.1319
-9.2526 3.9489 2.1319
-9.3927 3.6158 2.1319
-9.5207 3.2778 2.1319
-9.6367 2.9352 2.1319
-9.7403 2.5886 2.1319
-9.8314 2.2383 2.1319
-9.9100 1.8848 2.1319
-9.9759 1.5286 2.1319
-10.0289 1.1701 2.1319
-10.0690 0.8097 2.1319
-10.0962 0.4480 2.1319
-10.1104 0.0853 2.1319
-10.1115 -0.2777 2.1319
-10.0995 -0.6407 2.1319
-10.0744 -1.0033 2.1319
-10.0363 -1.3648 2.1319
-9.9852 -1.7248 2.1319
-9.9211 -2.0830 2.1319
-9.8441 -2.4387 2.1319
-9.7543 -2.7916 2.1319
-9.6517 -3.1411 2.1319
-9.5366 -3.4868 2.1319
-9.4090 -3.8283 2.1319
-9.2690 -4.1650 2.1319
-9.1170 -4.4966 2.1319
-8.9530 -4.8226 2.1319
-8.7772 -5.1426 2.1319
-8.5899 -5.4561 2.1319
-8.3914 -5.7626 2.1319
-8.1818 -6.0619 2.1319
-7.9614 -6.3535 2.1319
-7.7305 -6.6370 2.1319
-7.4895 -6.9121 2.1319
-7.2386 -7.1782 2.1319
-6.9781 -7.4352 2.1319
-6.7084 -7.6825 2.1319
-6.4299 -7.9201 2.1319
-6.2654 -8.3098 2.1744
-6.1305 -8.7685 2.2350
-5.8130 -8.9844 2.2350
-5.4878 -9.1887 2.2350
-5.1553 -9.3810 2.2350
-4.8160 -9.5611 2.2350
-4.4704 -9.7289 2.2350
-4.1189 -9.8839 2.2350
-3.7619 -10.0262 2.2350
-3.4000 -10.1553 2.2350
-3.0336 -10.2712 2.2350
-2.6633 -10.3738 2.2350
-2.2894 -10.4628 2.2350
-1.9126 -10.5382 2.2350
-1.5332 -10.5998 2.2350
-1.1519 -10.6476 2.2350
-0.7691 -10.6815 2.2350
-0.3854 -10.7015 2.2350
-0.0012 -9.6191 2.2350
0.3439 -9.6121 2.2350
0.6884 -9.5925 2.2350
1.0320 -9.5605 2.2350
1.3741 -9.5160 2.2350
1.7144 -9.4592 2.2350
1.9575 -8.9562 2.1317
2.1873 -8.5283 2.0476
2.5937 -8.7896 2.1317
2.9068 -8.6891 2.1317
2.6926 -7.1816 1.7849
3.5208 -8.4544 2.1317
3.8209 -8.3207 2.1317
4.1160 -8.1761 2.1317
4.4055 -8.0210 2.1317
4.6891 -7.8556 2.1317
4.9665 -7.6801 2.1317
5.2373 -7.4947 2.1317
5.5012 -7.2997 2.1317
5.7577 -7.0953 2.1317
6.0563 -6.9387 2.1494
6.2992 -6.7147 2.1494
6.5339 -6.4821 2.1494
6.7598 -6.2412 2.1494
6.9769 -5.9924 2.1494
7.1848 -5.7361 2.1494
7.3832 -5.4725 2.1494
7.5720 -5.2020 2.1494
7.7508 -4.9250 2.1494
7.9194 -4.6418 2.1494
8.0777 -4.3529 2.1494
8.2254 -4.0585 2.1494
8.3623 -3.7591 2.1494
8.4884 -3.4552 2.1494
8.6034 -3.1470 2.1494
8.7072 -2.8350 2.1494
8.7997 -2.5195 2.1494
8.8807 -2.2011 2.1494
8.9503 -1.8802 2.1494
9.0082 -1.5570 2.1494
9.0546 -1.2321 2.1494
9.0892 -0.9059 2.1494
9.1121 -0.5788 2.1494
9.1232 -0.2512 2.1494
9.1226 0.0764 2.1494
