ply
format ascii 1.0
element vertex 2059
property float32 x
property float32 y
property float32 z
end_header
-12.7400 -27.7099 -3.3280
-13.4215 -32.1898 -3.8067
-11.7750 -31.3665 -3.6579
-10.9807 -32.7825 -3.7755
-13.8915 -47.0144 -5.3548
-12.5588 -48.9009 -5.5159
-14.3670 -65.6402 -7.3424
-13.7668 -75.8413 -8.4240
6.3563 -88.3604 -7.6717
9.2699 -85.7204 -7.4663
12.3261 -85.2260 -7.4565
15.7098 -86.5568 -7.6167
10.3707 -47.3872 -4.1995
6.9130 -26.9203 -2.4058
4.7514 -16.0823 -1.4513
4.3763 -13.0664 -1.1923
4.5974 -12.2477 -1.1317
4.8254 -11.5742 -1.0845
5.0669 -11.0218 -1.0488
5.3197 -10.5557 -1.0216
5.5010 -10.0044 -0.9864
5.7504 -9.6227 -0.9682
6.0226 -9.3027 -0.9568
6.2057 -8.8704 -0.9342
6.4052 -8.4895 -0.9173
6.5981 -8.1215 -0.9022
7.0210 -8.0345 -0.9195
7.5088 -7.9943 -0.9447
8.0674 -7.9935 -0.9777
8.5223 -7.8584 -0.9974
9.1086 -7.8130 -1.0319
9.8245 -7.8328 -1.0798
20.7616 -15.3667 -2.2183
22.8626 -15.6834 -2.3795
22.1763 -14.0693 -2.2526
21.9499 -12.8444 -2.1798
22.4745 -12.0899 -2.1859
20.4403 -10.0669 -1.9502
18.6598 -8.3715 -1.7492
19.6543 -7.9830 -1.8131
19.1914 -7.0035 -1.7447
18.9663 -6.1593 -1.7018
19.4868 -5.5635 -1.7281
16.6158 -4.1048 -1.4583
15.7542 -3.2968 -1.3703
16.6715 -2.8683 -1.4391
17.1181 -2.3160 -1.4683
16.8914 -1.6704 -1.4416
16.6717 -1.0462 -1.4176
19.2804 -0.5161 -1.6354
20.5810 0.1881 -1.7438
6.4077 0.2888 -0.5430
25.7041 2.0853 -2.1813
24.2549 2.8472 -2.0640
25.5652 3.9359 -2.1843
25.5142 4.8714 -2.1917
24.6833 5.6380 -2.1346
27.5939 7.3543 -2.4056
24.9362 7.6145 -2.1946
22.2870 7.6904 -1.9828
20.9424 8.0787 -1.8863
22.2668 9.5213 -2.0335
21.9226 10.3200 -2.0330
24.0831 12.4119 -2.2715
33.8557 19.0165 -3.2532
32.8909 20.0607 -3.2252
24.8940 16.4374 -2.4956
7.4453 5.3094 -0.7645
6.8134 5.2376 -0.7179
6.6828 5.5299 -0.7241
6.5890 5.8633 -0.7358
6.4536 6.1718 -0.7445
6.3187 6.4927 -0.7549
17.5180 19.3435 -2.1731
16.9376 20.1084 -2.1880
15.8805 20.2888 -2.1430
18.7152 25.7647 -2.6473
2.1912 3.2562 -0.3261
15.4248 24.7999 -2.4255
14.6660 25.5839 -2.4479
2.8118 11.8311 -1.0067
-18.4912 92.4308 -7.7982
-10.4547 43.9873 -3.7409
-11.6309 42.1494 -3.6184
-13.2629 42.1070 -3.6541
-13.2892 37.4441 -3.2895
-14.2087 35.8925 -3.1968
-13.1188 29.9511 -2.7086
-13.7224 28.4996 -2.6210
-15.2216 28.9101 -2.7082
-16.1438 28.1609 -2.6916
-17.6283 28.3418 -2.7688
-15.5971 23.1776 -2.3185
-16.0733 22.1272 -2.2707
-17.8867 22.8514 -2.4105
-18.4548 21.9091 -2.3807
-25.3139 27.9511 -3.1357
-25.6936 26.4007 -3.0650
-27.4883 26.2874 -3.1662
-33.8331 30.1059 -3.7722
-31.3385 25.9318 -3.3901
-32.6966 25.1343 -3.4394
-32.6378 23.2743 -3.3453
-35.7274 23.5902 -3.5752
-35.8889 21.8888 -3.5128
-19.0124 10.6790 -1.8235
-22.6974 11.6975 -2.1368
-25.5317 12.0187 -2.3632
-22.4057 9.5805 -2.0422
-21.8927 8.4451 -1.9680
-13.5768 4.6847 -1.2055
-12.8595 3.9267 -1.1294
-13.9820 3.7264 -1.2164
-13.1153 2.9956 -1.1318
-12.0336 2.2975 -1.0315
-14.9648 2.3038 -1.2759
-22.8077 2.6772 -1.9368
-20.6276 1.6733 -1.7468
-22.1266 0.9972 -1.8711
-22.2881 0.2036 -1.8845
-22.8472 -0.6117 -1.9339
-42.5586 -2.6706 -3.6112
-42.5810 -4.2110 -3.6266
-42.6079 -5.7646 -3.6472
-42.6497 -7.3380 -3.6739
-23.5098 -4.9197 -2.0408
-19.1245 -4.7245 -1.6751
-19.5684 -5.5867 -1.7318
-24.9134 -8.0905 -2.2309
-25.0339 -9.1354 -2.2714
-26.5053 -10.7656 -2.4403
-25.2349 -11.3212 -2.3611
-21.5921 -10.6340 -2.0562
-20.3299 -10.9361 -1.9736
-20.2571 -11.8537 -2.0081
-20.3632 -12.9188 -2.0648
-22.2305 -15.2496 -2.3098
-19.9604 -14.7734 -2.1291
-20.1471 -16.0624 -2.2106
-20.5946 -17.6649 -2.3294
-20.3532 -18.7673 -2.3783
-22.6679 -22.4598 -2.7430
-21.9129 -23.3293 -2.7529
-21.2034 -24.2637 -2.7731
-20.1638 -24.8186 -2.7534
-17.0653 -22.6180 -2.4410
-16.3982 -23.4389 -2.4657
-15.3441 -23.7004 -2.4348
-14.3936 -24.0859 -2.4208
-13.7916 -25.0816 -2.4706
-12.4744 -24.7516 -2.3934
-14.3807 -31.2801 -2.9739
-12.4140 -29.7750 -2.7876
-10.9349 -29.1303 -2.6897
-11.1370 -33.2507 -3.0321
-14.3120 -48.4401 -4.3688
-13.4649 -52.4320 -4.6833
-16.0536 -73.3498 -6.4975
-13.9871 -77.0592 -6.7785
-0.0004 -84.9245 -5.4308
6.0914 -42.1186 -2.7211
5.8357 -32.1544 -2.0893
6.0084 -27.4557 -1.7966
4.4803 -17.4479 -1.1513
4.7465 -16.0663 -1.0704
4.3095 -12.8677 -0.8668
4.4657 -11.8975 -0.8115
4.7224 -11.3276 -0.7834
4.9679 -10.8068 -0.7589
5.1510 -10.2213 -0.7300
5.3334 -9.7001 -0.7057
5.6053 -9.3805 -0.6963
5.8084 -8.9723 -0.6807
6.1057 -8.7279 -0.6780
6.3914 -8.4716 -0.6751
6.5841 -8.1046 -0.6638
7.0381 -8.0546 -0.6795
7.5152 -8.0016 -0.6969
8.0039 -7.9310 -0.7148
8.4747 -7.8149 -0.7308
8.9968 -7.7176 -0.7508
9.6112 -7.6633 -0.7780
10.2271 -7.5701 -0.8046
22.1704 -15.2097 -1.6987
22.4593 -14.2500 -1.6790
22.2749 -13.0357 -1.6277
9.0929 -4.8919 -0.6506
20.4656 -10.0803 -1.4360
18.4770 -8.2904 -1.2735
19.6085 -7.9654 -1.3296
20.7293 -7.5656 -1.3849
18.7720 -6.0971 -1.2374
19.2840 -5.5064 -1.2560
16.7659 -4.1426 -1.0804
15.7749 -3.3018 -1.0072
16.6944 -2.8730 -1.0575
17.2435 -2.3337 -1.0851
17.0130 -1.6832 -1.0649
16.7898 -1.0543 -1.0467
7.2395 -0.1941 -0.4501
6.5985 0.0600 -0.4097
6.3616 0.2865 -0.3949
6.5331 0.5297 -0.4060
25.0342 2.9376 -1.5596
26.3855 4.0610 -1.6499
26.2905 5.0184 -1.6523
24.2878 5.5466 -1.5363
25.2787 6.7361 -1.6114
23.4313 7.1539 -1.5074
22.6895 7.8282 -1.4752
21.1155 8.1445 -1.3895
22.3824 9.5697 -1.4929
22.0364 10.3725 -1.4921
24.2317 12.4873 -1.6684
33.6924 18.9231 -2.3626
32.8291 20.0212 -2.3486
24.8182 16.3860 -1.8146
6.9334 4.9440 -0.5191
6.6734 5.1296 -0.5126
6.4877 5.3682 -0.5123
6.3277 5.6304 -0.5149
6.1934 5.9226 -0.5205
6.1380 6.3067 -0.5340
7.5493 8.3355 -0.6819
7.5236 8.9315 -0.7075
15.9576 20.3862 -1.5673
18.4876 25.4500 -1.9029
2.1910 3.2558 -0.2372
52.3728 84.1998 -5.9904
2.8114 11.8290 -0.7313
5.9472 29.7289 -1.8229
-18.3926 91.9350 -5.6341
-12.6511 45.8448 -2.8591
-13.2233 41.9798 -2.6467
-12.9187 36.3987 -2.3234
-14.3745 36.3099 -2.3500
-15.8370 36.1553 -2.3762
-13.9208 28.9103 -1.9325
-15.2538 28.9699 -1.9727
-23.6923 41.3265 -2.8717
-17.8108 28.6339 -2.0340
-15.8801 23.5971 -1.7166
-16.0285 22.0643 -1.6469
-20.2966 25.9288 -1.9898
-22.5372 26.7541 -2.1154
-23.9890 26.4867 -2.1625
-24.3098 24.9773 -2.1108
-24.3577 23.2922 -2.0426
-24.5004 21.8000 -1.9892
-24.8757 20.5827 -1.9600
-26.0004 19.9854 -1.9925
-32.7551 23.3563 -2.4465
-35.6158 23.5147 -2.5978
-36.2623 22.1147 -2.5877
-22.6318 12.7108 -1.5830
-23.4501 12.0843 -1.6104
-43.7568 20.5960 -2.9551
-21.8363 8.4223 -1.4330
-13.9973 4.8292 -0.9076
-13.2317 4.0397 -0.8489
-12.5584 3.3464 -0.7983
-13.1012 2.9918 -0.8264
-12.7621 2.4360 -0.7998
-24.6191 3.7890 -1.5351
-20.4341 2.3977 -1.2694
-20.3777 1.6522 -1.2628
-22.2734 1.0029 -1.3787
-22.4369 0.2040 -1.3890
-25.0753 -0.6725 -1.5546
-41.0211 -2.5760 -2.5501
-41.0368 -4.0602 -2.5614
-41.0587 -5.5568 -2.5764
-41.0861 -7.0708 -2.5953
-23.5441 -4.9280 -1.4991
-23.4372 -5.7910 -1.5062
-25.2434 -7.2080 -1.6396
-26.4134 -8.5789 -1.7364
-25.2144 -9.2025 -1.6800
-25.9997 -10.5615 -1.7584
-25.5132 -11.4474 -1.7540
-21.6855 -10.6810 -1.5178
-20.3024 -10.9223 -1.4490
-20.2292 -11.8384 -1.4746
-28.9056 -18.3398 -2.1558
-63.1481 -43.3214 -4.8271
-20.2359 -14.9784 -1.5884
-20.4508 -16.3057 -1.6517
-20.7298 -17.7821 -1.7262
-20.4892 -18.8940 -1.7631
-22.6920 -22.4851 -2.0225
-22.0055 -23.4294 -2.0367
-21.2397 -24.3067 -2.0469
-19.9356 -24.5392 -2.0063
-17.1716 -22.7602 -1.8106
-16.4736 -23.5480 -1.8263
-15.7021 -24.2547 -1.8373
-17.1608 -28.7180 -2.1287
-13.7452 -24.9987 -1.8163
-20.1758 -40.0347 -2.8558
-20.8894 -45.4400 -3.1875
-12.5079 -30.0018 -2.0727
-11.0778 -29.5124 -2.0110
-10.4388 -31.1679 -2.0977
-10.0883 -34.1465 -2.2732
-12.7595 -49.6875 -3.2763
-14.3474 -65.5576 -4.2873
-13.8758 -76.4504 -4.9651
-3.0471 -84.8082 -5.4265
6.4873 -90.1838 -3.7402
4.9425 -34.1759 -1.4281
5.7612 -31.7448 -1.3341
5.9925 -27.3837 -1.1588
4.3429 -16.9135 -0.7216
4.1866 -14.1715 -0.6104
4.2722 -12.7567 -0.5555
4.4072 -11.7421 -0.5176
4.6493 -11.1526 -0.4984
4.8204 -10.4864 -0.4758
4.9775 -9.8774 -0.4557
5.1436 -9.3554 -0.4395
5.3211 -8.9053 -0.4267
5.5503 -8.5741 -0.4198
5.8644 -8.3834 -0.4202
6.1974 -8.2149 -0.4222
6.5482 -8.0609 -0.4257
7.0264 -8.0415 -0.4373
7.4923 -7.9776 -0.4476
8.0973 -8.0241 -0.4657
8.6032 -7.9339 -0.4776
9.0774 -7.7872 -0.4875
9.2659 -7.3884 -0.4824
9.4526 -6.9973 -0.4781
9.6722 -6.6360 -0.4762
22.7489 -14.4349 -1.0923
8.5483 -5.0031 -0.4010
8.7135 -4.6882 -0.4000
8.9676 -4.4174 -0.4035
9.2731 -4.1612 -0.4096
19.4103 -7.8858 -0.8431
20.8183 -7.5991 -0.8904
18.5822 -6.0362 -0.7837
19.0860 -5.4507 -0.7949
16.9183 -4.1811 -0.6968
15.7955 -3.3069 -0.6441
16.7174 -2.8777 -0.6759
17.3704 -2.3516 -0.6973
17.1360 -1.6961 -0.6838
7.4819 -0.4702 -0.2972
6.9171 -0.1858 -0.2738
6.3873 0.0578 -0.2523
6.3163 0.2842 -0.2493
6.3185 0.5120 -0.2495
6.7454 0.7912 -0.2669
25.1012 3.8622 -0.9962
28.0686 5.3566 -1.1189
26.1481 5.9702 -1.0484
24.4581 6.5163 -0.9876
25.8103 7.8790 -1.0511
23.1057 7.9707 -0.9504
21.2910 8.2112 -0.8858
22.4988 9.6184 -0.9482
22.1512 10.4254 -0.9471
24.3818 12.5635 -1.0594
23.3423 13.1088 -1.0323
32.2184 19.6471 -1.4528
24.7430 16.3350 -1.1397
6.7705 4.8274 -0.3191
6.5320 5.0206 -0.3157
6.3528 5.2561 -0.3155
6.1751 5.4942 -0.3158
6.0118 5.7485 -0.3174
6.0198 6.1848 -0.3289
6.1263 6.7639 -0.3473
7.1170 8.4483 -0.4199
6.9911 8.9308 -0.4306
18.4898 25.4515 -1.1929
2.1909 3.2554 -0.1486
51.4262 82.6733 -3.6838
17.2378 32.7370 -1.3971
12.0523 27.5142 -1.1323
10.8877 27.5017 -1.1141
9.7929 27.5912 -1.1020
8.8454 28.0811 -1.1074
8.2805 30.0063 -1.1701
2.8111 11.8268 -0.4567
5.9850 29.9162 -1.1457
5.0924 31.2469 -1.1884
9.5162 75.3368 -2.8494
-18.2742 91.3401 -3.4948
-12.9356 46.8741 -1.8256
-14.5402 46.1587 -1.8177
-16.2502 45.7833 -1.8257
-14.8401 37.4845 -1.5159
-16.2644 37.1295 -1.5251
-20.2374 42.0266 -1.7562
-21.8320 41.4613 -1.7656
-23.9233 41.7275 -1.8138
-17.9966 28.9312 -1.2859
-17.5282 26.0447 -1.1860
-21.9552 30.2213 -1.4125
-21.0349 26.8706 -1.2917
-22.6003 26.8276 -1.3293
-22.4715 24.8098 -1.2699
-22.6914 23.3131 -1.2357
-23.0642 22.0539 -1.2136
-23.4048 20.8238 -1.1929
-24.0185 19.8721 -1.1886
-24.8569 19.1052 -1.1971
-25.8399 18.4240 -1.2134
-27.8094 18.3593 -1.2760
-38.4000 23.4164 -1.7248
-41.4465 23.2757 -1.8257
-41.9841 21.6333 -1.8168
-43.2879 20.3732 -1.8433
-39.7538 16.9948 -1.6684
-21.7803 8.3998 -0.9023
-22.5963 7.7949 -0.9254
-13.6248 4.1592 -0.5525
-12.9083 3.4391 -0.5190
-13.0873 2.9881 -0.5224
-24.9823 4.7675 -0.9914
-24.2068 3.7245 -0.9564
-20.9119 2.4528 -0.8236
-20.1345 1.6316 -0.7916
-22.1999 0.9986 -0.8724
-22.0779 0.1998 -0.8682
-24.9314 -0.6697 -0.9825
-39.5965 -2.4882 -1.5657
-39.6071 -3.9204 -1.5735
-28.6494 -3.8786 -1.1449
-26.8746 -4.6262 -1.0818
-25.3938 -5.3163 -1.0310
-24.9687 -6.1705 -1.0239
-25.5806 -7.3055 -1.0609
-26.8182 -8.7116 -1.1263
-23.9278 -8.7341 -1.0192
-25.4530 -10.3406 -1.1010
-24.6946 -11.0813 -1.0865
-24.1550 -11.8986 -1.0826
-23.6200 -12.7083 -1.0801
-23.9550 -14.0200 -1.1194
-29.0261 -18.4179 -1.3885
-60.4520 -41.4751 -2.9656
-20.0833 -14.8667 -1.0122
-20.0058 -15.9520 -1.0380
-20.5504 -17.6295 -1.0999
-20.7003 -19.0899 -1.1454
-22.7160 -22.5104 -1.3025
-22.0988 -23.5302 -1.3164
-23.0904 -26.4261 -1.4328
-22.9116 -28.2041 -1.4853
-21.8852 -29.0096 -1.4870
-27.6247 -39.4900 -1.9742
-18.2010 -28.1163 -1.3734
-17.1734 -28.7406 -1.3742
-24.6592 -44.8505 -2.1027
-20.4420 -40.5649 -1.8678
-20.9343 -45.5400 -2.0625
-12.8381 -30.7954 -1.3740
-11.4016 -30.3767 -1.3371
-11.0328 -32.9431 -1.4326
-14.2045 -48.0813 -2.0686
-16.5517 -64.4584 -2.7473
-15.1048 -69.0223 -2.9182
-14.1578 -78.0083 -3.2758
6.4032 -89.0163 -1.6800
4.7217 -43.6657 -0.8266
4.9536 -34.2534 -0.6512
5.2904 -29.1516 -0.5572
5.9817 -27.3356 -0.5260
4.2365 -16.4998 -0.3200
4.1594 -14.0799 -0.2756
4.2356 -12.6478 -0.2501
4.3508 -11.5923 -0.2319
4.6045 -11.0458 -0.2239
4.6929 -10.2094 -0.2099
4.8548 -9.6344 -0.2013
5.0282 -9.1459 -0.1944
5.1954 -8.6953 -0.1884
5.4376 -8.4004 -0.1857
5.7321 -8.1947 -0.1853
6.0588 -8.0316 -0.1860
6.3900 -7.8666 -0.1870
6.9459 -7.9498 -0.1943
6.9183 -7.3670 -0.1856
7.0095 -6.9465 -0.1807
8.7354 -8.0564 -0.2171
8.5229 -7.3120 -0.2046
8.7247 -6.9573 -0.2027
8.9412 -6.6192 -0.2015
8.0859 -5.5480 -0.1771
8.1334 -5.1613 -0.1734
8.1935 -4.7958 -0.1704
8.3829 -4.5107 -0.1703
8.5738 -4.2238 -0.1704
8.8514 -3.9724 -0.1723
9.2678 -3.7656 -0.1771
33.8060 -12.3414 -0.6347
33.8156 -10.9862 -0.6248
18.8923 -5.3962 -0.3440
17.0732 -4.2201 -0.3067
15.8162 -3.3119 -0.2808
16.7404 -2.8824 -0.2940
14.6810 -1.9882 -0.2554
10.1421 -1.0043 -0.1750
7.2051 -0.4531 -0.1235
6.6227 -0.1782 -0.1128
6.3417 0.0571 -0.1076
6.2717 0.2819 -0.1061
6.2030 0.5024 -0.1047
6.5165 0.7641 -0.1099
6.9750 1.0729 -0.1178
28.1741 5.3754 -0.4766
7.4763 1.7067 -0.1269
7.5846 2.0204 -0.1294
7.5185 2.2948 -0.1290
7.1907 2.4802 -0.1243
6.8835 2.6544 -0.1201
6.7973 2.9056 -0.1199
7.0103 3.2991 -0.1251
7.2452 3.7330 -0.1311
23.4840 13.1872 -0.4316
33.9339 20.6915 -0.6344
6.9287 4.5738 -0.1320
6.5961 4.7028 -0.1283
6.4142 4.9297 -0.1277
6.2372 5.1601 -0.1273
6.0527 5.3849 -0.1270
5.8506 5.5940 -0.1264
5.8785 6.0393 -0.1312
5.9676 6.5883 -0.1380
6.9394 8.2370 -0.1666
6.8441 8.7424 -0.1713
7.0439 9.6955 -0.1843
2.1907 3.2550 -0.0602
22.7563 36.5813 -0.6591
8.9637 15.6341 -0.2750
7.8978 14.9983 -0.2581
7.5208 15.6176 -0.2633
11.9852 27.3598 -0.4528
10.5231 26.5793 -0.4325
9.6782 27.2666 -0.4369
8.7802 27.8726 -0.4406
8.0069 29.0134 -0.4531
2.8107 11.8247 -0.1827
6.0870 30.4241 -0.4659
4.9765 30.5344 -0.4641
-13.0006 36.6265 -0.5846
-14.8395 37.4814 -0.6072
-16.4500 37.5516 -0.6185
-19.0454 39.5494 -0.6634
-21.0339 39.9438 -0.6835
-23.2008 40.4654 -0.7077
-20.7777 33.4004 -0.5981
-17.5245 26.0380 -0.4783
-22.4972 30.9659 -0.5847
-20.9366 26.7435 -0.5202
-21.2543 25.2285 -0.5066
-21.3022 23.5175 -0.4887
-21.6138 22.2047 -0.4786
-22.0433 21.0765 -0.4725
-22.5107 20.0271 -0.4683
-23.0727 19.0883 -0.4669
-23.7367 18.2430 -0.4684
-24.3682 17.3734 -0.4698
-24.8886 16.4297 -0.4698
-25.1656 15.3448 -0.4660
-25.6757 14.4178 -0.4673
-26.9654 13.8933 -0.4832
-38.4751 18.1063 -0.6799
-38.4754 16.4465 -0.6716
-22.8414 8.8080 -0.3945
-20.2700 6.9915 -0.3469
-14.0413 4.2857 -0.2385
-13.4844 3.5919 -0.2276
-13.0452 2.9779 -0.2191
-12.6403 2.4117 -0.2116
-23.8088 3.6622 -0.3977
-21.4116 2.5105 -0.3574
-19.8974 1.6115 -0.3323
-21.4339 0.9632 -0.3587
-21.5802 0.1944 -0.3623
-23.3001 -0.6269 -0.3929
-38.4759 -2.4195 -0.6525
-38.4758 -3.8102 -0.6571
-28.8444 -3.9063 -0.4967
-26.5240 -4.5670 -0.4611
-25.6098 -5.3626 -0.4501
-25.1793 -6.2237 -0.4479
-25.9264 -7.4054 -0.4675
-26.8240 -8.7147 -0.4909
-24.5882 -8.9763 -0.4573
-24.4686 -9.9419 -0.4632
-24.8870 -11.1688 -0.4802
-24.3180 -11.9801 -0.4789
-24.5323 -13.2004 -0.4939
-24.0587 -14.0819 -0.4960
-29.8772 -18.9595 -0.6317
-57.9810 -39.7829 -1.2595
-20.5427 -15.2079 -0.4593
-28.0473 -22.3657 -0.6467
-24.1537 -20.7220 -0.5755
-24.6303 -22.7157 -0.6077
-22.2060 -22.0064 -0.5686
-23.8767 -25.4249 -0.6362
-21.7641 -24.9098 -0.6049
-20.9274 -25.7631 -0.6086
-21.8748 -28.9974 -0.6676
-27.6349 -39.5069 -0.8883
-25.6416 -39.6124 -0.8713
-26.4535 -44.2738 -0.9544
-23.8244 -43.3345 -0.9169
-22.4263 -44.5050 -0.9258
-25.2384 -54.9061 -1.1246
-12.8142 -30.7396 -0.6208
-11.6469 -31.0318 -0.6188
-11.1167 -33.1954 -0.6545
-13.8496 -46.8823 -0.9151
-16.7687 -65.3069 -1.2636
-15.2579 -69.7255 -1.3390
-17.5661 -96.7931 -1.8471
2.1479 -59.7976 0.2212
5.4990 -76.4471 0.2834
4.6327 -42.8432 0.1595
5.0327 -34.8016 0.1303
5.2171 -28.7489 0.1085
5.9979 -27.4104 0.1045
4.2251 -16.4558 0.0635
4.1106 -13.9155 0.0545
3.9696 -11.8542 0.0471
4.2959 -11.4463 0.0464
4.5607 -10.9411 0.0452
4.5720 -9.9468 0.0420
4.7449 -9.4166 0.0408
4.9233 -8.9556 0.0398
5.1160 -8.5628 0.0392
5.3768 -8.3069 0.0392
4.9309 -7.0496 0.0344
5.1769 -6.8630 0.0347
5.4228 -6.6762 0.0351
5.6690 -6.4887 0.0355
5.9257 -6.3103 0.0360
6.2083 -6.1529 0.0368
6.5407 -6.0327 0.0379
7.0781 -6.0729 0.0402
7.7561 -6.1854 0.0432
7.6874 -5.6914 0.0422
7.7408 -5.3117 0.0419
7.6053 -4.8265 0.0407
7.8503 -4.5953 0.0416
8.0767 -4.3463 0.0425
8.2594 -4.0693 0.0433
8.4667 -3.8001 0.0442
8.8877 -3.6116 0.0463
9.7826 -3.5717 0.0509
32.7348 -10.6365 0.1704
20.4599 -5.8449 0.1067
17.2309 -4.2598 0.0902
15.8369 -3.3169 0.0833
16.7634 -2.8871 0.0887
9.5420 -1.2927 0.0509
7.2849 -0.7217 0.0392
6.9453 -0.4370 0.0377
6.3675 -0.1716 0.0350
6.2969 0.0565 0.0350
6.2278 0.2796 0.0351
6.1599 0.4986 0.0352
6.3027 0.7387 0.0366
6.7295 1.0349 0.0397
6.9395 1.3237 0.0417
7.0371 1.6061 0.0431
7.1292 1.8988 0.0446
6.9958 2.1349 0.0447
6.7059 2.3127 0.0438
6.7010 2.5837 0.0448
6.7342 2.8783 0.0462
6.9019 3.2477 0.0486
7.1274 3.6719 0.0516
7.4851 4.2028 0.0558
14.6516 8.9332 0.1126
6.7681 4.4675 0.0537
6.4754 4.6163 0.0531
6.3006 4.8420 0.0535
6.1234 5.0656 0.0540
5.9249 5.2708 0.0543
5.7272 5.4757 0.0547
5.5989 5.7517 0.0558
5.8133 6.4174 0.0606
6.7922 8.0618 0.0743
6.5267 8.3365 0.0751
6.8026 9.3628 0.0826
2.1906 3.2546 0.0282
10.3640 16.6595 0.1417
8.6704 15.1217 0.1266
7.8427 14.8928 0.1228
7.2929 15.1438 0.1232
6.9962 15.9701 0.1284
6.4545 16.3019 0.1296
5.8691 16.5342 0.1302
5.3846 17.0924 0.1334
4.9193 17.8247 0.1381
2.8103 11.8226 0.0910
6.0194 30.0849 0.2303
5.0006 30.6803 0.2338
2.2329 41.4196 0.3133
-6.8813 54.4702 0.4149
-6.5201 40.0030 0.3060
-14.8409 37.4835 0.3007
-18.7443 42.7870 0.3473
-18.9713 39.3938 0.3239
-21.1175 40.1008 0.3345
-22.1162 38.5718 0.3268
-19.6678 31.6147 0.2724
-17.5209 26.0313 0.2285
-21.2971 29.3125 0.2625
-20.2818 25.9059 0.2371
-20.0052 23.7445 0.2224
-20.3313 22.4444 0.2156
-20.7218 21.2871 0.2102
-21.1844 20.2540 0.2060
-21.7102 19.3136 0.2028
-22.2192 18.3810 0.1998
-22.6749 17.4256 0.1967
-23.0636 16.4421 0.1933
-23.3910 15.4400 0.1897
-23.6613 14.4264 0.1860
-23.9481 13.4466 0.1827
-24.1773 12.4556 0.1793
-24.6389 11.5938 0.1779
-25.3822 10.8485 0.1786
-22.7911 8.7875 0.1565
-20.3101 7.0044 0.1363
-13.7258 4.1887 0.0901
-13.2645 3.5328 0.0853
-12.8411 2.9307 0.0810
-24.6030 4.6930 0.1523
-25.0102 3.8460 0.1521
-24.3118 2.8495 0.1455
-22.8451 1.8492 0.1346
-23.2959 1.0459 0.1354
-21.1047 0.1891 0.1211
-23.5079 -0.6335 0.1333
-38.5206 -2.4240 0.2160
-38.9131 -3.8552 0.2162
-29.0420 -3.9343 0.1600
-28.3186 -4.8773 0.1549
-25.8294 -5.4098 0.1404
-25.3932 -6.2778 0.1374
-38.5210 -11.0047 0.2077
-25.9030 -8.4167 0.1394
-24.7308 -9.0295 0.1330
-24.3352 -9.8888 0.1309
-23.9923 -10.7684 0.1294
-25.6747 -12.6497 0.1390
-24.4293 -13.1462 0.1330
-24.1631 -14.1444 0.1325
-57.3150 -36.3739 0.3170
-57.6429 -39.5541 0.3223
-27.8080 -20.5879 0.1575
-27.7201 -22.1064 0.1594
-24.2389 -20.7965 0.1418
-24.8409 -22.9114 0.1482
-22.6092 -22.4075 0.1379
-21.5518 -22.9506 0.1349
-21.8776 -25.0412 0.1408
-21.0368 -25.8994 0.1397
-21.7669 -28.8560 0.1497
-27.7838 -39.7220 0.1987
-27.1140 -41.8894 0.2024
-25.5354 -42.7395 0.2000
-23.0719 -41.9681 0.1906
-21.7437 -43.1527 0.1907
-25.4213 -55.3069 0.2382
-25.2781 -60.6422 0.2550
-11.7839 -31.3985 0.1292
-26.8881 -80.2945 0.3241
-26.8734 -90.9740 0.3608
-17.0648 -66.4638 0.2595
-20.8277 -95.1836 0.3666
0.0002 -85.2336 2.2353
2.0824 -57.9739 1.5213
5.2240 -72.6252 1.9095
4.6887 -43.3623 1.1439
5.3018 -36.6634 0.9718
5.1788 -28.5386 0.7611
5.1593 -23.5788 0.6336
4.2226 -16.4465 0.4460
4.0890 -13.8428 0.3793
3.9190 -11.7036 0.3246
4.2423 -11.3040 0.3178
4.4617 -10.7041 0.3055
4.4571 -9.6974 0.2814
4.6459 -9.2207 0.2725
4.8474 -8.8178 0.2659
5.0389 -8.4342 0.2599
4.6441 -7.1752 0.2264
4.7717 -6.8223 0.2208
4.9214 -6.5246 0.2171
5.0782 -6.2523 0.2143
5.2321 -5.9891 0.2119
5.4686 -5.8238 0.2132
5.7068 -5.6562 0.2148
5.9673 -5.5041 0.2174
6.2278 -5.3437 0.2202
6.4583 -5.1508 0.2221
6.6841 -4.9489 0.2240
6.8826 -4.7231 0.2253
7.0836 -4.4959 0.2269
7.3369 -4.2951 0.2304
7.5924 -4.0861 0.2342
7.8093 -3.8479 0.2370
8.0440 -3.6107 0.2406
8.5375 -3.4697 0.2520
9.0016 -3.2870 0.2627
10.3062 -3.3493 0.2978
23.0929 -6.5981 0.6615
17.3916 -4.3003 0.4946
15.8576 -3.3219 0.4484
9.2391 -1.5916 0.2601
8.3821 -1.1359 0.2352
7.0216 -0.6959 0.1967
6.6483 -0.4186 0.1862
6.3222 -0.1706 0.1772
6.2526 0.0558 0.1756
6.1844 0.2774 0.1743
6.1174 0.4949 0.1732
6.1025 0.7150 0.1738
6.4560 0.9925 0.1853
6.5450 1.2482 0.1894
6.6373 1.5146 0.1940
6.7253 1.7909 0.1988
6.5836 2.0089 0.1971
6.6134 2.2805 0.2008
6.6441 2.5615 0.2049
6.6758 2.8530 0.2093
6.7967 3.1979 0.2171
7.0069 3.6095 0.2283
7.1527 4.0158 0.2381
7.2410 4.4145 0.2467
6.5771 4.3410 0.2297
6.4035 4.5647 0.2297
6.2367 4.7925 0.2302
6.0158 4.9762 0.2289
5.7886 5.1493 0.2276
5.5969 5.3507 0.2279
5.4931 5.6425 0.2322
5.6840 6.2744 0.2500
6.6409 7.8817 0.3049
6.3821 8.1514 0.3067
6.5641 9.0341 0.3313
2.1905 3.2543 0.1166
9.2728 14.9047 0.5223
8.3996 14.6485 0.5030
7.7638 14.7422 0.4970
7.1834 14.9156 0.4943
6.7631 15.4372 0.5038
6.3373 16.0051 0.5151
5.8231 16.4038 0.5213
5.3201 16.8869 0.5307
4.8247 17.4808 0.5440
2.8100 11.8204 0.3647
5.9004 29.4882 0.9032
4.9849 30.5823 0.9312
8.9624 70.9396 2.1497
6.4078 71.1904 2.1497
2.2328 41.4155 1.2476
1.3338 74.2794 2.2353
-1.3333 74.2715 2.2353
-3.9986 74.1740 2.2353
-6.3520 70.5748 2.1322
-8.8827 70.3113 2.1322
-6.5189 39.9946 1.2189
-10.2125 51.0401 1.5652
-12.1332 51.0402 1.5769
-14.0869 51.0403 1.5908
-16.0798 51.0403 1.6069
-18.1183 51.0404 1.6253
-14.8378 37.4741 1.2086
-19.2591 43.9604 1.4381
-18.8978 39.2394 1.3039
-21.9580 41.6950 1.4094
-19.3812 33.8004 1.1641
-19.6910 31.6505 1.1125
-17.5172 26.0246 0.9352
-19.3819 26.6751 0.9817
-18.9565 24.2117 0.9143
-19.1010 22.6701 0.8802
-19.4869 21.5110 0.8606
-19.9267 20.4691 0.8457
-20.3880 19.4914 0.8337
-20.8629 18.5587 0.8240
-21.3295 17.6438 0.8154
-21.6585 16.6435 0.8032
-21.8892 15.6038 0.7890
-22.0513 14.5545 0.7740
-22.1162 13.4833 0.7574
-22.2161 12.4730 0.7435
-21.8657 11.2637 0.7163
-21.6058 10.1656 0.6939
-21.5652 9.2162 0.6801
-21.6147 8.3330 0.6703
-20.3505 7.0174 0.6215
-13.4957 4.1179 0.4065
-13.0517 3.4755 0.3882
-13.0456 2.9768 0.3837
-21.5863 4.1166 0.6286
-23.3259 3.5859 0.6735
-23.5782 2.7626 0.6759
-22.0333 1.7826 0.6278
-22.5038 1.0094 0.6382
-23.1014 0.2061 0.6530
-22.8716 -0.6173 0.6451
-22.8644 -1.4397 0.6443
-23.0658 -2.2861 0.6503
-23.8908 -3.2375 0.6747
-24.2478 -4.1772 0.6869
-24.7518 -5.1852 0.7043
-38.9133 -9.6221 1.1136
-38.5210 -11.0064 1.1102
-62.2345 -20.2248 1.8090
-26.6049 -9.7150 0.7811
-24.7321 -10.0513 0.7345
-24.3840 -10.9454 0.7336
-26.6310 -13.1222 0.8130
-25.8554 -13.9150 0.8022
-25.8169 -15.1138 0.8154
-57.3153 -36.3771 1.8463
-57.6429 -39.5572 1.8972
-27.6847 -20.4982 0.9328
-27.5942 -22.0076 0.9538
-24.3247 -20.8716 0.8643
-24.0192 -22.1550 0.8794
-23.0275 -22.8235 0.8709
-21.7787 -23.1937 0.8530
-21.9922 -25.1740 0.8945
-21.1475 -26.0371 0.8961
-21.6355 -28.6835 0.9582
-28.0260 -40.0705 1.3019
-27.0130 -41.7357 1.3216
-25.9724 -43.4734 1.3442
-23.7539 -43.2109 1.3071
-22.5153 -44.6863 1.3246
-22.6759 -49.3364 1.4356
-21.6932 -52.0449 1.4890
-11.5324 -30.7298 0.8659
-22.2587 -66.4734 1.8474
-21.4513 -72.6223 1.9938
-17.0683 -66.4809 1.8057
-17.3652 -79.3641 2.1358
-14.6473 -80.7186 2.1553
-11.7469 -81.2365 2.1553
-6.4063 -59.2510 1.5642
-6.1120 -84.9772 2.2353
-3.0587 -85.1644 2.2353
0.0002 -45.8254 2.2353
1.6451 -45.7978 2.2353
3.1359 -43.5975 2.1321
4.6985 -43.4540 2.1321
5.2315 -36.1785 1.7834
5.2515 -28.9399 1.4351
4.9036 -22.4110 1.1196
4.2277 -16.4670 0.8299
4.1052 -13.8983 0.7077
3.8963 -11.6361 0.5994
4.2057 -11.2070 0.5850
4.3598 -10.4601 0.5541
4.3622 -9.4912 0.5110
4.5734 -9.0772 0.4975
4.7736 -8.6841 0.4853
4.9795 -8.3351 0.4758
4.5414 -7.0169 0.4099
4.6621 -6.6659 0.3992
4.8104 -6.3777 0.3924
4.9971 -6.1527 0.3896
5.1730 -5.9216 0.3868
5.3172 -5.6629 0.3825
5.4580 -5.4099 0.3788
5.5940 -5.1601 0.3755
5.6641 -4.8603 0.3686
5.7307 -4.5708 0.3624
5.7950 -4.2910 0.3569
5.8625 -4.0234 0.3523
5.9448 -3.7733 0.3493
6.6601 -3.8992 0.3832
7.1210 -3.8328 0.4021
7.3585 -3.6261 0.4084
7.6104 -3.4165 0.4158
7.9578 -3.2344 0.4287
8.6297 -3.1516 0.4591
9.5709 -3.1107 0.5035
10.8467 -3.0996 0.5651
22.4336 -5.5480 1.1593
8.6553 -1.8136 0.4442
7.8293 -1.3491 0.3996
7.0963 -0.9620 0.3607
6.7764 -0.6719 0.3434
6.3753 -0.4017 0.3226
6.2775 -0.1697 0.3176
6.2089 0.0551 0.3144
6.1416 0.2752 0.3118
6.0754 0.4913 0.3095
6.0102 0.7039 0.3077
6.1148 0.9398 0.3150
6.2013 1.1823 0.3219
6.3298 1.4441 0.3315
6.4657 1.7215 0.3421
6.5299 1.9922 0.3495
6.5585 2.2613 0.3556
6.5880 2.5395 0.3624
6.6184 2.8281 0.3699
6.6946 3.1495 0.3807
6.8807 3.5441 0.3988
7.0187 3.9402 0.4152
7.0105 4.2736 0.4240
6.5162 4.3005 0.4037
6.3402 4.5192 0.4030
6.1750 4.7448 0.4036
5.9118 4.8899 0.3980
5.6584 5.0331 0.3933
5.5036 5.2612 0.3958
5.4347 5.5822 0.4054
5.5682 6.1462 0.4320
6.4922 7.7048 0.5253
6.3182 8.0692 0.5348
6.3847 8.7866 0.5673
2.1903 3.2539 0.2050
6.4913 10.4333 0.6428
6.1868 10.7889 0.6511
5.9107 11.2229 0.6645
5.6493 11.7295 0.6825
6.7007 15.2939 0.8758
6.2708 15.8364 0.8939
5.7657 16.2414 0.9050
5.2688 16.7232 0.9211
4.7997 17.3894 0.9481
2.8096 11.8183 0.6387
5.9030 29.4999 1.5823
4.9245 30.2099 1.6103
5.0785 40.1954 2.1321
3.6315 40.3436 2.1321
2.1489 39.8547 2.1011
0.7624 42.4504 2.2353
-0.7620 42.4479 2.2353
-2.2854 42.3927 2.2353
-3.8059 42.2848 2.2353
-5.3219 42.1243 2.2353
-6.4962 39.8541 2.1256
-7.9490 39.7258 2.1322
-9.3721 39.4236 2.1322
-10.9010 39.4954 2.1553
-12.3158 39.0910 2.1553
-13.7162 38.6377 2.1553
-14.8347 37.4647 2.1174
-16.1064 36.7625 2.1081
-16.8037 34.8898 2.0330
-17.4999 33.2282 1.9704
-18.0749 31.5208 1.9053
-18.2981 29.4102 1.8152
-17.5136 26.0180 1.6425
-17.8358 24.5461 1.5879
-17.9776 22.9603 1.5249
-18.2821 21.6971 1.4825
-18.7108 20.6532 1.4550
-19.2136 19.7355 1.4368
-19.6453 18.7803 1.4164
-20.0697 17.8519 1.3986
-20.4460 16.9119 1.3802
-20.6455 15.8639 1.3530
-20.7669 14.8026 1.3238
-20.7830 13.7163 1.2912
-20.6526 12.5899 1.2529
-20.3979 11.4512 1.2103
-20.3934 10.5043 1.1855
-20.4472 9.6195 1.1664
-20.5464 8.7798 1.1520
-20.7655 8.0046 1.1460
-20.3910 7.0304 1.1093
-13.2729 4.0493 0.7128
-21.3542 5.6855 1.1336
-13.0318 2.9731 0.6848
-21.9281 4.1808 1.1421
-22.2575 3.4207 1.1506
-22.5405 2.6400 1.1581
-22.5144 1.8206 1.1511
-21.9860 0.9852 1.1200
-21.9090 0.1945 1.1135
-21.7816 -0.5888 1.1058
-21.7052 -1.3677 1.1022
-21.7090 -2.1526 1.1041
-21.8382 -2.9604 1.1138
-22.0834 -3.8054 1.1310
-22.3927 -4.6920 1.1532
-22.7441 -5.6249 1.1793
-23.2773 -6.6519 1.2169
-23.9026 -7.7689 1.2617
-22.7849 -8.3212 1.2161
-24.8565 -10.1031 1.3434
-24.4928 -10.9955 1.3424
-24.1659 -11.9087 1.3454
-24.0178 -12.9273 1.3604
-23.7344 -13.8958 1.3700
-23.6005 -14.9801 1.3907
-23.8727 -16.3839 1.4388
-34.8986 -25.8414 2.1553
-27.4693 -21.9096 1.7420
-25.3627 -21.7638 1.6550
-24.1117 -22.2418 1.6227
-26.0226 -25.7938 1.8106
-22.0107 -23.4423 1.5873
-21.4119 -24.5111 1.6050
-20.8629 -25.6882 1.6304
-20.6173 -27.3352 1.6853
-24.0837 -34.4359 2.0666
-22.9611 -35.4774 2.0765
-21.8134 -36.5138 2.0883
-20.6801 -37.6215 2.1062
-19.5092 -38.7222 2.1257
-18.3198 -39.8609 2.1493
-16.9353 -40.6322 2.1553
-11.8915 -31.6884 1.6562
-13.9924 -41.7892 2.1553
-12.4895 -42.2850 2.1553
-10.9686 -42.7249 2.1553
-9.3307 -42.6462 2.1322
-7.7967 -42.9685 2.1322
-6.2512 -43.2332 2.1322
-4.9236 -45.5405 2.2353
-3.2865 -45.6968 2.2353
-1.6444 -45.7919 2.2353
0.0002 -31.3150 2.2353
1.1242 -31.2956 2.2353
2.1429 -29.7921 2.1321
3.2107 -29.6947 2.1321
4.2740 -29.5581 2.1321
5.3142 -29.2868 2.1251
4.7649 -21.7780 1.5919
4.2308 -16.4799 1.2152
4.1042 -13.8955 1.0350
3.9113 -11.6814 0.8802
4.1918 -11.1706 0.8528
4.3565 -10.4526 0.8096
4.3528 -9.4712 0.7455
4.5308 -8.9931 0.7205
4.7020 -8.5541 0.6987
4.3305 -7.2491 0.6047
4.4430 -6.8651 0.5859
4.5571 -6.5162 0.5700
4.7203 -6.2586 0.5622
4.9183 -6.0561 0.5598
5.1143 -5.8548 0.5582
5.2594 -5.6017 0.5521
5.3993 -5.3521 0.5466
5.5322 -5.1034 0.5415
5.6295 -4.8310 0.5340
5.6964 -4.5437 0.5249
5.7608 -4.2660 0.5168
5.8312 -4.0022 0.5103
5.9134 -3.7537 0.5057
5.9939 -3.5095 0.5019
6.0731 -3.2690 0.4988
6.1564 -3.0341 0.4968
7.1779 -3.2226 0.5700
7.5384 -3.0643 0.5900
7.9513 -2.9042 0.6143
8.7791 -2.8538 0.6705
9.3117 -2.6614 0.7041
7.3218 -1.8111 0.5489
7.1683 -1.5023 0.5335
7.0457 -1.2144 0.5212
6.8443 -0.9281 0.5040
6.5472 -0.6495 0.4806
6.3024 -0.3974 0.4617
6.2334 -0.1688 0.4563
6.1657 0.0545 0.4517
6.0768 0.2721 0.4460
5.9799 0.4833 0.4403
5.9451 0.6960 0.4397
6.0018 0.9221 0.4465
6.1156 1.1657 0.4582
6.2399 1.4233 0.4715
6.3711 1.6960 0.4861
6.4611 1.9709 0.4985
6.4971 2.2398 0.5077
6.5327 2.5179 0.5176
6.5618 2.8036 0.5281
6.5952 3.1025 0.5398
6.7587 3.4810 0.5636
6.8894 3.8673 0.5862
6.7571 4.1188 0.5876
6.4563 4.2606 0.5749
6.2817 4.4772 0.5737
6.0729 4.6660 0.5701
5.8111 4.8062 0.5617
5.5518 4.9379 0.5539
5.4555 5.2149 0.5630
5.3861 5.5320 0.5764
5.4588 6.0250 0.6073
6.3779 7.5687 0.7398
6.2571 7.9907 0.7591
6.2572 8.6107 0.7966
2.1902 3.2535 0.2937
6.4431 10.3551 0.9138
6.1239 10.6787 0.9228
5.8453 11.0980 0.9407
5.5257 11.4722 0.9554
5.3314 12.1680 0.9972
6.1912 15.6346 1.2628
5.7299 16.1396 1.2866
5.2250 16.5834 1.3066
4.7879 17.3456 1.3526
2.8093 11.8161 0.9132
5.5627 27.7974 2.1321
4.5602 27.9734 2.1321
3.5523 28.1142 2.1321
2.5403 28.2196 2.1321
1.5993 29.6596 2.2353
0.5334 29.6956 2.2353
-0.5330 29.6943 2.2353
-1.5987 29.6558 2.2353
-2.6624 29.5800 2.2353
-3.7229 29.4671 2.2353
-4.7788 29.3170 2.2353
-5.8290 29.1302 2.2353
-6.5552 27.5735 2.1322
-7.5423 27.3256 2.1322
-8.5204 27.0432 2.1322
-9.4882 26.7267 2.1322
-10.5576 26.6619 2.1553
-11.5117 26.2740 2.1553
-12.4519 25.8529 2.1553
-13.3771 25.3988 2.1553
-14.2861 24.9124 2.1553
-15.1780 24.3942 2.1553
-16.0516 23.8448 2.1553
-16.4004 22.5694 2.0909
-16.8152 21.4746 2.0430
-17.2848 20.5124 2.0082
-17.7380 19.5783 1.9767
-18.2869 18.7825 1.9602
-18.8302 18.0000 1.9466
-19.2095 17.0858 1.9199
-19.4134 16.0567 1.8801
-19.5121 14.9920 1.8351
-19.4890 13.8907 1.7835
-19.4112 12.8100 1.7318
-19.3274 11.7811 1.6842
-19.3160 10.8429 1.6469
-19.4192 10.0016 1.6228
-19.5623 9.2023 1.6047
-19.7452 8.4365 1.5925
-19.9699 7.6970 1.5860
-20.1809 6.9571 1.5805
-13.0569 3.9828 1.0098
-20.5685 5.4754 1.5731
-13.0179 2.9694 0.9859
-21.1304 4.0278 1.5869
-21.4264 3.2920 1.5978
-21.5662 2.5249 1.5989
-21.4736 1.7355 1.5849
-21.1846 0.9484 1.5586
-21.0256 0.1858 1.5439
-20.8831 -0.5654 1.5325
-20.7651 -1.3094 1.5249
-20.7262 -2.0561 1.5250
-20.7912 -2.8193 1.5348
-20.9102 -3.6041 1.5507
-21.0969 -4.4214 1.5738
-21.3525 -5.2817 1.6045
-21.6178 -6.1787 1.6385
-22.0872 -7.1799 1.6909
-22.2977 -8.1443 1.7267
-22.1950 -9.0223 1.7412
-21.9056 -9.8351 1.7435
-21.5377 -10.6147 1.7419
-21.2416 -11.4341 1.7485
-21.0844 -12.3454 1.7694
-20.8797 -13.2543 1.7895
-20.6847 -14.1971 1.8138
-20.5832 -15.2424 1.8502
-20.5676 -16.4060 1.8990
-20.5114 -17.6021 1.9495
-20.5321 -18.9411 2.0133
-20.4260 -20.2477 2.0713
-19.9527 -21.2518 2.0979
-19.3188 -22.1165 2.1120
-18.6204 -22.9285 2.1229
-17.9033 -23.7382 2.1356
-17.1783 -24.5638 2.1517
-16.3211 -25.2193 2.1551
-15.4155 -25.8056 2.1553
-14.4869 -26.3561 2.1553
-13.5382 -26.8722 2.1553
-12.5708 -27.3535 2.1553
-11.5859 -27.7991 2.1553
-10.5850 -28.2083 2.1553
-9.4667 -28.2744 2.1322
-8.4486 -28.6055 2.1322
-7.4187 -28.8990 2.1322
-6.3784 -29.1545 2.1322
-5.5869 -30.7916 2.2353
-4.4790 -30.9786 2.2353
-3.3648 -31.1245 2.2353
-2.2458 -31.2294 2.2353
-1.1237 -31.2929 2.2353
0.0002 -23.7655 2.2353
0.8532 -23.7507 2.2353
1.7050 -23.7046 2.2353
2.4366 -22.5360 2.1321
3.2436 -22.4327 2.1321
4.0463 -22.2999 2.1321
4.6071 -21.0574 2.0280
4.2581 -16.5869 1.6114
4.1264 -13.9710 1.3710
3.9680 -11.8512 1.1764
4.1781 -11.1343 1.1197
4.3532 -10.4451 1.0656
4.3619 -9.4915 0.9840
4.5400 -9.0116 0.9508
4.7066 -8.5629 0.9210
4.3325 -7.2528 0.7966
4.3815 -6.7705 0.7607
4.4565 -6.3726 0.7337
4.6465 -6.1610 0.7284
4.8417 -5.9621 0.7253
5.0349 -5.7643 0.7231
5.2027 -5.5417 0.7185
5.3417 -5.2953 0.7113
5.4716 -5.0478 0.7044
5.5950 -4.8017 0.6980
5.6624 -4.5169 0.6861
5.7270 -4.2412 0.6754
5.8002 -3.9812 0.6671
5.8822 -3.7342 0.6611
5.9625 -3.4915 0.6560
6.0456 -3.2545 0.6523
6.1429 -3.0277 0.6510
6.2378 -2.8009 0.6505
6.9323 -2.8183 0.7123
7.4669 -2.7276 0.7572
7.2528 -2.3580 0.7269
6.6219 -1.8929 0.6569
6.5910 -1.6306 0.6481
6.5582 -1.3747 0.6400
6.4881 -1.1186 0.6293
6.3456 -0.8608 0.6125
6.2160 -0.6169 0.5979
6.1901 -0.3906 0.5942
6.0923 -0.1652 0.5842
5.9968 0.0527 0.5753
5.9033 0.2640 0.5673
5.8807 0.4750 0.5668
5.9160 0.6924 0.5727
5.9652 0.9163 0.5807
6.0399 1.1510 0.5920
6.1523 1.4030 0.6080
6.2790 1.6712 0.6265
6.3931 1.9499 0.6449
6.4276 2.2155 0.6565
6.4630 2.4907 0.6692
6.4994 2.7767 0.6834
6.5346 3.0736 0.6987
6.6468 3.4230 0.7238
6.8235 3.8299 0.7581
6.5710 4.0050 0.7460
6.3942 4.2193 0.7431
6.1888 4.4106 0.7376
5.9465 4.5686 0.7283
5.6869 4.7031 0.7171
5.4755 4.8697 0.7125
5.3826 5.1449 0.7244
5.3383 5.4825 0.7449
5.4010 5.9608 0.7834
6.3002 7.4760 0.9526
6.1367 7.8366 0.9703
6.2094 8.5445 1.0301
2.1900 3.2531 0.3826
6.3953 10.2778 1.1816
6.0620 10.5702 1.1899
5.7695 10.9536 1.2094
5.4530 11.3208 1.2279
5.2027 11.8736 1.2672
4.9844 12.5863 1.3237
5.6408 15.8878 1.6490
5.1934 16.4820 1.6907
4.7527 17.2172 1.7479
2.8089 11.8140 1.1886
4.2736 21.3548 2.1321
3.5036 21.4910 2.1321
2.7294 21.6000 2.1321
1.9519 21.6817 2.1321
1.2289 22.7886 2.2353
0.4099 22.8167 2.2353
-0.4095 22.8160 2.2353
-1.2284 22.7864 2.2353
-2.0458 22.7280 2.2353
-2.8606 22.6409 2.2353
-3.6719 22.5252 2.2353
-4.4786 22.3810 2.2353
-5.2799 22.2085 2.2353
-6.0748 22.0078 2.2353
-6.5457 20.7748 2.1322
-7.2887 20.5304 2.1322
-8.0229 20.2600 2.1322
-8.7473 19.9638 2.1322
-9.4609 19.6421 2.1322
-10.1630 19.2954 2.1322
-10.9701 19.1290 2.1553
-11.6538 18.7291 2.1553
-12.3231 18.3053 2.1553
-12.9774 17.8579 2.1553
-13.6157 17.3876 2.1553
-14.2372 16.8947 2.1553
-14.8412 16.3800 2.1553
-15.4269 15.8441 2.1553
-15.9936 15.2874 2.1553
-16.4891 14.6652 2.1486
-16.9561 14.0233 2.1413
-17.2862 13.2808 2.1202
-17.5393 12.5002 2.0937
-17.7816 11.7337 2.0697
-18.0473 10.9999 2.0521
-18.2020 10.2167 2.0255
-18.3638 9.4571 2.0031
-18.5388 8.7199 1.9855
-18.7653 8.0170 1.9764
-19.0163 7.3286 1.9725
-19.2421 6.6326 1.9686
-19.4674 5.9375 1.9673
-19.7488 5.2563 1.9740
-13.0041 2.9656 1.2874
-20.1251 3.8353 1.9762
-20.2252 3.1066 1.9724
-20.2529 2.3703 1.9641
-20.2222 1.6334 1.9528
-20.2113 0.9039 1.9459
-20.0890 0.1766 1.9309
-19.8912 -0.5394 1.9111
-19.7998 -1.2494 1.9040
-19.7673 -1.9618 1.9050
-19.8084 -2.6870 1.9157
-19.8512 -3.4225 1.9290
-19.9386 -4.1796 1.9495
-20.1611 -4.9879 1.9860
-20.3062 -5.8048 2.0181
-20.4330 -6.6431 2.0516
-20.3475 -7.4330 2.0671
-20.0507 -8.1516 2.0639
-19.7810 -8.8821 2.0662
-19.4255 -9.5747 2.0623
-19.1197 -10.2928 2.0663
-18.7834 -10.9991 2.0700
-18.5323 -11.7651 2.0862
-18.2164 -12.5040 2.0985
-17.8372 -13.2099 2.1068
-17.5236 -13.9789 2.1264
-17.1999 -14.7614 2.1488
-16.7191 -15.4246 2.1553
-16.1637 -16.0236 2.1553
-15.5866 -16.6024 2.1553
-14.9885 -17.1601 2.1553
-14.3701 -17.6959 2.1553
-13.7324 -18.2090 2.1553
-13.0760 -18.6988 2.1553
-12.4020 -19.1645 2.1553
-11.7111 -19.6055 2.1553
-11.0042 -20.0212 2.1553
-10.1723 -20.1922 2.1322
-9.4443 -20.5515 2.1322
-8.7035 -20.8841 2.1322
-7.9508 -21.1895 2.1322
-7.1872 -21.4672 2.1322
-6.4137 -21.7169 2.1322
-5.9038 -22.9988 2.2353
-5.0756 -23.2006 2.2353
-4.2404 -23.3720 2.2353
-3.3994 -23.5127 2.2353
-2.5536 -23.6226 2.2353
-1.7044 -23.7014 2.2353
-0.8527 -23.7491 2.2353
0.0002 -19.1332 2.2353
0.6869 -19.1212 2.2353
1.3727 -19.0842 2.2353
1.9616 -18.1434 2.1321
2.6114 -18.0605 2.1321
3.2576 -17.9539 2.1321
3.8995 -17.8238 2.1321
4.2910 -16.7156 2.0168
4.7482 -16.0772 1.9594
4.0266 -12.0269 1.4827
4.1643 -11.0981 1.3860
4.3208 -10.3678 1.3135
4.3711 -9.5119 1.2245
4.5492 -9.0304 1.1830
4.6763 -8.5081 1.1362
4.3345 -7.2564 0.9894
4.3834 -6.7737 0.9447
4.4260 -6.3293 0.9046
4.5892 -6.0854 0.8930
4.7672 -5.8706 0.8864
4.9577 -5.6761 0.8837
5.1466 -5.4822 0.8820
5.2851 -5.2395 0.8733
5.4120 -4.9931 0.8644
5.5347 -4.7502 0.8566
5.6286 -4.4902 0.8460
5.6934 -4.2166 0.8328
5.7693 -3.9603 0.8230
5.8512 -3.7148 0.8155
5.9345 -3.4753 0.8096
6.0325 -3.2478 0.8069
6.1294 -3.0214 0.8053
6.2242 -2.7950 0.8044
6.3187 -2.5691 0.8046
6.7025 -2.4487 0.8422
6.7513 -2.1952 0.8384
6.3552 -1.8170 0.7810
6.1236 -1.5153 0.7458
6.0988 -1.2787 0.7372
5.9942 -1.0337 0.7200
5.9034 -0.8010 0.7056
5.8737 -0.5832 0.6995
5.9521 -0.3758 0.7072
5.9173 -0.1607 0.7023
5.8272 0.0510 0.6918
5.8178 0.2599 0.6918
5.8522 0.4724 0.6978
5.8870 0.6887 0.7049
5.9288 0.9104 0.7138
6.0024 1.1436 0.7275
6.0787 1.3860 0.7428
6.1891 1.6470 0.7634
6.3185 1.9268 0.7879
6.3593 2.1917 0.8027
6.3931 2.4635 0.8181
6.4276 2.7457 0.8351
6.4765 3.0459 0.8555
6.6258 3.4118 0.8914
6.8010 3.8169 0.9333
6.4645 3.9398 0.9064
6.2618 4.1316 0.8987
6.0422 4.3058 0.8892
5.8106 4.4637 0.8786
5.5723 4.6081 0.8674
5.4104 4.8115 0.8690
5.2808 5.0472 0.8771
5.2666 5.4086 0.9069
5.3840 5.9418 0.9636
6.2089 7.3673 1.1583
6.0025 7.6647 1.1709
6.1908 8.5184 1.2670
2.1899 3.2527 0.4720
6.3410 10.1900 1.4450
6.0010 10.4632 1.4528
5.7155 10.8505 1.4775
5.4198 11.2512 1.5050
5.1963 11.8582 1.5607
4.9903 12.6005 1.6341
5.5238 15.5574 1.9910
5.1199 16.2480 2.0549
4.6937 17.0026 2.1281
2.8085 11.8118 1.4651
3.4668 17.3222 2.1321
2.8423 17.4332 2.1321
2.2143 17.5221 2.1321
1.6602 18.4405 2.2353
0.9970 18.4870 2.2353
0.3326 18.5100 2.2353
-0.3322 18.5095 2.2353
-0.9966 18.4855 2.2353
-1.6596 18.4381 2.2353
-2.3207 18.3673 2.2353
-2.9788 18.2732 2.2353
-3.6333 18.1558 2.2353
-4.2832 18.0155 2.2353
-4.9279 17.8522 2.2353
-5.5664 17.6662 2.2353
-6.1827 17.4141 2.2297
-6.5075 16.4325 2.1322
-7.0948 16.1916 2.1322
-7.6732 15.9299 2.1322
-8.2422 15.6478 2.1322
-8.8009 15.3458 2.1322
-9.3488 15.0241 2.1322
-9.8851 14.6830 2.1322
-10.5219 14.4783 2.1553
-11.0386 14.0959 2.1553
-11.5416 13.6952 2.1553
-12.0302 13.2768 2.1553
-12.5039 12.8413 2.1553
-12.9620 12.3890 2.1553
-13.4039 11.9205 2.1553
-13.8292 11.4365 2.1553
-14.2371 10.9375 2.1553
-14.6273 10.4240 2.1553
-14.9991 9.8968 2.1553
-15.3521 9.3564 2.1553
-15.6859 8.8036 2.1553
-15.9998 8.2389 2.1553
-16.2936 7.6631 2.1553
-16.5670 7.0770 2.1553
-16.8193 6.4811 2.1553
-17.0504 5.8764 2.1553
-17.2599 5.2634 2.1553
-17.4475 4.6430 2.1553
-12.9902 2.9619 1.5896
-17.7558 3.3830 2.1553
-17.8761 2.7450 2.1553
-17.9736 2.1027 2.1553
-18.0480 1.4570 2.1553
-18.0860 0.8081 2.1537
-18.1108 0.1584 2.1533
-18.1277 -0.4924 2.1548
-18.1102 -1.1436 2.1549
-18.0714 -1.7943 2.1553
-18.0022 -2.4428 2.1548
-17.9036 -3.0875 2.1537
-17.7674 -3.7253 2.1507
-17.6434 -4.3659 2.1520
-17.4748 -4.9962 2.1507
-17.2953 -5.6238 2.1509
-17.1273 -6.2574 2.1553
-16.8085 -6.8343 2.1435
-16.4214 -7.3744 2.1253
-16.0244 -7.8991 2.1081
-15.7101 -8.4581 2.1043
-15.4449 -9.0450 2.1098
-15.2642 -9.6912 2.1301
-15.0874 -10.3570 2.1549
-14.7162 -10.8994 2.1553
-14.3225 -11.4262 2.1553
-13.9099 -11.9386 2.1553
-13.4787 -12.4359 2.1553
-13.0295 -12.9175 2.1553
-12.5630 -13.3827 2.1553
-12.0797 -13.8308 2.1553
-11.5802 -14.2612 2.1553
-11.0653 -14.6734 2.1553
-10.5355 -15.0667 2.1553
-9.8845 -15.2752 2.1322
-9.3331 -15.6254 2.1322
-8.7691 -15.9554 2.1322
-8.1933 -16.2648 2.1322
-7.6065 -16.5531 2.1322
-7.0093 -16.8199 2.1322
-6.4028 -17.0648 2.1322
-6.0674 -18.1234 2.2353
-5.4141 -18.3332 2.2353
-4.7536 -18.5192 2.2353
-4.0866 -18.6809 2.2353
-3.4140 -18.8183 2.2353
-2.7368 -18.9310 2.2353
-2.0559 -19.0190 2.2353
-1.3721 -19.0821 2.2353
-0.6864 -19.1202 2.2353
0.0002 -15.9984 2.2353
0.5743 -15.9883 2.2353
1.1477 -15.9574 2.2353
1.7196 -15.9055 2.2353
2.1835 -15.1016 2.1321
2.7238 -15.0126 2.1321
2.2872 -10.4548 1.4956
3.7930 -14.7761 2.1321
4.3203 -14.6288 2.1321
4.2171 -12.5962 1.8569
4.1506 -11.0620 1.6519
4.2832 -10.2780 1.5571
4.3804 -9.5325 1.4673
4.5300 -8.9926 1.4086
4.6452 -8.4520 1.3495
4.3364 -7.2601 1.1835
4.3853 -6.7770 1.1300
4.4231 -6.3255 1.0808
4.5863 -6.0818 1.0669
4.7454 -5.8441 1.0547
4.9010 -5.6116 1.0442
5.0686 -5.3994 1.0382
5.2285 -5.1837 1.0325
5.3533 -4.9394 1.0218
5.4753 -4.6995 1.0126
5.5946 -4.4634 1.0048
5.6600 -4.1922 0.9892
5.7386 -3.9396 0.9780
5.8227 -3.6970 0.9695
5.9215 -3.4680 0.9650
6.0194 -3.2410 0.9617
6.1159 -3.0150 0.9596
6.2105 -2.7892 0.9586
6.3048 -2.5637 0.9587
6.3990 -2.3381 0.9601
6.4924 -2.1113 0.9626
6.3421 -1.8135 0.9305
6.0526 -1.4980 0.8800
5.7723 -1.2105 0.8328
5.6139 -0.9684 0.8048
5.5367 -0.7515 0.7897
5.5863 -0.5549 0.7938
5.6579 -0.3575 0.8021
5.7288 -0.1559 0.8112
5.7561 0.0501 0.8152
5.7898 0.2584 0.8212
5.8238 0.4699 0.8283
5.8582 0.6851 0.8365
5.8930 0.9046 0.8460
5.9652 1.1363 0.8621
6.0402 1.3769 0.8800
6.1181 1.6278 0.8997
6.2261 1.8983 0.9254
6.2921 2.1682 0.9467
6.3243 2.4366 0.9645
6.3755 2.7231 0.9871
6.4317 3.0245 1.0124
6.5693 3.3824 1.0530
6.5675 3.6856 1.0737
6.3248 3.8543 1.0565
6.1291 4.0437 1.0478
5.9117 4.2125 1.0363
5.7098 4.3860 1.0283
5.4853 4.5358 1.0169
5.3465 4.7544 1.0226
5.1853 4.9556 1.0256
5.2572 5.3985 1.0778
5.3671 5.9227 1.1437
6.0413 7.1680 1.3418
5.9816 7.6375 1.3890
6.2282 8.5692 1.5173
2.1898 3.2523 0.5617
6.2926 10.1117 1.7068
5.9651 10.4000 1.7187
5.7031 10.8263 1.7546
5.4078 11.2258 1.7871
5.1866 11.8355 1.8538
5.4714 13.8147 2.1321
4.9709 13.9995 2.1321
4.4643 14.1665 2.1321
3.9521 14.3153 2.1321
2.8082 11.8097 1.7430
2.9138 14.5581 2.1321
2.3889 14.6517 2.1321
1.8726 14.8175 2.1452
1.3955 15.4988 2.2353
0.8380 15.5380 2.2353
0.2796 15.5574 2.2353
-0.2792 15.5571 2.2353
-0.8376 15.5370 2.2353
-1.3950 15.4971 2.2353
-1.9506 15.4375 2.2353
-2.5037 15.3582 2.2353
-3.0538 15.2594 2.2353
-3.6000 15.1412 2.2353
-4.1417 15.0037 2.2353
-4.6783 14.8470 2.2353
-5.2091 14.6714 2.2353
-5.7334 14.4772 2.2353
-6.1828 14.1097 2.2111
-6.4482 13.3862 2.1322
-6.9261 13.1486 2.1322
-7.3953 12.8943 2.1322
-7.8554 12.6234 2.1322
-8.3056 12.3363 2.1322
-8.7455 12.0333 2.1322
-9.1745 11.7148 2.1322
-9.5920 11.3812 2.1322
-9.9975 11.0329 2.1322
-10.5031 10.7858 2.1553
-10.8872 10.4053 2.1553
-11.2577 10.0112 2.1553
-11.6140 9.6040 2.1553
-11.9558 9.1842 2.1553
-12.2826 8.7524 2.1553
-12.5939 8.3091 2.1553
-12.8893 7.8548 2.1553
-13.1684 7.3900 2.1553
-13.4310 6.9155 2.1553
-13.6765 6.4316 2.1553
-13.9048 5.9391 2.1553
-14.1154 5.4385 2.1553
-14.3081 4.9306 2.1553
-14.4826 4.4158 2.1553
-14.6387 3.8949 2.1553
-12.9762 2.9581 1.8928
-14.8947 2.8372 2.1553
-14.9943 2.3018 2.1553
-15.0746 1.7629 2.1553
-15.1357 1.2212 2.1553
-15.1772 0.6775 2.1553
-15.1993 0.1323 2.1553
-15.2019 -0.4136 2.1553
-15.1848 -0.9595 2.1553
-15.1481 -1.5047 2.1553
-15.0919 -2.0485 2.1553
-15.0161 -2.5902 2.1553
-14.9208 -3.1291 2.1553
-14.7812 -3.6583 2.1517
-14.6414 -4.1868 2.1508
-14.4396 -4.6959 2.1435
-14.2952 -5.2234 2.1475
-14.1341 -5.7476 2.1519
-13.9475 -6.2642 2.1553
-13.7201 -6.7639 2.1553
-13.4746 -7.2553 2.1553
-13.2114 -7.7377 2.1553
-12.9309 -8.2105 2.1553
-12.6334 -8.6731 2.1553
-12.3191 -9.1247 2.1553
-11.9887 -9.5650 2.1553
-11.6423 -9.9931 2.1553
-11.2806 -10.4086 2.1553
-10.9039 -10.8108 2.1553
-10.5127 -11.1993 2.1553
-9.9993 -11.4495 2.1322
-9.5853 -11.8051 2.1322
-9.1584 -12.1454 2.1322
-8.7194 -12.4702 2.1322
-8.2687 -12.7790 2.1322
-7.8070 -13.0712 2.1322
-7.3349 -13.3466 2.1322
-6.8529 -13.6047 2.1322
-6.3758 -13.8757 2.1369
-6.1456 -14.7479 2.2353
-5.6135 -14.9621 2.2353
-5.0739 -15.1568 2.2353
-4.5275 -15.3317 2.2353
-3.9750 -15.4868 2.2353
-3.4172 -15.6216 2.2353
-2.8547 -15.7361 2.2353
-2.2884 -15.8301 2.2353
-1.7190 -15.9034 2.2353
-1.1472 -15.9559 2.2353
-0.5739 -15.9876 2.2353
0.0002 -13.7340 2.2353
0.4931 -13.7253 2.2353
0.9853 -13.6988 2.2353
1.4762 -13.6543 2.2353
1.8747 -12.9664 2.1324
2.3383 -12.8880 2.1321
2.2849 -10.4444 1.7404
3.2561 -12.6852 2.1321
3.7089 -12.5590 2.1321
4.1567 -12.4164 2.1321
4.4290 -11.8045 2.0532
4.2710 -10.2491 1.8085
4.3718 -9.5142 1.7057
4.4986 -8.9308 1.6292
4.6176 -8.4021 1.5623
4.3384 -7.2637 1.3790
4.3830 -6.7738 1.3153
4.4202 -6.3217 1.2578
4.5833 -6.0782 1.2416
4.7423 -5.8407 1.2274
4.8979 -5.6083 1.2151
5.0505 -5.3804 1.2046
5.1660 -5.1220 1.1878
5.2952 -4.8860 1.1768
5.4168 -4.6496 1.1663
5.5353 -4.4164 1.1573
5.6267 -4.1679 1.1448
5.7099 -3.9202 1.1327
5.8099 -3.6892 1.1259
5.9086 -3.4607 1.1206
6.0063 -3.2342 1.1168
6.1024 -3.0086 1.1143
6.1967 -2.7833 1.1130
6.2908 -2.5584 1.1131
6.3799 -2.3314 1.1138
6.4615 -2.1016 1.1146
6.3291 -1.8101 1.0803
6.0408 -1.4953 1.0217
5.7068 -1.1970 0.9577
5.4694 -0.9437 0.9120
5.3130 -0.7214 0.8814
5.4140 -0.5380 0.8947
5.5187 -0.3490 0.9098
5.6263 -0.1533 0.9264
5.7099 0.0494 0.9403
5.7619 0.2569 0.9501
5.7955 0.4674 0.9583
5.8294 0.6815 0.9677
5.8638 0.8999 0.9786
5.9282 1.1289 0.9959
6.0020 1.3680 1.0163
6.0786 1.6170 1.0389
6.1583 1.8774 1.0638
6.2294 2.1463 1.0891
6.2800 2.4193 1.1129
6.3325 2.7044 1.1392
6.3872 3.0033 1.1681
6.4848 3.3385 1.2076
6.4171 3.6008 1.2188
6.1885 3.7708 1.2008
6.0601 3.9978 1.2034
5.8867 4.1944 1.1986
5.6732 4.3576 1.1866
5.3605 4.4323 1.1542
5.2224 4.6437 1.1600
5.1214 4.8942 1.1762
5.2980 5.4401 1.2613
5.3732 5.9291 1.3295
5.5093 6.5363 1.4207
6.0252 7.6928 1.6245
6.1823 8.5056 1.7485
2.1896 3.2519 0.6521
6.2573 10.0543 1.9703
5.9313 10.3406 1.9838
5.6687 10.7604 2.0244
5.3958 11.2003 2.0698
5.1393 11.7269 2.1321
4.7140 11.9017 2.1321
4.2829 12.0613 2.1321
3.8465 12.2054 2.1321
3.4053 12.3339 2.1321
2.8078 11.8075 2.0226
2.5107 12.5435 2.1321
2.0727 12.7118 2.1468
1.6814 13.3036 2.2353
1.2025 13.3546 2.2353
0.7222 13.3885 2.2353
0.2409 13.4053 2.2353
-0.2406 13.4050 2.2353
-0.7217 13.3877 2.2353
-1.2020 13.3533 2.2353
-1.6808 13.3019 2.2353
-2.1574 13.2335 2.2353
-2.6314 13.1482 2.2353
-3.1020 13.0462 2.2353
-3.5688 12.9275 2.2353
-4.0311 12.7924 2.2353
-4.4883 12.6409 2.2353
-4.9400 12.4732 2.2353
-5.3855 12.2896 2.2353
-5.8242 12.0902 2.2353
-6.1829 11.7372 2.2093
-6.3755 11.1157 2.1336
-6.7674 10.8745 2.1322
-7.1550 10.6268 2.1322
-7.5337 10.3654 2.1322
-7.9029 10.0907 2.1322
-8.2623 9.8029 2.1322
-8.6112 9.5024 2.1322
-8.9493 9.1897 2.1322
-9.2762 8.8650 2.1322
-9.5914 8.5288 2.1322
-9.8945 8.1815 2.1322
-10.1852 7.8235 2.1322
-10.5763 7.5360 2.1553
-10.8438 7.1539 2.1553
-11.0975 6.7623 2.1553
-11.3373 6.3618 2.1553
-11.5626 5.9529 2.1553
-11.7733 5.5360 2.1553
-11.9691 5.1118 2.1553
-12.1496 4.6806 2.1553
-12.3147 4.2431 2.1553
-12.4641 3.7998 2.1553
-12.5977 3.3512 2.1553
-12.7151 2.8980 2.1553
-12.8163 2.4407 2.1553
-12.9011 1.9799 2.1553
-12.9694 1.5161 2.1553
-13.0210 1.0500 2.1553
-13.0559 0.5822 2.1553
-13.0740 0.1132 2.1553
-13.0753 -0.3563 2.1553
-13.0597 -0.8258 2.1553
-13.0273 -1.2946 2.1553
-12.9781 -1.7622 2.1553
-12.9120 -2.2279 2.1553
-12.8292 -2.6910 2.1553
-12.7298 -3.1512 2.1553
-12.6138 -3.6076 2.1553
-12.4814 -4.0597 2.1553
-12.3328 -4.5069 2.1553
-12.1681 -4.9487 2.1553
-11.9875 -5.3845 2.1553
-11.7913 -5.8136 2.1553
-11.5796 -6.2355 2.1553
-11.3528 -6.6497 2.1553
-11.1110 -7.0556 2.1553
-10.8547 -7.4526 2.1553
-10.5841 -7.8402 2.1553
-10.1892 -8.1299 2.1322
-9.8943 -8.4933 2.1322
-9.5864 -8.8460 2.1322
-9.2658 -9.1873 2.1322
-8.9329 -9.5170 2.1322
-8.5883 -9.8344 2.1322
-8.2322 -10.1393 2.1322
-7.8653 -10.4312 2.1322
-7.4879 -10.7096 2.1322
-7.1006 -10.9743 2.1322
-6.7039 -11.2248 2.1322
-6.2982 -11.4609 2.1322
-6.1686 -12.2469 2.2353
-5.7264 -12.4630 2.2353
-5.2764 -12.6629 2.2353
-4.8195 -12.8464 2.2353
-4.3561 -13.0132 2.2353
-3.8869 -13.1631 2.2353
-3.4125 -13.2959 2.2353
-2.9335 -13.4115 2.2353
-2.4506 -13.5095 2.2353
-1.9644 -13.5900 2.2353
-1.4756 -13.6527 2.2353
-0.9848 -13.6977 2.2353
-0.4926 -13.7248 2.2353
0.0002 -12.0202 2.2353
0.4315 -12.0126 2.2353
0.8623 -11.9893 2.2353
1.2919 -11.9504 2.2353
1.7199 -11.8960 2.2353
2.0464 -11.2799 2.1321
2.2825 -10.4340 1.9865
2.8498 -11.1026 2.1321
3.2461 -10.9922 2.1321
3.6381 -10.8676 2.1321
4.0252 -10.7289 2.1321
4.4071 -10.5762 2.1321
4.3699 -9.5105 1.9479
4.4675 -8.8693 1.8485
4.6137 -8.3954 1.7834
4.3404 -7.2674 1.5762
4.3765 -6.7640 1.5004
4.4173 -6.3178 1.4359
4.5803 -6.0745 1.4174
4.7393 -5.8372 1.4012
4.8948 -5.6051 1.3871
4.9880 -5.3142 1.3589
5.0953 -5.0523 1.3382
5.2234 -4.8201 1.3258
5.3485 -4.5913 1.3152
5.4710 -4.3654 1.3063
5.5912 -4.1418 1.2991
5.6972 -3.9117 1.2906
5.7970 -3.6813 1.2829
5.8956 -3.4534 1.2768
5.9931 -3.2274 1.2724
6.0888 -3.0022 1.2695
6.1830 -2.7774 1.2679
6.2695 -2.5500 1.2665
6.3482 -2.3201 1.2652
6.4307 -2.0919 1.2663
6.3160 -1.8066 1.2306
5.9935 -1.4839 1.1571
5.6424 -1.1838 1.0808
5.4105 -0.9338 1.0296
5.2705 -0.7159 0.9978
5.3370 -0.5306 1.0066
5.4390 -0.3442 1.0232
5.5437 -0.1513 1.0416
5.6336 0.0485 1.0585
5.7001 0.2539 1.0724
5.7673 0.4648 1.0879
5.8008 0.6778 1.0986
5.8346 0.8951 1.1108
5.8914 1.1217 1.1290
5.9640 1.3590 1.1519
6.0392 1.6062 1.1773
6.0925 1.8570 1.2003
6.1322 2.1125 1.2228
6.2386 2.4030 1.2608
