ply
format ascii 1.0
element vertex 2063
property float32 x
property float32 y
property float32 z
end_header
7.3600 9.3929 -1.0816
7.0871 9.7463 -1.0943
6.9176 10.2693 -1.1264
19.9474 32.0383 -3.4393
11.6471 20.2971 -2.1360
10.6336 20.1769 -2.0850
9.7892 20.3116 -2.0641
8.8882 20.2734 -2.0291
8.1429 20.5509 -2.0288
7.9428 22.3597 -2.1802
7.0065 22.2245 -2.1433
18.0987 65.5298 -6.2585
15.6970 65.9853 -6.2491
15.6585 78.2021 -7.3533
2.1889 13.4195 -1.2544
-10.7924 85.3811 -7.9468
-13.6074 83.4362 -7.8034
-10.2699 51.2969 -4.8266
-11.7104 49.2325 -4.6663
-13.5801 49.1741 -4.7007
-17.6545 56.0042 -5.4065
-15.1790 42.7335 -4.1716
-13.0898 33.0382 -3.2657
-14.3889 32.8223 -3.2897
-15.4449 32.0486 -3.2617
-16.5146 31.3377 -3.2434
-18.9012 32.9405 -3.4725
-21.8405 35.0807 -3.7727
-24.6000 36.5208 -4.0137
-24.8315 34.1500 -3.8422
-14.7866 18.8714 -2.1777
-15.6457 18.5546 -2.2004
-15.3238 16.9017 -2.0643
-15.3773 15.7826 -1.9898
-16.0676 15.3476 -2.0021
-15.2016 13.5104 -1.8285
-15.3902 12.7187 -1.7909
-15.7639 12.1017 -1.7784
-25.4797 18.1444 -2.7922
-27.1028 17.8690 -2.8905
-30.5853 18.6249 -3.1802
-16.2359 6.9279 -1.5504
-15.8235 6.0901 -1.4849
-20.0117 6.8879 -1.8480
-42.7657 13.0222 -3.8918
-18.0949 4.8073 -1.6250
-31.4105 7.1482 -2.7872
-27.0998 5.1515 -2.3793
-16.5332 2.5317 -1.4381
-15.6477 1.8240 -1.3502
-16.8814 1.3557 -1.4469
-16.0242 0.7092 -1.3659
-18.4635 0.1537 -1.5672
-17.5266 -0.4835 -1.4833
-18.5609 -1.1798 -1.5683
-17.5068 -1.7456 -1.4787
-16.6741 -2.2696 -1.4097
-17.3839 -3.0052 -1.4730
-17.5277 -3.6824 -1.4906
-24.1121 -5.9768 -2.0607
-22.1394 -6.3394 -1.9041
-22.1059 -7.1977 -1.9160
-22.4329 -8.2056 -1.9623
-20.6646 -8.4114 -1.8271
-24.1443 -10.8534 -2.1610
-22.9422 -11.3196 -2.0819
-19.7253 -10.6291 -1.8179
-19.4941 -11.4255 -1.8277
-21.4366 -13.6204 -2.0483
-21.9711 -15.0933 -2.1435
-18.0108 -13.3486 -1.7976
-48.1571 -38.4435 -4.9272
-45.1201 -38.7498 -4.7429
-42.3577 -39.1041 -4.5850
-39.4787 -39.1616 -4.4114
-36.6352 -39.0469 -4.2370
-34.0859 -39.0478 -4.0918
-14.1076 -17.3827 -1.7632
-12.5816 -16.6925 -1.6427
-12.7622 -18.2600 -1.7470
-12.0189 -18.5824 -1.7319
-11.4993 -19.2611 -1.7522
-10.6116 -19.3166 -1.7183
-19.6880 -39.1010 -3.4073
-17.9388 -39.0553 -3.3396
-17.9401 -43.0684 -3.6200
-14.2498 -37.9950 -3.1442
-12.7148 -37.9955 -3.1005
-11.2162 -37.9960 -3.0622
-9.7491 -37.9965 -3.0290
-8.3087 -37.9970 -3.0006
-6.8907 -37.9974 -2.9769
-5.4486 -37.7049 -2.9348
-4.1327 -38.2484 -2.9621
-2.7491 -38.2488 -2.9515
-1.3725 -38.2493 -2.9450
0.0004 -38.3664 -2.0839
1.3737 -38.2502 -2.0789
2.7590 -38.3674 -2.0897
3.6779 -34.0252 -1.8598
2.5771 -17.8276 -0.9794
5.1449 -28.3622 -1.5684
5.8955 -26.9534 -1.5026
2.8879 -11.2523 -0.6333
7.7420 -26.2198 -1.4923
8.8623 -26.4763 -1.5262
10.1143 -26.9616 -1.5766
12.2170 -29.3218 -1.7422
6.8816 -14.9784 -0.9058
3.8641 -7.6724 -0.4731
4.0009 -7.2811 -0.4585
4.3887 -7.3491 -0.4736
4.3141 -6.6684 -0.4405
5.0950 -7.2881 -0.4945
5.1072 -6.7742 -0.4732
5.3204 -6.5539 -0.4722
5.5991 -6.4125 -0.4777
5.4943 -5.8544 -0.4520
5.6643 -5.6173 -0.4506
5.5094 -5.0847 -0.4249
6.1264 -5.2599 -0.4593
2.1848 -1.7435 -0.1596
7.7050 -5.7087 -0.5495
9.9888 -6.8596 -0.6970
6.6558 -4.2275 -0.4554
5.9738 -3.4999 -0.4015
6.1110 -3.2916 -0.4041
6.1937 -3.0547 -0.4038
6.4437 -2.8953 -0.4148
6.5702 -2.6730 -0.4183
6.7519 -2.4684 -0.4257
7.0290 -2.2873 -0.4397
7.2827 -2.0839 -0.4526
7.5901 -1.8800 -0.4692
7.9078 -1.6599 -0.4870
10.4704 -1.8081 -0.6433
10.6225 -1.4439 -0.6520
10.7861 -1.0735 -0.6622
10.9458 -0.6938 -0.6731
11.1559 -0.3058 -0.6879
11.3926 0.0969 -0.7054
9.8979 0.4398 -0.6162
9.2042 0.7407 -0.5769
8.8216 1.0298 -0.5573
8.4386 1.2936 -0.5380
8.2948 1.5782 -0.5344
8.1763 1.8621 -0.5331
8.0590 2.1424 -0.5323
7.4396 2.2667 -0.4986
6.6530 2.2911 -0.4529
6.3674 2.4518 -0.4410
6.0986 2.6034 -0.4303
5.9710 2.8065 -0.4298
6.0119 3.0940 -0.4422
6.0558 3.3969 -0.4558
6.1293 3.7336 -0.4728
6.2767 4.1395 -0.4971
6.2375 4.4430 -0.5081
6.0026 4.6093 -0.5039
5.7727 4.7718 -0.5003
5.5756 4.9564 -0.4999
5.3836 5.1435 -0.5005
5.2716 5.4117 -0.5093
5.4667 6.0309 -0.5503
7.6657 9.0927 -0.8063
7.1757 9.1598 -0.7909
6.8681 9.4471 -0.7959
6.6518 9.8769 -0.8134
19.1953 30.8370 -2.4869
11.3410 19.7678 -1.5637
10.4769 19.8837 -1.5452
9.6274 19.9799 -1.5276
8.7896 20.0525 -1.5107
8.0393 20.2934 -1.5086
7.4259 20.9087 -1.5357
6.7612 21.4504 -1.5588
7.5265 27.2564 -1.9622
15.7597 66.2617 -4.7313
2.1882 13.4176 -0.9460
1.3044 72.5777 -5.0600
-13.6067 83.4451 -5.8876
-10.4998 52.4539 -3.7228
-11.9356 50.1875 -3.5873
-14.4485 52.3273 -3.7715
-17.0897 54.2219 -3.9456
-15.5927 43.9057 -3.2298
-13.4249 33.8900 -2.5235
-14.6145 33.3430 -2.5166
-15.1137 31.3671 -2.4030
-16.4203 31.1646 -2.4270
-17.8367 31.0913 -2.4650
-22.3263 35.8682 -2.8996
-24.1285 35.8281 -2.9583
-24.6025 33.8421 -2.8590
-20.2537 25.8544 -2.2389
-19.3747 22.9819 -2.0440
-15.7178 17.3402 -1.5873
-17.4683 17.9330 -1.6933
-16.3821 15.6519 -1.5281
-15.4265 13.7138 -1.3880
-15.5566 12.8597 -1.3531
-16.0242 12.3050 -1.3501
-26.1094 18.5982 -2.1352
-27.0128 17.8153 -2.1480
-63.2455 38.5259 -4.8989
-63.0545 35.3701 -4.7656
-41.2130 14.1927 -2.8188
-41.1423 12.5353 -2.7701
-18.0576 4.8006 -1.1985
-31.3126 7.1315 -2.0513
-27.1503 5.1659 -1.7579
-15.6028 2.3919 -0.9997
-16.0461 1.8732 -1.0188
-16.3484 1.3157 -1.0298
-16.5446 0.7351 -1.0353
-16.8965 0.1436 -1.0516
-17.4817 -0.4792 -1.0836
-26.3302 -1.6691 -1.6274
-26.5461 -2.6423 -1.6382
-16.8579 -2.2916 -1.0400
-17.0369 -2.9422 -1.0522
-24.9033 -5.2276 -1.5417
-24.4556 -6.0576 -1.5196
-22.1412 -6.3359 -1.3829
-22.1078 -7.1942 -1.3898
-22.9755 -8.3999 -1.4560
-20.9027 -8.5044 -1.3372
-24.4761 -10.9979 -1.5832
-22.5162 -11.1051 -1.4750
-22.9757 -12.3760 -1.5267
-21.5731 -12.6397 -1.4566
-21.3128 -13.5373 -1.4649
-22.0306 -15.1294 -1.5443
-52.4475 -38.8598 -3.7570
-48.7532 -38.9084 -3.5763
-45.4953 -39.0615 -3.4250
-42.3006 -39.0412 -3.2759
-39.3710 -39.0449 -3.1442
-36.6441 -39.0469 -3.0260
-13.7547 -15.7533 -1.1778
-13.2621 -16.3371 -1.1813
-12.7621 -16.9281 -1.1864
-12.8543 -18.3879 -1.2518
-12.1051 -18.7117 -1.2399
-11.3645 -19.0313 -1.2299
-21.4570 -39.0510 -2.4660
-19.6672 -39.0516 -2.4140
-17.9387 -39.0475 -2.3671
-17.9401 -43.0599 -2.5642
-14.2526 -37.9950 -2.2263
-12.7521 -38.0996 -2.2003
-11.2184 -37.9960 -2.1661
-9.7777 -38.1006 -2.1476
-8.3103 -37.9970 -2.1209
-6.8983 -38.0321 -2.1053
-5.4497 -37.7049 -2.0732
-4.1336 -38.2484 -2.0920
-2.7581 -38.3655 -2.0905
-1.3729 -38.2493 -2.0793
0.0002 -38.3664 -1.2183
1.3738 -38.2502 -1.2153
2.7593 -38.3674 -1.2218
3.7881 -35.0407 -1.1201
2.5772 -17.8256 -0.5729
5.1463 -28.3654 -0.9182
5.7835 -26.4371 -0.8632
2.8878 -11.2501 -0.3712
7.6927 -26.0485 -0.8698
8.7306 -26.0783 -0.8828
13.3096 -35.4731 -1.2195
3.5338 -8.4800 -0.2966
6.8036 -14.8062 -0.5278
3.9547 -7.8508 -0.2857
4.0450 -7.3600 -0.2740
4.4385 -7.4312 -0.2836
4.4986 -6.9522 -0.2724
4.9209 -7.0375 -0.2838
5.1378 -6.8133 -0.2834
5.2351 -6.4473 -0.2772
5.3294 -6.1022 -0.2718
5.3298 -5.6778 -0.2626
5.6812 -5.6327 -0.2713
5.5248 -5.0977 -0.2564
6.0254 -5.1718 -0.2725
2.1847 -1.7430 -0.0965
7.7613 -5.7488 -0.3355
6.8268 -4.6867 -0.2895
5.9465 -3.7757 -0.2478
5.8131 -3.4046 -0.2386
5.9511 -3.2043 -0.2410
6.0911 -3.0029 -0.2438
6.3642 -2.8583 -0.2522
6.5015 -2.6439 -0.2554
6.7538 -2.4679 -0.2635
7.0052 -2.2783 -0.2719
7.2522 -2.0739 -0.2804
7.5281 -1.8633 -0.2903
7.8411 -1.6445 -0.3021
10.1216 -1.7461 -0.3900
10.2561 -1.3923 -0.3958
10.4007 -1.0334 -0.4026
10.5532 -0.6671 -0.4102
10.7490 -0.2927 -0.4201
10.9491 0.0950 -0.4308
9.7147 0.4333 -0.3853
9.0624 0.7309 -0.3627
2.1710 0.2538 -0.0878
2.0858 0.3201 -0.0853
8.3835 1.5966 -0.3475
8.2632 1.8834 -0.3474
8.1442 2.1665 -0.3477
6.8020 2.0736 -0.2953
6.5138 2.2443 -0.2879
6.2381 2.4032 -0.2811
6.0263 2.5737 -0.2772
5.8958 2.7723 -0.2773
5.8107 2.9916 -0.2798
5.8479 3.2814 -0.2887
5.8969 3.5932 -0.2990
5.9765 3.9428 -0.3117
6.1630 4.3913 -0.3312
5.9352 4.5588 -0.3292
5.7085 4.7201 -0.3274
5.5163 4.9050 -0.3279
5.3265 5.0903 -0.3288
5.1488 5.2869 -0.3308
5.1802 5.7162 -0.3473
5.4267 6.4384 -0.3806
6.9649 8.8926 -0.5126
6.7398 9.2727 -0.5222
6.4911 9.6403 -0.5313
6.2401 10.0268 -0.5417
9.0026 15.6953 -0.8327
10.4836 19.9003 -1.0381
9.6819 20.0972 -1.0325
8.8490 20.1921 -1.0230
8.0552 20.3376 -1.0175
7.2914 20.5340 -1.0158
6.5525 20.7924 -1.0183
6.5026 23.5530 -1.1434
6.4739 27.2249 -1.3116
2.1874 13.4156 -0.6387
5.0059 39.6106 -1.8778
5.8139 64.5716 -3.0516
-6.5310 72.5466 -3.4305
-14.1442 86.7543 -4.1347
-10.1883 50.9056 -2.4397
-11.8285 49.7452 -2.4002
-14.2215 51.5138 -2.5052
-16.7570 53.1754 -2.6096
-18.6469 52.5150 -2.6038
-16.5022 41.6658 -2.0898
-14.8327 33.8471 -1.7195
-15.0519 31.2447 -1.6099
-15.8732 30.1318 -1.5769
-18.2192 31.7642 -1.6908
-23.2478 37.3560 -2.0256
-25.2656 37.5241 -2.0760
-24.5813 33.8199 -1.9123
-26.0194 33.2215 -1.9232
-16.1293 19.1365 -1.1364
-16.0688 17.7315 -1.0823
-17.4935 17.9630 -1.1294
-16.8331 16.0867 -1.0443
-15.8283 14.0746 -0.9458
-15.7262 13.0034 -0.9070
-25.1435 19.3131 -1.4025
-26.0817 18.5840 -1.4097
-51.9333 34.2613 -2.7247
-56.6351 34.5106 -2.8892
-60.5080 33.9535 -3.0063
-65.1870 33.5608 -3.1592
-39.7436 15.3111 -1.8033
-39.6903 13.6756 -1.7667
-39.6417 12.0852 -1.7333
-39.5975 10.5340 -1.7029
-31.7999 7.2481 -1.3468
-15.5553 2.9624 -0.6496
-15.9998 2.4556 -0.6597
-16.4641 1.9248 -0.6710
-16.0355 1.2933 -0.6468
-16.1135 0.7187 -0.6441
-16.4449 0.1426 -0.6522
-17.4312 -0.4748 -0.6867
-26.1068 -1.6504 -1.0229
-26.7095 -2.6539 -1.0422
-39.3462 -5.3417 -1.5309
-26.5176 -4.5749 -1.0301
-26.9107 -5.6442 -1.0451
-24.4475 -6.0512 -0.9505
-22.1431 -6.3324 -0.8630
-22.1096 -7.1908 -0.8651
-23.0925 -8.4383 -0.9083
-21.1457 -8.5992 -0.8374
-24.8162 -11.1460 -0.9910
-23.2300 -11.4526 -0.9370
-22.6003 -12.1693 -0.9223
-21.2222 -12.4298 -0.8777
-21.1906 -13.4553 -0.8898
-22.0902 -15.1656 -0.9436
-52.4325 -38.8372 -2.2830
-48.7512 -38.8958 -2.1682
-45.5038 -39.0582 -2.0719
-42.4410 -39.1606 -1.9831
-39.4985 -39.1615 -1.8988
-36.6530 -39.0469 -1.8177
-13.9516 -15.9749 -0.7159
-13.4531 -16.5686 -0.7165
-12.9472 -17.1700 -0.7182
-12.4326 -17.7807 -0.7210
-12.1923 -18.8425 -0.7422
-11.4459 -19.1637 -0.7348
-21.4614 -39.0510 -1.4606
-19.7299 -39.1682 -1.4317
-17.9387 -39.0397 -1.3972
-17.9401 -43.0514 -1.5114
-14.2553 -37.9950 -1.3107
-12.7588 -38.1122 -1.2942
-11.2206 -37.9960 -1.2722
-9.7796 -38.1006 -1.2601
-8.3119 -37.9970 -1.2433
-6.8998 -38.0327 -1.2332
-5.4508 -37.7049 -1.2136
-4.1344 -38.2484 -1.2240
-2.7587 -38.3655 -1.2226
-1.3733 -38.2493 -1.2157
0.0001 -38.2498 -0.3528
1.3739 -38.2502 -0.3530
2.7513 -38.2507 -0.3540
3.7370 -34.5623 -0.3216
2.5773 -17.8236 -0.1671
5.9397 -32.7331 -0.3100
5.9838 -27.3483 -0.2622
2.8877 -11.2479 -0.1094
7.6468 -25.8886 -0.2562
8.9602 -26.7598 -0.2701
5.8449 -15.5752 -0.1606
3.5278 -8.4640 -0.0894
3.8301 -8.3337 -0.0904
4.5133 -8.9580 -0.1000
4.0900 -7.4405 -0.0857
4.4895 -7.5150 -0.0895
4.6993 -7.2609 -0.0897
4.9272 -7.0452 -0.0904
5.0990 -6.7604 -0.0904
5.1087 -6.2903 -0.0878
5.6703 -6.4911 -0.0949
5.0882 -5.4192 -0.0832
5.6982 -5.6481 -0.0913
5.5403 -5.1107 -0.0873
5.9279 -5.0868 -0.0920
2.1846 -1.7424 -0.0335
9.6939 -7.1781 -0.1472
5.8966 -4.0469 -0.0888
5.6332 -3.5757 -0.0844
5.7462 -3.3643 -0.0858
5.8668 -3.1578 -0.0874
6.0189 -2.9661 -0.0897
6.2867 -2.8224 -0.0938
6.4577 -2.6249 -0.0966
6.7477 -2.4644 -0.1014
6.9816 -2.2693 -0.1055
7.2304 -2.0664 -0.1100
7.4803 -1.8501 -0.1148
7.7756 -1.6294 -0.1205
9.7918 -1.6875 -0.1534
9.9197 -1.3450 -0.1572
10.0500 -0.9968 -0.1614
10.1854 -0.6421 -0.1659
10.3546 -0.2802 -0.1712
10.5317 0.0932 -0.1770
9.6999 0.4343 -0.1658
8.9003 0.7194 -0.1550
2.1709 0.2542 -0.0385
1.9986 0.3071 -0.0362
8.1737 1.5581 -0.1512
8.2425 1.8801 -0.1559
6.9380 1.8469 -0.1344
6.6638 2.0327 -0.1322
6.3805 2.1996 -0.1299
6.1415 2.3671 -0.1284
6.0172 2.5709 -0.1293
5.8885 2.7700 -0.1302
5.7476 2.9602 -0.1310
5.6540 3.1738 -0.1330
5.6875 3.4668 -0.1382
5.7549 3.7977 -0.1447
5.8275 4.1534 -0.1518
5.8693 4.5096 -0.1587
5.6471 4.6706 -0.1587
5.4584 4.8548 -0.1598
5.2870 5.0537 -0.1615
5.1522 5.2917 -0.1645
5.2105 5.7510 -0.1744
5.2549 6.2360 -0.1848
6.8578 8.7579 -0.2540
6.6622 9.1679 -0.2607
6.3739 9.4682 -0.2644
6.0405 9.7080 -0.2667
8.2639 14.4103 -0.3899
8.0160 15.2193 -0.4061
7.9433 16.4915 -0.4345
6.9869 15.9463 -0.4153
6.4049 16.1742 -0.4170
7.2866 20.5243 -0.5242
6.4886 20.5937 -0.5217
6.5820 23.8451 -0.5997
6.3775 26.8247 -0.6705
5.6142 28.0550 -0.6976
2.1867 13.4136 -0.3321
4.8744 38.5779 -0.9520
5.7595 63.9810 -1.5750
-6.5298 72.5430 -1.7879
-10.7391 84.9971 -2.1009
-13.9558 85.6121 -2.1242
-18.8137 94.0175 -2.3438
-12.1879 51.2651 -1.2853
-16.4720 59.6755 -1.5061
-17.0692 54.1752 -1.3777
-22.5944 63.6432 -1.6326
-14.1988 35.8563 -0.9287
-15.2291 34.7578 -0.9100
-15.1713 31.4983 -0.8346
-16.5496 31.4217 -0.8435
-22.0917 38.5231 -1.0491
-23.8410 38.3167 -1.0600
-25.4521 37.8087 -1.0639
-24.5602 33.7979 -0.9689
-26.0109 33.2178 -0.9716
-21.4941 25.5072 -0.7625
-16.4352 18.1400 -0.5552
-16.3624 16.8056 -0.5277
-24.9365 23.8366 -0.7695
-25.0775 22.3046 -0.7420
-15.7263 13.0069 -0.4470
-25.2811 19.4243 -0.6915
-26.3608 18.7883 -0.6951
-48.5170 32.0173 -1.2352
-52.6808 32.1115 -1.2968
-57.3997 32.2205 -1.3681
-61.6995 31.7771 -1.4258
-67.7651 31.8771 -1.5202
-38.3439 16.3831 -0.8361
-38.3445 14.7791 -0.8136
-38.3446 13.2189 -0.7926
-38.3447 11.6967 -0.7730
-38.3547 10.2102 -0.7548
-31.6012 7.2083 -0.6078
-27.2516 5.1947 -0.5128
-16.4167 2.5224 -0.3025
-16.9037 1.9792 -0.3053
-17.4156 1.4076 -0.3087
-31.2523 1.3994 -0.5441
-31.0157 0.2744 -0.5309
-17.4044 -0.4710 -0.2932
-26.6229 -1.6784 -0.4419
-30.8500 -3.0599 -0.5051
-38.3640 -5.2017 -0.6201
-38.3647 -6.6120 -0.6130
-38.3653 -8.0398 -0.6065
-38.3659 -9.4894 -0.6009
-22.1449 -6.3289 -0.3440
-22.1115 -7.1873 -0.3411
-22.9569 -8.3845 -0.3522
-21.3939 -8.6962 -0.3268
-22.4270 -10.0686 -0.3416
-24.1073 -11.8804 -0.3667
-21.3009 -11.4654 -0.3241
-20.3873 -11.9366 -0.3107
-21.0606 -13.3684 -0.3222
-56.2905 -38.6333 -0.8658
-52.3312 -38.7507 -0.8110
-48.5698 -38.7402 -0.7600
-45.4243 -38.9794 -0.7193
-42.3116 -39.0310 -0.6797
-39.3907 -39.0449 -0.6436
-36.6619 -39.0469 -0.6111
-34.1100 -39.0478 -0.5817
-13.6258 -16.7775 -0.2386
-13.1857 -17.4823 -0.2379
-12.8182 -18.3282 -0.2393
-12.2806 -18.9750 -0.2382
-11.5284 -19.2977 -0.2335
-21.4658 -39.0510 -0.4566
-19.6751 -39.0516 -0.4423
-17.9387 -39.0319 -0.4291
-17.9401 -43.0429 -0.4604
-14.2581 -37.9950 -0.3964
-12.7222 -37.9955 -0.3874
-11.2227 -37.9960 -0.3796
-9.7547 -37.9965 -0.3728
-8.3135 -37.9970 -0.3669
-6.8416 -37.7045 -0.3592
-5.4519 -37.7049 -0.3552
-4.1353 -38.2484 -0.3572
-2.7509 -38.2488 -0.3549
-1.3737 -38.2493 -0.3534
-0.0000 -38.2498 0.5087
1.3740 -38.2502 0.5090
2.7497 -38.2249 0.5093
3.8734 -35.8195 0.4781
2.5774 -17.8215 0.2384
5.2535 -28.9470 0.3884
6.0114 -27.4701 0.3699
2.8876 -11.2456 0.1521
7.6605 -25.9308 0.3523
8.9942 -26.8565 0.3668
5.8011 -15.4557 0.2124
3.4834 -8.3559 0.1156
3.9146 -8.5159 0.1187
4.3780 -8.6878 0.1221
4.1360 -7.5227 0.1067
4.5415 -7.6006 0.1089
4.6556 -7.1920 0.1041
4.7994 -6.8610 0.1005
4.9369 -6.5442 0.0971
4.9855 -6.1373 0.0924
5.2430 -6.0005 0.0917
5.6112 -5.9749 0.0929
5.4416 -5.3925 0.0853
5.5559 -5.1238 0.0827
5.8335 -5.0045 0.0826
2.1845 -1.7419 0.0294
6.7068 -4.9649 0.0861
5.6364 -3.8672 0.0690
5.5986 -3.5526 0.0655
5.7141 -3.3444 0.0638
5.8332 -3.1386 0.0623
5.9970 -2.9542 0.0612
6.2111 -2.7873 0.0607
6.4595 -2.6244 0.0604
6.7255 -2.4551 0.0602
6.9582 -2.2605 0.0596
7.2087 -2.0589 0.0591
7.4578 -1.8432 0.0586
7.7174 -1.6159 0.0580
9.4852 -1.6330 0.0682
9.6068 -1.3009 0.0661
9.7254 -0.9629 0.0639
9.8517 -0.6194 0.0619
9.9991 -0.2689 0.0600
10.1505 0.0916 0.0581
9.6800 0.4351 0.0527
8.7441 0.7083 0.0453
2.1708 0.2546 0.0107
1.9533 0.3005 0.0091
7.9543 1.5177 0.0352
7.0771 1.6156 0.0296
6.8007 1.8116 0.0268
6.5261 1.9919 0.0242
6.2579 2.1585 0.0217
6.1322 2.3647 0.0198
6.0081 2.5682 0.0180
5.8814 2.7678 0.0163
5.7407 2.9577 0.0146
5.6016 3.1455 0.0129
5.4999 3.3536 0.0114
5.5510 3.6644 0.0102
5.6135 4.0021 0.0090
5.6807 4.3659 0.0078
5.5882 4.6232 0.0063
5.4228 4.8245 0.0047
5.2904 5.0583 0.0033
5.1721 5.3135 0.0018
5.2411 5.7861 0.0004
5.2219 6.1983 -0.0011
6.7512 8.6236 -0.0034
6.5711 9.0446 -0.0054
6.2311 9.2581 -0.0072
5.8681 9.4330 -0.0089
5.6332 9.8250 -0.0107
7.6522 14.5317 -0.0178
7.1033 14.7506 -0.0199
6.5741 15.0072 -0.0218
6.2165 15.7016 -0.0244
7.2317 20.3736 -0.0334
6.4505 20.4765 -0.0351
5.9600 21.5961 -0.0385
6.3025 26.5144 -0.0489
5.4436 27.2076 -0.0515
2.1859 13.4117 -0.0260
4.8119 38.0907 -0.0752
5.5155 61.2833 -0.1226
-6.5284 72.5364 -0.1472
-14.2885 87.6665 -0.1744
-20.1353 84.7073 -0.1625
-23.1800 83.9918 -0.1571
-23.8894 75.8343 -0.1376
-21.2458 59.8548 -0.1047
-21.5302 54.3799 -0.0911
-15.5954 35.6003 -0.0566
-15.9659 33.1541 -0.0496
-21.0189 39.9149 -0.0554
-21.9742 38.3254 -0.0486
-22.3772 35.9712 -0.0408
-23.3642 34.7141 -0.0343
-24.4381 33.6368 -0.0277
-26.0024 33.2141 -0.0213
-19.9675 23.7008 -0.0104
-16.5164 18.2338 -0.0039
-16.6508 17.1058 0.0006
-24.6783 23.5956 0.0074
-25.2332 22.4489 0.0140
-26.0520 21.5528 0.0210
-25.8599 19.8745 0.0272
-26.5615 18.9369 0.0343
-47.4380 31.3150 0.0724
-51.3594 31.3163 0.0905
-55.7721 31.3178 0.1112
-61.8829 31.8835 0.1377
-66.5571 31.3215 0.1635
-38.4067 16.4171 0.1032
-38.7873 14.9569 0.1133
-38.4013 13.2453 0.1211
-38.3986 11.7201 0.1301
-38.7904 10.3331 0.1407
-28.2011 6.4377 0.1091
-28.4120 5.4209 0.1168
-29.5161 4.5403 0.1287
-17.3670 2.0364 0.0801
-29.8631 2.4189 0.1454
-27.6748 1.2440 0.1421
-27.3195 0.2464 0.1476
-17.3922 -0.4677 0.0988
-30.6216 -1.9252 0.1827
-30.8356 -3.0531 0.1930
-38.4056 -5.2006 0.2520
-38.8003 -6.6802 0.2668
-38.8008 -8.1242 0.2794
-38.4070 -9.4927 0.2895
-22.6848 -6.4791 0.1789
-22.2955 -7.2431 0.1840
-22.6709 -8.2759 0.1958
-23.8517 -9.6907 0.2155
-23.1351 -10.3821 0.2187
-24.3339 -11.9873 0.2408
-23.0981 -12.4281 0.2393
-19.3563 -11.3291 0.2101
-21.1987 -13.4516 0.2412
-21.8586 -14.9973 0.2608
-52.4004 -38.7905 0.6563
-29.9919 -23.9154 0.3946
-45.5105 -39.0429 0.6298
-42.3365 -39.0439 0.6170
-39.3746 -39.0191 0.6051
-36.6707 -39.0469 0.5952
-34.1180 -39.0478 0.5860
-13.4760 -16.5893 0.2454
-13.0811 -17.3397 0.2532
-12.6725 -18.1159 0.2614
-25.2783 -39.0497 0.5574
-23.3334 -39.0503 0.5519
-21.4702 -39.0510 0.5470
-19.6660 -39.0258 0.5422
-17.9387 -39.0242 0.5382
-17.9401 -43.0345 0.5897
-14.2609 -37.9950 0.5176
-12.7246 -37.9955 0.5150
-11.2249 -37.9960 0.5127
-9.7566 -37.9965 0.5107
-8.3151 -37.9970 0.5091
-6.8914 -37.9716 0.5074
-5.4954 -37.9979 0.5067
-4.1362 -38.2484 0.5093
-2.7515 -38.2488 0.5088
-1.3740 -38.2493 0.5086
-0.0002 -38.2498 1.3706
1.3741 -38.2502 1.3716
2.7501 -38.2249 1.3729
4.1370 -38.2512 1.3776
2.5775 -17.8195 0.6442
5.4661 -30.1137 1.0938
6.0863 -27.8079 1.0159
2.8875 -11.2434 0.4136
7.2754 -24.6231 0.9131
5.3983 -16.1166 0.6031
5.7787 -15.3936 0.5821
3.5158 -8.4321 0.3225
4.0029 -8.7063 0.3373
4.4806 -8.8897 0.3493
4.5077 -8.1973 0.3270
7.1686 -11.9949 0.4867
4.8744 -7.5284 0.3111
4.9690 -7.1020 0.2994
4.9762 -6.5948 0.2840
5.0599 -6.2275 0.2745
5.5474 -6.3475 0.2870
5.6396 -6.0036 0.2789
5.7324 -5.6793 0.2717
5.5716 -5.1369 0.2537
6.7248 -5.7676 0.2948
2.1844 -1.7413 0.0924
5.7285 -4.2394 0.2341
5.5077 -3.7777 0.2179
5.5643 -3.5297 0.2135
5.6822 -3.3246 0.2118
5.7986 -3.1188 0.2102
5.9758 -2.9426 0.2111
6.1840 -2.7740 0.2131
6.4613 -2.6240 0.2175
6.7035 -2.4458 0.2208
6.9350 -2.2517 0.2237
7.1872 -2.0514 0.2273
7.4353 -1.8364 0.2309
9.1072 -1.9053 0.2781
9.1936 -1.5812 0.2763
9.3058 -1.2585 0.2756
9.4183 -0.9309 0.2751
9.5392 -0.5981 0.2752
9.6778 -0.2586 0.2761
9.7990 0.0901 0.2768
9.3063 0.4199 0.2606
8.6004 0.6981 0.2390
2.1707 0.2549 0.0599
1.9210 0.2958 0.0528
7.2194 1.3787 0.1975
6.9355 1.5845 0.1893
6.6687 1.7776 0.1817
6.3939 1.9527 0.1743
6.2484 2.1563 0.1706
6.1229 2.3622 0.1676
5.9991 2.5655 0.1650
5.8742 2.7655 0.1625
5.7337 2.9553 0.1599
5.5948 3.1428 0.1575
5.4501 3.3243 0.1551
5.3000 3.4998 0.1528
5.3391 3.8076 0.1563
5.4015 4.1525 0.1608
5.4683 4.5252 0.1660
5.4263 4.8288 0.1683
5.2938 5.0629 0.1683
5.2011 5.3446 0.1698
5.2278 5.7728 0.1758
5.1893 6.1610 0.1804
6.6482 8.4940 0.2396
6.3566 8.7513 0.2384
6.0681 9.0178 0.2378
5.7659 9.2705 0.2372
5.5410 9.6662 0.2404
6.0693 11.5279 0.2794
6.8958 14.3226 0.3388
6.4381 14.6996 0.3401
6.0130 15.1905 0.3444
5.8499 16.4841 0.3669
6.4449 20.4626 0.4481
5.8784 21.3043 0.4598
5.4798 23.0576 0.4913
5.3726 26.8582 0.5660
2.1852 13.4098 0.2800
4.7830 37.8699 0.7850
5.2213 58.0274 1.1961
5.1400 95.3741 1.9585
-6.5203 72.4561 1.4915
-18.5356 92.6568 1.9469
-20.6193 86.7577 1.8421
-21.3658 77.4307 1.6643
-22.8428 72.5243 1.5810
-21.1069 59.4737 1.3174
-21.5882 54.5359 1.2297
-23.1538 52.8635 1.2158
-15.9258 33.0769 0.7774
-20.9822 39.8526 0.9591
-21.8849 38.1771 0.9427
-22.8628 36.7590 0.9333
-23.4616 34.8659 0.9121
-24.5460 33.7925 0.9129
-26.6113 33.9990 0.9507
-30.7616 36.5210 1.0595
-16.2947 17.9932 0.5429
-16.4338 16.8869 0.5313
-23.0634 22.0569 0.7257
-25.2149 22.4383 0.7743
-24.4122 20.2016 0.7334
-24.5865 18.9011 0.7243
-26.7653 19.0878 0.7750
-47.4233 31.3150 1.3525
-51.3425 31.3163 1.4450
-55.7526 31.3178 1.5515
-61.8599 31.8835 1.7052
-66.5304 31.3215 1.8198
-38.4068 16.4242 1.0441
-38.7873 14.9641 1.0497
-38.4013 13.2523 1.0362
-38.3986 11.7270 1.0345
-38.7904 10.3400 1.0450
-28.3182 6.4695 0.7638
-28.5300 5.4484 0.7716
-28.6487 4.4119 0.7779
-26.5314 3.1156 0.7241
-27.5173 2.2337 0.7559
-27.8506 1.2567 0.7710
-27.4906 0.2527 0.7679
-17.3800 -0.4644 0.4904
-29.8382 -1.8708 0.8515
-29.7618 -2.9416 0.8600
-38.4056 -5.1939 1.1251
-38.4061 -6.6056 1.1420
-38.4065 -8.0348 1.1605
-26.1598 -6.4610 0.8042
-22.8708 -6.5281 0.7162
-22.4772 -7.2980 0.7179
-22.9718 -8.3815 0.7493
-24.2200 -9.8358 0.8078
-21.4640 -9.6280 0.7329
-22.8423 -11.2481 0.7997
-23.3121 -12.5386 0.8379
-21.8471 -12.7825 0.8074
-21.3387 -13.5360 0.8121
-21.9647 -15.0655 0.8622
-44.4971 -32.9303 1.8045
-48.6295 -38.7660 2.0411
-45.5227 -39.0429 1.9812
-42.3476 -39.0439 1.9149
-39.3844 -39.0191 1.8544
-36.6797 -39.0469 1.8024
-34.1260 -39.0478 1.7546
-13.3295 -16.4052 0.7190
-12.9366 -17.1443 0.7343
-27.3216 -39.0490 1.6374
-25.2837 -39.0497 1.6057
-23.3382 -39.0503 1.5770
-21.4746 -39.0510 1.5512
-19.6700 -39.0258 1.5270
-17.9387 -39.0164 1.5058
-17.9401 -43.0261 1.6400
-14.2637 -37.9950 1.4321
-12.7271 -37.9955 1.4179
-11.2271 -37.9960 1.4055
-9.7585 -37.9965 1.3947
-8.3167 -37.9970 1.3856
-6.8927 -37.9716 1.3770
-5.4965 -37.9979 1.3719
-4.1370 -38.2484 1.3762
-2.7521 -38.2488 1.3729
-1.3744 -38.2493 1.3711
-0.0003 -36.5560 2.1350
1.3125 -36.5320 2.1350
2.6240 -36.4670 2.1350
3.9331 -36.3611 2.1350
2.5776 -17.8175 1.0504
5.4128 -29.8158 1.7670
6.2737 -28.6593 1.7093
2.8874 -11.2412 0.6755
7.0115 -23.7259 1.4383
5.3686 -16.0250 0.9812
5.6170 -14.9600 0.9263
6.1436 -14.7320 0.9238
4.0474 -8.8016 0.5596
6.3060 -12.5091 0.8076
4.1741 -7.5891 0.4983
4.5921 -7.6823 0.5137
4.9701 -7.6747 0.5235
4.9193 -7.0296 0.4900
5.0003 -6.6254 0.4727
5.0040 -6.1574 0.4505
5.4081 -6.1867 0.4652
5.6471 -6.0103 0.4654
5.7497 -5.6951 0.4551
5.5873 -5.1502 0.4259
6.4672 -5.5453 0.4757
2.1843 -1.7408 0.1554
5.5435 -4.1014 0.3821
5.4557 -3.7409 0.3651
5.5321 -3.5082 0.3601
5.6497 -3.3044 0.3582
5.7690 -3.1018 0.3569
5.9547 -2.9311 0.3601
6.1914 -2.7761 0.3664
6.4607 -2.6225 0.3748
6.6817 -2.4366 0.3805
6.9128 -2.2432 0.3869
7.1657 -2.0440 0.3948
7.4130 -1.8295 0.4025
8.8261 -1.8449 0.4729
8.9006 -1.5293 0.4712
9.0125 -1.2172 0.4720
9.1252 -0.9003 0.4734
9.2362 -0.5775 0.4752
9.3452 -0.2481 0.4775
9.4556 0.0886 0.4804
8.9258 0.4043 0.4514
8.3982 0.6832 0.4234
2.1706 0.2553 0.1092
1.8993 0.2928 0.0955
7.0730 1.3520 0.3559
6.7992 1.5546 0.3428
6.5380 1.7440 0.3308
6.3660 1.9454 0.3236
6.2389 2.1542 0.3192
6.1137 2.3598 0.3152
5.9900 2.5627 0.3117
5.8670 2.7633 0.3086
5.7267 2.9528 0.3050
5.5570 3.1227 0.3002
5.3149 3.2429 0.2917
5.1526 3.4036 0.2878
5.0798 3.6238 0.2894
5.0048 3.8487 0.2914
5.0488 4.1792 0.3011
5.1573 4.5907 0.3157
5.2973 5.0675 0.3337
5.2305 5.3761 0.3399
5.1964 5.7395 0.3494
5.1570 6.1241 0.3598
6.5363 8.3529 0.4747
6.2930 8.6656 0.4775
5.9553 8.8521 0.4740
5.6893 9.1494 0.4770
5.4553 9.5186 0.4841
5.9515 11.3065 0.5620
5.7963 12.0411 0.5861
6.2724 14.3240 0.6839
5.8749 14.8446 0.6965
5.5918 15.7598 0.7278
6.4349 20.4349 0.9305
5.7591 20.8762 0.9387
5.2172 21.9569 0.9766
5.3145 26.5729 1.1709
2.1844 13.4078 0.5862
4.7471 37.5931 1.6335
4.4447 49.4072 2.1368
2.6705 49.5642 2.1368
0.9337 52.0449 2.2400
-0.9346 52.0518 2.2400
-2.8015 51.9797 2.2400
-4.6634 51.8286 2.2400
-6.2166 49.2244 2.1370
-7.9727 48.9313 2.1370
-9.7136 48.5644 2.1370
-11.5594 48.6450 2.1600
-13.2781 48.1285 2.1600
-14.9714 47.5412 2.1600
-16.6362 46.8844 2.1600
-18.2432 46.0940 2.1570
-19.5895 44.7338 2.1298
-15.8842 32.9965 1.6011
-20.9455 39.7904 1.9714
-21.8126 38.0582 1.9287
-20.3341 32.6998 1.6983
-20.5521 30.5483 1.6292
-21.0459 28.9798 1.5903
-21.8340 27.9014 1.5789
-22.7610 27.0284 1.5807
-16.0786 17.7586 1.0759
-24.5561 25.2390 1.5880
-25.5705 24.4606 1.6026
-25.1966 22.4278 1.5344
-26.7644 22.1540 1.5875
-25.7851 19.8281 1.4932
-25.3118 18.0566 1.4341
-25.0025 16.5150 1.3888
-24.5567 14.9833 1.3399
-24.6104 13.8292 1.3215
-24.8115 12.7930 1.3135
-25.2037 11.8703 1.3177
-25.8787 11.0716 1.3383
-26.1342 10.0873 1.3391
-26.6892 9.2153 1.3569
-27.3387 8.3542 1.3813
-27.6224 7.3680 1.3889
-27.7811 6.3517 1.3921
-25.1032 4.7984 1.2553
-24.5931 3.7916 1.2290
-24.3372 2.8622 1.2169
-24.3810 1.9833 1.2215
-24.6628 1.1171 1.2396
-25.2678 0.2366 1.2757
-17.3683 -0.4611 0.8820
-29.9936 -1.8753 1.5338
-31.7365 -3.1313 1.6364
-38.4056 -5.1872 1.9993
-38.4061 -6.5988 2.0210
-26.1705 -5.4704 1.3939
-25.0744 -6.1884 1.3534
-23.0602 -6.5780 1.2631
-22.6620 -7.3538 1.2613
-23.2812 -8.4900 1.3184
-24.6004 -9.9856 1.4194
-22.0545 -9.8887 1.2983
-23.4113 -11.5237 1.4083
-22.3458 -12.0145 1.3755
-21.9927 -12.8632 1.3876
-21.4807 -13.6217 1.3913
-22.0719 -15.1344 1.4701
-31.1409 -23.0391 2.1368
-30.1720 -24.0454 2.1368
-30.5848 -26.2242 2.2400
-29.5120 -27.2026 2.2400
-28.4126 -28.1420 2.2400
-27.2880 -29.0421 2.2400
-26.1394 -29.9023 2.2400
-24.9681 -30.7223 2.2400
-23.7755 -31.5017 2.2400
-22.5626 -32.2403 2.2400
-20.9685 -32.3782 2.2020
-19.3649 -32.3953 2.1601
-13.1840 -23.9699 1.5696
-16.7269 -33.1799 2.1370
-15.4910 -33.6859 2.1370
-14.2427 -34.1517 2.1370
-12.9830 -34.5770 2.1370
-11.7132 -34.9619 2.1370
-10.4343 -35.3061 2.1370
-9.1472 -35.6095 2.1370
-7.8486 -35.8515 2.1357
-6.5473 -36.0617 2.1350
-5.2436 -36.2424 2.1350
-3.9360 -36.3823 2.1350
-2.6255 -36.4811 2.1350
-1.3133 -36.5390 2.1350
-0.0003 -26.6052 2.1560
0.9469 -26.3533 2.1370
1.8930 -26.3053 2.1370
2.8373 -26.2265 2.1370
2.5777 -17.8155 1.4577
4.7167 -25.9770 2.1370
5.6847 -25.9645 2.1500
2.8873 -11.2390 0.9380
6.2378 -21.1045 1.7774
5.2910 -15.7907 1.3437
5.5517 -14.7835 1.2728
6.0507 -14.5066 1.2653
4.0726 -8.8548 0.7836
4.3344 -8.5966 0.7729
4.3110 -7.8367 0.7169
4.6823 -7.8317 0.7302
4.7142 -7.2781 0.6927
4.8018 -6.8602 0.6677
4.9523 -6.5604 0.6541
5.4953 -6.7605 0.6918
5.4295 -6.2098 0.6536
5.9621 -6.3440 0.6882
6.1460 -6.0861 0.6821
5.6032 -5.1636 0.5994
6.1680 -5.2873 0.6374
2.1842 -1.7402 0.2185
5.4170 -4.0066 0.5258
5.4223 -3.7169 0.5115
5.5015 -3.4876 0.5054
5.6164 -3.2839 0.5033
5.7489 -3.0899 0.5033
5.9564 -2.9308 0.5103
6.1987 -2.7782 0.5205
6.4401 -2.6129 0.5308
6.6599 -2.4275 0.5395
6.8927 -2.2354 0.5496
7.1443 -2.0367 0.5616
7.3908 -1.8227 0.5734
8.5390 -1.7834 0.6547
8.6250 -1.4804 0.6545
8.7314 -1.1778 0.6565
8.8165 -0.8683 0.6577
8.9121 -0.5557 0.6604
9.0206 -0.2379 0.6649
9.1301 0.0871 0.6703
8.4094 0.3824 0.6156
7.9971 0.6519 0.5846
2.1705 0.2557 0.1586
1.8823 0.2905 0.1377
6.9626 1.3321 0.5106
6.6846 1.5295 0.4921
6.4851 1.7310 0.4799
6.3561 1.9435 0.4734
6.2293 2.1521 0.4677
6.1044 2.3574 0.4626
5.9810 2.5600 0.4583
5.8589 2.7606 0.4545
5.6631 2.9211 0.4456
5.4191 3.0463 0.4332
5.1860 3.1654 0.4219
5.0129 3.3123 0.4158
4.9406 3.5256 0.4187
4.8662 3.7431 0.4221
4.7894 3.9655 0.4261
4.7198 4.2023 0.4317
4.8700 4.6599 0.4591
5.2185 5.3651 0.5083
5.1866 5.7301 0.5234
5.1527 6.1204 0.5403
6.3976 8.1775 0.6993
6.1599 8.4843 0.7044
5.8515 8.6997 0.7026
5.5575 8.9393 0.7038
5.4124 9.4457 0.7263
5.8597 11.1343 0.8377
5.7038 11.8514 0.8740
5.4963 12.5540 0.9090
5.6906 14.3816 1.0241
5.4969 15.4954 1.0870
6.0414 19.1891 1.3281
5.7111 20.7061 1.4163
5.2033 21.9027 1.4827
5.2637 26.3241 1.7664
2.1837 13.4059 0.8930
4.0739 32.2684 2.1368
1.9598 21.7902 1.4366
1.8357 34.0784 2.2400
0.6120 34.1304 2.2400
-0.6129 34.1333 2.2400
-1.8370 34.0872 2.2400
-3.0581 33.9919 2.2400
-4.2741 33.8479 2.2400
-5.4829 33.6554 2.2400
-6.3748 31.8770 2.1370
-6.5705 27.6550 1.8701
-6.3956 23.1859 1.5839
-6.3974 20.3183 1.4043
-10.9414 30.8406 2.1600
-12.0241 30.3859 2.1600
-13.0865 29.8893 2.1600
-14.1116 29.3197 2.1577
-14.9347 28.3770 2.1302
-15.7028 27.4033 2.1022
-16.5813 26.6700 2.0945
-17.4712 25.9741 2.0923
-18.2687 25.1609 2.0831
-18.9927 24.2758 2.0699
-19.8072 23.5260 2.0705
-20.6238 22.7839 2.0745
-21.2946 21.8920 2.0673
-21.8712 20.9270 2.0548
-22.0722 19.6517 2.0120
-22.1014 18.2991 1.9594
-22.0369 16.9506 1.9044
-22.0456 15.7312 1.8611
-22.0372 14.5608 1.8210
-22.1612 13.5261 1.7959
-22.3674 12.5732 1.7810
-22.6473 11.6815 1.7749
-23.0075 10.8403 1.7777
-23.3427 9.9910 1.7811
-23.3653 9.0229 1.7633
-23.2063 8.0170 1.7348
-22.8063 6.9733 1.6913
-22.5630 6.0225 1.6623
-22.2476 5.0905 1.6307
-21.9895 4.2071 1.6057
-21.9027 3.3807 1.5955
-21.8113 2.5689 1.5871
-21.8053 1.7776 1.5870
-21.8886 0.9953 1.5955
-22.1154 0.2109 1.6166
-17.3575 -0.4578 1.2739
-22.7457 -1.4182 1.6784
-23.2363 -2.2885 1.7260
-23.6932 -3.1959 1.7739
-24.6577 -4.2323 1.8632
-26.3447 -5.5021 2.0116
-24.6848 -6.0878 1.9073
-23.2531 -6.6288 1.8204
-22.8504 -7.4108 1.8149
-23.5998 -8.6018 1.9044
-25.6594 -10.4107 2.1066
-22.6799 -10.1648 1.8971
-22.3951 -11.0192 1.9115
-22.9017 -12.3088 1.9977
-22.6196 -13.2253 2.0196
-21.6249 -13.7086 1.9797
-22.1805 -15.2041 2.0855
-22.3270 -16.5134 2.1600
-21.6576 -17.2550 2.1600
-20.9657 -17.9716 2.1600
-20.2522 -18.6625 2.1600
-19.5182 -19.3275 2.1600
-18.7644 -19.9658 2.1600
-17.7997 -20.3572 2.1370
-17.0178 -20.9349 2.1370
-16.2191 -21.4849 2.1370
-15.4045 -22.0071 2.1370
-14.5750 -22.5010 2.1370
-13.7315 -22.9663 2.1370
-12.8748 -23.4028 2.1370
-12.0058 -23.8102 2.1370
-11.6641 -25.3592 2.2404
-10.7312 -25.7268 2.2406
-9.7916 -26.0722 2.2416
-8.8394 -26.3791 2.2419
-7.8790 -26.6548 2.2423
-6.9111 -26.8991 2.2427
-5.9361 -27.1101 2.2430
-4.9537 -27.2787 2.2425
-3.9672 -27.4149 2.2419
-2.9778 -27.5192 2.2413
-1.9861 -27.5902 2.2407
-0.9933 -27.6290 2.2401
-0.0003 -21.6029 2.2413
0.7755 -21.5831 2.2407
1.5501 -21.5376 2.2401
2.2163 -20.4833 2.1370
2.5668 -17.7374 1.8584
3.6837 -20.2846 2.1370
4.4121 -20.1488 2.1370
2.8872 -11.2367 1.2013
5.1477 -17.4133 1.8790
5.2186 -15.5720 1.6981
5.5101 -14.6703 1.6190
6.0432 -14.4859 1.6200
6.6177 -14.3858 1.6327
6.4991 -12.8874 1.4865
4.3959 -7.9895 0.9380
4.4031 -7.3632 0.8814
4.9531 -7.6453 0.9346
4.8225 -6.8884 0.8614
5.1673 -6.8438 0.8771
5.4271 -6.6750 0.8785
5.6882 -6.5042 0.8808
5.8642 -6.2384 0.8712
6.3431 -6.2797 0.9066
6.2726 -5.7789 0.8646
5.9969 -5.1393 0.7990
2.1841 -1.7397 0.2819
5.3712 -3.9715 0.6729
5.4151 -3.7109 0.6598
5.4769 -3.4709 0.6503
5.5835 -3.2635 0.6470
5.7312 -3.0792 0.6494
5.9634 -2.9331 0.6617
6.0996 -2.7326 0.6638
6.3383 -2.5705 0.6776
6.6382 -2.4183 0.6981
6.8726 -2.2277 0.7120
7.1230 -2.0293 0.7279
8.2401 -2.0308 0.8318
6.7416 -1.4068 0.6732
6.5801 -1.1283 0.6507
6.6181 -0.8915 0.6491
6.6238 -0.6512 0.6451
6.6941 -0.4162 0.6482
6.7654 -0.1772 0.6522
6.8347 0.0664 0.6568
6.9021 0.3151 0.6620
6.9589 0.5685 0.6670
2.1704 0.2560 0.2082
1.8756 0.2898 0.1803
6.8712 1.3159 0.6626
6.6222 1.5164 0.6416
6.4735 1.7291 0.6309
6.3448 1.9412 0.6230
6.2184 2.1495 0.6160
6.0939 2.3545 0.6100
5.9709 2.5568 0.6048
5.8582 2.7614 0.6014
5.5815 2.8801 0.5816
5.3010 2.9809 0.5617
5.0628 3.0912 0.5464
4.8802 3.2256 0.5375
4.8085 3.4324 0.5414
4.7346 3.6430 0.5461
4.6633 3.8623 0.5522
4.6061 4.1023 0.5612
4.5468 4.3518 0.5713
5.2588 5.4079 0.6832
5.2280 5.7771 0.7042
5.1952 6.1723 0.7276
5.2148 6.6671 0.7619
5.9832 8.2426 0.9150
5.7214 8.5081 0.9194
5.4921 8.8360 0.9313
5.3725 9.3781 0.9660
5.4701 10.3962 1.0483
5.6088 11.6563 1.1526
5.4225 12.3881 1.2033
5.6181 14.2011 1.3572
5.3805 15.1702 1.4288
5.6589 17.9778 1.6713
5.7139 20.7204 1.9042
5.2958 22.2966 2.0286
4.7358 23.6886 2.1368
2.1829 13.4039 1.2005
1.9884 15.7527 1.4028
2.1660 24.0874 2.1359
1.3644 25.3342 2.2400
0.4548 25.3713 2.2400
-0.4556 25.3730 2.2400
-1.3654 25.3391 2.2400
-2.2731 25.2697 2.2400
-3.1772 25.1651 2.2400
-4.0763 25.0253 2.2400
-4.9689 24.8506 2.2400
-5.8535 24.6413 2.2400
-6.4192 23.2752 2.1370
-7.2440 23.0109 2.1370
-6.3691 17.9558 1.6892
-6.3993 16.1743 1.5438
-6.3886 14.5940 1.4156
-10.5278 21.8776 2.1600
-11.2906 21.4570 2.1600
-12.0357 21.0079 2.1600
-12.7620 20.5309 2.1600
-13.4683 20.0272 2.1600
-14.1537 19.4975 2.1600
-14.8172 18.9429 2.1600
-15.4579 18.3642 2.1600
-16.0750 17.7627 2.1600
-16.6675 17.1392 2.1600
-17.2349 16.4950 2.1600
-17.7763 15.8310 2.1600
-18.2523 15.1163 2.1554
-18.6198 14.3262 2.1418
-18.9771 13.5456 2.1307
-19.3009 12.7568 2.1194
-19.5890 11.9601 2.1079
-19.8157 11.1427 2.0933
-20.0762 10.3592 2.0856
-20.3337 9.5844 2.0808
-20.5459 8.7978 2.0745
-20.6896 7.9935 2.0643
-20.6620 7.1418 2.0403
-20.5191 6.2777 2.0083
-20.3356 5.4316 1.9756
-20.1335 4.6103 1.9441
-19.9366 3.8179 1.9161
-19.7514 3.0521 1.8920
-19.6866 2.3221 1.8821
-19.6088 1.6019 1.8734
-19.5686 0.8932 1.8707
-19.5774 0.1901 1.8751
-17.3063 -0.4534 1.6629
-19.7354 -1.2271 1.9048
-19.8598 -1.9525 1.9278
-20.0166 -2.6965 1.9568
-20.2619 -3.4742 1.9974
-20.5752 -4.2934 2.0479
-20.8381 -5.1354 2.0969
-20.9725 -5.9749 2.1365
-20.8852 -6.7696 2.1569
-20.6031 -7.5057 2.1600
-20.2665 -8.2188 2.1600
-19.9064 -8.9179 2.1600
-19.5232 -9.6023 2.1600
-19.1177 -10.2712 2.1600
-18.6905 -10.9242 2.1600
-18.2422 -11.5604 2.1600
-17.7735 -12.1794 2.1600
-17.2850 -12.7805 2.1600
-16.7775 -13.3632 2.1600
-16.2516 -13.9269 2.1600
-15.7080 -14.4713 2.1600
-15.1474 -14.9956 2.1600
-14.5706 -15.4997 2.1600
-13.9782 -15.9829 2.1600
-13.3710 -16.4449 2.1600
-12.7497 -16.8854 2.1600
-12.1151 -17.3040 2.1600
-11.4677 -17.7002 2.1600
-10.8085 -18.0739 2.1600
-10.0298 -18.2278 2.1370
-9.3563 -18.5520 2.1370
-8.6733 -18.8530 2.1370
-7.9814 -19.1306 2.1370
-7.2815 -19.3847 2.1370
-6.5741 -19.6150 2.1370
-6.1439 -20.7809 2.2404
-5.3907 -20.9774 2.2410
-4.6317 -21.1486 2.2415
-3.8677 -21.2944 2.2421
-3.0995 -21.4146 2.2427
-2.3277 -21.5069 2.2430
-1.5527 -21.5647 2.2424
-0.7767 -21.5967 2.2419
-0.0003 -17.6982 2.2400
0.6356 -17.6867 2.2400
1.2707 -17.6537 2.2400
1.8637 -17.2220 2.1920
2.4195 -16.7172 2.1370
3.0195 -16.6246 2.1370
3.6163 -16.5118 2.1370
2.8871 -11.2345 1.4658
4.7975 -16.2259 2.1370
5.1910 -15.4869 2.0616
5.5310 -14.7231 1.9837
6.0462 -14.4907 1.9789
6.5212 -14.1734 1.9646
6.5053 -12.8973 1.8173
6.5193 -11.8463 1.6994
4.6247 -7.7323 1.1312
5.2187 -8.0537 1.2035
5.3745 -7.6752 1.1736
5.6693 -7.5071 1.1768
5.3098 -6.5293 1.0513
6.3814 -7.2952 1.2091
5.8199 -6.1898 1.0583
6.2910 -6.2267 1.1009
6.1952 -5.7062 1.0459
5.5020 -4.7139 0.8982
2.1840 -1.7391 0.3455
5.3503 -3.9550 0.8220
5.4061 -3.7035 0.8081
5.4688 -3.4646 0.7968
5.5552 -3.2458 0.7904
5.6810 -3.0512 0.7907
5.7866 -2.8450 0.7890
5.8910 -2.6380 0.7882
6.1500 -2.4930 0.8087
6.3857 -2.3252 0.8264
6.2055 -2.0103 0.7915
6.1827 -1.7603 0.7783
6.1510 -1.5148 0.7653
6.1726 -1.2870 0.7600
6.2212 -1.0656 0.7591
6.2620 -0.8425 0.7581
6.2954 -0.6178 0.7572
6.3617 -0.3944 0.7612
6.3901 -0.1663 0.7616
6.4428 0.0637 0.7659
6.4995 0.2978 0.7716
6.5644 0.5375 0.7793
2.1704 0.2564 0.2580
1.8689 0.2891 0.2227
1.8688 0.3582 0.2235
6.6101 1.5149 0.7948
6.4618 1.7272 0.7822
6.3335 1.9389 0.7728
6.2074 2.1468 0.7645
6.0832 2.3515 0.7574
5.9678 2.5567 0.7523
5.8640 2.7652 0.7496
5.5971 2.8893 0.7267
5.3153 2.9901 0.7021
5.0507 3.0849 0.6799
4.8360 3.1974 0.6646
4.7869 3.4180 0.6729
4.7333 3.6431 0.6820
4.6781 3.8756 0.6923
4.6210 4.1166 0.7039
4.5673 4.3725 0.7178
4.7065 4.8411 0.7652
5.2701 5.8251 0.8887
5.2386 6.2253 0.9189
5.2861 6.7598 0.9677
5.8962 8.1246 1.1303
5.6424 8.3924 1.1370
5.4426 8.7582 1.1577
5.3307 9.3070 1.2026
5.3318 10.1354 1.2825
5.5383 11.5123 1.4290
5.3504 12.2258 1.4911
5.5471 14.0244 1.6834
5.3115 14.9786 1.7722
5.5063 17.4963 2.0437
5.1011 18.5015 2.1368
4.4372 18.6851 2.1368
3.7664 18.8432 2.1368
2.0528 12.6073 1.4197
2.4081 19.0821 2.1368
1.8060 20.0882 2.2400
1.0846 20.1447 2.2400
0.3615 20.1735 2.2400
-0.3623 20.1745 2.2400
-1.0856 20.1478 2.2400
-1.8072 20.0933 2.2400
-2.5261 20.0112 2.2400
-3.2412 19.9016 2.2400
-3.9513 19.7647 2.2400
-4.6554 19.6008 2.2400
-5.3523 19.4100 2.2400
-6.0410 19.1930 2.2400
-6.4112 18.0777 2.1370
-7.0496 17.8213 2.1370
-6.5462 14.9568 1.8221
-6.3707 13.2413 1.6416
-6.3974 12.1600 1.5366
-6.3714 11.1231 1.4352
-6.5340 10.5138 1.3877
-10.7371 15.9692 2.1600
-11.2874 15.5523 2.1600
-11.8208 15.1154 2.1600
-12.3367 14.6594 2.1600
-12.8342 14.1849 2.1600
-13.3128 13.6928 2.1600
-13.7718 13.1838 2.1600
-14.2107 12.6588 2.1600
-14.6289 12.1187 2.1600
-15.0259 11.5643 2.1600
-15.4013 10.9965 2.1600
-15.7546 10.4162 2.1600
-16.0855 9.8243 2.1600
-16.3936 9.2217 2.1600
-16.6787 8.6094 2.1600
-16.9404 7.9882 2.1600
-17.1786 7.3591 2.1600
-17.3930 6.7230 2.1600
-17.5835 6.0809 2.1600
-17.6775 5.4115 2.1512
-17.7435 4.7424 2.1420
-17.7438 4.0663 2.1280
-17.7008 3.3929 2.1118
-17.6674 2.7331 2.0996
-17.6397 2.0838 2.0910
-17.5967 1.4406 2.0833
-17.5384 0.8036 2.0765
-17.5653 0.1737 2.0825
-17.0760 -0.4444 2.0299
-17.6517 -1.0944 2.1066
-17.7004 -1.7371 2.1234
-17.7081 -2.3824 2.1382
-17.6390 -3.0213 2.1465
-17.5891 -3.6672 2.1600
-17.4065 -4.2866 2.1600
-17.2027 -4.8977 2.1600
-16.9779 -5.5000 2.1600
-16.7327 -6.0926 2.1600
-16.4675 -6.6750 2.1600
-16.1826 -7.2466 2.1600
-15.8787 -7.8066 2.1600
-15.5561 -8.3546 2.1600
-15.2154 -8.8900 2.1600
-14.8570 -9.4121 2.1600
-14.4815 -9.9205 2.1600
-14.0895 -10.4146 2.1600
-13.6814 -10.8940 2.1600
-13.2577 -11.3582 2.1600
-12.8192 -11.8068 2.1600
-12.3663 -12.2392 2.1600
-11.8996 -12.6552 2.1600
-11.4197 -13.0543 2.1600
-10.9272 -13.4362 2.1600
-10.4227 -13.8004 2.1600
-9.8009 -13.9956 2.1370
-9.2799 -14.3202 2.1370
-8.7488 -14.6265 2.1370
-8.2082 -14.9142 2.1370
-7.6589 -15.1831 2.1370
-7.1013 -15.4329 2.1370
-6.5362 -15.6634 2.1370
-6.1949 -16.4889 2.2197
-5.6455 -16.8409 2.2400
-5.0332 -17.0208 2.2400
-4.4156 -17.1797 2.2400
-3.7934 -17.3176 2.2400
-3.1672 -17.4344 2.2400
-2.5378 -17.5299 2.2400
-1.9057 -17.6041 2.2400
-1.2716 -17.6569 2.2400
-0.6363 -17.6882 2.2400
-0.0003 -14.9816 2.2400
0.5381 -14.9719 2.2400
1.0758 -14.9438 2.2400
1.6123 -14.8974 2.2400
2.0483 -14.1502 2.1370
2.5561 -14.0711 2.1370
3.0611 -13.9748 2.1370
2.8870 -11.2322 1.7316
4.0605 -13.7307 2.1370
4.5537 -13.5832 2.1370
5.0418 -13.4187 2.1370
5.5244 -13.2376 2.1370
6.4001 -13.9076 2.2791
6.7789 -13.4372 2.2388
6.8720 -12.4848 2.1181
4.8713 -8.1430 1.4090
6.9372 -10.7037 1.8922
5.2691 -7.5232 1.3612
5.5577 -7.3577 1.3650
5.5950 -6.8785 1.3111
6.2872 -7.1859 1.4101
6.4578 -6.8666 1.3904
6.5259 -6.4576 1.3524
5.7697 -5.3129 1.1538
5.4214 -4.6436 1.0487
2.1839 -1.7386 0.4095
5.3476 -3.9518 0.9739
5.3771 -3.6826 0.9531
5.4606 -3.4583 0.9438
5.5158 -3.2218 0.9312
5.5459 -2.9775 0.9161
5.5944 -2.7495 0.9057
5.7229 -2.5617 0.9094
5.9863 -2.4255 0.9351
6.0922 -2.2172 0.9369
5.9703 -1.9330 0.9053
5.9393 -1.6899 0.8891
5.9651 -1.4679 0.8829
6.0069 -1.2514 0.8802
6.0621 -1.0373 0.8805
6.1182 -0.8220 0.8821
6.1741 -0.6048 0.8847
6.2174 -0.3844 0.8867
6.2555 -0.1617 0.8889
6.2933 0.0633 0.8923
6.3409 0.2917 0.8982
6.3963 0.5248 0.9063
2.1703 0.2568 0.3080
1.8735 0.2902 0.2667
6.6407 1.2741 0.9492
6.5980 1.5133 0.9484
6.4502 1.7252 0.9336
6.3222 1.9366 0.9228
6.1964 2.1442 0.9133
6.0782 2.3507 0.9060
5.9738 2.5603 0.9019
5.8698 2.7691 0.8989
5.6129 2.8985 0.8733
5.3298 2.9993 0.8440
5.0602 3.0917 0.8169
4.8380 3.1999 0.7977
4.8017 3.4296 0.8101
4.7482 3.6556 0.8213
4.6931 3.8891 0.8340
4.6361 4.1311 0.8483
4.5896 4.3950 0.8668
4.5617 4.6934 0.8914
5.3132 5.8742 1.0772
5.2901 6.2880 1.1160
5.3598 6.8556 1.1803
5.7918 7.9826 1.3360
5.5626 8.2756 1.3491
5.3821 8.6627 1.3782
5.3399 9.3251 1.4506
5.2694 10.0189 1.5265
5.4780 11.3891 1.7026
5.2850 12.0786 1.7745
5.5636 14.0689 2.0345
5.3136 14.9872 2.1368
4.7760 15.1788 2.1368
4.2313 15.3500 2.1368
3.6802 15.5005 2.1368
3.1235 15.6302 2.1368
1.9596 12.0373 1.6343
1.9968 15.8258 2.1368
1.4974 16.6594 2.2400
0.8992 16.7056 2.2400
0.2997 16.7290 2.2400
-0.3004 16.7297 2.2400
-0.9001 16.7077 2.2400
-1.4985 16.6629 2.2400
-2.0946 16.5954 2.2400
-2.6877 16.5054 2.2400
-3.2767 16.3930 2.2400
-3.8609 16.2583 2.2400
-4.4393 16.1017 2.2400
-5.0111 15.9234 2.2400
-5.5754 15.7237 2.2400
-6.1314 15.5029 2.2400
-6.3722 14.5619 2.1374
-6.5073 13.5278 2.0202
-7.3854 14.0407 2.1370
-7.8766 13.7536 2.1370
-6.3765 10.2623 1.6307
-6.4015 9.5228 1.5504
-9.2778 12.7861 2.1370
-9.7186 12.4301 2.1370
-10.1453 12.0582 2.1370
-10.6713 11.7971 2.1600
-11.0723 11.3911 2.1600
-11.4573 10.9709 2.1600
-11.8259 10.5372 2.1600
-12.1776 10.0907 2.1600
-12.5120 9.6322 2.1600
-12.8287 9.1623 2.1600
-13.1273 8.6818 2.1600
-13.4074 8.1914 2.1600
-13.6689 7.6917 2.1600
-13.9114 7.1836 2.1600
-14.1347 6.6679 2.1600
-14.3386 6.1452 2.1600
-14.5228 5.6163 2.1600
-14.6872 5.0820 2.1600
-14.8318 4.5431 2.1600
-14.9565 4.0002 2.1600
-15.0612 3.4542 2.1600
-15.1458 2.9058 2.1600
-15.2104 2.3557 2.1600
-15.2550 1.8048 2.1600
-15.2797 1.2536 2.1600
-15.2845 0.7030 2.1600
-15.2695 0.1536 2.1600
-15.2349 -0.3938 2.1600
-15.1809 -0.9386 2.1600
-15.1076 -1.4800 2.1600
-15.0152 -2.0174 2.1600
-14.9040 -2.5502 2.1600
-14.7742 -3.0776 2.1600
-14.6260 -3.5992 2.1600
-14.4598 -4.1142 2.1600
-14.2759 -4.6220 2.1600
-14.0746 -5.1221 2.1600
-13.8562 -5.6139 2.1600
-13.6211 -6.0968 2.1600
-13.3696 -6.5704 2.1600
-13.1022 -7.0340 2.1600
-12.8192 -7.4873 2.1600
-12.5211 -7.9296 2.1600
-12.2083 -8.3605 2.1600
-11.8812 -8.7796 2.1600
-11.5403 -9.1865 2.1600
-11.1860 -9.5807 2.1600
-10.8188 -9.9618 2.1600
-10.4393 -10.3294 2.1600
-9.9404 -10.5690 2.1370
-9.5418 -10.9050 2.1370
-9.1323 -11.2266 2.1370
-8.7126 -11.5335 2.1370
-8.2831 -11.8255 2.1370
-7.8443 -12.1022 2.1370
-7.3967 -12.3634 2.1370
-6.9409 -12.6088 2.1370
-6.4774 -12.8383 2.1370
-6.1878 -13.4449 2.2014
-5.7963 -13.8876 2.2400
-5.2897 -14.0766 2.2400
-4.7772 -14.2480 2.2400
-4.2596 -14.4018 2.2400
-3.7373 -14.5377 2.2400
-3.2109 -14.6556 2.2400
-2.6811 -14.7555 2.2400
-2.1484 -14.8373 2.2400
-1.6134 -14.9008 2.2400
-1.0766 -14.9461 2.2400
-0.5388 -14.9730 2.2400
-0.0003 -12.9764 2.2400
0.4661 -12.9679 2.2400
0.9319 -12.9435 2.2400
1.3967 -12.9031 2.2400
1.8461 -12.7517 2.2235
2.2141 -12.1867 2.1370
2.6515 -12.1027 2.1370
2.8869 -11.2299 1.9992
3.5167 -11.8899 2.1370
3.9436 -11.7613 2.1370
4.3660 -11.6180 2.1370
4.7835 -11.4602 2.1370
5.1955 -11.2880 2.1370
5.6017 -11.1016 2.1370
6.6545 -12.0873 2.3695
6.9283 -11.5792 2.3154
7.2215 -11.1400 2.2761
5.1671 -7.3760 1.5426
5.4497 -7.2132 1.5471
5.7338 -7.0477 1.5532
6.6409 -7.5884 1.7221
7.2726 -7.7311 1.8107
7.3697 -7.2908 1.7665
5.4727 -5.0381 1.2660
5.3588 -4.5887 1.1993
2.1838 -1.7380 0.4739
5.3226 -3.9322 1.1220
5.3648 -3.6730 1.1009
5.4196 -3.4313 1.0847
5.4539 -3.1845 1.0664
5.4845 -2.9435 1.0495
5.5137 -2.7087 1.0343
5.5989 -2.5051 1.0311
5.8301 -2.3611 1.0558
5.8872 -2.1415 1.0499
5.8269 -1.8855 1.0248
5.8495 -1.6633 1.0159
5.8853 -1.4472 1.0108
5.9314 -1.2345 1.0088
5.9849 -1.0230 1.0093
6.0381 -0.8102 1.0110
6.0914 -0.5957 1.0140
6.1383 -0.3784 1.0171
6.1796 -0.1586 1.0206
6.2209 0.0637 1.0254
6.2624 0.2892 1.0315
6.3042 0.5184 1.0390
2.1702 0.2572 0.3584
1.8806 0.2916 0.3115
6.5613 1.2601 1.0918
6.5858 1.5117 1.1024
6.4385 1.7233 1.0855
6.3108 1.9343 1.0732
6.1897 2.1430 1.0632
6.0843 2.3542 1.0572
5.9797 2.5641 1.0526
5.8756 2.7730 1.0495
5.6288 2.9079 1.0218
5.3445 3.0087 0.9876
5.0598 3.0925 0.9534
4.8402 3.2023 0.9317
4.8108 3.4372 0.9478
4.7633 3.6683 0.9624
4.7082 3.9027 0.9775
4.6513 4.1458 0.9946
4.6123 4.4179 1.0182
4.5850 4.7185 1.0475
4.7469 5.2493 1.1254
5.3611 6.3739 1.3228
5.4360 6.9548 1.4004
5.6980 7.8550 1.5378
5.4737 8.1450 1.5535
5.3009 8.5338 1.5887
5.3329 9.3148 1.6958
5.2195 9.9260 1.7703
5.4144 11.2593 1.9705
5.2114 11.9130 2.0492
4.9888 12.6179 2.1368
4.5362 12.7972 2.1368
4.0769 12.9594 2.1368
3.6116 13.1043 2.1368
3.1409 13.2318 2.1368
1.9818 9.9188 1.5886
2.1625 13.2867 2.1135
1.7862 14.1597 2.2400
1.2777 14.2179 2.2400
0.7672 14.2569 2.2400
0.2556 14.2767 2.2400
-0.2564 14.2772 2.2400
-0.7681 14.2584 2.2400
-1.2786 14.2204 2.2400
-1.7874 14.1632 2.2400
-2.2935 14.0869 2.2400
-2.7963 13.9916 2.2400
-3.2950 13.8776 2.2400
-3.7889 13.7449 2.2400
-4.2772 13.5938 2.2400
-4.7593 13.4245 2.2400
-5.2344 13.2374 2.2400
-5.7020 13.0326 2.2400
-6.1612 12.8107 2.2400
-6.3072 11.9932 2.1370
-6.7276 11.7496 2.1370
-6.5477 10.5400 1.9601
-7.5386 11.2168 2.1370
-7.9282 10.9284 2.1370
-8.3063 10.6260 2.1370
-8.6725 10.3100 2.1370
-9.0264 9.9810 2.1370
-9.3674 9.6394 2.1370
-9.6951 9.2858 2.1370
-10.0091 8.9207 2.1370
-10.4204 8.6370 2.1600
-10.7089 8.2465 2.1600
-10.9824 7.8461 2.1600
-11.2407 7.4365 2.1600
-11.4834 7.0182 2.1600
-11.7102 6.5919 2.1600
-11.9209 6.1581 2.1600
-12.1153 5.7176 2.1600
-12.2932 5.2709 2.1600
-12.4543 4.8187 2.1600
-12.5987 4.3617 2.1600
-12.7261 3.9004 2.1600
-12.8365 3.4355 2.1600
-12.9299 2.9677 2.1600
-13.0060 2.4976 2.1600
-13.0651 2.0258 2.1600
-13.1069 1.5530 2.1600
-13.1317 1.0797 2.1600
-13.1394 0.6066 2.1600
-13.1301 0.1344 2.1600
-13.1040 -0.3364 2.1600
-13.0610 -0.8052 2.1600
-13.0015 -1.2713 2.1600
-12.9254 -1.7343 2.1600
-12.8331 -2.1935 2.1600
-12.7247 -2.6484 2.1600
-12.6004 -3.0984 2.1600
-12.4604 -3.5430 2.1600
-12.3051 -3.9816 2.1600
-12.1346 -4.4138 2.1600
-11.9492 -4.8390 2.1600
-11.7493 -5.2567 2.1600
-11.5352 -5.6666 2.1600
-11.3071 -6.0680 2.1600
-11.0654 -6.4607 2.1600
-10.8105 -6.8440 2.1600
-10.5427 -7.2176 2.1600
-10.1528 -7.5001 2.1370
-9.8635 -7.8494 2.1370
-9.5626 -8.1880 2.1370
-9.2505 -8.5154 2.1370
-8.9276 -8.8314 2.1370
-8.5944 -9.1356 2.1370
-8.2512 -9.4277 2.1370
-7.8984 -9.7075 2.1370
-7.5366 -9.9745 2.1370
-7.1661 -10.2286 2.1370
-6.7875 -10.4695 2.1370
-6.4011 -10.6970 2.1370
-6.1853 -11.2338 2.2002
-5.8775 -11.6468 2.2400
-5.4510 -11.8416 2.2400
-5.0185 -12.0215 2.2400
-4.5803 -12.1863 2.2400
-4.1369 -12.3359 2.2400
-3.6889 -12.4700 2.2400
-3.2369 -12.5886 2.2400
-2.7812 -12.6916 2.2400
-2.3224 -12.7788 2.2400
-1.8610 -12.8502 2.2400
-1.3976 -12.9056 2.2400
-0.9327 -12.9452 2.2400
-0.4668 -12.9688 2.2400
-0.0003 -11.4340 2.2400
0.4107 -11.4266 2.2400
0.8212 -11.4050 2.2400
1.2308 -11.3692 2.2400
1.6390 -11.3194 2.2400
1.9512 -10.7374 2.1370
2.3365 -10.6631 2.1370
2.7191 -10.5755 2.1370
3.0987 -10.4747 2.1370
3.4746 -10.3608 2.1370
3.8466 -10.2339 2.1370
4.2141 -10.0942 2.1370
4.5768 -9.9418 2.1370
4.9342 -9.7768 2.1370
5.2858 -9.5994 2.1370
5.6314 -9.4098 2.1370
6.8019 -10.4905 2.4345
6.0234 -8.5964 2.0423
6.2914 -8.3254 2.0286
6.3368 -7.7870 1.9500
6.7701 -7.7342 1.9946
6.9317 -7.3669 1.9610
5.5318 -5.4712 1.5068
5.3880 -4.9588 1.4167
5.3480 -4.5783 1.3605
2.1837 -1.7375 0.5387
5.3085 -3.9206 1.2724
5.3214 -3.6421 1.2419
5.3595 -3.3921 1.2200
5.3929 -3.1478 1.1996
5.4249 -2.9104 1.1812
5.4565 -2.6795 1.1648
5.5540 -2.4840 1.1643
5.7331 -2.3207 1.1819
5.7800 -2.1014 1.1737
5.7462 -1.8584 1.1509
5.7830 -1.6433 1.1440
5.8194 -1.4300 1.1387
5.8681 -1.2203 1.1373
5.9192 -1.0107 1.1377
5.9727 -0.8004 1.1400
6.0260 -0.5882 1.1437
6.0753 -0.3734 1.1481
6.1228 -0.1561 1.1535
6.1704 0.0643 1.1604
6.2169 0.2882 1.1686
6.2580 0.5157 1.1772
2.1701 0.2575 0.4091
1.8962 0.2944 0.3587
6.4950 1.2485 1.2343
6.5736 1.5101 1.2569
6.4267 1.7213 1.2380
6.3025 1.9329 1.2248
6.1959 2.1463 1.2165
6.0904 2.3578 1.2099
5.9857 2.5678 1.2049
5.8815 2.7770 1.2015
5.6450 2.9174 1.1722
5.3487 3.0121 1.1308
5.0594 3.0934 1.0910
4.8423 3.2047 1.0668
4.8130 3.4398 1.0855
4.7786 3.6811 1.1054
4.7236 3.9166 1.1231
4.6668 4.1608 1.1430
4.6354 4.4412 1.1722
4.6086 4.7441 1.2063
4.5804 5.0665 1.2444
5.4262 6.4529 1.5345
5.4709 7.0010 1.6154
5.5903 7.7083 1.7296
5.3584 7.9752 1.7436
5.1933 8.3625 1.7848
5.3158 9.2868 1.9385
5.1545 9.8044 2.0051
5.1186 10.6463 2.1368
4.7369 10.8304 2.1368
