ply
format ascii 1.0
element vertex 2174
property float32 x
property float32 y
property float32 z
end_header
6.1523 -6.0774 1.6987
6.2167 -5.7143 1.6559
6.2383 -5.3334 1.6068
6.3828 -5.0714 1.5932
6.6934 -4.9364 1.6224
7.0172 -4.7956 1.6549
7.1503 -4.5184 1.6437
7.2123 -4.2027 1.6190
7.2674 -3.8920 1.5958
7.3212 -3.5885 1.5750
7.2808 -3.2497 1.5370
7.3319 -2.9614 1.5211
7.3823 -2.6775 1.5074
7.5271 -2.4279 1.5148
7.5770 -2.1468 1.5050
7.6265 -1.8677 1.4972
7.6758 -1.5900 1.4913
7.6273 -1.2963 1.4686
7.6759 -1.0225 1.4665
7.7246 -0.7479 1.4663
7.7790 -0.4721 1.4691
7.8408 -0.1938 1.4751
7.4500 0.0834 1.3979
7.1047 0.3348 1.3314
6.7795 0.5639 1.2705
6.6617 0.7957 1.2500
6.6737 1.0412 1.2555
6.6739 1.2881 1.2605
6.6742 1.5384 1.2673
6.5589 1.7618 1.2537
6.7572 2.0776 1.3020
7.2771 2.5266 1.4156
8.0251 3.1131 1.5783
8.0255 3.4492 1.5982
7.4540 3.5255 1.5053
6.8138 3.5270 1.3977
6.2562 3.5284 1.3057
5.9795 3.6609 1.2719
6.8007 4.5066 1.4771
6.8025 4.8676 1.5114
6.5413 5.0448 1.4898
6.0772 5.0444 1.4217
5.8358 5.2084 1.4055
5.6745 5.4421 1.4102
6.5708 6.7702 1.6893
6.1150 6.7700 1.6308
5.6875 6.7694 1.5781
6.6957 8.5755 1.9390
6.6558 9.1848 2.0185
6.8567 10.2132 2.1861
6.4948 10.4659 2.1861
5.9884 10.4695 2.1380
5.6159 10.6896 2.1380
5.2350 10.8956 2.1380
2.5387 5.8082 1.1200
4.4498 11.2639 2.1380
4.0468 11.4256 2.1380
3.6377 11.5718 2.1380
3.2229 11.7024 2.1380
2.8033 11.8172 2.1380
2.3793 11.9158 2.1380
1.9971 12.2767 2.1876
1.5946 12.6459 2.2411
1.1408 12.6978 2.2411
0.6854 12.7322 2.2411
0.2289 12.7492 2.2411
-0.2279 12.7487 2.2411
-0.6843 12.7306 2.2411
-1.1396 12.6952 2.2411
-1.5932 12.6423 2.2411
-2.0442 12.5721 2.2411
-2.4920 12.4848 2.2411
-2.9359 12.3804 2.2411
-3.3753 12.2593 2.2411
-3.8095 12.1215 2.2411
-4.2378 11.9674 2.2411
-4.6595 11.7972 2.2411
-5.0741 11.6112 2.2411
-5.4810 11.4097 2.2411
-5.8795 11.1932 2.2411
-6.0565 10.5902 2.1651
-6.3429 10.2226 2.1379
-6.6959 9.9751 2.1379
-7.0389 9.7148 2.1379
-7.3714 9.4421 2.1379
-7.6929 9.1574 2.1379
-8.0030 8.8613 2.1379
-8.3013 8.5542 2.1379
-8.5875 8.2367 2.1379
-6.4614 5.7673 1.5589
-9.1218 7.5724 2.1379
-9.3694 7.2266 2.1379
-9.6035 6.8726 2.1379
-9.8239 6.5107 2.1379
-10.0222 6.1366 2.1361
-10.2144 5.7613 2.1361
-10.3922 5.3798 2.1361
-10.5555 4.9928 2.1361
-8.7894 3.7779 1.7540
-8.6036 3.3378 1.6957
-10.9573 3.8047 2.1361
-11.0616 3.4015 2.1361
-11.1509 2.9956 2.1361
-11.2253 2.5876 2.1361
-11.2847 2.1781 2.1361
-11.3291 1.7677 2.1361
-11.3587 1.3569 2.1361
-11.3734 0.9461 2.1361
-11.3734 0.5361 2.1361
-11.3587 0.1272 2.1361
-11.3295 -0.2800 2.1361
-9.3583 -0.5679 1.7713
-8.9977 -0.8712 1.7118
-8.6619 -1.1539 1.6585
-8.5909 -1.4601 1.6577
-10.9708 -2.2726 2.1361
-10.8578 -2.6592 2.1361
-10.7315 -3.0407 2.1361
-10.5922 -3.4168 2.1361
-10.4401 -3.7869 2.1361
-10.2755 -4.1507 2.1361
-10.0987 -4.5078 2.1361
-9.9181 -4.8617 2.1379
-9.7175 -5.2045 2.1379
-9.5055 -5.5395 2.1379
-9.2825 -5.8663 2.1379
-9.0488 -6.1846 2.1379
-8.8047 -6.4940 2.1379
-8.5504 -6.7943 2.1379
-8.2865 -7.0852 2.1379
-8.0132 -7.3663 2.1379
-7.7308 -7.6374 2.1379
-7.4398 -7.8983 2.1379
-7.1404 -8.1487 2.1379
-6.7148 -8.2430 2.1008
-6.5183 -8.6170 2.1379
-6.4955 -9.2612 2.2411
-6.1508 -9.4773 2.2411
-5.7993 -9.6813 2.2411
-5.4415 -9.8731 2.2411
-5.0778 -10.0523 2.2411
-4.7085 -10.2190 2.2411
-4.3342 -10.3729 2.2411
-3.9551 -10.5139 2.2411
-3.5718 -10.6418 2.2411
-3.1847 -10.7567 2.2411
-2.7941 -10.8583 2.2411
-2.4005 -10.9466 2.2411
-2.0043 -11.0215 2.2411
-1.6060 -11.0829 2.2411
-1.2059 -11.1309 2.2411
-0.8046 -11.1653 2.2411
-0.4023 -11.1861 2.2411
0.0004 -10.0160 2.2411
0.3609 -10.0102 2.2411
0.7210 -9.9922 2.2411
1.0804 -9.9618 2.2411
1.4386 -9.9193 2.2411
1.7953 -9.8646 2.2411
2.0511 -9.3471 2.1380
2.3873 -9.2719 2.1380
2.6213 -8.8487 2.0597
3.0516 -9.0870 2.1380
3.3790 -8.9776 2.1380
3.7027 -8.8570 2.1380
4.0223 -8.7254 2.1380
4.3375 -8.5827 2.1380
4.6480 -8.4293 2.1380
4.9533 -8.2651 2.1380
5.2532 -8.0904 2.1380
5.5472 -7.9053 2.1380
5.8350 -7.7100 2.1380
6.2539 -7.6735 2.1861
5.8733 -6.6994 1.9649
5.9431 -6.3062 1.9085
6.0092 -5.9336 1.8573
6.0325 -5.5427 1.7990
6.2224 -5.3175 1.7946
6.3375 -5.0332 1.7717
6.6976 -4.9371 1.8185
7.0175 -4.7934 1.8542
7.1555 -4.5193 1.8434
7.2126 -4.2006 1.8148
7.2678 -3.8899 1.7891
7.3216 -3.5864 1.7662
7.2811 -3.2476 1.7239
7.3323 -2.9594 1.7065
7.3826 -2.6755 1.6915
7.5275 -2.4258 1.7002
7.5774 -2.1447 1.6896
7.6269 -1.8656 1.6812
7.6761 -1.5879 1.6750
7.6277 -1.2942 1.6499
7.6763 -1.0204 1.6480
7.7250 -0.7458 1.6482
7.7795 -0.4699 1.6517
7.8413 -0.1916 1.6588
7.4472 0.0854 1.5718
7.1022 0.3367 1.4974
6.7786 0.5657 1.4295
6.6608 0.7974 1.4069
6.6473 1.0389 1.4080
6.6473 1.2848 1.4140
6.6473 1.5340 1.4218
6.5592 1.7638 1.4127
6.7584 2.0799 1.4677
7.4157 2.5769 1.6263
8.0253 3.1155 1.7797
8.0257 3.4517 1.8026
7.4493 3.5255 1.6971
6.8098 3.5271 1.5763
6.2528 3.5284 1.4729
5.8380 3.5762 1.4019
6.6088 4.3816 1.6208
6.6106 4.7325 1.6589
6.5384 5.0448 1.6822
6.0748 5.0445 1.6057
5.6494 5.0441 1.5376
5.4659 5.2441 1.5354
6.3453 6.5403 1.8444
6.1128 6.7701 1.8435
5.6853 6.7692 1.7841
6.6738 8.5504 2.1861
6.3714 8.7953 2.1861
5.9264 8.8303 2.1380
5.6128 9.0474 2.1380
5.2909 9.2528 2.1380
4.9611 9.4460 2.1380
4.6240 9.6269 2.1380
2.5380 5.8082 1.2678
3.9297 9.9500 2.1380
3.5734 10.0918 2.1380
3.2119 10.2201 2.1380
2.8455 10.3347 2.1380
2.4748 10.4353 2.1380
2.1004 10.5218 2.1380
1.8060 11.1049 2.2411
1.4076 11.1655 2.2411
1.0070 11.2110 2.2411
0.6050 11.2413 2.2411
0.2021 11.2562 2.2411
-0.2011 11.2558 2.2411
-0.6040 11.2400 2.2411
-1.0059 11.2090 2.2411
-1.4063 11.1627 2.2411
-1.8045 11.1013 2.2411
-2.1999 11.0248 2.2411
-2.5920 10.9334 2.2411
-2.9801 10.8272 2.2411
-3.3637 10.7065 2.2411
-3.7423 10.5713 2.2411
-4.1152 10.4221 2.2411
-4.4818 10.2590 2.2411
-4.8418 10.0823 2.2411
-5.1945 9.8923 2.2411
-5.5395 9.6893 2.2411
-5.8762 9.4737 2.2411
-6.0527 9.0200 2.1864
-6.2226 8.5911 2.1379
-6.5176 8.3514 2.1379
-6.8031 8.1012 2.1379
-7.0786 7.8407 2.1379
-7.3439 7.5706 2.1379
-7.5985 7.2911 2.1379
-6.4529 5.7621 1.7591
-8.0746 6.7060 2.1379
-8.2956 6.4013 2.1379
-8.5047 6.0891 2.1379
-8.7018 5.7700 2.1379
-8.8867 5.4443 2.1379
-9.0592 5.1126 2.1379
-9.2191 4.7754 2.1379
-9.3662 4.4332 2.1379
-9.5005 4.0864 2.1379
-8.8378 3.4313 1.9637
-9.7299 3.3813 2.1379
-9.8249 3.0240 2.1379
-9.9067 2.6642 2.1379
-9.9671 2.3004 2.1361
-10.0223 1.9373 2.1361
-10.0644 1.5732 2.1361
-10.0932 1.2085 2.1361
-10.1088 0.8437 2.1361
-10.1113 0.4794 2.1361
-10.1008 0.1159 2.1361
-10.0773 -0.2462 2.1361
-9.4845 -0.5729 2.0177
-9.9920 -0.9647 2.1361
-8.7782 -1.1669 1.8882
-9.8645 -1.6738 2.1379
-9.7781 -2.0228 2.1379
-9.6797 -2.3680 2.1379
-9.5693 -2.7087 2.1379
-9.4473 -3.0447 2.1379
-9.3138 -3.3756 2.1379
-9.1690 -3.7010 2.1379
-9.0132 -4.0205 2.1379
-8.8466 -4.3338 2.1379
-8.6695 -4.6405 2.1379
-8.4821 -4.9404 2.1379
-8.2847 -5.2331 2.1379
-8.0777 -5.5182 2.1379
-7.8612 -5.7955 2.1379
-7.6356 -6.0647 2.1379
-7.4012 -6.3256 2.1379
-7.1583 -6.5778 2.1379
-6.9072 -6.8211 2.1379
-6.6482 -7.0553 2.1379
-6.3817 -7.2802 2.1379
-6.1313 -7.5241 2.1460
-6.1088 -8.0728 2.2411
-5.8077 -8.2778 2.2411
-5.5001 -8.4721 2.2411
-5.1865 -8.6555 2.2411
-4.8670 -8.8279 2.2411
-4.5421 -8.9892 2.2411
-4.2122 -9.1391 2.2411
-3.8777 -9.2776 2.2411
-3.5388 -9.4045 2.2411
-3.1961 -9.5197 2.2411
-2.8498 -9.6230 2.2411
-2.5005 -9.7145 2.2411
-2.1483 -9.7940 2.2411
-1.7938 -9.8614 2.2411
-1.4374 -9.9168 2.2411
-1.0793 -9.9599 2.2411
-0.7201 -9.9909 2.2411
-0.3600 -10.0096 2.2411
0.0004 -9.0541 2.2411
0.3264 -9.0488 2.2411
0.6520 -9.0324 2.2411
0.9769 -9.0048 2.2411
1.3008 -8.9661 2.2411
1.6232 -8.9164 2.2411
1.9439 -8.8556 2.2411
2.1702 -8.4259 2.1498
2.4598 -8.3010 2.1380
2.7586 -8.2118 2.1380
3.0543 -8.1124 2.1380
3.3466 -8.0028 2.1380
3.6353 -7.8832 2.1380
3.9198 -7.7537 2.1380
4.2000 -7.6143 2.1380
4.4755 -7.4653 2.1380
4.7459 -7.3067 2.1380
5.0110 -7.1387 2.1380
5.2704 -6.9615 2.1380
5.5238 -6.7752 2.1380
5.7316 -6.5353 2.1234
5.7997 -6.1517 2.0627
5.8251 -5.7495 1.9942
6.0083 -5.5181 1.9850
6.1325 -5.2384 1.9597
6.1901 -4.9138 1.9176
6.7018 -4.9379 2.0168
7.0235 -4.7951 2.0572
7.0678 -4.4616 2.0187
7.1219 -4.1454 1.9870
7.1763 -3.8387 1.9592
7.2295 -3.5390 1.9345
7.2815 -3.2455 1.9127
7.3327 -2.9573 1.8937
7.3830 -2.6734 1.8773
7.5279 -2.4237 1.8874
7.5777 -2.1426 1.8760
7.6272 -1.8635 1.8671
7.6765 -1.5858 1.8605
7.6281 -1.2921 1.8329
7.6766 -1.0183 1.8312
7.7254 -0.7436 1.8318
7.7800 -0.4678 1.8361
7.8418 -0.1894 1.8444
7.4097 0.0871 1.7390
7.0996 0.3385 1.6649
6.7777 0.5675 1.5901
6.6599 0.7992 1.5652
6.6737 1.0449 1.5733
6.6739 1.2918 1.5802
6.6742 1.5422 1.5894
6.5596 1.7657 1.5732
6.7596 2.0823 1.6351
7.2880 2.5346 1.7805
8.0255 3.1180 1.9831
8.0258 3.4542 2.0089
7.4445 3.5255 1.8906
6.8058 3.5271 1.7563
6.2493 3.5284 1.6415
5.7589 3.5296 1.5424
5.4240 3.5979 1.4839
6.4238 4.6010 1.7985
6.4240 4.9588 1.8443
6.0723 5.0446 1.7914
5.6468 5.0438 1.7156
5.4741 5.2541 1.7168
6.1151 6.3055 1.9847
6.0558 6.7094 2.0395
5.6832 6.7691 1.9919
5.8430 7.4886 2.1380
5.5775 7.7020 2.1380
5.3040 7.9055 2.1380
5.0227 8.0989 2.1380
4.7341 8.2818 2.1380
4.4386 8.4538 2.1380
4.1366 8.6147 2.1380
2.5372 5.8082 1.4169
3.5149 8.9023 2.1380
3.1960 9.0285 2.1380
2.8724 9.1426 2.1380
2.5446 9.2445 2.1380
2.2130 9.3340 2.1380
1.9688 9.8647 2.2411
1.6149 9.9321 2.2411
1.2586 9.9860 2.2411
0.9004 10.0265 2.2411
0.5410 10.0534 2.2411
0.1807 10.0667 2.2411
-0.1798 10.0664 2.2411
-0.5400 10.0524 2.2411
-0.8993 10.0249 2.2411
-1.2573 9.9838 2.2411
-1.6134 9.9292 2.2411
-1.9671 9.8612 2.2411
-2.3178 9.7800 2.2411
-2.6651 9.6856 2.2411
-3.0084 9.5783 2.2411
-3.3472 9.4581 2.2411
-3.6810 9.3254 2.2411
-4.0093 9.1803 2.2411
-4.3318 9.0231 2.2411
-4.6478 8.8540 2.2411
-4.9570 8.6733 2.2411
-5.2590 8.4814 2.2411
-5.5532 8.2785 2.2411
-5.8394 8.0649 2.2411
-6.0536 7.7597 2.2179
-6.0917 7.2567 2.1379
-6.3394 7.0246 2.1379
-6.5779 6.7836 2.1379
-6.8070 6.5343 2.1379
-6.4443 5.7569 1.9607
-7.2360 6.0122 2.1379
-7.4352 5.7401 2.1379
-7.6240 5.4612 2.1379
-7.8021 5.1760 2.1379
-7.9694 4.8849 2.1379
-8.1255 4.5883 2.1379
-8.2705 4.2867 2.1379
-8.4041 3.9804 2.1379
-8.5262 3.6700 2.1379
-8.6367 3.3558 2.1379
-8.7355 3.0384 2.1379
-8.8226 2.7181 2.1379
-8.8978 2.3954 2.1379
-8.9612 2.0708 2.1379
-9.0127 1.7447 2.1379
-9.0523 1.4176 2.1379
-9.0801 1.0897 2.1379
-9.0960 0.7618 2.1379
-9.1001 0.4340 2.1379
-9.0925 0.1069 2.1379
-9.0732 -0.2192 2.1379
-9.0423 -0.5437 2.1379
-9.0000 -0.8664 2.1379
-8.7807 -1.1648 2.0983
-8.8813 -1.5044 2.1379
-8.8053 -1.8191 2.1379
-8.7183 -2.1303 2.1379
-8.6205 -2.4376 2.1379
-8.5121 -2.7408 2.1379
-8.3934 -3.0395 2.1379
-8.2644 -3.3334 2.1379
-8.1254 -3.6220 2.1379
-7.9766 -3.9051 2.1379
-7.8182 -4.1824 2.1379
-7.6505 -4.4536 2.1379
-7.4737 -4.7183 2.1379
-7.2881 -4.9763 2.1379
-7.0938 -5.2273 2.1379
-6.8913 -5.4711 2.1379
-6.6807 -5.7073 2.1379
-6.4623 -5.9358 2.1379
-6.2365 -6.1563 2.1379
-6.0773 -6.4470 2.1642
-6.0418 -6.8899 2.2411
-5.7833 -7.0945 2.2411
-5.5182 -7.2899 2.2411
-5.2468 -7.4758 2.2411
-4.9694 -7.6521 2.2411
-4.6864 -7.8186 2.2411
-4.3982 -7.9751 2.2411
-4.1049 -8.1215 2.2411
-3.8071 -8.2577 2.2411
-3.5049 -8.3834 2.2411
-3.1989 -8.4986 2.2411
-2.8892 -8.6033 2.2411
-2.5764 -8.6972 2.2411
-2.2606 -8.7803 2.2411
-1.9423 -8.8525 2.2411
-1.6219 -8.9138 2.2411
-1.2996 -8.9640 2.2411
-0.9759 -9.0032 2.2411
-0.6511 -9.0313 2.2411
-0.3255 -9.0483 2.2411
0.0004 -8.2527 2.2411
0.2976 -8.2478 2.2411
0.5945 -8.2327 2.2411
0.8907 -8.2074 2.2411
1.1859 -8.1720 2.2411
1.4799 -8.1264 2.2411
1.7721 -8.0707 2.2411
1.9740 -7.6618 2.1450
2.2423 -7.5646 2.1380
2.5145 -7.4830 2.1380
2.7840 -7.3920 2.1380
3.0502 -7.2917 2.1380
3.3131 -7.1822 2.1380
3.5722 -7.0636 2.1380
3.8272 -6.9361 2.1380
4.0779 -6.7998 2.1380
4.3240 -6.6547 2.1380
4.5651 -6.5011 2.1380
4.8009 -6.3391 2.1380
5.0313 -6.1688 2.1380
5.2558 -5.9905 2.1380
5.4743 -5.8043 2.1380
5.6864 -5.6104 2.1380
5.8919 -5.4089 2.1380
5.9845 -5.1097 2.1008
6.0854 -4.8285 2.0711
6.6115 -4.8690 2.1861
6.7918 -4.6346 2.1861
6.9641 -4.3938 2.1861
7.1281 -4.1467 2.1861
7.1926 -3.8450 2.1588
7.2430 -3.5434 2.1310
7.2927 -3.2483 2.1066
7.3417 -2.9587 2.0854
7.3903 -2.6738 2.0671
7.4385 -2.3927 2.0519
7.4865 -2.1146 2.0394
7.5343 -1.8386 2.0297
7.5823 -1.5641 2.0228
7.6304 -1.2903 2.0185
7.6788 -1.0164 2.0168
7.7276 -0.7417 2.0179
7.7805 -0.4656 2.0224
7.8422 -0.1872 2.0319
7.4416 0.0895 1.9243
7.0970 0.3404 1.8340
6.7767 0.5694 1.7523
6.6590 0.8010 1.7252
6.6737 1.0468 1.7346
6.6604 1.2911 1.7390
6.6473 1.5379 1.7459
6.5599 1.7677 1.7355
6.7608 2.0846 1.8042
7.4274 2.5853 2.0022
8.0163 3.1168 2.1861
7.9123 3.4078 2.1861
7.4396 3.5255 2.0857
6.8015 3.5270 1.9380
6.2455 3.5283 1.8116
5.7557 3.5295 1.7026
5.4699 3.6302 1.6530
6.2423 4.4730 1.9308
6.2440 4.8221 1.9808
6.0698 5.0448 1.9788
5.6442 5.0436 1.8952
5.4824 5.2642 1.9006
5.9184 6.1050 2.1236
5.7417 6.3637 2.1380
5.5165 6.5729 2.1380
5.2834 6.7738 2.1380
5.0429 6.9660 2.1380
4.7950 7.1493 2.1380
4.5403 7.3234 2.1380
4.2791 7.4881 2.1380
4.0116 7.6429 2.1380
3.7384 7.7878 2.1380
2.4855 5.6915 1.5360
3.1761 8.0465 2.1380
2.8878 8.1600 2.1380
2.5953 8.2627 2.1380
2.2990 8.3543 2.1380
2.0035 8.4527 2.1425
1.7786 8.9141 2.2411
1.4588 8.9747 2.2411
1.1369 9.0232 2.2411
0.8134 9.0596 2.2411
0.4887 9.0838 2.2411
0.1633 9.0958 2.2411
-0.1623 9.0955 2.2411
-0.4877 9.0830 2.2411
-0.8123 9.0583 2.2411
-1.1358 9.0214 2.2411
-1.4575 8.9723 2.2411
-1.7771 8.9112 2.2411
-2.0940 8.8382 2.2411
-2.4078 8.7534 2.2411
-2.7181 8.6569 2.2411
-3.0244 8.5488 2.2411
-3.3263 8.4295 2.2411
-3.6233 8.2990 2.2411
-3.9150 8.1575 2.2411
-4.2010 8.0054 2.2411
-4.4808 7.8428 2.2411
-4.7542 7.6700 2.2411
-5.0208 7.4873 2.2411
-5.2800 7.2950 2.2411
-5.5317 7.0933 2.2411
-5.7755 6.8827 2.2411
-6.0111 6.6634 2.2411
-6.0581 6.2501 2.1765
-6.1587 5.9144 2.1379
-6.3581 5.6824 2.1379
-6.5486 5.4434 2.1379
-6.7298 5.1979 2.1379
-6.9017 4.9462 2.1379
-7.0640 4.6888 2.1379
-7.2165 4.4258 2.1379
-7.3590 4.1579 2.1379
-7.4915 3.8853 2.1379
-7.6137 3.6084 2.1379
-7.7255 3.3277 2.1379
-7.8269 3.0435 2.1379
-7.9177 2.7563 2.1379
-7.9980 2.4664 2.1379
-8.0675 2.1743 2.1379
-8.1263 1.8803 2.1379
-8.1744 1.5848 2.1379
-8.2117 1.2883 2.1379
-8.2382 0.9911 2.1379
-8.2541 0.6936 2.1379
-8.2592 0.3962 2.1379
-8.2536 0.0994 2.1379
-8.2375 -0.1967 2.1379
-8.2108 -0.4914 2.1379
-8.1737 -0.7845 2.1379
-8.1262 -1.0757 2.1379
-8.0685 -1.3645 2.1379
-8.0007 -1.6506 2.1379
-7.9230 -1.9336 2.1379
-7.8353 -2.2133 2.1379
-7.7380 -2.4893 2.1379
-7.6312 -2.7612 2.1379
-7.5151 -3.0288 2.1379
-7.3897 -3.2918 2.1379
-7.2554 -3.5498 2.1379
-7.1124 -3.8026 2.1379
-6.9608 -4.0498 2.1379
-6.8008 -4.2913 2.1379
-6.6328 -4.5266 2.1379
-6.4568 -4.7557 2.1379
-6.2732 -4.9782 2.1379
-6.0822 -5.1939 2.1379
-6.0632 -5.5669 2.2029
-5.9534 -5.8745 2.2411
-5.7315 -6.0778 2.2411
-5.5029 -6.2731 2.2411
-5.2680 -6.4601 2.2411
-5.0270 -6.6387 2.2411
-4.7802 -6.8087 2.2411
-4.5279 -6.9699 2.2411
-4.2704 -7.1222 2.2411
-4.0080 -7.2653 2.2411
-3.7410 -7.3992 2.2411
-3.4698 -7.5238 2.2411
-3.1946 -7.6389 2.2411
-2.9158 -7.7443 2.2411
-2.6337 -7.8401 2.2411
-2.3486 -7.9260 2.2411
-2.0608 -8.0021 2.2411
-1.7707 -8.0682 2.2411
-1.4786 -8.1242 2.2411
-1.1848 -8.1702 2.2411
-0.8897 -8.2061 2.2411
-0.5936 -8.2318 2.2411
-0.2967 -8.2473 2.2411
0.0004 -7.5740 2.2411
0.2733 -7.5694 2.2411
0.5458 -7.5555 2.2411
0.8177 -7.5322 2.2411
1.0887 -7.4996 2.2411
1.3585 -7.4575 2.2411
1.6267 -7.4063 2.2411
1.8932 -7.3457 2.2411
2.0582 -6.9413 2.1380
2.3080 -6.8661 2.1380
2.5551 -6.7822 2.1380
2.7994 -6.6899 2.1380
3.0404 -6.5890 2.1380
3.2780 -6.4798 2.1380
3.5118 -6.3625 2.1380
3.7416 -6.2369 2.1380
3.9671 -6.1034 2.1380
4.1880 -5.9620 2.1380
4.4040 -5.8129 2.1380
4.6150 -5.6563 2.1380
4.8205 -5.4922 2.1380
5.0205 -5.3209 2.1380
5.2145 -5.1426 2.1380
5.4024 -4.9574 2.1380
5.5839 -4.7656 2.1380
5.7589 -4.5673 2.1380
5.9270 -4.3628 2.1380
6.2249 -4.2456 2.1861
6.3821 -4.0244 2.1861
6.5316 -3.7975 2.1861
6.6733 -3.5652 2.1861
6.8069 -3.3278 2.1861
6.9322 -3.0855 2.1861
7.0490 -2.8385 2.1861
7.1572 -2.5873 2.1861
7.2566 -2.3320 2.1861
7.3470 -2.0730 2.1861
7.4283 -1.8105 2.1861
7.5003 -1.5450 2.1861
7.5629 -1.2767 2.1861
7.6160 -1.0058 2.1861
7.6595 -0.7329 2.1861
7.6933 -0.4582 2.1861
7.7172 -0.1820 2.1861
7.2410 0.0892 2.0475
7.0944 0.3423 2.0050
6.7758 0.5712 1.9164
6.6581 0.8028 1.8870
6.6737 1.0488 1.8978
6.6739 1.2957 1.9068
6.6742 1.5460 1.9184
6.5602 1.7697 1.8997
6.7620 2.0870 1.9754
6.9610 2.4250 2.0545
7.3209 2.8486 2.1861
7.2250 3.1140 2.1861
7.1193 3.3759 2.1861
6.7971 3.5269 2.1215
6.2417 3.5282 1.9835
5.7524 3.5294 1.8644
5.4773 3.6370 1.8139
6.0555 4.3413 2.0528
6.0572 4.6800 2.1061
5.9428 4.9414 2.1238
5.6417 5.0435 2.0769
5.4910 5.2745 2.0872
5.4339 5.6074 2.1380
5.2355 5.8049 2.1380
5.0297 5.9951 2.1380
4.8168 6.1776 2.1380
4.5970 6.3523 2.1380
4.3707 6.5189 2.1380
4.1382 6.6771 2.1380
3.8998 6.8266 2.1380
3.6558 6.9672 2.1380
2.7276 5.6837 1.7118
2.4820 5.6852 1.6833
2.8939 7.3337 2.1380
2.6310 7.4367 2.1380
2.3644 7.5299 2.1380
2.0944 7.6131 2.1380
1.9092 8.0568 2.2411
1.6202 8.1226 2.2411
1.3289 8.1776 2.2411
1.0357 8.2216 2.2411
0.7410 8.2547 2.2411
0.4452 8.2767 2.2411
0.1488 8.2876 2.2411
-0.1478 8.2874 2.2411
-0.4442 8.2760 2.2411
-0.7399 8.2536 2.2411
-1.0346 8.2201 2.2411
-1.3277 8.1757 2.2411
-1.6188 8.1203 2.2411
-1.9076 8.0540 2.2411
-2.1936 7.9770 2.2411
-2.4764 7.8895 2.2411
-2.7556 7.7915 2.2411
-3.0308 7.6831 2.2411
-3.3016 7.5647 2.2411
-3.5677 7.4363 2.2411
-3.8285 7.2982 2.2411
-4.0839 7.1505 2.2411
-4.3335 6.9936 2.2411
-4.5768 6.8276 2.2411
-4.8136 6.6529 2.2411
-5.0435 6.4696 2.2411
-5.2663 6.2782 2.2411
-5.4816 6.0788 2.2411
-5.6891 5.8718 2.2411
-5.8887 5.6575 2.2411
-6.0561 5.4148 2.2323
-6.0613 5.0407 2.1690
-6.1404 4.7449 2.1379
-6.2980 4.5158 2.1379
-6.4469 4.2814 2.1379
-6.5869 4.0419 2.1379
-6.7178 3.7978 2.1379
-6.8396 3.5494 2.1379
-6.9521 3.2971 2.1379
-7.0552 3.0412 2.1379
-7.1488 2.7820 2.1379
-7.2327 2.5200 2.1379
-7.3070 2.2555 2.1379
-7.3715 1.9889 2.1379
-7.4263 1.7205 2.1379
-7.4713 1.4507 2.1379
-7.5064 1.1798 2.1379
-7.5318 0.9082 2.1379
-7.5473 0.6364 2.1379
-7.5530 0.3645 2.1379
-7.5490 0.0930 2.1379
-7.5353 -0.1777 2.1379
-7.5119 -0.4474 2.1379
-7.4790 -0.7157 2.1379
-7.4366 -0.9822 2.1379
-7.3848 -1.2467 2.1379
-7.3237 -1.5088 2.1379
-7.2535 -1.7681 2.1379
-7.1742 -2.0244 2.1379
-7.0860 -2.2774 2.1379
-6.9891 -2.5268 2.1379
-6.8836 -2.7723 2.1379
-6.7696 -3.0135 2.1379
-6.6474 -3.2502 2.1379
-6.5171 -3.4822 2.1379
-6.3789 -3.7092 2.1379
-6.2331 -3.9309 2.1379
-6.0797 -4.1471 2.1379
-6.0563 -4.4586 2.1874
-6.0291 -4.7823 2.2411
-5.8461 -4.9901 2.2411
-5.6562 -5.1911 2.2411
-5.4597 -5.3852 2.2411
-5.2567 -5.5722 2.2411
-5.0475 -5.7517 2.2411
-4.8324 -5.9238 2.2411
-4.6117 -6.0881 2.2411
-4.3856 -6.2445 2.2411
-4.1544 -6.3929 2.2411
-3.9184 -6.5330 2.2411
-3.6779 -6.6648 2.2411
-3.4331 -6.7881 2.2411
-3.1843 -6.9028 2.2411
-2.9319 -7.0087 2.2411
-2.6762 -7.1058 2.2411
-2.4173 -7.1940 2.2411
-2.1557 -7.2732 2.2411
-1.8916 -7.3432 2.2411
-1.6254 -7.4041 2.2411
-1.3573 -7.4557 2.2411
-1.0876 -7.4981 2.2411
-0.8167 -7.5311 2.2411
-0.5449 -7.5548 2.2411
-0.2724 -7.5691 2.2411
0.0004 -6.9913 2.2411
0.2523 -6.9871 2.2411
0.5040 -6.9742 2.2411
0.7550 -6.9526 2.2411
1.0052 -6.9223 2.2411
1.2543 -6.8834 2.2411
1.5019 -6.8359 2.2411
1.7479 -6.7798 2.2411
1.9659 -6.6279 2.2120
2.1307 -6.3366 2.1380
2.3588 -6.2590 2.1380
2.5841 -6.1735 2.1380
2.8065 -6.0801 2.1380
3.0257 -5.9790 2.1380
3.2413 -5.8703 2.1380
3.4532 -5.7542 2.1380
3.6611 -5.6306 2.1380
3.8647 -5.4997 2.1380
4.0638 -5.3618 2.1380
4.2581 -5.2169 2.1380
4.4474 -5.0651 2.1380
4.6315 -4.9067 2.1380
4.8102 -4.7418 2.1380
4.9831 -4.5706 2.1380
5.1501 -4.3933 2.1380
5.3110 -4.2100 2.1380
5.4655 -4.0211 2.1380
5.6134 -3.8265 2.1380
5.7546 -3.6267 2.1380
5.8889 -3.4218 2.1380
6.1513 -3.2843 2.1861
6.2738 -3.0651 2.1861
6.3886 -2.8415 2.1861
6.4955 -2.6136 2.1861
6.5945 -2.3818 2.1861
6.6853 -2.1464 2.1861
6.7679 -1.9075 2.1861
6.8420 -1.6656 2.1861
6.9075 -1.4208 2.1861
6.9644 -1.1736 2.1861
7.0125 -0.9241 2.1861
7.0517 -0.6727 2.1861
7.0819 -0.4197 2.1861
7.1031 -0.1655 2.1861
7.1152 0.0897 2.1861
6.8875 0.3343 2.1153
6.7748 0.5731 2.0825
6.6572 0.8046 2.0508
6.6232 1.0428 2.0475
6.5914 1.2816 2.0475
6.5509 1.5194 2.0475
6.5605 1.7718 2.0660
6.7632 2.0894 2.1489
6.8095 2.3743 2.1861
6.7296 2.6206 2.1861
6.6407 2.8642 2.1861
6.5428 3.1046 2.1861
6.4361 3.3417 2.1861
6.2378 3.5280 2.1575
5.7494 3.5295 2.0283
5.4848 3.6438 1.9772
5.7931 4.1552 2.1380
5.6475 4.3654 2.1380
5.4940 4.5703 2.1380
5.3330 4.7696 2.1380
5.1645 4.9630 2.1380
4.9889 5.1503 2.1380
4.8063 5.3311 2.1380
4.6170 5.5052 2.1380
4.4212 5.6724 2.1380
4.2192 5.8323 2.1380
4.0112 5.9847 2.1380
3.7976 6.1295 2.1380
3.5786 6.2663 2.1380
3.3545 6.3950 2.1380
2.7236 5.6773 1.8630
2.4785 5.6789 1.8321
2.6549 6.7302 2.1380
2.4137 6.8244 2.1380
2.1815 6.9493 2.1503
1.9918 7.2420 2.2165
1.7513 7.3926 2.2411
1.4862 7.4528 2.2411
1.2190 7.5031 2.2411
0.9500 7.5434 2.2411
0.6797 7.5736 2.2411
0.4084 7.5937 2.2411
0.1365 7.6037 2.2411
-0.1356 7.6035 2.2411
-0.4074 7.5931 2.2411
-0.6787 7.5727 2.2411
-0.9489 7.5421 2.2411
-1.2178 7.5014 2.2411
-1.4849 7.4508 2.2411
-1.7498 7.3903 2.2411
-2.0123 7.3199 2.2411
-2.2718 7.2399 2.2411
-2.5280 7.1502 2.2411
-2.7806 7.0512 2.2411
-3.0292 6.9429 2.2411
-3.2735 6.8254 2.2411
-3.5131 6.6991 2.2411
-3.7477 6.5640 2.2411
-3.9769 6.4205 2.2411
-4.2005 6.2686 2.2411
-4.4182 6.1087 2.2411
-4.6296 5.9409 2.2411
-4.8345 5.7657 2.2411
-5.0326 5.5831 2.2411
-5.2236 5.3935 2.2411
-5.4074 5.1973 2.2411
-5.5836 4.9945 2.2411
-5.7520 4.7857 2.2411
-5.9125 4.5710 2.2411
-6.0572 4.3453 2.2383
-6.0578 4.0252 2.1866
-6.0691 3.7263 2.1439
-6.1731 3.4920 2.1379
-6.2857 3.2640 2.1379
-6.3898 3.0325 2.1379
-6.4853 2.7976 2.1379
-6.5720 2.5596 2.1379
-6.6500 2.3190 2.1379
-6.7190 2.0761 2.1379
-6.7792 1.8311 2.1379
-6.8304 1.5844 2.1379
-6.8726 1.3364 2.1379
-6.9057 1.0874 2.1379
-6.9298 0.8377 2.1379
-6.9450 0.5876 2.1379
-6.9511 0.3375 2.1379
-6.9482 0.0876 2.1379
-6.9364 -0.1616 2.1379
-6.9157 -0.4099 2.1379
-6.8862 -0.6570 2.1379
-6.8480 -0.9025 2.1379
-6.8011 -1.1462 2.1379
-6.7456 -1.3877 2.1379
-6.6817 -1.6267 2.1379
-6.6094 -1.8631 2.1379
-6.5289 -2.0964 2.1379
-6.4403 -2.3264 2.1379
-6.3437 -2.5529 2.1379
-6.2393 -2.7755 2.1379
-6.1273 -2.9940 2.1379
-6.0555 -3.2336 2.1548
-6.0543 -3.5184 2.2008
-6.0247 -3.7974 2.2411
-5.8770 -4.0068 2.2411
-5.7222 -4.2106 2.2411
-5.5606 -4.4086 2.2411
-5.3923 -4.6006 2.2411
-5.2176 -4.7865 2.2411
-5.0366 -4.9660 2.2411
-4.8497 -5.1388 2.2411
-4.6571 -5.3049 2.2411
-4.4590 -5.4640 2.2411
-4.2556 -5.6160 2.2411
-4.0472 -5.7607 2.2411
-3.8341 -5.8980 2.2411
-3.6165 -6.0277 2.2411
-3.3947 -6.1496 2.2411
-3.1689 -6.2637 2.2411
-2.9394 -6.3699 2.2411
-2.7065 -6.4680 2.2411
-2.4705 -6.5579 2.2411
-2.2317 -6.6395 2.2411
-1.9902 -6.7128 2.2411
-1.7464 -6.7776 2.2411
-1.5007 -6.8340 2.2411
-1.2532 -6.8818 2.2411
-1.0042 -6.9211 2.2411
-0.7541 -6.9516 2.2411
-0.5030 -6.9736 2.2411
-0.2515 -6.9868 2.2411
0.0004 -6.4851 2.2411
0.2342 -6.4812 2.2411
0.4676 -6.4692 2.2411
0.7006 -6.4491 2.2411
0.9327 -6.4209 2.2411
1.1638 -6.3847 2.2411
1.3935 -6.3405 2.2411
1.6217 -6.2883 2.2411
1.8479 -6.2282 2.2411
1.9779 -5.8802 2.1392
2.1883 -5.8047 2.1380
2.3973 -5.7251 2.1380
2.6034 -5.6383 2.1380
2.8066 -5.5443 2.1380
3.0065 -5.4432 2.1380
3.2029 -5.3351 2.1380
3.3955 -5.2202 2.1380
3.5841 -5.0986 2.1380
3.7686 -4.9704 2.1380
3.9485 -4.8357 2.1380
4.1238 -4.6947 2.1380
4.2942 -4.5475 2.1380
4.4595 -4.3943 2.1380
4.6195 -4.2353 2.1380
4.7740 -4.0706 2.1380
4.9227 -3.9004 2.1380
5.0656 -3.7250 2.1380
5.2023 -3.5444 2.1380
5.3327 -3.3589 2.1380
5.4566 -3.1688 2.1380
5.5739 -2.9742 2.1380
5.6843 -2.7753 2.1380
5.7878 -2.5724 2.1380
5.8842 -2.3658 2.1380
5.9733 -2.1556 2.1380
6.1912 -1.9858 2.1861
6.2670 -1.7644 2.1861
6.3350 -1.5403 2.1861
6.3951 -1.3135 2.1861
6.4471 -1.0845 2.1861
6.4909 -0.8534 2.1861
6.5266 -0.6207 2.1861
6.5539 -0.3865 2.1861
6.5728 -0.1512 2.1861
6.5833 0.0849 2.1861
6.5854 0.3216 2.1861
6.5789 0.5585 2.1861
6.5639 0.7953 2.1861
6.5404 1.0317 2.1861
6.5082 1.2674 2.1861
6.4676 1.5020 2.1861
6.4184 1.7354 2.1861
6.3608 1.9670 2.1861
6.2947 2.1968 2.1861
6.2202 2.4242 2.1861
6.1374 2.6491 2.1861
5.9134 2.8079 2.1380
5.8164 3.0218 2.1380
5.7115 3.2323 2.1380
5.5990 3.4390 2.1380
5.4788 3.6417 2.1380
5.3511 3.8401 2.1380
5.2161 4.0339 2.1380
5.0740 4.2228 2.1380
4.9249 4.4065 2.1380
4.7689 4.5847 2.1380
4.6064 4.7573 2.1380
4.4375 4.9239 2.1380
4.2624 5.0843 2.1380
4.0814 5.2383 2.1380
3.8947 5.3856 2.1380
3.7025 5.5259 2.1380
3.5051 5.6592 2.1380
3.3028 5.7852 2.1380
3.0958 5.9036 2.1380
2.7197 5.6708 2.0159
2.4750 5.6725 1.9826
2.4498 6.2122 2.1380
2.2272 6.2989 2.1380
2.0022 6.3801 2.1389
1.8582 6.7582 2.2411
1.6158 6.8226 2.2411
1.3712 6.8780 2.2411
1.1247 6.9243 2.2411
0.8765 6.9614 2.2411
0.6271 6.9892 2.2411
0.3768 7.0077 2.2411
0.1260 7.0169 2.2411
-0.1250 7.0167 2.2411
-0.3758 7.0072 2.2411
-0.6261 6.9884 2.2411
-0.8754 6.9603 2.2411
-1.1235 6.9229 2.2411
-1.3700 6.8763 2.2411
-1.6144 6.8206 2.2411
-1.8566 6.7559 2.2411
-2.0961 6.6823 2.2411
-2.3327 6.5998 2.2411
-2.5659 6.5087 2.2411
-2.7954 6.4090 2.2411
-3.0210 6.3010 2.2411
-3.2422 6.1847 2.2411
-3.4589 6.0604 2.2411
-3.6707 5.9282 2.2411
-3.8774 5.7884 2.2411
-4.0785 5.6411 2.2411
-4.2740 5.4866 2.2411
-4.4634 5.3252 2.2411
-4.6467 5.1570 2.2411
-4.8234 4.9824 2.2411
-4.9935 4.8015 2.2411
-5.1566 4.6147 2.2411
-5.3126 4.4222 2.2411
-5.4613 4.2242 2.2411
-5.6025 4.0212 2.2411
-5.7361 3.8134 2.2411
-5.8618 3.6011 2.2411
-5.9796 3.3845 2.2411
-6.0440 3.1406 2.2245
-6.0443 2.8705 2.1881
-6.0456 2.6098 2.1562
-6.0750 2.3680 2.1379
-6.1477 2.1458 2.1379
-6.2122 1.9214 2.1379
-6.2685 1.6951 2.1379
-6.3164 1.4671 2.1379
-6.3561 1.2379 2.1379
-6.3874 1.0077 2.1379
-6.4104 0.7768 2.1379
-6.4250 0.5455 2.1379
-6.4314 0.3141 2.1379
-6.4294 0.0830 2.1379
-6.4191 -0.1477 2.1379
-6.4006 -0.3775 2.1379
-6.3740 -0.6062 2.1379
-6.3392 -0.8336 2.1379
-6.2964 -1.0593 2.1379
-6.2598 -1.2859 2.1427
-6.1871 -1.5045 2.1379
-6.1208 -1.7235 2.1379
-6.0605 -1.9442 2.1427
-6.0514 -2.1841 2.1687
-6.0519 -2.4335 2.2017
-6.0525 -2.6904 2.2385
-5.9512 -2.9060 2.2411
-5.8356 -3.1143 2.2411
-5.7129 -3.3181 2.2411
-5.5833 -3.5173 2.2411
-5.4469 -3.7116 2.2411
-5.3038 -3.9008 2.2411
-5.1544 -4.0847 2.2411
-4.9988 -4.2630 2.2411
-4.8372 -4.4356 2.2411
-4.6698 -4.6023 2.2411
-4.4968 -4.7629 2.2411
-4.3184 -4.9172 2.2411
-4.1350 -5.0651 2.2411
-3.9466 -5.2063 2.2411
-3.7535 -5.3408 2.2411
-3.5561 -5.4684 2.2411
-3.3544 -5.5890 2.2411
-3.1488 -5.7024 2.2411
-2.9395 -5.8085 2.2411
-2.7268 -5.9072 2.2411
-2.5108 -5.9984 2.2411
-2.2920 -6.0820 2.2411
-2.0704 -6.1580 2.2411
-1.8464 -6.2261 2.2411
-1.6203 -6.2864 2.2411
-1.3923 -6.3389 2.2411
-1.1627 -6.3833 2.2411
-0.9317 -6.4198 2.2411
-0.6996 -6.4483 2.2411
-0.4667 -6.4686 2.2411
-0.2333 -6.4809 2.2411
0.0004 -6.0409 2.2411
0.2182 -6.0372 2.2411
0.4358 -6.0260 2.2411
0.6528 -6.0072 2.2411
0.8691 -5.9809 2.2411
1.0844 -5.9471 2.2411
1.2984 -5.9057 2.2411
1.5110 -5.8570 2.2411
1.7217 -5.8009 2.2411
1.9305 -5.7374 2.2411
2.0387 -5.4061 2.1380
2.2333 -5.3318 2.1380
2.4253 -5.2507 2.1380
2.6145 -5.1629 2.1380
2.8006 -5.0686 2.1380
2.9834 -4.9677 2.1380
3.1626 -4.8604 2.1380
3.3382 -4.7469 2.1380
3.5097 -4.6273 2.1380
3.6772 -4.5016 2.1380
3.8402 -4.3700 2.1380
3.9986 -4.2327 2.1380
4.1523 -4.0898 2.1380
4.3010 -3.9415 2.1380
4.4445 -3.7879 2.1380
4.5827 -3.6292 2.1380
4.7153 -3.4657 2.1380
4.8422 -3.2973 2.1380
4.9633 -3.1245 2.1380
5.0782 -2.9473 2.1380
5.1870 -2.7659 2.1380
5.2894 -2.5807 2.1380
5.3852 -2.3917 2.1380
5.4744 -2.1993 2.1380
5.5569 -2.0035 2.1380
5.6324 -1.8048 2.1380
5.7009 -1.6033 2.1380
5.7623 -1.3992 2.1380
5.8164 -1.1929 2.1380
5.8632 -0.9845 2.1380
5.9025 -0.7743 2.1380
5.9344 -0.5626 2.1380
5.9587 -0.3496 2.1380
5.9754 -0.1357 2.1380
5.9844 0.0790 2.1380
5.9857 0.2941 2.1380
5.9793 0.5093 2.1380
5.9651 0.7245 2.1380
5.9432 0.9392 2.1380
5.9135 1.1533 2.1380
5.8760 1.3664 2.1380
5.8308 1.5783 2.1380
5.7780 1.7886 2.1380
5.7174 1.9971 2.1380
5.6493 2.2035 2.1380
5.5736 2.4075 2.1380
5.4905 2.6089 2.1380
5.4000 2.8073 2.1380
5.3022 3.0024 2.1380
5.1973 3.1941 2.1380
5.0854 3.3820 2.1380
4.9665 3.5659 2.1380
4.8408 3.7455 2.1380
4.7086 3.9205 2.1380
4.5699 4.0906 2.1380
4.4249 4.2558 2.1380
4.2738 4.4156 2.1380
4.1168 4.5699 2.1380
3.9542 4.7184 2.1380
3.7860 4.8610 2.1380
3.6126 4.9973 2.1380
3.4341 5.1272 2.1380
3.2509 5.2506 2.1380
3.0631 5.3672 2.1380
2.8710 5.4768 2.1380
2.6749 5.5793 2.1380
0.8580 1.9671 0.7412
2.2717 5.7623 2.1380
2.0652 5.8425 2.1380
1.9452 6.2002 2.2411
1.7229 6.2681 2.2411
1.4982 6.3277 2.2411
1.2714 6.3790 2.2411
1.0428 6.4218 2.2411
0.8127 6.4560 2.2411
0.5814 6.4818 2.2411
0.3494 6.4989 2.2411
0.1168 6.5074 2.2411
-0.1159 6.5073 2.2411
-0.3484 6.4985 2.2411
-0.5804 6.4811 2.2411
-0.8116 6.4551 2.2411
-1.0416 6.4206 2.2411
-1.2702 6.3775 2.2411
-1.4969 6.3260 2.2411
-1.7215 6.2662 2.2411
-1.9436 6.1981 2.2411
-2.1630 6.1218 2.2411
-2.3793 6.0375 2.2411
-0.8577 1.9671 0.7415
-0.9274 1.9350 0.7419
-3.0069 5.7378 2.2411
-3.2080 5.6227 2.2411
-3.4046 5.5004 2.2411
-3.5965 5.3710 2.2411
-3.7833 5.2347 2.2411
-3.9648 5.0917 2.2411
-4.1408 4.9422 2.2411
-4.3111 4.7865 2.2411
-4.4754 4.6248 2.2411
-4.6335 4.4573 2.2411
-4.7852 4.2842 2.2411
-4.9303 4.1059 2.2411
-5.0687 3.9225 2.2411
-5.2002 3.7343 2.2411
-5.3245 3.5417 2.2411
-5.4417 3.3449 2.2411
-5.5514 3.1441 2.2411
-5.6537 2.9397 2.2411
-5.7484 2.7318 2.2411
-5.8353 2.5210 2.2411
-5.9145 2.3073 2.2411
-5.9857 2.0912 2.2411
-6.0454 1.8717 2.2397
-6.0456 1.6367 2.2195
-6.0458 1.4061 2.2026
-6.0461 1.1794 2.1887
-6.0463 0.9557 2.1779
-6.0465 0.7345 2.1699
-6.0468 0.5152 2.1649
-6.0470 0.2972 2.1626
-6.0472 0.0798 2.1632
-6.0474 -0.1373 2.1665
-6.0477 -0.3549 2.1727
-6.0479 -0.5734 2.1817
-6.0484 -0.7935 2.1936
-6.0489 -1.0158 2.2085
-6.0494 -1.2408 2.2264
-6.0326 -1.4651 2.2411
-5.9685 -1.6788 2.2411
-5.8968 -1.8898 2.2411
-5.8178 -2.0979 2.2411
-5.7316 -2.3029 2.2411
-5.6383 -2.5045 2.2411
-5.5380 -2.7024 2.2411
-5.4309 -2.8964 2.2411
-5.3171 -3.0864 2.2411
-5.1968 -3.2720 2.2411
-5.0702 -3.4531 2.2411
-4.9374 -3.6295 2.2411
-4.7986 -3.8009 2.2411
-4.6540 -3.9672 2.2411
-4.5039 -4.1282 2.2411
-4.3482 -4.2837 2.2411
-4.1874 -4.4334 2.2411
-4.0216 -4.5774 2.2411
-3.8509 -4.7154 2.2411
-3.6757 -4.8472 2.2411
-3.4960 -4.9727 2.2411
-3.3123 -5.0917 2.2411
-3.1246 -5.2043 2.2411
-2.9332 -5.3101 2.2411
-2.7383 -5.4092 2.2411
-2.5402 -5.5013 2.2411
-2.3391 -5.5865 2.2411
-2.1353 -5.6645 2.2411
-1.9289 -5.7354 2.2411
-1.7203 -5.7991 2.2411
-1.5097 -5.8554 2.2411
-1.2973 -5.9044 2.2411
-1.0833 -5.9459 2.2411
-0.8681 -5.9800 2.2411
-0.6519 -6.0065 2.2411
-0.4349 -6.0255 2.2411
-0.2173 -6.0370 2.2411
0.0004 -5.6475 2.2411
0.2041 -5.6441 2.2411
0.4075 -5.6336 2.2411
0.6105 -5.6159 2.2411
0.8128 -5.5913 2.2411
1.0141 -5.5596 2.2411
1.2142 -5.5208 2.2411
1.4129 -5.4752 2.2411
1.6100 -5.4226 2.2411
1.8051 -5.3631 2.2411
1.9658 -5.2110 2.2048
2.0882 -4.9836 2.1380
2.2676 -4.9076 2.1380
2.4444 -4.8254 2.1380
2.6183 -4.7370 2.1380
2.7891 -4.6425 2.1380
2.9566 -4.5421 2.1380
3.1205 -4.4358 2.1380
3.2808 -4.3237 2.1380
3.4371 -4.2060 2.1380
3.5893 -4.0828 2.1380
3.7372 -3.9543 2.1380
3.8806 -3.8205 2.1380
4.0194 -3.6817 2.1380
4.1533 -3.5380 2.1380
4.2821 -3.3895 2.1380
4.4058 -3.2365 2.1380
4.5241 -3.0790 2.1380
4.6368 -2.9173 2.1380
4.7439 -2.7516 2.1380
4.8452 -2.5820 2.1380
4.9405 -2.4088 2.1380
5.0297 -2.2321 2.1380
5.1126 -2.0522 2.1380
5.1892 -1.8693 2.1380
5.2594 -1.6836 2.1380
5.3229 -1.4953 2.1380
5.3798 -1.3047 2.1380
5.4299 -1.1119 2.1380
5.4732 -0.9173 2.1380
5.5095 -0.7210 2.1380
5.5388 -0.5234 2.1380
5.5611 -0.3246 2.1380
5.5762 -0.1249 2.1380
5.5842 0.0754 2.1380
5.5850 0.2761 2.1380
5.5785 0.4769 2.1380
5.5649 0.6776 2.1380
5.5440 0.8778 2.1380
5.5158 1.0774 2.1380
5.4804 1.2761 2.1380
5.4379 1.4736 2.1380
5.3881 1.6696 2.1380
5.3313 1.8639 2.1380
5.2673 2.0562 2.1380
5.1964 2.2463 2.1380
5.1185 2.4338 2.1380
5.0338 2.6186 2.1380
4.9423 2.8003 2.1380
4.8442 2.9788 2.1380
4.7395 3.1537 2.1380
4.6284 3.3249 2.1380
4.5110 3.4919 2.1380
4.3875 3.6548 2.1380
4.2580 3.8131 2.1380
4.1227 3.9668 2.1380
3.9817 4.1154 2.1380
3.8352 4.2590 2.1380
3.6835 4.3971 2.1380
3.5266 4.5296 2.1380
3.3649 4.6564 2.1380
3.1986 4.7772 2.1380
3.0278 4.8919 2.1380
2.8527 5.0002 2.1380
2.6738 5.1021 2.1380
0.8657 1.8063 0.7431
0.8007 1.8362 0.7427
0.7346 1.8638 0.7424
0.6675 1.8890 0.7421
0.5996 1.9117 0.7419
0.5309 1.9320 0.7416
0.4615 1.9498 0.7414
0.3916 1.9651 0.7413
0.9709 5.9809 2.2411
0.7567 6.0128 2.2411
0.5414 6.0367 2.2411
0.3253 6.0526 2.2411
0.1088 6.0605 2.2411
-0.1079 6.0604 2.2411
-0.3243 6.0522 2.2411
-0.5404 6.0361 2.2411
-0.7556 6.0119 2.2411
-0.9698 5.9799 2.2411
-0.3912 1.9651 0.7414
-0.4612 1.9498 0.7416
-0.5306 1.9320 0.7418
-0.5993 1.9117 0.7421
-0.6672 1.8890 0.7424
-0.7342 1.8638 0.7427
-0.8004 1.8362 0.7430
-0.8654 1.8063 0.7434
-0.9294 1.7741 0.7438
-2.9878 5.2385 2.2411
-3.1710 5.1249 2.2411
-3.3498 5.0046 2.2411
-3.5240 4.8778 2.2411
-3.6933 4.7449 2.2411
-3.8575 4.6059 2.2411
-4.0163 4.4611 2.2411
-4.1696 4.3107 2.2411
-4.3172 4.1548 2.2411
-4.4588 3.9938 2.2411
-4.5943 3.8279 2.2411
-4.7236 3.6572 2.2411
-4.8464 3.4821 2.2411
-4.9627 3.3028 2.2411
-5.0722 3.1196 2.2411
-5.1749 2.9326 2.2411
-5.2706 2.7423 2.2411
-5.3592 2.5487 2.2411
-5.4407 2.3523 2.2411
-5.5149 2.1532 2.2411
-5.5818 1.9518 2.2411
-5.6413 1.7484 2.2411
-5.6933 1.5431 2.2411
-5.7378 1.3363 2.2411
-5.7748 1.1283 2.2411
-5.8043 0.9192 2.2411
-5.8262 0.7095 2.2411
-5.8405 0.4994 2.2411
-5.8472 0.2891 2.2411
-5.8464 0.0790 2.2411
-5.8380 -0.1308 2.2411
-5.8222 -0.3399 2.2411
-5.7989 -0.5480 2.2411
-5.7683 -0.7550 2.2411
-5.7303 -0.9605 2.2411
-5.6850 -1.1643 2.2411
-5.6326 -1.3662 2.2411
-5.5731 -1.5658 2.2411
-5.5066 -1.7630 2.2411
-5.4332 -1.9575 2.2411
-5.3531 -2.1491 2.2411
-5.2663 -2.3375 2.2411
-5.1730 -2.5225 2.2411
-5.0733 -2.7040 2.2411
-4.9673 -2.8816 2.2411
-4.8553 -3.0553 2.2411
-4.7373 -3.2247 2.2411
-4.6135 -3.3897 2.2411
-4.4841 -3.5501 2.2411
-4.3492 -3.7057 2.2411
-4.2091 -3.8563 2.2411
-4.0639 -4.0018 2.2411
-3.9138 -4.1420 2.2411
-3.7590 -4.2768 2.2411
-3.5996 -4.4060 2.2411
-3.4360 -4.5294 2.2411
-3.2682 -4.6469 2.2411
-3.0965 -4.7584 2.2411
-2.9212 -4.8638 2.2411
-2.7423 -4.9629 2.2411
-2.5602 -5.0557 2.2411
-2.3751 -5.1420 2.2411
-2.1871 -5.2218 2.2411
-1.9966 -5.2949 2.2411
-1.8037 -5.3614 2.2411
-1.6086 -5.4210 2.2411
-1.4117 -5.4738 2.2411
-1.2131 -5.5196 2.2411
-1.0130 -5.5585 2.2411
-0.8118 -5.5905 2.2411
-0.6096 -5.6153 2.2411
-0.4066 -5.6332 2.2411
-0.2032 -5.6439 2.2411
0.0004 -5.2964 2.2411
0.1915 -5.2932 2.2411
0.3824 -5.2833 2.2411
0.5728 -5.2667 2.2411
0.7625 -5.2435 2.2411
0.9513 -5.2137 2.2411
1.1390 -5.1773 2.2411
1.3254 -5.1344 2.2411
1.5102 -5.0849 2.2411
1.6933 -5.0291 2.2411
1.8743 -4.9668 2.2411
1.9703 -4.7006 2.1507
2.1270 -4.6015 2.1380
2.2927 -4.5243 2.1380
2.4557 -4.4412 2.1380
2.6158 -4.3525 2.1380
2.7728 -4.2581 2.1380
2.9264 -4.1582 2.1380
3.0766 -4.0530 2.1380
3.2230 -3.9425 2.1380
3.3656 -3.8268 2.1380
3.5041 -3.7061 2.1380
3.6384 -3.5805 2.1380
3.7683 -3.4502 2.1380
3.8936 -3.3153 2.1380
4.0142 -3.1759 2.1380
4.1299 -3.0322 2.1380
4.2406 -2.8845 2.1380
4.3460 -2.7327 2.1380
4.4461 -2.5772 2.1380
4.5408 -2.4182 2.1380
4.6298 -2.2557 2.1380
4.7131 -2.0900 2.1380
4.7905 -1.9213 2.1380
4.8620 -1.7498 2.1380
4.9274 -1.5757 2.1380
4.9866 -1.3992 2.1380
5.0395 -1.2206 2.1380
5.0861 -1.0399 2.1380
5.1263 -0.8576 2.1380
5.1600 -0.6737 2.1380
5.1870 -0.4886 2.1380
5.2075 -0.3024 2.1380
5.2213 -0.1154 2.1380
5.2284 0.0722 2.1380
5.2288 0.2601 2.1380
5.2224 0.4481 2.1380
5.2092 0.6359 2.1380
5.1893 0.8233 2.1380
5.1626 1.0101 2.1380
5.1291 1.1959 2.1380
5.0889 1.3807 2.1380
5.0420 1.5640 2.1380
4.9885 1.7457 2.1380
4.9283 1.9255 2.1380
4.8616 2.1032 2.1380
4.7885 2.2785 2.1380
4.7089 2.4512 2.1380
4.6230 2.6210 2.1380
4.5310 2.7878 2.1380
4.4328 2.9512 2.1380
4.3286 3.1111 2.1380
4.2186 3.2672 2.1380
4.1028 3.4193 2.1380
3.9815 3.5672 2.1380
3.8548 3.7106 2.1380
3.7228 3.8494 2.1380
3.5856 3.9834 2.1380
3.4436 4.1124 2.1380
3.2968 4.2361 2.1380
3.1455 4.3544 2.1380
2.9899 4.4672 2.1380
2.8301 4.5742 2.1380
2.6664 4.6753 2.1380
0.8705 1.6617 0.7448
0.8106 1.6919 0.7444
0.7497 1.7199 0.7441
0.6878 1.7457 0.7438
0.6250 1.7693 0.7435
0.5614 1.7906 0.7433
0.4971 1.8096 0.7431
0.4321 1.8262 0.7429
0.3666 1.8406 0.7427
0.3006 1.8525 0.7426
0.2343 1.8621 0.7425
0.1676 1.8694 0.7424
0.1007 1.8742 0.7424
0.0337 1.8766 0.7424
-0.0334 1.8766 0.7424
-0.1004 1.8742 0.7424
-0.1673 1.8694 0.7425
-0.2340 1.8621 0.7426
-0.3003 1.8525 0.7427
-0.3663 1.8406 0.7429
-0.4318 1.8262 0.7431
-0.4968 1.8096 0.7433
-0.5611 1.7906 0.7435
-0.6247 1.7693 0.7438
-0.6875 1.7457 0.7441
-0.7494 1.7199 0.7444
-0.8103 1.6919 0.7447
-0.8702 1.6617 0.7451
-0.9290 1.6294 0.7455
-2.9641 4.7922 2.2411
-3.1314 4.6799 2.2411
-3.2943 4.5617 2.2411
-3.4527 4.4376 2.2411
-3.6064 4.3079 2.2411
-3.7551 4.1727 2.2411
-3.8986 4.0322 2.2411
-4.0368 3.8867 2.2411
-4.1694 3.7364 2.2411
-4.2964 3.5814 2.2411
-4.4176 3.4220 2.2411
-4.5327 3.2585 2.2411
-4.6417 3.0910 2.2411
-4.7445 2.9197 2.2411
-4.8408 2.7450 2.2411
-4.9307 2.5671 2.2411
-5.0139 2.3862 2.2411
-5.0905 2.2026 2.2411
-5.1603 2.0165 2.2411
-5.2232 1.8282 2.2411
-5.2792 1.6379 2.2411
-5.3283 1.4459 2.2411
-5.3703 1.2524 2.2411
-5.4053 1.0578 2.2411
-5.4333 0.8622 2.2411
-5.4541 0.6659 2.2411
-5.4679 0.4692 2.2411
-5.4746 0.2724 2.2411
-5.4742 0.0756 2.2411
-5.4668 -0.1208 2.2411
-5.4523 -0.3166 2.2411
-5.4309 -0.5116 2.2411
-5.4026 -0.7055 2.2411
-5.3674 -0.8980 2.2411
-5.3254 -1.0890 2.2411
-5.2766 -1.2782 2.2411
-5.2212 -1.4653 2.2411
-5.1593 -1.6501 2.2411
-5.0908 -1.8325 2.2411
-5.0161 -2.0121 2.2411
-4.9350 -2.1888 2.2411
-4.8479 -2.3624 2.2411
-4.7547 -2.5326 2.2411
-4.6557 -2.6992 2.2411
-4.5509 -2.8621 2.2411
-4.4406 -3.0211 2.2411
-4.3248 -3.1759 2.2411
-4.2037 -3.3265 2.2411
-4.0775 -3.4725 2.2411
-3.9463 -3.6139 2.2411
-3.8104 -3.7505 2.2411
-3.6698 -3.8822 2.2411
-3.5248 -4.0087 2.2411
-3.3755 -4.1300 2.2411
-3.2222 -4.2459 2.2411
-3.0650 -4.3563 2.2411
-2.9041 -4.4611 2.2411
-2.7397 -4.5601 2.2411
-2.5720 -4.6532 2.2411
-2.4013 -4.7403 2.2411
-2.2277 -4.8214 2.2411
-2.0515 -4.8964 2.2411
-1.8728 -4.9651 2.2411
-1.6919 -5.0275 2.2411
-1.5090 -5.0836 2.2411
-1.3242 -5.1331 2.2411
-1.1379 -5.1762 2.2411
-0.9503 -5.2128 2.2411
-0.7615 -5.2428 2.2411
-0.5718 -5.2662 2.2411
-0.3814 -5.2829 2.2411
-0.1906 -5.2930 2.2411
0.0004 -4.9808 2.2411
0.1802 -4.9778 2.2411
0.3597 -4.9684 2.2411
0.5388 -4.9528 2.2411
0.7173 -4.9309 2.2411
0.8949 -4.9028 2.2411
1.0715 -4.8685 2.2411
1.2468 -4.8281 2.2411
1.4206 -4.7815 2.2411
1.5928 -4.7288 2.2411
1.7630 -4.6702 2.2411
1.9311 -4.6056 2.2411
2.0005 -4.3265 2.1380
2.1702 -4.2810 2.1517
2.3096 -4.1754 2.1380
2.4601 -4.0919 2.1380
2.6076 -4.0030 2.1380
2.7521 -3.9089 2.1380
2.8932 -3.8098 2.1380
3.0308 -3.7057 2.1380
3.1647 -3.5968 2.1380
3.2948 -3.4832 2.1380
3.4210 -3.3650 2.1380
3.5429 -3.2423 2.1380
3.6606 -3.1153 2.1380
3.7738 -2.9841 2.1380
3.8823 -2.8489 2.1380
3.9861 -2.7099 2.1380
4.0851 -2.5671 2.1380
4.1789 -2.4208 2.1380
4.2677 -2.2712 2.1380
4.3511 -2.1184 2.1380
4.4291 -1.9625 2.1380
4.5016 -1.8039 2.1380
4.5685 -1.6427 2.1380
4.6297 -1.4790 2.1380
4.6850 -1.3131 2.1380
4.7345 -1.1451 2.1380
4.7780 -0.9754 2.1380
4.8154 -0.8040 2.1380
4.8467 -0.6313 2.1380
4.8719 -0.4573 2.1380
4.8908 -0.2824 2.1380
4.9034 -0.1068 2.1380
4.9098 0.0693 2.1380
4.9098 0.2457 2.1380
4.9035 0.4222 2.1380
4.8909 0.5986 2.1380
4.8718 0.7745 2.1380
4.8465 0.9498 2.1380
4.8147 1.1242 2.1380
4.7767 1.2975 2.1380
4.7324 1.4695 2.1380
4.6819 1.6399 2.1380
4.6251 1.8086 2.1380
4.5623 1.9752 2.1380
4.4933 2.1396 2.1380
4.4184 2.3015 2.1380
4.3376 2.4608 2.1380
4.2510 2.6171 2.1380
4.1586 2.7703 2.1380
4.0607 2.9201 2.1380
3.9573 3.0664 2.1380
3.8485 3.2089 2.1380
3.7345 3.3474 2.1380
3.6155 3.4818 2.1380
3.4915 3.6118 2.1380
3.3627 3.7374 2.1380
3.2294 3.8581 2.1380
3.0917 3.9740 2.1380
2.9497 4.0848 2.1380
2.8036 4.1904 2.1380
2.6537 4.2906 2.1380
0.8727 1.5307 0.7463
0.8175 1.5611 0.7460
0.7613 1.5894 0.7456
0.7041 1.6157 0.7453
0.6459 1.6399 0.7451
0.5870 1.6621 0.7448
0.5272 1.6821 0.7446
0.4668 1.6999 0.7444
0.4058 1.7156 0.7442
0.3443 1.7290 0.7441
0.2823 1.7403 0.7440
0.2200 1.7493 0.7439
0.1574 1.7560 0.7438
0.0946 1.7606 0.7437
0.0316 1.7628 0.7437
-0.0313 1.7628 0.7437
-0.0943 1.7606 0.7438
-0.1571 1.7561 0.7439
-0.2197 1.7493 0.7439
-0.2820 1.7403 0.7441
-0.3440 1.7290 0.7442
-0.4055 1.7156 0.7444
-0.4665 1.6999 0.7446
-0.5269 1.6821 0.7448
-0.5866 1.6621 0.7450
-0.6456 1.6399 0.7453
-0.7037 1.6157 0.7456
-0.7610 1.5894 0.7459
-0.8172 1.5611 0.7463
-0.8724 1.5307 0.7467
-0.9265 1.4984 0.7471
-0.9793 1.4642 0.7475
-3.0892 4.2794 2.2411
-3.2379 4.1632 2.2411
-3.3821 4.0417 2.2411
-3.5217 3.9151 2.2411
-3.6565 3.7835 2.2411
-3.7863 3.6472 2.2411
-3.9109 3.5064 2.2411
-4.0302 3.3612 2.2411
-4.1441 3.2118 2.2411
-4.2523 3.0586 2.2411
-4.3548 2.9016 2.2411
-4.4515 2.7411 2.2411
-4.5421 2.5773 2.2411
-4.6267 2.4105 2.2411
-4.7051 2.2409 2.2411
-4.7772 2.0687 2.2411
-4.8430 1.8941 2.2411
-4.9024 1.7175 2.2411
-4.9553 1.5390 2.2411
-5.0016 1.3589 2.2411
-5.0414 1.1773 2.2411
-5.0746 0.9947 2.2411
-5.1011 0.8111 2.2411
-5.1210 0.6269 2.2411
-5.1343 0.4422 2.2411
-5.1409 0.2574 2.2411
-5.1409 0.0726 2.2411
-5.1342 -0.1118 2.2411
-5.1210 -0.2958 2.2411
-5.1012 -0.4789 2.2411
-5.0749 -0.6611 2.2411
-5.0421 -0.8420 2.2411
-5.0029 -1.0215 2.2411
-4.9574 -1.1993 2.2411
-4.9057 -1.3751 2.2411
-4.8478 -1.5489 2.2411
-4.7838 -1.7204 2.2411
-4.7138 -1.8893 2.2411
-4.6379 -2.0554 2.2411
-4.5562 -2.2187 2.2411
-4.4689 -2.3788 2.2411
-4.3761 -2.5355 2.2411
-4.2778 -2.6888 2.2411
-4.1743 -2.8384 2.2411
-4.0657 -2.9841 2.2411
-3.9520 -3.1257 2.2411
-3.8335 -3.2632 2.2411
-3.7104 -3.3963 2.2411
-3.5827 -3.5249 2.2411
-3.4507 -3.6488 2.2411
-3.3144 -3.7680 2.2411
-3.1742 -3.8822 2.2411
-3.0301 -3.9913 2.2411
-2.8824 -4.0953 2.2411
-2.7312 -4.1939 2.2411
-2.5766 -4.2872 2.2411
-2.4190 -4.3749 2.2411
-2.2585 -4.4570 2.2411
-2.0953 -4.5334 2.2411
-1.9296 -4.6040 2.2411
-1.7616 -4.6687 2.2411
-1.5914 -4.7275 2.2411
-1.4194 -4.7803 2.2411
-1.2456 -4.8270 2.2411
-1.0704 -4.8676 2.2411
-0.8939 -4.9020 2.2411
-0.7163 -4.9303 2.2411
-0.5379 -4.9523 2.2411
-0.3588 -4.9681 2.2411
-0.1793 -4.9776 2.2411
0.0004 -4.6953 2.2411
0.1699 -4.6924 2.2411
0.3392 -4.6836 2.2411
0.5081 -4.6688 2.2411
0.6764 -4.6482 2.2411
0.8439 -4.6216 2.2411
1.0104 -4.5892 2.2411
1.1757 -4.5510 2.2411
1.3395 -4.5070 2.2411
1.5018 -4.4573 2.2411
1.6623 -4.4019 2.2411
1.8208 -4.3409 2.2411
1.9657 -4.2496 2.2281
2.0331 -4.0090 2.1380
2.1787 -3.9372 2.1392
2.3193 -3.8562 2.1380
2.4584 -3.7723 2.1380
2.5944 -3.6835 2.1380
2.7273 -3.5900 2.1380
2.8570 -3.4917 2.1380
2.9831 -3.3889 2.1380
3.1056 -3.2817 2.1380
3.2244 -3.1701 2.1380
3.3392 -3.0544 2.1380
3.4500 -2.9346 2.1380
3.5565 -2.8108 2.1380
3.6587 -2.6833 2.1380
3.7563 -2.5521 2.1380
3.8493 -2.4175 2.1380
3.9376 -2.2796 2.1380
4.0210 -2.1385 2.1380
4.0994 -1.9944 2.1380
4.1727 -1.8475 2.1380
4.2408 -1.6979 2.1380
4.3036 -1.5459 2.1380
4.3610 -1.3917 2.1380
4.4129 -1.2353 2.1380
4.4592 -1.0771 2.1380
4.4999 -0.9171 2.1380
4.5349 -0.7557 2.1380
4.5642 -0.5930 2.1380
4.5876 -0.4292 2.1380
4.6052 -0.2645 2.1380
4.6168 -0.0991 2.1380
4.6225 0.0667 2.1380
4.6223 0.2328 2.1380
4.6161 0.3990 2.1380
4.6039 0.5649 2.1380
4.5857 0.7305 2.1380
4.5616 0.8954 2.1380
4.5315 1.0595 2.1380
4.4955 1.2226 2.1380
4.4535 1.3844 2.1380
4.4057 1.5447 2.1380
4.3521 1.7033 2.1380
4.2927 1.8600 2.1380
4.2276 2.0146 2.1380
4.1569 2.1668 2.1380
4.0807 2.3165 2.1380
3.9990 2.4634 2.1380
3.9119 2.6074 2.1380
3.8196 2.7482 2.1380
3.7222 2.8857 2.1380
3.6197 3.0196 2.1380
3.5123 3.1498 2.1380
3.4002 3.2760 2.1380
3.2835 3.3982 2.1380
3.1623 3.5160 2.1380
3.0368 3.6295 2.1380
2.9071 3.7383 2.1380
2.7735 3.8423 2.1380
2.6361 3.9415 2.1380
0.8726 1.4113 0.7477
0.8217 1.4417 0.7474
0.7697 1.4703 0.7470
0.7168 1.4970 0.7467
0.6629 1.5218 0.7465
0.6082 1.5446 0.7462
0.5526 1.5654 0.7460
0.4964 1.5842 0.7458
0.4395 1.6010 0.7456
0.3821 1.6158 0.7454
0.3242 1.6285 0.7453
0.2658 1.6390 0.7451
0.2072 1.6475 0.7451
0.1482 1.6539 0.7450
0.0891 1.6582 0.7450
0.0298 1.6603 0.7449
-0.0295 1.6603 0.7450
-0.0888 1.6581 0.7450
-0.1479 1.6539 0.7451
-0.2068 1.6475 0.7451
-0.2655 1.6390 0.7453
-0.3239 1.6284 0.7454
-0.3818 1.6158 0.7456
-0.4392 1.6010 0.7457
-0.4961 1.5842 0.7460
-0.5523 1.5654 0.7462
-0.6078 1.5446 0.7464
-0.6626 1.5218 0.7467
-0.7165 1.4970 0.7470
-0.7694 1.4703 0.7474
-0.8214 1.4418 0.7477
-0.8723 1.4113 0.7481
-0.9221 1.3791 0.7485
-0.9706 1.3451 0.7489
-3.0447 3.9164 2.2411
-3.1805 3.8023 2.2411
-3.3119 3.6834 2.2411
-3.4387 3.5598 2.2411
-3.5610 3.4318 2.2411
-3.6783 3.2995 2.2411
-3.7907 3.1630 2.2411
-3.8980 3.0227 2.2411
-4.0000 2.8787 2.2411
-4.0966 2.7311 2.2411
-4.1877 2.5803 2.2411
-4.2732 2.4263 2.2411
-4.3530 2.2695 2.2411
-4.4270 2.1100 2.2411
-4.4951 1.9481 2.2411
-4.5573 1.7840 2.2411
-4.6134 1.6178 2.2411
-4.6634 1.4499 2.2411
-4.7073 1.2805 2.2411
-4.7450 1.1097 2.2411
-4.7765 0.9378 2.2411
-4.8018 0.7651 2.2411
-4.8208 0.5917 2.2411
-4.8335 0.4179 2.2411
-4.8400 0.2439 2.2411
-4.8403 0.0699 2.2411
-4.8343 -0.1038 2.2411
-4.8221 -0.2770 2.2411
-4.8037 -0.4495 2.2411
-4.7792 -0.6210 2.2411
-4.7486 -0.7915 2.2411
-4.7120 -0.9605 2.2411
-4.6694 -1.1280 2.2411
-4.6209 -1.2938 2.2411
-4.5666 -1.4576 2.2411
-4.5065 -1.6191 2.2411
-4.4408 -1.7784 2.2411
-4.3696 -1.9350 2.2411
-4.2929 -2.0889 2.2411
-4.2108 -2.2399 2.2411
-4.1235 -2.3877 2.2411
-4.0311 -2.5322 2.2411
-3.9338 -2.6733 2.2411
-3.8315 -2.8107 2.2411
-3.7246 -2.9443 2.2411
-3.6131 -3.0740 2.2411
-3.4971 -3.1996 2.2411
-3.3769 -3.3210 2.2411
-3.2526 -3.4379 2.2411
-3.1243 -3.5503 2.2411
-2.9922 -3.6581 2.2411
-2.8565 -3.7611 2.2411
-2.7173 -3.8592 2.2411
-2.5748 -3.9524 2.2411
-2.4292 -4.0404 2.2411
-2.2807 -4.1232 2.2411
-2.1294 -4.2007 2.2411
-1.9756 -4.2728 2.2411
-1.8193 -4.3395 2.2411
-1.6609 -4.4006 2.2411
-1.5005 -4.4561 2.2411
-1.3383 -4.5059 2.2411
-1.1745 -4.5501 2.2411
-1.0093 -4.5884 2.2411
-0.8429 -4.6209 2.2411
-0.6754 -4.6476 2.2411
-0.5072 -4.6684 2.2411
-0.3383 -4.6833 2.2411
-0.1690 -4.6922 2.2411
0.0004 -4.4355 2.2411
0.1606 -4.4328 2.2411
0.3206 -4.4244 2.2411
0.4802 -4.4104 2.2411
0.6392 -4.3909 2.2411
0.7975 -4.3658 2.2411
0.9548 -4.3351 2.2411
1.1109 -4.2989 2.2411
1.2658 -4.2573 2.2411
1.4191 -4.2103 2.2411
1.5707 -4.1579 2.2411
1.7205 -4.1001 2.2411
1.8681 -4.0372 2.2411
1.9657 -3.8746 2.1878
2.0574 -3.7165 2.1380
2.1913 -3.6419 2.1380
2.3226 -3.5625 2.1380
2.4510 -3.4786 2.1380
2.5765 -3.3901 2.1380
2.6989 -3.2972 2.1380
2.8180 -3.2000 2.1380
2.9337 -3.0985 2.1380
3.0457 -2.9930 2.1380
3.1541 -2.8836 2.1380
3.2586 -2.7703 2.1380
3.3590 -2.6533 2.1380
3.4554 -2.5328 2.1380
3.5475 -2.4088 2.1380
3.6352 -2.2816 2.1380
3.7184 -2.1512 2.1380
3.7969 -2.0179 2.1380
3.8708 -1.8817 2.1380
3.9398 -1.7429 2.1380
4.0039 -1.6017 2.1380
4.0630 -1.4581 2.1380
4.1170 -1.3124 2.1380
4.1658 -1.1647 2.1380
4.2093 -1.0153 2.1380
4.2476 -0.8643 2.1380
4.2804 -0.7119 2.1380
4.3078 -0.5583 2.1380
4.3296 -0.4036 2.1380
4.3460 -0.2482 2.1380
4.3568 -0.0921 2.1380
4.3619 0.0644 2.1380
4.3615 0.2211 2.1380
4.3554 0.3779 2.1380
4.3437 0.5344 2.1380
4.3263 0.6906 2.1380
4.3033 0.8461 2.1380
4.2747 1.0009 2.1380
4.2405 1.1547 2.1380
4.2007 1.3072 2.1380
4.1554 1.4583 2.1380
4.1047 1.6079 2.1380
4.0485 1.7556 2.1380
3.9869 1.9013 2.1380
3.9200 2.0447 2.1380
3.8479 2.1858 2.1380
3.7707 2.3242 2.1380
3.6885 2.4599 2.1380
3.6013 2.5926 2.1380
3.5093 2.7220 2.1380
3.4125 2.8482 2.1380
3.3112 2.9708 2.1380
3.2054 3.0897 2.1380
3.0952 3.2047 2.1380
2.9808 3.3157 2.1380
2.8624 3.4225 2.1380
2.7401 3.5250 2.1380
0.9163 1.2699 0.7494
0.8704 1.3019 0.7490
0.8234 1.3323 0.7487
0.7754 1.3610 0.7483
0.7264 1.3880 0.7480
0.6764 1.4131 0.7477
0.6255 1.4365 0.7475
0.5739 1.4580 0.7472
0.5215 1.4777 0.7470
0.4685 1.4955 0.7468
0.4148 1.5113 0.7466
0.3606 1.5252 0.7465
0.3059 1.5372 0.7463
0.2509 1.5472 0.7462
0.1955 1.5552 0.7462
0.1399 1.5612 0.7461
0.0841 1.5652 0.7461
0.0281 1.5672 0.7460
-0.0278 1.5672 0.7461
-0.0837 1.5652 0.7461
-0.1396 1.5612 0.7462
-0.1952 1.5552 0.7462
-0.2506 1.5472 0.7463
-0.3056 1.5372 0.7465
-0.3603 1.5252 0.7466
-0.4145 1.5113 0.7468
