ply
format ascii 1.0
element vertex 2176
property float32 x
property float32 y
property float32 z
end_header
8.3169 -2.4400 2.2682
8.3665 -2.1296 2.2682
8.4059 -1.8191 2.2682
8.4353 -1.5086 2.2682
8.4547 -1.1986 2.2682
8.4643 -0.8892 2.2682
8.4641 -0.5807 2.2682
8.4541 -0.2734 2.2682
8.4345 0.0325 2.2682
8.4054 0.3368 2.2682
8.3669 0.6391 2.2682
8.3190 0.9394 2.2682
8.2619 1.2373 2.2682
8.1957 1.5326 2.2682
8.1204 1.8252 2.2682
8.0361 2.1147 2.2682
7.9431 2.4010 2.2682
7.8413 2.6839 2.2682
7.7309 2.9632 2.2682
7.6121 3.2386 2.2682
7.4848 3.5100 2.2682
7.3492 3.7771 2.2682
7.2055 4.0398 2.2682
7.0537 4.2979 2.2682
6.8940 4.5511 2.2682
6.7265 4.7993 2.2682
6.5513 5.0423 2.2682
6.3685 5.2799 2.2682
6.1783 5.5119 2.2682
5.8307 5.5941 2.2113
5.5136 5.6874 2.1651
5.3114 5.8917 2.1651
5.1027 6.0899 2.1651
4.8875 6.2819 2.1651
4.6660 6.4674 2.1651
4.4383 6.6463 2.1651
4.2045 6.8184 2.1651
3.9649 6.9835 2.1651
3.7195 7.1414 2.1651
3.4686 7.2919 2.1651
3.2123 7.4349 2.1651
2.9507 7.5702 2.1651
2.6840 7.6976 2.1651
2.4125 7.8168 2.1651
2.1363 7.9278 2.1651
1.8556 8.0303 2.1651
1.5706 8.1241 2.1651
1.2815 8.2092 2.1651
0.9886 8.2852 2.1651
0.6921 8.3520 2.1651
0.3921 8.4095 2.1651
0.0891 8.4574 2.1651
-0.2169 8.4956 2.1651
-0.5254 8.5239 2.1651
-0.8363 8.5421 2.1651
-1.1493 8.5501 2.1651
-1.3423 7.8373 1.9852
-1.7801 8.5349 2.1651
-2.0973 8.5113 2.1651
-2.2913 8.0416 2.0539
-2.7219 8.3950 2.1557
-3.0374 8.3344 2.1546
-3.3706 8.3078 2.1651
-3.6881 8.2290 2.1651
-4.0046 8.1388 2.1651
-4.3196 8.0371 2.1651
-4.6327 7.9239 2.1651
-4.9576 7.8216 2.1714
-5.4189 7.9073 2.2342
-5.8207 7.8727 2.2682
-6.1362 7.7055 2.2682
-6.4472 7.5262 2.2682
-6.7534 7.3347 2.2682
-7.0542 7.1311 2.2682
-7.3490 6.9155 2.2682
-7.6375 6.6881 2.2682
-7.9189 6.4489 2.2682
-8.1929 6.1981 2.2682
-8.4587 5.9359 2.2682
-8.7160 5.6625 2.2682
-8.9641 5.3781 2.2682
-9.2025 5.0830 2.2682
-9.4306 4.7776 2.2682
-9.6479 4.4621 2.2682
-9.8539 4.1369 2.2682
-10.0481 3.8024 2.2682
-10.2299 3.4591 2.2682
-10.3988 3.1074 2.2682
-10.5545 2.7477 2.2682
-10.6963 2.3806 2.2682
-10.8238 2.0068 2.2682
-10.9368 1.6266 2.2682
-11.0346 1.2409 2.2682
-11.1170 0.8501 2.2682
-11.1837 0.4550 2.2682
-11.2343 0.0563 2.2682
-11.2687 -0.3453 2.2682
-11.2864 -0.7491 2.2682
-11.2874 -1.1544 2.2682
-11.2715 -1.5603 2.2682
-11.2385 -1.9661 2.2682
-11.1885 -2.3709 2.2682
-11.1214 -2.7741 2.2682
-11.0373 -3.1747 2.2682
-10.9361 -3.5720 2.2682
-10.8180 -3.9651 2.2682
-10.1977 -4.1554 2.1651
-10.0532 -4.5204 2.1651
-9.8932 -4.8792 2.1651
-9.7180 -5.2309 2.1651
-9.5278 -5.5750 2.1651
-9.3232 -5.9107 2.1651
-9.1044 -6.2373 2.1651
-8.8720 -6.5542 2.1651
-6.7110 -5.3375 1.6843
-8.3681 -7.1564 2.1650
-8.0977 -7.4405 2.1650
-7.8158 -7.7126 2.1650
-7.5231 -7.9722 2.1650
-7.2642 -8.2691 2.1782
-1.1185 -1.3686 0.3506
-1.0539 -1.3876 0.3464
-1.0000 -1.4189 0.3461
-0.9321 -1.4281 0.3410
-0.8692 -1.4414 0.3376
-5.2395 -9.4336 2.1713
-4.8705 -9.5565 2.1658
-4.5064 -9.6804 2.1641
-4.1417 -9.7953 2.1638
-3.7727 -9.8917 2.1628
-3.3983 -9.9636 2.1599
-3.0233 -10.0203 2.1569
-2.6509 -10.0723 2.1562
-2.2793 -10.1137 2.1565
-1.9080 -10.1407 2.1569
-1.5375 -10.1536 2.1574
-1.1412 -9.9160 2.1077
-0.6446 -8.1560 1.7367
-0.3547 -8.2154 1.7550
-0.0677 -8.2743 1.9715
0.2296 -8.3352 1.9968
0.5319 -8.3972 2.0253
0.8403 -8.4605 2.0572
1.1557 -8.5251 2.0927
1.4792 -8.5915 2.1320
1.8119 -8.6597 2.1754
2.1118 -8.5540 2.1782
2.4032 -8.4267 2.1782
2.6884 -8.2895 2.1782
2.8471 -7.8138 2.0902
2.9551 -7.2874 1.9875
3.2381 -7.2302 2.0134
3.5899 -7.3024 2.0795
3.9620 -7.3787 2.1522
4.2517 -7.2792 2.1782
4.4854 -7.0830 2.1782
4.7109 -6.8798 2.1782
4.9280 -6.6699 2.1782
5.1053 -6.4146 2.1650
5.3041 -6.1939 2.1650
5.4941 -5.9678 2.1650
5.6754 -5.7364 2.1650
5.8479 -5.5002 2.1650
6.0114 -5.2596 2.1650
6.1662 -5.0149 2.1651
6.3116 -4.7662 2.1651
6.4480 -4.5140 2.1651
6.5752 -4.2586 2.1651
6.6934 -4.0003 2.1651
6.8024 -3.7394 2.1651
6.9023 -3.4763 2.1651
6.9931 -3.2112 2.1651
7.0748 -2.9444 2.1651
7.4877 -2.8037 2.2682
7.5543 -2.5215 2.2682
7.6115 -2.2385 2.2682
7.6592 -1.9548 2.2682
7.6977 -1.6708 2.2682
7.7268 -1.3867 2.2682
7.7468 -1.1027 2.2682
7.7576 -0.8192 2.2682
7.7593 -0.5364 2.2682
7.7519 -0.2545 2.2682
7.7357 0.0262 2.2682
7.7105 0.3056 2.2682
7.6766 0.5833 2.2682
7.6340 0.8591 2.2682
7.5828 1.1329 2.2682
7.5231 1.4044 2.2682
7.4549 1.6734 2.2682
7.3785 1.9396 2.2682
7.2937 2.2030 2.2682
7.2009 2.4632 2.2682
7.1000 2.7200 2.2682
6.9912 2.9734 2.2682
6.8745 3.2230 2.2682
6.7502 3.4687 2.2682
6.6182 3.7102 2.2682
6.4787 3.9475 2.2682
6.3318 4.1803 2.2682
6.1777 4.4084 2.2682
6.0164 4.6316 2.2682
5.8481 4.8497 2.2682
5.6729 5.0626 2.2682
5.4909 5.2701 2.2682
5.3023 5.4719 2.2682
5.1071 5.6680 2.2682
4.8525 5.7947 2.2437
4.5532 5.8561 2.1984
4.2801 5.9370 2.1651
4.0703 6.1003 2.1651
3.8550 6.2572 2.1651
3.6342 6.4076 2.1651
3.4083 6.5512 2.1651
3.1773 6.6879 2.1651
2.9413 6.8175 2.1651
2.7007 6.9399 2.1651
2.4554 7.0549 2.1651
2.2058 7.1623 2.1651
1.9521 7.2619 2.1651
1.6943 7.3537 2.1651
1.4327 7.4374 2.1651
1.1676 7.5128 2.1651
0.8990 7.5798 2.1651
0.6274 7.6383 2.1651
0.3528 7.6881 2.1651
0.0756 7.7290 2.1651
-0.2041 7.7609 2.1651
-0.4860 7.7837 2.1651
-0.7697 7.7971 2.1651
-1.0551 7.8012 2.1651
-1.3418 7.7956 2.1651
-1.6296 7.7805 2.1651
-1.9181 7.7555 2.1651
-2.2070 7.7206 2.1651
-2.4960 7.6757 2.1651
-2.7848 7.6207 2.1651
-3.0731 7.5555 2.1651
-3.3683 7.4976 2.1702
-3.7289 7.5616 2.2141
-4.1151 7.6405 2.2667
-4.4137 7.5340 2.2682
-4.7069 7.4114 2.2682
-4.9971 7.2779 2.2682
-5.2839 7.1335 2.2682
-5.5670 6.9781 2.2682
-5.8457 6.8119 2.2682
-6.1197 6.6348 2.2682
-6.3885 6.4470 2.2682
-6.6516 6.2486 2.2682
-6.9087 6.0396 2.2682
-7.1591 5.8202 2.2682
-7.4025 5.5906 2.2682
-7.6384 5.3510 2.2682
-7.8662 5.1015 2.2682
-8.0856 4.8424 2.2682
-8.2960 4.5741 2.2682
-8.4971 4.2967 2.2682
-8.6882 4.0105 2.2682
-8.8690 3.7160 2.2682
-9.0391 3.4134 2.2682
-9.1979 3.1032 2.2682
-9.3452 2.7858 2.2682
-9.4804 2.4617 2.2682
-9.6033 2.1312 2.2682
-9.7133 1.7950 2.2682
-9.8103 1.4534 2.2682
-9.8939 1.1072 2.2682
-9.9637 0.7568 2.2682
-10.0195 0.4028 2.2682
-10.0611 0.0458 2.2682
-10.0882 -0.3135 2.2682
-10.1007 -0.6746 2.2682
-10.0985 -1.0367 2.2682
-10.0813 -1.3992 2.2682
-10.0492 -1.7613 2.2682
-10.0020 -2.1226 2.2682
-9.9399 -2.4821 2.2682
-9.4144 -2.7103 2.1651
-9.3265 -3.0483 2.1651
-9.2245 -3.3828 2.1651
-9.1084 -3.7130 2.1651
-8.9785 -4.0383 2.1651
-8.8351 -4.3581 2.1651
-8.6782 -4.6718 2.1651
-8.5084 -4.9787 2.1651
-8.3258 -5.2782 2.1651
-8.1308 -5.5698 2.1650
-7.9238 -5.8528 2.1650
-6.7122 -5.3372 1.8860
-7.4756 -6.3913 2.1650
-7.2352 -6.6457 2.1650
-7.0275 -6.9318 2.1782
-6.7658 -7.1663 2.1782
-6.4949 -7.3894 2.1782
-1.1194 -1.3689 0.3923
-1.0542 -1.3871 0.3874
-5.6329 -7.9868 2.1782
-5.3292 -8.1581 2.1775
-5.0152 -8.3092 2.1748
-4.6986 -8.4511 2.1732
-4.3779 -8.5803 2.1718
-4.0503 -8.6895 2.1688
-3.7201 -8.7855 2.1659
-3.3895 -8.8727 2.1642
-3.0592 -8.9529 2.1642
-2.7271 -9.0194 2.1640
-2.3923 -9.0673 2.1626
-2.0587 -9.1076 2.1626
-1.7249 -9.1347 2.1626
-1.3916 -9.1487 2.1626
-1.0594 -9.1497 2.1626
-0.6504 -8.1548 1.9300
-0.3607 -8.2142 1.9492
-0.0738 -8.2625 2.1663
0.2202 -8.2243 2.1671
0.5114 -8.1755 2.1679
0.7998 -8.1191 2.1695
1.0855 -8.0572 2.1725
1.3679 -7.9850 2.1756
1.6463 -7.9013 2.1782
1.9181 -7.7982 2.1782
2.1847 -7.6856 2.1782
2.4459 -7.5640 2.1782
2.7012 -7.4336 2.1782
2.9505 -7.2947 2.1782
3.1935 -7.1476 2.1782
3.4300 -6.9927 2.1782
3.6596 -6.8302 2.1782
3.8823 -6.6605 2.1782
4.0978 -6.4839 2.1782
4.2798 -6.2623 2.1650
4.4793 -6.0741 2.1650
4.6712 -5.8799 2.1650
4.8553 -5.6801 2.1650
5.0316 -5.4750 2.1650
5.2000 -5.2650 2.1650
5.3603 -5.0504 2.1651
5.5125 -4.8314 2.1651
5.6565 -4.6084 2.1651
5.7923 -4.3817 2.1651
5.9198 -4.1515 2.1651
6.0389 -3.9182 2.1651
6.1497 -3.6820 2.1651
6.2521 -3.4433 2.1651
6.3461 -3.2023 2.1651
6.4318 -2.9593 2.1651
6.6362 -2.7676 2.2074
6.8910 -2.5858 2.2682
6.9544 -2.3266 2.2682
7.0090 -2.0664 2.2682
7.0549 -1.8054 2.2682
7.0922 -1.5440 2.2682
7.1208 -1.2823 2.2682
7.1409 -1.0207 2.2682
7.1524 -0.7593 2.2682
7.1555 -0.4984 2.2682
7.1502 -0.2383 2.2682
7.1365 0.0208 2.2682
7.1146 0.2788 2.2682
7.0844 0.5353 2.2682
7.0461 0.7902 2.2682
6.9998 1.0433 2.2682
6.9455 1.2942 2.2682
6.8834 1.5430 2.2682
6.8134 1.7892 2.2682
6.7357 2.0327 2.2682
6.6504 2.2734 2.2682
6.5576 2.5110 2.2682
6.4574 2.7454 2.2682
6.3498 2.9762 2.2682
6.2350 3.2035 2.2682
6.1131 3.4269 2.2682
5.9842 3.6462 2.2682
5.8484 3.8614 2.2682
5.7058 4.0722 2.2682
5.5565 4.2784 2.2682
5.4007 4.4799 2.2682
5.2384 4.6764 2.2682
5.0699 4.8679 2.2682
4.8951 5.0541 2.2682
4.7143 5.2348 2.2682
4.5276 5.4099 2.2682
4.3351 5.5792 2.2682
4.1369 5.7426 2.2682
3.9333 5.8998 2.2682
3.7111 6.0293 2.2602
3.4470 6.0838 2.2274
3.1891 6.1370 2.1980
2.9396 6.1956 2.1740
2.7092 6.2887 2.1651
2.4866 6.4003 2.1651
2.2598 6.5049 2.1651
2.0291 6.6024 2.1651
1.7946 6.6927 2.1651
1.5565 6.7756 2.1651
1.3150 6.8509 2.1651
1.0703 6.9185 2.1651
0.8226 6.9782 2.1651
0.5722 7.0300 2.1651
0.3193 7.0736 2.1651
0.0640 7.1090 2.1651
-0.1933 7.1360 2.1651
-0.4524 7.1545 2.1651
-0.7131 7.1644 2.1651
-0.9751 7.1656 2.1651
-1.2382 7.1579 2.1651
-1.5020 7.1412 2.1651
-1.7785 7.1647 2.1801
-2.0712 7.2219 2.2083
-2.3760 7.2848 2.2415
-2.6808 7.3159 2.2682
-2.9565 7.2503 2.2682
-3.2310 7.1749 2.2682
-3.5040 7.0896 2.2682
-3.7752 6.9943 2.2682
-4.0442 6.8891 2.2682
-4.3106 6.7740 2.2682
-4.5740 6.6489 2.2682
-4.8341 6.5140 2.2682
-5.0904 6.3691 2.2682
-5.3425 6.2145 2.2682
-5.5901 6.0501 2.2682
-5.8328 5.8760 2.2682
-6.0701 5.6924 2.2682
-6.3015 5.4993 2.2682
-6.5268 5.2970 2.2682
-6.7454 5.0855 2.2682
-6.9570 4.8652 2.2682
-7.1612 4.6361 2.2682
-7.3574 4.3984 2.2682
-7.5454 4.1526 2.2682
-7.7247 3.8988 2.2682
-7.8950 3.6372 2.2682
-8.0557 3.3684 2.2682
-8.2066 3.0925 2.2682
-8.3473 2.8099 2.2682
-8.4775 2.5211 2.2682
-8.5967 2.2263 2.2682
-8.7047 1.9262 2.2682
-8.8012 1.6210 2.2682
-8.8858 1.3113 2.2682
-8.9583 0.9975 2.2682
-9.0185 0.6803 2.2682
-9.0661 0.3600 2.2682
-9.1009 0.0372 2.2682
-9.1229 -0.2876 2.2682
-9.1317 -0.6136 2.2682
-9.1273 -0.9405 2.2682
-9.1096 -1.2676 2.2682
-9.0786 -1.5943 2.2682
-9.0342 -1.9200 2.2682
-8.5681 -2.1420 2.1651
-8.5003 -2.4493 2.1651
-8.4198 -2.7539 2.1651
-8.3268 -3.0552 2.1651
-8.2213 -3.3527 2.1651
-8.1035 -3.6458 2.1651
-7.9737 -3.9340 2.1651
-7.8320 -4.2167 2.1651
-7.6786 -4.4933 2.1650
-7.5140 -4.7634 2.1650
-7.3383 -5.0264 2.1650
-7.1520 -5.2819 2.1650
-6.7134 -5.3370 2.0897
-6.7901 -5.8036 2.1782
-6.5727 -6.0351 2.1782
-6.3462 -6.2573 2.1782
-6.1110 -6.4697 2.1782
-5.8676 -6.6721 2.1782
-1.1206 -1.3695 0.4346
-1.0546 -1.3867 0.4287
-5.0928 -7.2156 2.1782
-4.8214 -7.3746 2.1782
-4.5444 -7.5222 2.1782
-4.2615 -7.6570 2.1779
-3.9704 -7.7726 2.1755
-3.6759 -7.8761 2.1731
-3.3794 -7.9693 2.1712
-3.0798 -8.0487 2.1688
-2.7782 -8.1154 2.1664
-2.4756 -8.1703 2.1641
-2.1740 -8.2193 2.1633
-1.8725 -8.2596 2.1635
-1.5708 -8.2884 2.1638
-1.2692 -8.3057 2.1641
-0.9683 -8.3116 2.1645
-0.6562 -8.1536 2.1252
-0.3668 -8.2129 2.1455
-0.0736 -7.5824 2.1715
0.1962 -7.5498 2.1722
0.4636 -7.5075 2.1729
0.7283 -7.4557 2.1737
0.9905 -7.3980 2.1757
1.2499 -7.3330 2.1782
1.5041 -7.2500 2.1782
1.7541 -7.1582 2.1782
1.9996 -7.0577 2.1782
2.2401 -6.9487 2.1782
2.4756 -6.8316 2.1782
2.7057 -6.7066 2.1782
2.9301 -6.5740 2.1782
3.1487 -6.4340 2.1782
3.3612 -6.2869 2.1782
3.5457 -6.0958 2.1650
3.7443 -5.9365 2.1650
3.9363 -5.7710 2.1650
4.1215 -5.5996 2.1650
4.2999 -5.4226 2.1650
4.4713 -5.2403 2.1650
4.6355 -5.0530 2.1650
4.7924 -4.8610 2.1651
4.9421 -4.6646 2.1651
5.0842 -4.4639 2.1651
5.2189 -4.2594 2.1651
5.3461 -4.0513 2.1651
5.4656 -3.8398 2.1651
5.5774 -3.6253 2.1651
5.6815 -3.4080 2.1651
5.7779 -3.1881 2.1651
5.8666 -2.9660 2.1651
5.9474 -2.7419 2.1651
6.3072 -2.6359 2.2682
6.3756 -2.3976 2.2682
6.4359 -2.1581 2.2682
6.4880 -1.9176 2.2682
6.5321 -1.6762 2.2682
6.5681 -1.4342 2.2682
6.5960 -1.1919 2.2682
6.6160 -0.9496 2.2682
6.6279 -0.7074 2.2682
6.6320 -0.4655 2.2682
6.6282 -0.2243 2.2682
6.6166 0.0162 2.2682
6.5973 0.2556 2.2682
6.5702 0.4937 2.2682
6.5356 0.7304 2.2682
6.4934 0.9654 2.2682
6.4437 1.1986 2.2682
6.3866 1.4296 2.2682
6.3222 1.6584 2.2682
6.2506 1.8848 2.2682
6.1718 2.1084 2.2682
6.0860 2.3293 2.2682
5.9931 2.5471 2.2682
5.8935 2.7616 2.2682
5.7870 2.9728 2.2682
5.6738 3.1803 2.2682
5.5541 3.3842 2.2682
5.4279 3.5840 2.2682
5.2953 3.7798 2.2682
5.1565 3.9712 2.2682
5.0116 4.1582 2.2682
4.8606 4.3406 2.2682
4.7038 4.5182 2.2682
4.5411 4.6908 2.2682
4.3729 4.8582 2.2682
4.1991 5.0204 2.2682
4.0199 5.1771 2.2682
3.8355 5.3282 2.2682
3.6460 5.4735 2.2682
3.4516 5.6129 2.2682
3.2523 5.7461 2.2682
3.0484 5.8731 2.2682
2.8401 5.9937 2.2682
2.6274 6.1077 2.2682
2.4106 6.2150 2.2682
2.1899 6.3155 2.2682
1.9597 6.3905 2.2617
1.7223 6.4395 2.2488
1.4860 6.4882 2.2386
1.2501 6.5369 2.2311
1.0141 6.5856 2.2263
0.7773 6.6344 2.2241
0.5390 6.6835 2.2247
0.2988 6.7331 2.2279
0.0558 6.7832 2.2339
-0.1905 6.8340 2.2428
-0.4410 6.8857 2.2546
-0.6961 6.9350 2.2682
-0.9496 6.9340 2.2682
-1.2039 6.9243 2.2682
-1.4587 6.9060 2.2682
-1.7139 6.8789 2.2682
-1.9691 6.8429 2.2682
-2.2239 6.7980 2.2682
-2.4781 6.7442 2.2682
-2.7314 6.6813 2.2682
-2.9835 6.6094 2.2682
-3.2340 6.5283 2.2682
-3.4826 6.4382 2.2682
-3.7290 6.3389 2.2682
-3.9728 6.2306 2.2682
-4.2136 6.1132 2.2682
-4.4512 5.9868 2.2682
-4.6852 5.8513 2.2682
-4.9151 5.7069 2.2682
-5.1407 5.5537 2.2682
-5.3615 5.3917 2.2682
-5.5772 5.2210 2.2682
-5.7874 5.0419 2.2682
-5.9918 4.8544 2.2682
-6.1900 4.6586 2.2682
-6.3816 4.4549 2.2682
-6.5662 4.2432 2.2682
-6.7434 4.0241 2.2682
-6.9130 3.7975 2.2682
-7.0746 3.5638 2.2682
-7.2277 3.3233 2.2682
-7.3722 3.0762 2.2682
-7.5075 2.8229 2.2682
-7.6335 2.5637 2.2682
-7.7498 2.2990 2.2682
-7.8562 2.0291 2.2682
-7.9523 1.7544 2.2682
-8.0378 1.4754 2.2682
-8.1126 1.1924 2.2682
-8.1764 0.9059 2.2682
-8.2290 0.6164 2.2682
-8.2703 0.3242 2.2682
-8.2999 0.0300 2.2682
-8.3179 -0.2659 2.2682
-8.3240 -0.5628 2.2682
-8.3183 -0.8604 2.2682
-8.3005 -1.1580 2.2682
-7.8944 -1.3890 2.1650
-7.8544 -1.6717 2.1650
-7.8031 -1.9529 2.1650
-7.7403 -2.2322 2.1650
-7.6661 -2.5091 2.1650
-7.5807 -2.7830 2.1650
-7.4841 -3.0533 2.1650
-7.3765 -3.3197 2.1650
-7.2580 -3.5816 2.1650
-7.1289 -3.8386 2.1650
-6.9894 -4.0901 2.1650
-6.8397 -4.3357 2.1650
-6.6801 -4.5750 2.1650
-6.5109 -4.8076 2.1650
-6.3324 -5.0329 2.1650
-6.1826 -5.2828 2.1782
-5.9854 -5.4939 2.1782
-5.7799 -5.6966 2.1782
-5.5666 -5.8906 2.1782
-5.3458 -6.0755 2.1782
-1.1218 -1.3701 0.4775
-1.0550 -1.3862 0.4705
-4.6431 -6.5734 2.1782
-4.3969 -6.7196 2.1782
-4.1455 -6.8555 2.1782
-3.8888 -6.9800 2.1779
-3.6277 -7.0934 2.1775
-3.3630 -7.1964 2.1771
-3.0941 -7.2859 2.1760
-2.8211 -7.3604 2.1736
-2.5464 -7.4242 2.1714
-2.2706 -7.4773 2.1692
-1.9957 -7.5260 2.1689
-1.7203 -7.5652 2.1691
-1.4445 -7.5939 2.1693
-1.1686 -7.6121 2.1696
-0.8932 -7.6200 2.1699
-0.6187 -7.6176 2.1704
-0.3453 -7.6050 2.1709
-0.0734 -6.9987 2.1760
0.1756 -6.9707 2.1766
0.4225 -6.9337 2.1773
0.6671 -6.8877 2.1780
0.9088 -6.8314 2.1782
1.1472 -6.7656 2.1782
1.3822 -6.6913 2.1782
1.6134 -6.6088 2.1782
1.8405 -6.5182 2.1782
2.0633 -6.4197 2.1782
2.2815 -6.3137 2.1782
2.4949 -6.2003 2.1782
2.6867 -6.0427 2.1650
2.8885 -5.9160 2.1650
3.0848 -5.7828 2.1650
3.2755 -5.6432 2.1650
3.4604 -5.4976 2.1650
3.6393 -5.3461 2.1650
3.8120 -5.1891 2.1650
3.9785 -5.0267 2.1650
4.1385 -4.8593 2.1650
4.2920 -4.6872 2.1651
4.4389 -4.5105 2.1651
4.5790 -4.3296 2.1651
4.7123 -4.1447 2.1651
4.8386 -3.9560 2.1651
4.9580 -3.7639 2.1651
5.0704 -3.5686 2.1651
5.1756 -3.3703 2.1651
5.2737 -3.1692 2.1651
5.3646 -2.9657 2.1651
5.4484 -2.7600 2.1651
5.5249 -2.5523 2.1651
5.8605 -2.4543 2.2682
5.9254 -2.2333 2.2682
5.9828 -2.0110 2.2682
6.0326 -1.7875 2.2682
6.0748 -1.5632 2.2682
6.1095 -1.3382 2.2682
6.1367 -1.1129 2.2682
6.1564 -0.8873 2.2682
6.1686 -0.6619 2.2682
6.1734 -0.4367 2.2682
6.1708 -0.2119 2.2682
6.1608 0.0121 2.2682
6.1436 0.2352 2.2682
6.1192 0.4572 2.2682
6.0876 0.6779 2.2682
6.0489 0.8971 2.2682
6.0032 1.1146 2.2682
5.9505 1.3301 2.2682
5.8909 1.5436 2.2682
5.8245 1.7548 2.2682
5.7514 1.9635 2.2682
5.6716 2.1696 2.2682
5.5853 2.3728 2.2682
5.4925 2.5730 2.2682
5.3933 2.7701 2.2682
5.2878 2.9637 2.2682
5.1762 3.1539 2.2682
5.0584 3.3403 2.2682
4.9347 3.5229 2.2682
4.8051 3.7014 2.2682
4.6697 3.8757 2.2682
4.5287 4.0456 2.2682
4.3822 4.2110 2.2682
4.2303 4.3717 2.2682
4.0730 4.5276 2.2682
3.9106 4.6784 2.2682
3.7432 4.8241 2.2682
3.5709 4.9645 2.2682
3.3939 5.0994 2.2682
3.2123 5.2287 2.2682
3.0262 5.3523 2.2682
2.8358 5.4699 2.2682
2.6413 5.5814 2.2682
2.4427 5.6868 2.2682
2.2404 5.7859 2.2682
2.0344 5.8784 2.2682
1.8250 5.9644 2.2682
1.6122 6.0436 2.2682
1.3964 6.1160 2.2682
1.1777 6.1813 2.2682
0.9562 6.2395 2.2682
0.7323 6.2905 2.2682
0.5061 6.3342 2.2682
0.2778 6.3703 2.2682
0.0476 6.3989 2.2682
-0.1842 6.4199 2.2682
-0.4173 6.4330 2.2682
-0.6517 6.4383 2.2682
-0.8869 6.4356 2.2682
-1.1227 6.4249 2.2682
-1.3590 6.4061 2.2682
-1.5954 6.3791 2.2682
-1.8316 6.3439 2.2682
-2.0674 6.3003 2.2682
-2.3024 6.2485 2.2682
-2.5365 6.1883 2.2682
-2.7693 6.1198 2.2682
-3.0004 6.0428 2.2682
-3.2296 5.9574 2.2682
-3.4567 5.8636 2.2682
-3.6811 5.7615 2.2682
-3.9027 5.6510 2.2682
-4.1211 5.5322 2.2682
-4.3360 5.4052 2.2682
-4.5471 5.2699 2.2682
-4.7540 5.1266 2.2682
-4.9563 4.9753 2.2682
-5.1538 4.8161 2.2682
-5.3461 4.6492 2.2682
-5.5329 4.4746 2.2682
-5.7139 4.2926 2.2682
-5.8886 4.1034 2.2682
-6.0568 3.9070 2.2682
-6.2182 3.7038 2.2682
-6.3724 3.4939 2.2682
-6.5192 3.2777 2.2682
-6.6581 3.0552 2.2682
-6.7890 2.8270 2.2682
-6.9115 2.5931 2.2682
-7.0254 2.3540 2.2682
-7.1303 2.1100 2.2682
-7.2260 1.8613 2.2682
-7.3124 1.6084 2.2682
-7.3891 1.3517 2.2682
-7.4559 1.0914 2.2682
-7.5126 0.8281 2.2682
-7.5592 0.5622 2.2682
-7.5953 0.2939 2.2682
-7.6209 0.0239 2.2682
-7.6358 -0.2475 2.2682
-7.6400 -0.5198 2.2682
-7.6333 -0.7926 2.2682
-7.6158 -1.0653 2.2682
-7.2422 -1.2767 2.1651
-7.2046 -1.5356 2.1650
-7.1566 -1.7932 2.1650
-7.0982 -2.0489 2.1650
-7.0295 -2.3024 2.1650
-6.9506 -2.5530 2.1650
-6.8616 -2.8005 2.1650
-6.7626 -3.0444 2.1650
-6.6538 -3.2841 2.1650
-6.5353 -3.5194 2.1650
-6.4074 -3.7497 2.1650
-6.2703 -3.9747 2.1650
-6.1243 -4.1939 2.1650
-5.9695 -4.4070 2.1650
-5.8062 -4.6136 2.1650
-5.6693 -4.8428 2.1782
-5.4891 -5.0365 2.1782
-5.3013 -5.2227 2.1782
-5.1064 -5.4010 2.1782
-4.9046 -5.5711 2.1782
-1.1230 -1.3708 0.5208
-1.0553 -1.3858 0.5128
-4.2625 -6.0299 2.1782
-4.0374 -6.1649 2.1782
-3.8076 -6.2907 2.1782
-3.5733 -6.4070 2.1782
-3.3352 -6.5137 2.1782
-3.0935 -6.6108 2.1782
-2.8462 -6.6923 2.1764
-2.5966 -6.7633 2.1744
-2.3466 -6.8287 2.1737
-2.0956 -6.8859 2.1737
-1.8433 -6.9335 2.1737
-1.5901 -6.9715 2.1738
-1.3364 -6.9997 2.1740
-1.0825 -7.0185 2.1742
-0.8289 -7.0276 2.1746
-0.5760 -7.0273 2.1750
-0.3240 -7.0176 2.1754
-0.0731 -6.4872 2.1782
0.1575 -6.4611 2.1782
0.3863 -6.4266 2.1782
0.6129 -6.3837 2.1782
0.8369 -6.3326 2.1782
1.0582 -6.2734 2.1782
1.2763 -6.2063 2.1782
1.4911 -6.1316 2.1782
1.7022 -6.0493 2.1782
1.9094 -5.9597 2.1782
2.0997 -5.8273 2.1650
2.2972 -5.7243 2.1650
2.4901 -5.6147 2.1650
2.6783 -5.4986 2.1650
2.8616 -5.3764 2.1650
3.0397 -5.2482 2.1650
3.2124 -5.1142 2.1650
3.3797 -4.9748 2.1650
3.5414 -4.8301 2.1650
3.6972 -4.6803 2.1651
3.8472 -4.5258 2.1651
3.9912 -4.3667 2.1651
4.1290 -4.2033 2.1651
4.2606 -4.0359 2.1651
4.3859 -3.8646 2.1651
4.5047 -3.6897 2.1651
4.6171 -3.5115 2.1651
4.7230 -3.3302 2.1651
4.8223 -3.1460 2.1651
4.9149 -2.9592 2.1651
5.0009 -2.7700 2.1651
5.0801 -2.5786 2.1651
5.3979 -2.4988 2.2682
5.4668 -2.2944 2.2682
5.5285 -2.0884 2.2682
5.5832 -1.8811 2.2682
5.6307 -1.6727 2.2682
5.6712 -1.4634 2.2682
5.7046 -1.2534 2.2682
5.7309 -1.0430 2.2682
5.7502 -0.8323 2.2682
5.7625 -0.6217 2.2682
5.7678 -0.4111 2.2682
5.7661 -0.2010 2.2682
5.7576 0.0085 2.2682
5.7422 0.2172 2.2682
5.7200 0.4249 2.2682
5.6910 0.6314 2.2682
5.6553 0.8366 2.2682
5.6130 1.0402 2.2682
5.5642 1.2420 2.2682
5.5088 1.4419 2.2682
5.4470 1.6396 2.2682
5.3789 1.8351 2.2682
5.3044 2.0281 2.2682
5.2238 2.2184 2.2682
5.1371 2.4059 2.2682
5.0443 2.5904 2.2682
4.9457 2.7718 2.2682
4.8411 2.9498 2.2682
4.7309 3.1243 2.2682
4.6150 3.2951 2.2682
4.4936 3.4622 2.2682
4.3667 3.6252 2.2682
4.2346 3.7841 2.2682
4.0972 3.9388 2.2682
3.9548 4.0890 2.2682
3.8074 4.2346 2.2682
3.6552 4.3755 2.2682
3.4982 4.5115 2.2682
3.3367 4.6425 2.2682
3.1707 4.7682 2.2682
3.0005 4.8887 2.2682
2.8261 5.0037 2.2682
2.6477 5.1131 2.2682
2.4654 5.2168 2.2682
0.8331 1.9425 0.8291
2.0899 5.4065 2.2682
1.8971 5.4922 2.2682
1.7010 5.5717 2.2682
1.5019 5.6448 2.2682
1.3000 5.7114 2.2682
1.0954 5.7715 2.2682
0.8884 5.8248 2.2682
0.6791 5.8713 2.2682
0.4677 5.9109 2.2682
0.2545 5.9434 2.2682
0.0396 5.9688 2.2682
-0.1767 5.9870 2.2682
-0.3941 5.9980 2.2682
-0.6126 6.0015 2.2682
-0.8318 5.9976 2.2682
-1.0515 5.9862 2.2682
-1.2714 5.9671 2.2682
-1.4914 5.9405 2.2682
-1.7110 5.9062 2.2682
-1.9302 5.8641 2.2682
-2.1485 5.8143 2.2682
-2.3658 5.7567 2.2682
-0.8817 1.9436 0.7746
-0.9514 1.9116 0.7718
-3.0085 5.5372 2.2682
-3.2188 5.4484 2.2682
-3.4265 5.3520 2.2682
-3.6315 5.2477 2.2682
-3.8334 5.1359 2.2682
-4.0318 5.0164 2.2682
-4.2266 4.8894 2.2682
-4.4174 4.7550 2.2682
-4.6039 4.6132 2.2682
-4.7858 4.4642 2.2682
-4.9628 4.3081 2.2682
-5.1345 4.1450 2.2682
-5.3008 3.9751 2.2682
-5.4612 3.7986 2.2682
-5.6155 3.6157 2.2682
-5.7634 3.4265 2.2682
-5.9046 3.2312 2.2682
-6.0388 3.0302 2.2682
-6.1658 2.8236 2.2682
-6.2852 2.6117 2.2682
-6.3969 2.3947 2.2682
-6.5005 2.1730 2.2682
-6.5959 1.9469 2.2682
-6.6828 1.7166 2.2682
-6.7610 1.4826 2.2682
-6.8303 1.2451 2.2682
-6.8905 1.0045 2.2682
-6.9415 0.7612 2.2682
-6.9830 0.5155 2.2682
-7.0150 0.2679 2.2682
-7.0373 0.0187 2.2682
-7.0499 -0.2317 2.2682
-7.0526 -0.4829 2.2682
-7.0454 -0.7343 2.2682
-6.7086 -0.9409 2.1651
-6.6827 -1.1804 2.1651
-6.6472 -1.4190 2.1651
-6.6022 -1.6562 2.1651
-6.5478 -1.8918 2.1651
-6.4839 -2.1252 2.1651
-6.4107 -2.3560 2.1651
-6.3283 -2.5839 2.1651
-6.2367 -2.8085 2.1651
-6.1362 -3.0293 2.1651
-6.0269 -3.2460 2.1650
-5.9090 -3.4581 2.1650
-5.7826 -3.6654 2.1650
-5.6481 -3.8674 2.1650
-5.5056 -4.0639 2.1650
-5.3554 -4.2544 2.1650
-5.1977 -4.4386 2.1650
-5.0638 -4.6446 2.1782
-4.8911 -4.8165 2.1782
-4.7119 -4.9812 2.1782
-4.5264 -5.1385 2.1782
-1.1243 -1.3714 0.5649
-1.0557 -1.3853 0.5557
-3.9359 -5.5635 2.1782
-3.7289 -5.6889 2.1782
-3.5174 -5.8057 2.1782
-3.3019 -5.9140 2.1782
-3.0827 -6.0135 2.1782
-2.8602 -6.1042 2.1782
-2.6347 -6.1857 2.1782
-2.4066 -6.2579 2.1780
-2.1764 -6.3211 2.1779
-1.9446 -6.3755 2.1778
-1.7114 -6.4210 2.1778
-1.4774 -6.4575 2.1779
-1.2428 -6.4852 2.1781
-1.0079 -6.5038 2.1782
-0.7731 -6.5130 2.1782
-0.5388 -6.5132 2.1782
-0.3053 -6.5045 2.1782
-0.0729 -6.0335 2.1782
0.1416 -6.0108 2.1782
0.3544 -5.9801 2.1782
0.5653 -5.9417 2.1782
0.7740 -5.8955 2.1782
0.9801 -5.8419 2.1782
1.1835 -5.7809 2.1782
1.3753 -5.6780 2.1650
1.5712 -5.6033 2.1650
1.7635 -5.5217 2.1650
1.9521 -5.4335 2.1650
2.1367 -5.3389 2.1650
2.3172 -5.2380 2.1650
2.4933 -5.1311 2.1650
2.6649 -5.0184 2.1650
2.8318 -4.9000 2.1650
2.9937 -4.7762 2.1650
3.1507 -4.6471 2.1650
3.3024 -4.5131 2.1651
3.4488 -4.3743 2.1651
3.5898 -4.2310 2.1651
3.7252 -4.0833 2.1651
3.8549 -3.9316 2.1651
3.9788 -3.7759 2.1651
4.0969 -3.6166 2.1651
4.2090 -3.4538 2.1651
4.3150 -3.2878 2.1651
4.4150 -3.1189 2.1651
4.5089 -2.9471 2.1651
4.5965 -2.7728 2.1651
4.6779 -2.5962 2.1651
4.7530 -2.4174 2.1651
5.0514 -2.3432 2.2682
5.1168 -2.1522 2.2682
5.1756 -1.9596 2.2682
5.2277 -1.7656 2.2682
5.2732 -1.5706 2.2682
5.3119 -1.3746 2.2682
5.3441 -1.1779 2.2682
5.3695 -0.9808 2.2682
5.3884 -0.7833 2.2682
5.4006 -0.5858 2.2682
5.4063 -0.3884 2.2682
5.4054 -0.1913 2.2682
5.3980 0.0052 2.2682
5.3841 0.2011 2.2682
5.3638 0.3961 2.2682
5.3371 0.5900 2.2682
5.3040 0.7826 2.2682
5.2647 0.9738 2.2682
5.2192 1.1633 2.2682
5.1676 1.3510 2.2682
5.1099 1.5368 2.2682
5.0461 1.7204 2.2682
4.9764 1.9017 2.2682
4.9009 2.0805 2.2682
4.8196 2.2566 2.2682
4.7326 2.4299 2.2682
4.6400 2.6002 2.2682
4.5418 2.7674 2.2682
4.4383 2.9312 2.2682
4.3294 3.0917 2.2682
4.2153 3.2485 2.2682
4.0961 3.4015 2.2682
3.9719 3.5506 2.2682
3.8427 3.6957 2.2682
3.7088 3.8365 2.2682
3.5702 3.9730 2.2682
3.4271 4.1050 2.2682
3.2795 4.2324 2.2682
3.1276 4.3550 2.2682
2.9716 4.4727 2.2682
2.8115 4.5853 2.2682
2.6476 4.6928 2.2682
2.4799 4.7950 2.2682
0.8409 1.7818 0.8262
0.7758 1.8117 0.8247
0.7098 1.8393 0.8231
0.6427 1.8645 0.8215
0.5749 1.8873 0.8198
0.5062 1.9076 0.8180
0.4369 1.9255 0.8161
0.3669 1.9408 0.8142
0.8280 5.4559 2.2682
0.6317 5.4985 2.2682
0.4336 5.5346 2.2682
0.2338 5.5641 2.2682
0.0325 5.5868 2.2682
-0.1700 5.6028 2.2682
-0.3736 5.6119 2.2682
-0.5780 5.6141 2.2682
-0.7830 5.6092 2.2682
-0.9883 5.5973 2.2682
-0.4155 1.9413 0.7894
-0.4854 1.9261 0.7869
-0.5547 1.9083 0.7843
-0.6234 1.8880 0.7817
-0.6913 1.8653 0.7791
-0.7583 1.8402 0.7765
-0.8244 1.8127 0.7739
-0.8894 1.7828 0.7712
-0.9533 1.7507 0.7686
-3.0090 5.0823 2.2682
-3.2021 4.9910 2.2682
-3.3926 4.8925 2.2682
-3.5800 4.7870 2.2682
-3.7642 4.6743 2.2682
-3.9448 4.5548 2.2682
-4.1216 4.4283 2.2682
-4.2944 4.2951 2.2682
-4.4627 4.1552 2.2682
-4.6264 4.0087 2.2682
-4.7851 3.8559 2.2682
-4.9387 3.6968 2.2682
-5.0867 3.5316 2.2682
-5.2290 3.3606 2.2682
-5.3653 3.1837 2.2682
-5.4953 3.0014 2.2682
-5.6188 2.8138 2.2682
-5.7355 2.6211 2.2682
-5.8452 2.4236 2.2682
-5.9476 2.2215 2.2682
-6.0426 2.0151 2.2682
-6.1299 1.8047 2.2682
-6.2092 1.5905 2.2682
-6.2806 1.3730 2.2682
-6.3436 1.1523 2.2682
-6.3983 0.9288 2.2682
-6.4444 0.7029 2.2682
-6.4818 0.4749 2.2682
-6.5104 0.2452 2.2682
-6.5300 0.0141 2.2682
-6.5407 -0.2180 2.2682
-6.5422 -0.4508 2.2682
-6.5347 -0.6838 2.2682
-6.2217 -0.8750 2.1651
-6.1969 -1.0968 2.1651
-6.1634 -1.3177 2.1651
-6.1211 -1.5374 2.1651
-6.0701 -1.7554 2.1651
-4.0645 -1.3332 1.4641
-4.0819 -1.5010 1.4873
-5.8657 -2.3961 2.1651
-5.7806 -2.6039 2.1651
-5.6874 -2.8083 2.1651
-5.5860 -3.0089 2.1651
-5.4768 -3.2053 2.1650
-5.3598 -3.3973 2.1650
-5.2352 -3.5844 2.1650
-5.1034 -3.7663 2.1650
-4.9645 -3.9429 2.1650
-4.8187 -4.1137 2.1650
-4.6663 -4.2785 2.1650
-4.5077 -4.4370 2.1650
-4.3430 -4.5890 2.1650
-4.1981 -4.7632 2.1782
-1.1255 -1.3721 0.6097
-1.0561 -1.3848 0.5992
-3.6523 -5.1585 2.1782
-3.4609 -5.2754 2.1782
-3.2654 -5.3844 2.1782
-3.0660 -5.4855 2.1782
-2.8632 -5.5786 2.1782
-2.6574 -5.6636 2.1782
-2.4487 -5.7403 2.1782
-2.2377 -5.8088 2.1782
-2.0246 -5.8689 2.1782
-1.8099 -5.9206 2.1782
-1.5938 -5.9639 2.1782
-1.3767 -5.9989 2.1782
-1.1590 -6.0254 2.1782
-0.9410 -6.0435 2.1782
-0.7231 -6.0534 2.1782
-0.5055 -6.0549 2.1782
-0.2887 -6.0483 2.1782
-0.0726 -5.6332 2.1782
0.1276 -5.6131 2.1782
0.3243 -5.5517 2.1650
0.5201 -5.5172 2.1650
0.7139 -5.4756 2.1650
0.9055 -5.4270 2.1650
1.0946 -5.3716 2.1650
1.2809 -5.3094 2.1650
1.4643 -5.2408 2.1650
1.6445 -5.1657 2.1650
1.8212 -5.0844 2.1650
1.9944 -4.9970 2.1650
2.1637 -4.9037 2.1650
2.3290 -4.8048 2.1650
2.4902 -4.7003 2.1650
2.6470 -4.5905 2.1650
2.7993 -4.4755 2.1651
2.9469 -4.3556 2.1651
3.0897 -4.2310 2.1651
3.2276 -4.1019 2.1651
3.3604 -3.9684 2.1651
3.4880 -3.8308 2.1651
3.6104 -3.6892 2.1651
3.7274 -3.5440 2.1651
3.8389 -3.3952 2.1651
3.9449 -3.2432 2.1651
4.0452 -3.0880 2.1651
4.1398 -2.9300 2.1651
4.2287 -2.7693 2.1651
4.3118 -2.6061 2.1651
4.3890 -2.4407 2.1651
4.6083 -2.3487 2.2370
4.7412 -2.2040 2.2682
4.8034 -2.0248 2.2682
4.8594 -1.8442 2.2682
4.9092 -1.6621 2.2682
4.9526 -1.4790 2.2682
4.9898 -1.2950 2.2682
5.0207 -1.1102 2.2682
5.0453 -0.9250 2.2682
5.0636 -0.7393 2.2682
5.0758 -0.5536 2.2682
5.0817 -0.3680 2.2682
5.0814 -0.1826 2.2682
5.0749 0.0023 2.2682
5.0623 0.1867 2.2682
5.0437 0.3702 2.2682
5.0189 0.5527 2.2682
4.9883 0.7340 2.2682
4.9516 0.9141 2.2682
4.9091 1.0925 2.2682
4.8607 1.2694 2.2682
4.8066 1.4443 2.2682
4.7468 1.6172 2.2682
4.6814 1.7880 2.2682
4.6104 1.9564 2.2682
4.5340 2.1223 2.2682
4.4521 2.2855 2.2682
4.3649 2.4459 2.2682
4.2725 2.6033 2.2682
4.1750 2.7576 2.2682
4.0725 2.9086 2.2682
3.9650 3.0562 2.2682
3.8526 3.2003 2.2682
3.7355 3.3406 2.2682
3.6138 3.4770 2.2682
3.4875 3.6095 2.2682
3.3569 3.7378 2.2682
3.2219 3.8618 2.2682
3.0828 3.9815 2.2682
2.9397 4.0966 2.2682
2.7926 4.2071 2.2682
2.6417 4.3127 2.2682
2.4872 4.4135 2.2682
0.8457 1.6372 0.8235
0.7858 1.6674 0.8222
0.7249 1.6954 0.8208
0.6630 1.7213 0.8194
0.6003 1.7449 0.8178
0.5367 1.7662 0.8162
0.4724 1.7852 0.8146
0.4075 1.8020 0.8128
0.3420 1.8163 0.8110
0.2761 1.8283 0.8092
0.2097 1.8380 0.8072
0.1431 1.8452 0.8053
0.0762 1.8501 0.8032
0.0093 1.8525 0.8011
-0.0578 1.8526 0.7990
-0.1248 1.8502 0.7968
-0.1916 1.8454 0.7946
-0.2583 1.8383 0.7924
-0.3246 1.8287 0.7901
-0.3906 1.8168 0.7878
-0.4560 1.8025 0.7854
-0.5210 1.7859 0.7830
-0.5852 1.7669 0.7806
-0.6488 1.7456 0.7782
-0.7116 1.7221 0.7757
-0.7734 1.6964 0.7733
-0.8343 1.6684 0.7708
-0.8942 1.6383 0.7683
-0.9529 1.6060 0.7658
-3.0027 4.6702 2.2682
-3.1803 4.5770 2.2682
-3.3550 4.4771 2.2682
-3.5266 4.3707 2.2682
-3.6948 4.2579 2.2682
-3.8593 4.1386 2.2682
-4.0200 4.0131 2.2682
-4.1765 3.8814 2.2682
-4.3285 3.7437 2.2682
-4.4759 3.6000 2.2682
-4.6184 3.4506 2.2682
-4.7556 3.2956 2.2682
-4.8875 3.1351 2.2682
-5.0137 2.9693 2.2682
-5.1340 2.7985 2.2682
-5.2481 2.6228 2.2682
-5.3559 2.4425 2.2682
-5.4571 2.2577 2.2682
-5.5516 2.0688 2.2682
-5.6391 1.8759 2.2682
-5.7194 1.6794 2.2682
-5.7923 1.4795 2.2682
-5.8578 1.2765 2.2682
-5.9155 1.0706 2.2682
-5.9655 0.8623 2.2682
-6.0074 0.6517 2.2682
-6.0413 0.4393 2.2682
-6.0670 0.2253 2.2682
-6.0845 0.0101 2.2682
-6.0936 -0.2060 2.2682
-6.0943 -0.4226 2.2682
-6.0865 -0.6394 2.2682
-5.7944 -0.8171 2.1651
-5.7708 -1.0234 2.1651
-5.7390 -1.2288 2.1651
-5.6992 -1.4331 2.1651
-5.6514 -1.6358 2.1651
-3.9132 -1.2845 1.5141
-3.9122 -1.4394 1.5312
-5.4602 -2.2314 2.1651
-5.3810 -2.4247 2.1651
-5.2941 -2.6147 2.1651
-5.1997 -2.8012 2.1651
-5.0981 -2.9838 2.1651
-4.9893 -3.1623 2.1650
-4.8735 -3.3363 2.1650
-4.7510 -3.5056 2.1650
-4.6219 -3.6699 2.1650
-4.4865 -3.8290 2.1650
-4.3450 -3.9824 2.1650
-4.1977 -4.1301 2.1650
-4.0448 -4.2718 2.1650
-3.8865 -4.4072 2.1650
-1.1268 -1.3728 0.6552
-1.0565 -1.3843 0.6434
-3.3827 -4.7740 2.1650
-3.2257 -4.9125 2.1782
-3.0441 -5.0145 2.1782
-2.8589 -5.1093 2.1782
-2.6705 -5.1967 2.1782
-2.4792 -5.2765 2.1782
-2.2852 -5.3488 2.1782
-2.0890 -5.4134 2.1782
-1.8908 -5.4702 2.1782
-1.6910 -5.5193 2.1782
-1.4900 -5.5607 2.1782
-1.2879 -5.5942 2.1782
-1.0852 -5.6200 2.1782
-0.8821 -5.6380 2.1782
-0.6790 -5.6483 2.1782
-0.4762 -5.6508 2.1782
-0.2740 -5.6458 2.1782
-0.0720 -5.2448 2.1650
0.1144 -5.2271 2.1650
0.2994 -5.2025 2.1650
0.4829 -5.1712 2.1650
0.6646 -5.1332 2.1650
0.8443 -5.0887 2.1650
1.0217 -5.0377 2.1650
1.1966 -4.9805 2.1650
1.3688 -4.9171 2.1650
1.5381 -4.8476 2.1650
1.7043 -4.7723 2.1650
1.8671 -4.6913 2.1650
2.0264 -4.6047 2.1650
2.1820 -4.5127 2.1650
2.3337 -4.4155 2.1651
2.4815 -4.3133 2.1651
2.6250 -4.2062 2.1651
2.7642 -4.0943 2.1651
2.8990 -3.9780 2.1651
3.0291 -3.8574 2.1651
3.1546 -3.7327 2.1651
3.2752 -3.6040 2.1651
3.3909 -3.4716 2.1651
3.5015 -3.3356 2.1651
3.6071 -3.1963 2.1651
3.7074 -3.0538 2.1651
3.8025 -2.9083 2.1651
3.8922 -2.7601 2.1651
3.9765 -2.6093 2.1651
4.0554 -2.4561 2.1651
4.1287 -2.3007 2.1651
4.3963 -2.2453 2.2682
4.4615 -2.0785 2.2682
4.5208 -1.9100 2.2682
4.5743 -1.7401 2.2682
4.6218 -1.5688 2.2682
4.6633 -1.3964 2.2682
4.6990 -1.2231 2.2682
4.7287 -1.0491 2.2682
4.7525 -0.8745 2.2682
4.7703 -0.6996 2.2682
4.7823 -0.5246 2.2682
4.7883 -0.3495 2.2682
4.7885 -0.1747 2.2682
4.7829 -0.0003 2.2682
4.7714 0.1736 2.2682
4.7542 0.3467 2.2682
4.7312 0.5190 2.2682
4.7026 0.6901 2.2682
4.6683 0.8600 2.2682
4.6284 1.0285 2.2682
4.5831 1.1954 2.2682
4.5322 1.3606 2.2682
4.4759 1.5239 2.2682
4.4143 1.6851 2.2682
4.3474 1.8441 2.2682
4.2754 2.0007 2.2682
4.1982 2.1547 2.2682
4.1160 2.3062 2.2682
4.0288 2.4548 2.2682
3.9367 2.6004 2.2682
3.8399 2.7429 2.2682
3.7383 2.8822 2.2682
3.6322 3.0181 2.2682
3.5216 3.1504 2.2682
3.4066 3.2791 2.2682
3.2873 3.4039 2.2682
3.1639 3.5249 2.2682
3.0363 3.6418 2.2682
2.9049 3.7545 2.2682
2.7696 3.8628 2.2682
2.6307 3.9668 2.2682
2.4881 4.0662 2.2682
0.8479 1.5062 0.8211
0.7927 1.5366 0.8199
0.7365 1.5649 0.8187
0.6793 1.5913 0.8174
0.6212 1.6156 0.8160
0.5622 1.6377 0.8146
0.5025 1.6577 0.8130
0.4422 1.6756 0.8115
0.3812 1.6913 0.8098
0.3197 1.7048 0.8081
0.2578 1.7161 0.8064
0.1955 1.7251 0.8046
0.1329 1.7319 0.8027
0.0701 1.7365 0.8008
0.0072 1.7388 0.7989
-0.0557 1.7389 0.7969
-0.1187 1.7366 0.7948
-0.1814 1.7322 0.7928
-0.2440 1.7254 0.7906
-0.3063 1.7165 0.7885
-0.3683 1.7052 0.7863
-0.4297 1.6918 0.7841
-0.4907 1.6762 0.7819
-0.5511 1.6584 0.7796
-0.6108 1.6384 0.7773
-0.6697 1.6163 0.7750
-0.7278 1.5921 0.7727
-0.7850 1.5659 0.7704
-0.8412 1.5376 0.7680
-0.8964 1.5073 0.7657
-0.9504 1.4750 0.7634
-1.0033 1.4408 0.7610
-3.1537 4.1999 2.2682
-3.3141 4.0992 2.2682
-3.4712 3.9924 2.2682
-3.6249 3.8798 2.2682
-3.7749 3.7613 2.2682
-3.9209 3.6370 2.2682
-4.0627 3.5071 2.2682
-4.2000 3.3718 2.2682
-4.3327 3.2310 2.2682
-4.4605 3.0851 2.2682
-4.5832 2.9342 2.2682
-4.7005 2.7783 2.2682
-4.8122 2.6179 2.2682
-4.9182 2.4529 2.2682
-5.0182 2.2836 2.2682
-5.1121 2.1102 2.2682
-5.1996 1.9331 2.2682
-5.2805 1.7523 2.2682
-5.3548 1.5681 2.2682
-5.4221 1.3809 2.2682
-5.4824 1.1908 2.2682
-5.5356 0.9982 2.2682
-5.5815 0.8033 2.2682
-5.6199 0.6063 2.2682
-5.6508 0.4077 2.2682
-5.6741 0.2077 2.2682
-5.6897 0.0066 2.2682
-5.6976 -0.1953 2.2682
-5.6976 -0.3977 2.2682
-5.6897 -0.6001 2.2682
-5.4161 -0.7659 2.1651
-5.3936 -0.9585 2.1651
-5.3635 -1.1502 2.1651
-5.3260 -1.3409 2.1651
-5.2809 -1.5301 2.1651
-3.9031 -1.2821 1.6163
-3.9074 -1.4385 1.6368
-5.1017 -2.0858 2.1651
-5.0275 -2.2661 2.1651
-4.9463 -2.4434 2.1651
-4.8582 -2.6175 2.1651
-4.7632 -2.7879 2.1651
-4.6617 -2.9545 2.1651
-4.5537 -3.1170 2.1650
-4.4394 -3.2751 2.1650
-4.3190 -3.4286 2.1650
-4.1928 -3.5771 2.1650
-4.0609 -3.7205 2.1650
-3.9235 -3.8586 2.1650
-3.7810 -3.9911 2.1650
-3.6335 -4.1178 2.1650
-1.1281 -1.3734 0.7016
-1.0569 -1.3838 0.6883
-3.1638 -4.4614 2.1650
-2.9991 -4.5633 2.1650
-2.8308 -4.6585 2.1650
-2.6592 -4.7470 2.1650
-2.4845 -4.8287 2.1650
-2.3071 -4.9035 2.1650
-2.1272 -4.9712 2.1650
-1.9452 -5.0319 2.1650
-1.7614 -5.0855 2.1650
-1.5760 -5.1319 2.1650
-1.3893 -5.1711 2.1650
-1.2017 -5.2031 2.1650
-1.0134 -5.2279 2.1650
-0.8247 -5.2455 2.1650
-0.6359 -5.2559 2.1650
-0.4474 -5.2593 2.1650
-0.2593 -5.2555 2.1650
-0.0718 -4.9273 2.1650
0.1032 -4.9115 2.1650
0.2770 -4.8893 2.1650
0.4495 -4.8607 2.1650
0.6203 -4.8258 2.1650
0.7893 -4.7848 2.1650
0.9562 -4.7378 2.1650
1.1209 -4.6848 2.1650
1.2830 -4.6260 2.1650
1.4424 -4.5615 2.1650
1.5990 -4.4915 2.1650
1.7525 -4.4161 2.1650
1.9027 -4.3354 2.1651
2.0495 -4.2496 2.1651
2.1928 -4.1589 2.1651
2.3323 -4.0633 2.1651
2.4678 -3.9632 2.1651
2.5994 -3.8586 2.1651
2.7268 -3.7497 2.1651
2.8499 -3.6367 2.1651
2.9686 -3.5198 2.1651
3.0828 -3.3991 2.1651
3.1924 -3.2748 2.1651
3.2973 -3.1472 2.1651
3.3973 -3.0163 2.1651
3.4925 -2.8824 2.1651
3.5827 -2.7456 2.1651
3.6680 -2.6062 2.1651
3.7481 -2.4643 2.1651
3.8231 -2.3201 2.1651
3.9756 -2.2199 2.2112
4.1458 -2.1219 2.2682
4.2080 -1.9647 2.2682
4.2645 -1.8059 2.2682
4.3155 -1.6456 2.2682
4.3609 -1.4840 2.2682
4.4007 -1.3214 2.2682
4.4349 -1.1578 2.2682
4.4635 -0.9936 2.2682
4.4864 -0.8287 2.2682
4.5038 -0.6635 2.2682
4.5155 -0.4982 2.2682
4.5216 -0.3328 2.2682
4.5222 -0.1676 2.2682
4.5173 -0.0027 2.2682
4.5068 0.1617 2.2682
4.4908 0.3254 2.2682
4.4694 0.4883 2.2682
4.4426 0.6502 2.2682
4.4105 0.8109 2.2682
4.3730 0.9703 2.2682
4.3303 1.1282 2.2682
4.2824 1.2844 2.2682
4.2293 1.4389 2.2682
4.1712 1.5914 2.2682
4.1080 1.7418 2.2682
4.0400 1.8899 2.2682
3.9670 2.0357 2.2682
3.8893 2.1790 2.2682
3.8068 2.3195 2.2682
3.7197 2.4573 2.2682
3.6281 2.5920 2.2682
3.5320 2.7237 2.2682
3.4315 2.8522 2.2682
3.3268 2.9773 2.2682
3.2180 3.0989 2.2682
3.1050 3.2169 2.2682
2.9882 3.3311 2.2682
2.8674 3.4415 2.2682
2.7430 3.5479 2.2682
2.6149 3.6502 2.2682
2.4834 3.7482 2.2682
0.8477 1.3868 0.8188
0.7968 1.4173 0.8177
0.7449 1.4459 0.8167
0.6920 1.4726 0.8155
0.6381 1.4974 0.8143
0.5834 1.5202 0.8130
0.5279 1.5411 0.8116
0.4717 1.5599 0.8102
0.4149 1.5768 0.8087
0.3575 1.5915 0.8072
0.2996 1.6043 0.8056
0.2413 1.6149 0.8039
0.1826 1.6234 0.8022
0.1237 1.6298 0.8005
0.0646 1.6341 0.7987
0.0054 1.6363 0.7968
-0.0539 1.6363 0.7950
-0.1131 1.6342 0.7930
-0.1722 1.6300 0.7911
-0.2312 1.6237 0.7891
-0.2898 1.6152 0.7871
-0.3481 1.6047 0.7850
-0.4060 1.5920 0.7829
-0.4634 1.5773 0.7808
-0.5203 1.5606 0.7787
-0.5765 1.5418 0.7765
-0.6320 1.5210 0.7744
-0.6867 1.4982 0.7722
-0.7405 1.4735 0.7700
-0.7934 1.4468 0.7678
-0.8454 1.4183 0.7656
-0.8963 1.3879 0.7634
-0.9460 1.3557 0.7612
-0.9946 1.3218 0.7590
-3.1227 3.8546 2.2682
-3.2700 3.7535 2.2682
-3.4140 3.6468 2.2682
-3.5544 3.5347 2.2682
-3.6910 3.4172 2.2682
-3.8237 3.2945 2.2682
-3.9521 3.1666 2.2682
-4.0761 3.0338 2.2682
-4.1955 2.8962 2.2682
-4.3100 2.7538 2.2682
-4.4195 2.6070 2.2682
-4.5237 2.4558 2.2682
-4.6224 2.3005 2.2682
-4.7156 2.1412 2.2682
-4.8029 1.9781 2.2682
-4.8843 1.8115 2.2682
-4.9595 1.6416 2.2682
-5.0284 1.4686 2.2682
-5.0909 1.2927 2.2682
-5.1467 1.1142 2.2682
-5.1959 0.9334 2.2682
-5.2382 0.7505 2.2682
-5.2736 0.5657 2.2682
-5.3019 0.3794 2.2682
-5.3231 0.1919 2.2682
-5.3372 0.0034 2.2682
-5.3439 -0.1858 2.2682
-5.3434 -0.3754 2.2682
-5.3356 -0.5650 2.2682
-5.0786 -0.7202 2.1651
-5.0571 -0.9006 2.1651
-5.0285 -1.0801 2.1651
-4.9930 -1.2586 2.1651
-4.9506 -1.4357 2.1651
-3.8929 -1.2797 1.7197
-3.9026 -1.4376 1.7440
-4.7821 -1.9560 2.1651
-4.7125 -2.1248 2.1651
-4.6363 -2.2908 2.1651
-4.5537 -2.4537 2.1651
-4.4648 -2.6133 2.1651
-4.3697 -2.7694 2.1651
-4.2686 -2.9215 2.1651
-4.1616 -3.0696 2.1651
-4.0490 -3.2134 2.1650
-3.9309 -3.3526 2.1650
-3.8075 -3.4871 2.1650
-3.6790 -3.6165 2.1650
-3.5457 -3.7408 2.1650
-3.4077 -3.8597 2.1650
-1.1296 -1.3744 0.7490
-1.0573 -1.3833 0.7339
-2.9685 -4.1825 2.1650
-2.8144 -4.2783 2.1650
-2.6570 -4.3679 2.1650
-2.4964 -4.4513 2.1650
-2.3329 -4.5283 2.1650
-2.1669 -4.5989 2.1650
-1.9985 -4.6630 2.1650
-1.8281 -4.7204 2.1650
-1.6559 -4.7713 2.1650
-1.4823 -4.8154 2.1650
-1.3074 -4.8529 2.1650
-1.1315 -4.8836 2.1650
-0.9550 -4.9075 2.1650
-0.7781 -4.9248 2.1650
-0.6011 -4.9354 2.1650
-0.4242 -4.9393 2.1650
-0.2477 -4.9366 2.1650
-0.0716 -4.6407 2.1650
0.0931 -4.6266 2.1650
0.2569 -4.6063 2.1650
0.4193 -4.5801 2.1650
0.5803 -4.5480 2.1650
0.7396 -4.5101 2.1650
0.8970 -4.4665 2.1650
1.0523 -4.4173 2.1650
1.2053 -4.3626 2.1650
1.3558 -4.3025 2.1650
1.5037 -4.2372 2.1651
1.6487 -4.1668 2.1651
1.7907 -4.0913 2.1651
1.9295 -4.0111 2.1651
2.0649 -3.9261 2.1651
2.1969 -3.8366 2.1651
2.3252 -3.7427 2.1651
2.4498 -3.6446 2.1651
2.5705 -3.5424 2.1651
2.6871 -3.4362 2.1651
2.7997 -3.3263 2.1651
2.9080 -3.2128 2.1651
3.0119 -3.0959 2.1651
3.1115 -2.9758 2.1651
3.2065 -2.8526 2.1651
3.2970 -2.7264 2.1651
3.3827 -2.5975 2.1651
3.4638 -2.4661 2.1651
3.5648 -2.3486 2.1803
3.6114 -2.1961 2.1651
3.8530 -2.1560 2.2682
3.9175 -2.0094 2.2682
3.9767 -1.8609 2.2682
4.0307 -1.7109 2.2682
4.0795 -1.5594 2.2682
4.1229 -1.4067 2.2682
4.1611 -1.2529 2.2682
4.1939 -1.0982 2.2682
4.2213 -0.9428 2.2682
4.2435 -0.7869 2.2682
4.2603 -0.6306 2.2682
4.2718 -0.4740 2.2682
4.2780 -0.3174 2.2682
4.2789 -0.1610 2.2682
4.2745 -0.0048 2.2682
4.2649 0.1509 2.2682
4.2501 0.3060 2.2682
4.2300 0.4603 2.2682
4.2049 0.6136 2.2682
4.1747 0.7659 2.2682
4.1394 0.9170 2.2682
4.0991 1.0666 2.2682
4.0538 1.2147 2.2682
4.0037 1.3611 2.2682
3.9487 1.5056 2.2682
3.8890 1.6482 2.2682
3.8245 1.7886 2.2682
3.7554 1.9268 2.2682
3.6818 2.0625 2.2682
3.6036 2.1957 2.2682
3.5211 2.3263 2.2682
3.4342 2.4540 2.2682
3.3431 2.5787 2.2682
3.2479 2.7004 2.2682
3.1486 2.8189 2.2682
3.0454 2.9340 2.2682
2.9383 3.0457 2.2682
2.8274 3.1539 2.2682
2.7129 3.2583 2.2682
2.5949 3.3589 2.2682
0.8914 1.2453 0.8174
0.8455 1.2774 0.8166
0.7986 1.3079 0.8157
0.7506 1.3366 0.8147
0.7016 1.3636 0.8137
0.6516 1.3888 0.8126
0.6008 1.4122 0.8114
0.5492 1.4337 0.8102
0.4968 1.4534 0.8089
0.4438 1.4712 0.8076
0.3902 1.4871 0.8062
0.3360 1.5010 0.8047
0.2814 1.5130 0.8032
0.2263 1.5231 0.8017
0.1710 1.5311 0.8001
0.1154 1.5371 0.7984
0.0596 1.5412 0.7967
0.0037 1.5432 0.7950
-0.0522 1.5433 0.7932
-0.1081 1.5413 0.7914
-0.1639 1.5373 0.7895
-0.2195 1.5313 0.7877
-0.2749 1.5234 0.7858
-0.3299 1.5134 0.7838
-0.3845 1.5015 0.7818
-0.4387 1.4876 0.7799
-0.4923 1.4718 0.7779
-0.5454 1.4541 0.7758
-0.5977 1.4344 0.7738
-0.6493 1.4129 0.7717
-0.7002 1.3896 0.7697
-0.7501 1.3645 0.7676
-0.7991 1.3375 0.7655
-0.8471 1.3089 0.7634
-0.8941 1.2785 0.7614
-0.9399 1.2465 0.7593
-0.9846 1.2128 0.7572
-3.0877 3.5370 2.2682
-3.2230 3.4358 2.2682
-3.3548 3.3296 2.2682
-3.4831 3.2183 2.2682
-3.6075 3.1021 2.2682
-3.7280 2.9812 2.2682
-3.8442 2.8555 2.2682
-3.9560 2.7254 2.2682
-4.0632 2.5909 2.2682
-4.1657 2.4523 2.2682
-4.2632 2.3096 2.2682
-4.3555 2.1630 2.2682
-4.4425 2.0127 2.2682
-4.5241 1.8589 2.2682
-4.6000 1.7019 2.2682
-4.6701 1.5418 2.2682
-4.7343 1.3788 2.2682
-4.7924 1.2132 2.2682
-4.8444 1.0452 2.2682
-4.8900 0.8750 2.2682
-4.9292 0.7030 2.2682
-4.9619 0.5292 2.2682
-4.9880 0.3540 2.2682
-5.0074 0.1777 2.2682
-5.0201 0.0006 2.2682
-5.0260 -0.1772 2.2682
-5.0251 -0.3554 2.2682
-5.0173 -0.5335 2.2682
-4.7753 -0.6791 2.1651
-4.7547 -0.8485 2.1651
-4.7276 -1.0171 2.1651
-4.6939 -1.1847 2.1651
-4.6538 -1.3510 2.1651
-3.8825 -1.2773 1.8245
-3.8977 -1.4366 1.8530
-4.4950 -1.8394 2.1651
-4.4296 -1.9979 2.1651
-4.3579 -2.1537 2.1651
-4.2803 -2.3067 2.1651
-4.1968 -2.4566 2.1651
-4.1075 -2.6031 2.1651
-4.0126 -2.7460 2.1651
-3.9122 -2.8851 2.1651
-3.8065 -3.0202 2.1651
-3.6957 -3.1510 2.1651
-3.5799 -3.2774 2.1650
-3.4594 -3.3991 2.1650
-3.3344 -3.5160 2.1650
-3.2050 -3.6278 2.1650
-1.1319 -1.3763 0.7979
-1.0577 -1.3828 0.7805
-2.7929 -3.9318 2.1650
-2.6484 -4.0221 2.1650
-2.5007 -4.1067 2.1650
-2.3500 -4.1854 2.1650
-2.1966 -4.2582 2.1650
-2.0407 -4.3249 2.1650
-1.8827 -4.3856 2.1650
-1.7227 -4.4401 2.1650
-1.5610 -4.4884 2.1650
-1.3979 -4.5305 2.1650
-1.2336 -4.5662 2.1650
-1.0683 -4.5957 2.1650
-0.9025 -4.6189 2.1650
-0.7361 -4.6357 2.1650
-0.5696 -4.6463 2.1650
-0.4032 -4.6507 2.1650
-0.2371 -4.6488 2.1650
-0.0714 -4.3806 2.1650
0.0840 -4.3678 2.1650
0.2385 -4.3493 2.1650
0.3919 -4.3252 2.1650
0.5439 -4.2955 2.1650
0.6944 -4.2603 2.1650
0.8432 -4.2198 2.1650
0.9900 -4.1739 2.1650
1.1346 -4.1229 2.1651
1.2770 -4.0667 2.1651
1.4169 -4.0056 2.1651
0.8654 -2.1936 1.2055
1.6886 -3.8689 2.1651
1.8200 -3.7937 2.1651
1.9483 -3.7139 2.1651
2.0734 -3.6298 2.1651
2.1951 -3.5416 2.1651
2.3132 -3.4492 2.1651
2.4277 -3.3531 2.1651
2.5385 -3.2531 2.1651
2.6453 -3.1496 2.1651
2.7482 -3.0426 2.1651
2.8470 -2.9324 2.1651
2.9416 -2.8191 2.1651
3.0320 -2.7028 2.1651
3.1180 -2.5837 2.1651
3.1997 -2.4620 2.1651
3.2769 -2.3378 2.1651
3.3495 -2.2113 2.1651
3.4787 -2.1199 2.2039
3.6467 -2.0450 2.2682
3.7082 -1.9063 2.2682
3.7648 -1.7658 2.2682
3.8164 -1.6238 2.2682
3.8630 -1.4804 2.2682
3.9046 -1.3358 2.2682
3.9412 -1.1901 2.2682
3.9727 -1.0436 2.2682
3.9991 -0.8963 2.2682
4.0205 -0.7485 2.2682
4.0368 -0.6003 2.2682
4.0480 -0.4519 2.2682
4.0542 -0.3034 2.2682
4.0553 -0.1550 2.2682
4.0515 -0.0068 2.2682
4.0426 0.1409 2.2682
4.0288 0.2880 2.2682
4.0101 0.4345 2.2682
3.9864 0.5800 2.2682
3.9579 0.7246 2.2682
3.9246 0.8679 2.2682
3.8865 1.0100 2.2682
3.8437 1.1506 2.2682
3.7962 1.2896 2.2682
3.7441 1.4268 2.2682
3.6875 1.5621 2.2682
3.6264 1.6955 2.2682
3.5609 1.8266 2.2682
3.4910 1.9555 2.2682
3.4168 2.0819 2.2682
3.3385 2.2058 2.2682
3.2560 2.3270 2.2682
3.1695 2.4454 2.2682
3.0791 2.5608 2.2682
2.9848 2.6732 2.2682
2.8867 2.7824 2.2682
2.7850 2.8884 2.2682
2.6797 2.9909 2.2682
2.5709 3.0899 2.2682
0.8837 1.1448 0.8152
0.8415 1.1767 0.8145
0.7982 1.2071 0.8137
0.7538 1.2358 0.8129
0.7084 1.2630 0.8120
0.6620 1.2885 0.8110
0.6148 1.3123 0.8099
0.5668 1.3344 0.8088
0.5180 1.3548 0.8077
0.4684 1.3734 0.8065
0.4183 1.3903 0.8052
0.3676 1.4053 0.8039
0.3164 1.4185 0.8025
0.2647 1.4298 0.8011
0.2127 1.4393 0.7996
0.1603 1.4469 0.7981
0.1078 1.4526 0.7965
0.0550 1.4565 0.7949
0.0022 1.4584 0.7933
-0.0507 1.4584 0.7916
-0.1036 1.4566 0.7899
-0.1563 1.4528 0.7882
-0.2089 1.4471 0.7864
-0.2612 1.4396 0.7846
-0.3132 1.4302 0.7827
-0.3649 1.4189 0.7809
-0.4161 1.4058 0.7790
-0.4668 1.3908 0.7771
-0.5170 1.3741 0.7752
-0.5665 1.3555 0.7732
-0.6153 1.3352 0.7713
-0.6634 1.3131 0.7694
-0.7106 1.2893 0.7674
-0.7569 1.2639 0.7654
-0.8023 1.2368 0.7635
-0.8467 1.2081 0.7615
-0.8900 1.1778 0.7595
-0.9323 1.1459 0.7576
-0.9733 1.1126 0.7556
-3.0490 3.2437 2.2682
-3.1731 3.1429 2.2682
-3.2938 3.0373 2.2682
-3.4108 2.9271 2.2682
-3.5241 2.8124 2.2682
-3.6333 2.6934 2.2682
-3.7383 2.5702 2.2682
-3.8390 2.4429 2.2682
-3.9352 2.3117 2.2682
-4.0266 2.1767 2.2682
-4.1132 2.0381 2.2682
-4.1947 1.8961 2.2682
-4.2711 1.7508 2.2682
-4.3421 1.6025 2.2682
-4.4077 1.4513 2.2682
-4.4677 1.2975 2.2682
-4.5219 1.1412 2.2682
-4.5703 0.9827 2.2682
-4.6128 0.8222 2.2682
-4.6493 0.6599 2.2682
-4.6796 0.4961 2.2682
-4.7037 0.3310 2.2682
-4.7216 0.1649 2.2682
-4.7331 -0.0020 2.2682
-4.7383 -0.1695 2.2682
-4.7370 -0.3372 2.2682
-4.7293 -0.5050 2.2682
-4.5009 -0.6420 2.1651
-4.4907 -0.8031 2.1697
-4.4555 -0.9602 2.1651
-4.4236 -1.1179 2.1651
-4.3856 -1.2744 2.1651
-3.8720 -1.2748 1.9310
-3.8927 -1.4356 1.9639
-4.2356 -1.7341 2.1651
-4.1739 -1.8832 2.1651
-4.1064 -2.0299 2.1651
-4.0332 -2.1738 2.1651
-3.9546 -2.3149 2.1651
-3.8705 -2.4528 2.1651
-3.7812 -2.5874 2.1651
-3.6868 -2.7184 2.1651
-3.5874 -2.8456 2.1651
-3.4831 -2.9688 2.1651
-3.3742 -3.0878 2.1651
-3.2609 -3.2025 2.1651
-3.1433 -3.3127 2.1651
-3.0216 -3.4182 2.1650
-1.1343 -1.3782 0.8480
-1.0581 -1.3823 0.8280
-2.6341 -3.7051 2.1650
-2.4982 -3.7904 2.1650
-2.3592 -3.8703 2.1650
-2.2175 -3.9448 2.1650
-2.0732 -4.0137 2.1650
-1.9266 -4.0769 2.1650
-0.9429 -2.1927 1.1482
-1.6272 -4.1863 2.1650
-1.4750 -4.2322 2.1650
-1.3214 -4.2723 2.1650
-1.1667 -4.3065 2.1650
-1.0111 -4.3348 2.1650
-0.8548 -4.3571 2.1650
-0.6980 -4.3736 2.1650
-0.5411 -4.3841 2.1650
-0.3842 -4.3888 2.1650
-0.2276 -4.3876 2.1650
-0.0713 -4.1431 2.1650
0.0757 -4.1315 2.1650
0.2218 -4.1146 2.1650
0.3669 -4.0923 2.1650
0.5107 -4.0647 2.1651
0.3588 -2.2149 1.1894
0.4371 -2.1989 1.1919
0.5147 -2.1800 1.1945
0.5916 -2.1583 1.1971
0.6676 -2.1337 1.1996
0.7426 -2.1064 1.2021
0.8165 -2.0763 1.2047
1.5950 -3.6652 2.1651
1.7197 -3.5945 2.1651
1.8415 -3.5194 2.1651
1.9602 -3.4402 2.1651
2.0758 -3.3571 2.1651
2.1880 -3.2701 2.1651
2.2968 -3.1794 2.1651
2.4020 -3.0851 2.1651
0.8937 -1.0663 0.7728
2.6015 -2.8864 2.1651
2.6955 -2.7822 2.1651
2.7856 -2.6751 2.1651
2.8716 -2.5652 2.1651
2.9536 -2.4525 2.1651
3.0314 -2.3374 2.1651
3.1050 -2.2198 2.1651
3.1742 -2.1001 2.1651
3.3934 -2.0725 2.2682
3.4568 -1.9428 2.2682
3.5156 -1.8114 2.2682
3.5697 -1.6782 2.2682
3.6191 -1.5436 2.2682
3.6637 -1.4076 2.2682
3.7035 -1.2705 2.2682
3.7386 -1.1323 2.2682
3.7688 -0.9932 2.2682
3.7942 -0.8534 2.2682
3.8148 -0.7131 2.2682
3.8306 -0.5724 2.2682
3.8416 -0.4314 2.2682
3.8478 -0.2904 2.2682
3.8491 -0.1494 2.2682
3.8457 -0.0087 2.2682
3.8375 0.1317 2.2682
3.8246 0.2715 2.2682
3.8070 0.4107 2.2682
3.7847 0.5490 2.2682
3.7578 0.6864 2.2682
3.7263 0.8227 2.2682
3.6902 0.9577 2.2682
3.6497 1.0914 2.2682
3.6046 1.2235 2.2682
3.5552 1.3540 2.2682
3.5015 1.4827 2.2682
3.4434 1.6094 2.2682
3.3812 1.7341 2.2682
3.3148 1.8566 2.2682
3.2443 1.9768 2.2682
3.1698 2.0945 2.2682
3.0914 2.2097 2.2682
3.0091 2.3222 2.2682
2.9231 2.4319 2.2682
2.8334 2.5387 2.2682
2.7402 2.6425 2.2682
2.6434 2.7431 2.2682
2.5432 2.8404 2.2682
0.8746 1.0520 0.8132
0.8358 1.0836 0.8125
0.7958 1.1138 0.8118
0.7547 1.1425 0.8111
0.7127 1.1698 0.8103
0.6697 1.1955 0.8094
0.6258 1.2197 0.8085
0.5811 1.2422 0.8075
0.5356 1.2632 0.8065
0.4893 1.2825 0.8054
0.4424 1.3001 0.8042
0.3949 1.3161 0.8030
0.3469 1.3303 0.8018
0.2984 1.3428 0.8005
0.2495 1.3535 0.7991
0.2002 1.3625 0.7977
0.1506 1.3697 0.7963
0.1008 1.3751 0.7948
0.0508 1.3788 0.7933
0.0008 1.3806 0.7918
-0.0493 1.3806 0.7902
-0.0994 1.3789 0.7885
-0.1493 1.3753 0.7869
-0.1991 1.3699 0.7852
-0.2487 1.3628 0.7835
-0.2980 1.3539 0.7817
-0.3469 1.3432 0.7800
-0.3954 1.3308 0.7782
-0.4435 1.3166 0.7764
-0.4910 1.3007 0.7746
-0.5379 1.2831 0.7728
-0.5841 1.2639 0.7709
-0.6296 1.2430 0.7691
-0.6743 1.2205 0.7672
-0.7182 1.1963 0.7654
-0.7612 1.1707 0.7635
-0.8033 1.1435 0.7616
-0.8443 1.1148 0.7598
-0.8843 1.0846 0.7579
-0.9232 1.0531 0.7561
-0.9609 1.0201 0.7542
-0.9974 0.9859 0.7524
-3.1206 2.8717 2.2682
-3.2309 2.7670 2.2682
