ply
format ascii 1.0
element vertex 2121
property float32 x
property float32 y
property float32 z
end_header
11.6658 29.4667 1.5972
10.4605 29.4719 1.5755
9.2838 29.4728 1.5561
8.8282 31.9916 1.6707
8.8508 37.2383 1.9262
8.3702 41.8398 2.1465
6.8653 42.1274 2.1465
5.3178 42.1018 2.1334
3.8042 42.2787 2.1334
2.2849 42.4007 2.1334
0.7984 44.5196 2.2365
-0.8004 44.5320 2.2365
-2.3990 44.4862 2.2365
-3.9953 44.3827 2.2365
-5.5872 44.2210 2.2365
-6.4697 39.6905 2.0174
-8.3452 41.7064 2.1333
-9.8388 41.3880 2.1333
-6.8048 24.6553 1.2823
-12.9266 41.0321 2.1565
-14.3933 40.5476 2.1565
-15.8416 40.0103 2.1565
-17.2696 39.4205 2.1565
-15.2940 31.7576 1.7660
-11.4425 21.7285 1.2303
-11.4738 20.0111 1.1555
-11.7827 18.9400 1.1173
-11.8451 17.5988 1.0626
-12.4079 17.0779 1.0573
-12.1845 15.5634 0.9899
-13.1156 15.5674 1.0196
-21.7343 23.9937 1.6216
-22.4071 23.0189 1.6091
-21.9342 20.9714 1.5202
-21.9654 19.5413 1.4729
-21.9954 18.1964 1.4303
-19.8795 15.2779 1.2563
-20.0151 14.2694 1.2318
-20.0196 13.2151 1.2023
-20.0240 12.2093 1.1756
-20.0281 11.2461 1.1516
-17.7710 9.1557 1.0025
-18.5737 8.7404 1.0296
-18.5771 7.9406 1.0135
-18.5804 7.1646 0.9992
-18.5837 6.4096 0.9866
-18.6599 5.6951 0.9794
-18.7080 4.9832 0.9722
-18.7111 4.2711 0.9640
-18.5960 3.5478 0.9512
-17.7300 2.7270 0.9016
-18.6019 2.1809 0.9416
-18.6048 1.5067 0.9387
-18.6076 0.8361 0.9370
-15.5885 0.1403 0.7845
-28.9345 -0.7786 1.4571
-28.6441 -1.8014 1.4454
-26.9621 -2.6701 1.3650
-25.7394 -3.4859 1.3091
-25.0885 -4.3199 1.2835
-24.6607 -5.1640 1.2708
-24.2960 -6.0055 1.2628
-23.9950 -6.8538 1.2597
-23.7225 -7.7071 1.2596
-23.6769 -8.6436 1.2734
-23.8224 -9.6793 1.2996
-23.9524 -10.7494 1.3275
-23.9044 -11.7763 1.3480
-23.7698 -12.7901 1.3660
-23.6073 -13.8177 1.3849
-23.5101 -14.9190 1.4104
-23.4342 -16.0790 1.4402
-23.3705 -17.3011 1.4742
-23.4104 -18.6679 1.5187
-23.5642 -20.2161 1.5754
-23.9076 -22.0489 1.6510
-24.7467 -24.5241 1.7694
-28.0225 -29.8390 2.0798
-27.9139 -31.9480 2.1565
-26.7374 -32.9151 2.1565
-25.5277 -33.8391 2.1565
-27.6647 -39.5487 2.4565
-22.7668 -35.1705 2.1333
-21.4810 -35.9508 2.1333
-20.1687 -36.6842 2.1334
-18.8316 -37.3701 2.1334
-17.4713 -38.0074 2.1334
-16.8669 -40.4602 2.2365
-15.3978 -41.0240 2.2365
-13.9101 -41.5349 2.2365
-12.4057 -41.9922 2.2365
-10.8865 -42.3955 2.2365
-9.3543 -42.7442 2.2365
-7.8113 -43.0382 2.2365
-6.2593 -43.2768 2.2365
-4.7003 -43.4601 2.2365
-3.1362 -43.5876 2.2365
-1.5691 -43.6596 2.2365
-0.0009 -30.2981 2.2365
1.0866 -30.2731 2.2365
2.0719 -28.8147 2.1333
3.1045 -28.7169 2.1333
4.1327 -28.5825 2.1333
5.1553 -28.4116 2.1333
6.1805 -28.2474 2.1365
5.9404 -23.1379 1.7653
8.1893 -27.7243 2.1365
9.1782 -27.4095 2.1365
10.1553 -27.0598 2.1365
11.1191 -26.6754 2.1365
12.0687 -26.2571 2.1365
13.0026 -25.8053 2.1365
13.9198 -25.3205 2.1365
14.8191 -24.8034 2.1365
10.3504 -15.9907 1.4086
10.3555 -14.8049 1.3361
10.3601 -13.7341 1.2722
10.3643 -12.7597 1.2156
10.3681 -11.8672 1.1653
10.3716 -11.0446 1.1204
10.3749 -10.2821 1.0801
10.3780 -9.5716 1.0439
10.3808 -8.9063 1.0113
10.3835 -8.2804 0.9819
10.3861 -7.6891 0.9553
10.3885 -7.1281 0.9313
10.3907 -6.5940 0.9096
8.8208 -5.1631 0.7554
6.0305 -3.2450 0.5061
8.8989 -4.3841 0.7330
8.9327 -4.0089 0.7233
8.9923 -3.6537 0.7170
10.4028 -3.7978 0.8179
8.9594 -2.9108 0.6956
8.9810 -2.5653 0.6896
9.0000 -2.2246 0.6843
9.0165 -1.8881 0.6799
9.0304 -1.5549 0.6761
10.4130 -1.4102 0.7752
10.4146 -1.0313 0.7719
10.4163 -0.6550 0.7696
10.4179 -0.2802 0.7683
10.4195 0.0939 0.7680
28.9653 1.3019 2.1365
28.9072 2.3414 2.1365
28.8120 3.3785 2.1365
25.3951 3.9065 1.8918
22.2583 4.2470 1.6680
22.2618 5.0821 1.6804
22.2655 5.9314 1.6952
22.2692 6.7973 1.7124
20.4221 7.0443 1.5884
18.3066 7.0596 1.4422
2.2600 0.9661 0.1806
14.8963 7.0105 1.2094
13.7351 7.0770 1.1347
12.6061 7.0791 1.0615
11.6144 7.0823 0.9984
10.7362 7.0876 0.9439
9.8611 7.0308 0.8883
9.2471 7.1072 0.8552
8.6028 7.1175 0.8185
8.0105 7.1270 0.7857
7.4628 7.1358 0.7564
6.9535 7.1440 0.7301
6.4776 7.1516 0.7065
18.7793 22.2918 2.1334
17.9710 22.9567 2.1333
17.2470 23.7406 2.1465
16.3885 24.3516 2.1465
15.5083 24.9314 2.1465
14.6076 25.4794 2.1465
13.6743 25.9696 2.1444
12.6660 26.3040 2.1325
11.6898 26.6874 2.1276
7.8239 19.7631 1.5518
9.7785 27.5516 2.1338
7.2541 23.0300 1.7618
7.8118 28.3096 2.1423
6.8056 28.6346 2.1465
5.7391 28.6892 2.1333
4.7068 28.8840 2.1333
3.6678 29.0414 2.1334
2.6236 29.1613 2.1334
1.6517 30.6560 2.2365
0.5503 30.7016 2.2365
-0.5522 30.7075 2.2365
-1.6544 30.6734 2.2365
-2.7548 30.5995 2.2365
-3.8520 30.4860 2.2365
-4.9446 30.3327 2.2365
-5.9541 29.7556 2.2080
-6.7823 28.5296 2.1334
-6.7648 24.5099 1.8496
-8.8137 27.9761 2.1334
-9.8132 27.6445 2.1334
-10.6669 26.9405 2.1071
-11.9008 27.1650 2.1565
-12.8691 26.7223 2.1565
-11.4302 21.7051 1.7835
-11.4080 19.8962 1.6674
-11.7681 18.9165 1.6196
-11.8451 17.5988 1.5422
-12.4079 17.0779 1.5345
-12.1845 15.5634 1.4369
-13.1156 15.5674 1.4798
-18.6170 20.5524 2.0159
-19.0128 19.5320 1.9816
-19.2571 18.4119 1.9369
-19.6307 17.4643 1.9103
-19.9187 16.4785 1.8796
-19.8795 15.2781 1.8231
-20.0151 14.2695 1.7875
-20.0196 13.2153 1.7446
-20.0240 12.2094 1.7058
-20.0281 11.2463 1.6709
-17.8868 9.2155 1.4639
-18.5737 8.7405 1.4936
-18.5771 7.9407 1.4702
-18.5804 7.1648 1.4494
-18.5837 6.4098 1.4310
-18.6599 5.6953 1.4204
-18.7080 4.9834 1.4098
-18.7111 4.2713 1.3979
-18.5960 3.5480 1.3791
-17.7237 2.7262 1.3066
-18.6019 2.1811 1.3650
-18.6048 1.5069 1.3607
-18.6076 0.8363 1.3581
-10.5572 0.0951 0.7700
-23.6500 -0.6361 1.7259
-23.0887 -1.4517 1.6880
-22.7257 -2.2503 1.6668
-22.5275 -3.0507 1.6596
-22.2685 -3.8341 1.6501
-22.0671 -4.6206 1.6468
-21.8579 -5.4025 1.6451
-21.6406 -6.1810 1.6449
-21.4795 -6.9781 1.6511
-21.3601 -7.7975 1.6628
-21.2655 -8.6401 1.6790
-21.2707 -9.5455 1.7059
-21.2123 -10.4497 1.7308
-21.1708 -11.3912 1.7602
-20.9947 -12.2881 1.7816
-20.8225 -13.2130 1.8067
-20.6460 -14.1655 1.8349
-20.4862 -15.1654 1.8685
-20.3701 -16.2431 1.9104
-20.2753 -17.3940 1.9595
-20.2258 -18.6528 2.0188
-20.2034 -20.0210 2.0876
-19.9845 -21.2794 2.1432
-19.3210 -22.1125 2.1565
-18.5091 -22.7850 2.1565
-17.6740 -23.4277 2.1565
-16.8167 -24.0400 2.1565
-15.9383 -24.6210 2.1565
-15.0399 -25.1700 2.1565
-14.1227 -25.6864 2.1565
-13.1878 -26.1696 2.1565
-12.2366 -26.6188 2.1565
-11.2701 -27.0335 2.1565
-10.1787 -27.1178 2.1333
-9.1965 -27.4591 2.1333
-8.2029 -27.7652 2.1333
-7.1994 -28.0354 2.1334
-6.2243 -28.4400 2.1463
-5.4166 -29.8422 2.2365
-4.3409 -30.0107 2.2365
-3.2601 -30.1406 2.2365
-2.1756 -30.2319 2.2365
-1.0887 -30.2844 2.2365
-0.0009 -23.1760 2.2365
0.8310 -23.1578 2.2365
1.6616 -23.1099 2.2365
2.3748 -21.9691 2.1333
3.1618 -21.8687 2.1334
3.9444 -21.7387 2.1334
4.7217 -21.5808 2.1334
5.4928 -21.3953 2.1334
6.2658 -21.2131 2.1365
7.0227 -20.9727 2.1365
7.7705 -20.7056 2.1365
8.5082 -20.4120 2.1365
9.2350 -20.0922 2.1365
9.9498 -19.7467 2.1365
10.6518 -19.3760 2.1365
11.3401 -18.9805 2.1365
10.3504 -15.9907 1.8407
10.3555 -14.8050 1.7459
10.3601 -13.7341 1.6624
10.3643 -12.7597 1.5885
10.3681 -11.8672 1.5228
10.3716 -11.0445 1.4641
10.3749 -10.2820 1.4115
10.3780 -9.5715 1.3642
10.3808 -8.9062 1.3216
10.3835 -8.2803 1.2832
10.3861 -7.6890 1.2485
10.3885 -7.1281 1.2171
10.3907 -6.5939 1.1888
8.7557 -5.1250 0.9799
6.0305 -3.2450 0.6614
8.7592 -4.3152 0.9430
8.7609 -3.9317 0.9273
8.8577 -3.5990 0.9231
10.4028 -3.7977 1.0691
8.6951 -2.8249 0.8825
8.6965 -2.4840 0.8729
8.6980 -2.1499 0.8646
8.7002 -1.8218 0.8577
8.7056 -1.4989 0.8522
10.4130 -1.4101 1.0136
10.4146 -1.0312 1.0093
10.4163 -0.6549 1.0064
10.4179 -0.2801 1.0047
10.4195 0.0940 1.0044
22.1473 0.9957 2.1365
22.1016 1.7905 2.1365
22.0274 2.5832 2.1365
21.9249 3.3730 2.1365
21.7942 4.1587 2.1365
21.6355 4.9394 2.1365
21.4488 5.7141 2.1365
21.2345 6.4818 2.1365
20.9608 7.2304 2.1333
20.6924 7.9800 2.1333
2.2597 0.9660 0.2363
14.8959 7.0106 1.5828
13.7347 7.0770 1.4852
12.6056 7.0791 1.3894
11.6140 7.0823 1.3070
10.7359 7.0876 1.2357
9.8609 7.0309 1.1630
9.2468 7.1072 1.1197
8.6026 7.1175 1.0717
8.0103 7.1270 1.0289
7.4626 7.1358 0.9906
6.9533 7.1440 0.9562
6.4774 7.1516 0.9253
15.0290 17.8406 2.2365
14.3822 18.3728 2.2365
13.7166 18.8815 2.2365
12.7643 18.9670 2.1904
11.8073 18.9821 2.1413
11.0796 19.3263 2.1334
10.3809 19.7156 2.1334
9.6685 20.0797 2.1334
8.9434 20.4180 2.1334
7.8034 19.7121 2.0286
7.4584 21.0154 2.1333
6.7006 21.2737 2.1333
5.9338 21.5046 2.1333
5.1589 21.7073 2.1333
4.3772 21.8824 2.1333
3.5896 22.0299 2.1333
2.8203 22.3323 2.1510
2.0973 23.3136 2.2365
1.2593 23.3776 2.2365
0.4194 23.4113 2.2365
-0.4212 23.4147 2.2365
-1.2616 23.3878 2.2365
-2.1005 23.3305 2.2365
-2.9370 23.2430 2.2365
-3.7698 23.1253 2.2365
-4.5980 22.9776 2.2365
-5.4204 22.8001 2.2365
-5.9947 21.7194 2.1500
-6.7187 21.3261 2.1334
-7.4805 21.0728 2.1334
-8.2326 20.7922 2.1334
-8.9742 20.4846 2.1334
-9.7042 20.1504 2.1334
-10.0359 19.0572 2.0544
-10.6367 18.5509 2.0396
-11.2961 18.1577 2.0396
-11.9408 17.7409 2.0396
-12.5700 17.3011 2.0396
-12.1845 15.5634 1.8851
-13.1057 15.5557 1.9400
-15.1131 16.6842 2.1471
-14.8674 15.2733 2.0330
-15.3105 14.6385 2.0204
-15.7290 13.9932 2.0081
-16.1145 13.3313 1.9950
-16.4787 12.6644 1.9826
-16.8201 11.9916 1.9707
-17.1358 11.3116 1.9590
-17.4311 10.6285 1.9480
-17.7064 9.9426 1.9378
-17.6974 9.1181 1.8999
-17.7008 8.3299 1.8671
-17.7040 7.5677 1.8378
-17.4852 6.7426 1.7890
-17.4882 6.0321 1.7662
-17.4912 5.3387 1.7463
-17.5456 4.6739 1.7341
-17.6081 4.0196 1.7251
-17.6109 3.3602 1.7127
-17.7249 2.7266 1.7135
-17.7276 2.0788 1.7057
-17.7304 1.4362 1.7002
-17.7332 0.7972 1.6969
-10.0962 0.0911 0.9654
-20.5762 -0.5532 1.9684
-20.4083 -1.2830 1.9559
-20.2731 -2.0072 1.9489
-20.1525 -2.7288 1.9459
-20.0841 -3.4577 1.9504
-19.9625 -4.1797 1.9524
-19.8395 -4.9034 1.9567
-19.7646 -5.6449 1.9685
-19.6772 -6.3923 1.9818
-19.5813 -7.1479 1.9972
-19.5027 -7.9235 2.0173
-19.4099 -8.7102 2.0392
-19.2442 -9.4798 2.0568
-19.0886 -10.2705 2.0787
-18.8943 -11.0584 2.0999
-18.6528 -11.8359 2.1195
-18.3888 -12.6164 2.1401
-17.9794 -13.3093 2.1472
-17.5513 -13.9949 2.1552
-17.0437 -14.6212 2.1565
-16.5040 -15.2200 2.1565
-15.9433 -15.7990 2.1565
-15.3623 -16.3573 2.1565
-14.7619 -16.8943 2.1565
-14.1426 -17.4093 2.1565
-13.5055 -17.9016 2.1565
-12.8513 -18.3707 2.1565
-12.1808 -18.8160 2.1565
-11.4950 -19.2369 2.1565
-10.7947 -19.6329 2.1565
-9.9720 -19.7876 2.1333
-9.2533 -20.1286 2.1333
-8.5230 -20.4436 2.1333
-7.7821 -20.7321 2.1333
-7.0315 -20.9940 2.1333
-6.2721 -21.2287 2.1333
-5.7714 -22.4737 2.2365
-4.9600 -22.6622 2.2365
-4.1426 -22.8216 2.2365
-3.3201 -22.9516 2.2365
-2.4936 -23.0522 2.2365
-1.6642 -23.1231 2.2365
-0.8329 -23.1644 2.2365
-0.0009 -18.7493 2.2365
0.6721 -18.7351 2.2365
1.3441 -18.6969 2.2365
1.9214 -17.7757 2.1334
2.5580 -17.6935 2.1334
3.1912 -17.5887 2.1334
3.8203 -17.4613 2.1334
4.4443 -17.3115 2.1334
5.0625 -17.1395 2.1334
5.6742 -16.9457 2.1334
6.2875 -16.7542 2.1365
6.8846 -16.5168 2.1365
6.0150 -13.0867 1.7197
8.0512 -15.9789 2.1365
8.6194 -15.6790 2.1365
9.1764 -15.3591 2.1365
9.7217 -15.0194 2.1365
10.2545 -14.6605 2.1365
10.3601 -13.7341 2.0544
10.3643 -12.7597 1.9631
10.3681 -11.8671 1.8818
10.3716 -11.0445 1.8093
10.3749 -10.2820 1.7443
10.3780 -9.5715 1.6858
10.3808 -8.9062 1.6332
10.3835 -8.2803 1.5858
10.3861 -7.6890 1.5429
10.3885 -7.1280 1.5042
10.3907 -6.5938 1.4692
8.7557 -5.1249 1.2111
6.0305 -3.2449 0.8174
8.7592 -4.3151 1.1654
8.7609 -3.9317 1.1460
8.8191 -3.5832 1.1360
8.8933 -3.2466 1.1297
8.6951 -2.8248 1.0908
8.6965 -2.4839 1.0790
8.6980 -2.1498 1.0688
8.6994 -1.8215 1.0601
8.7008 -1.4980 1.0529
10.4130 -1.4100 1.2530
10.4146 -1.0311 1.2477
10.4163 -0.6547 1.2441
10.4179 -0.2800 1.2421
10.4195 0.0941 1.2418
17.9126 0.8055 2.1365
17.8750 1.4483 2.1365
17.8143 2.0893 2.1365
17.7308 2.7279 2.1365
17.6244 3.3632 2.1365
17.4953 3.9944 2.1365
17.3436 4.6207 2.1365
17.1696 5.2412 2.1365
16.9735 5.8552 2.1365
16.7554 6.4619 2.1365
2.2595 0.9659 0.2923
14.9057 7.0154 1.9592
15.9482 8.2178 2.1333
12.5737 7.0614 1.7144
11.6137 7.0823 1.6168
10.7356 7.0876 1.5287
9.8606 7.0309 1.4389
9.2465 7.1072 1.3854
8.6023 7.1175 1.3261
8.0101 7.1270 1.2732
7.4624 7.1358 1.2258
6.9531 7.1440 1.1833
6.4772 7.1516 1.1451
12.1434 14.4156 2.2365
7.9338 10.1355 1.5270
11.0820 15.2553 2.2365
10.5292 15.6462 2.2365
9.9626 16.0169 2.2365
9.3829 16.3672 2.2365
8.7909 16.6963 2.2365
8.1873 17.0041 2.2365
7.5730 17.2900 2.2365
6.9487 17.5536 2.2365
6.3151 17.7946 2.2365
5.6732 18.0127 2.2365
5.0238 18.2076 2.2365
4.3677 18.3790 2.2365
3.7057 18.5267 2.2365
3.0388 18.6504 2.2365
2.3677 18.7501 2.2365
1.6934 18.8255 2.2365
1.0167 18.8766 2.2365
0.3385 18.9033 2.2365
-0.3403 18.9055 2.2365
-1.0188 18.8832 2.2365
-1.6961 18.8365 2.2365
-2.3713 18.7654 2.2365
-3.0437 18.6699 2.2365
-3.7122 18.5503 2.2365
-4.3760 18.4067 2.2365
-5.0343 18.2391 2.2365
-5.6861 18.0480 2.2365
-6.0388 17.0114 2.1334
-6.6459 16.7846 2.1334
-7.2445 16.5361 2.1334
-7.8337 16.2662 2.1334
-8.4128 15.9751 2.1334
-8.9811 15.6633 2.1334
-9.5377 15.3312 2.1334
-10.0213 14.8888 2.1205
-10.4763 14.4191 2.1059
-10.9531 13.9903 2.0993
-11.4152 13.5490 2.0933
-11.8621 13.0952 2.0877
-12.2924 12.6280 2.0823
-12.7006 12.1432 2.0763
-13.0913 11.6466 2.0705
-13.4638 11.1385 2.0649
-13.8070 10.6112 2.0578
-14.1323 10.0755 2.0511
-14.8641 9.8121 2.1050
-15.5781 9.4988 2.1565
-15.9079 8.9329 2.1565
-16.2170 8.3555 2.1565
-16.4932 7.7617 2.1549
-16.7445 7.1577 2.1530
-16.9750 6.5460 2.1512
-16.7896 5.7912 2.1002
-16.9866 5.1848 2.1004
-17.1613 4.5716 2.1006
-17.2748 3.9437 2.0961
-17.2776 3.2967 2.0810
-17.7249 2.7268 2.1220
-17.7276 2.0790 2.1123
-17.7304 1.4364 2.1054
-17.7332 0.7974 2.1013
-10.0962 0.0912 1.1954
-17.9584 -0.4826 2.1272
-17.8423 -1.1214 2.1172
-17.8263 -1.7647 2.1218
-17.7400 -2.4019 2.1208
-17.6042 -3.0306 2.1165
-17.5260 -3.6693 2.1220
-17.4320 -4.3081 2.1283
-17.3069 -4.9427 2.1337
-17.1368 -5.5668 2.1364
-16.9783 -6.1974 2.1434
-16.7586 -6.8084 2.1455
-16.5151 -7.4109 2.1475
-16.2728 -8.0158 2.1524
-16.0020 -8.6095 2.1565
-15.6797 -9.1766 2.1565
-15.3372 -9.7317 2.1565
-14.9751 -10.2740 2.1565
-14.5939 -10.8029 2.1565
-14.1940 -11.3176 2.1565
-13.7760 -11.8176 2.1565
-13.3403 -12.3021 2.1565
-12.8877 -12.7706 2.1565
-12.4186 -13.2225 2.1565
-11.9337 -13.6572 2.1565
-11.4336 -14.0742 2.1565
-10.9190 -14.4728 2.1565
-10.3905 -14.8528 2.1565
-9.7427 -15.0493 2.1333
-9.1945 -15.3866 2.1333
-8.6347 -15.7039 2.1333
-6.4853 -12.8685 1.7156
-7.4831 -16.2774 2.1333
-6.8928 -16.5327 2.1333
-6.2939 -16.7667 2.1333
-5.9623 -17.8009 2.2365
-5.3186 -18.0007 2.2365
-4.6683 -18.1772 2.2365
-4.0121 -18.3303 2.2365
-3.3510 -18.4599 2.2365
-2.6858 -18.5656 2.2365
-2.0173 -18.6476 2.2365
-1.3464 -18.7055 2.2365
-0.6740 -18.7395 2.2365
-0.0009 -15.7289 2.2365
0.5637 -15.7173 2.2365
1.1275 -15.6855 2.2365
1.6897 -15.6335 2.2365
2.1460 -14.8442 2.1334
2.3542 -12.9757 1.8760
3.2051 -14.6498 2.1334
3.7287 -14.5243 2.1334
4.2474 -14.3802 2.1334
4.7606 -14.2176 2.1334
5.2677 -14.0368 2.1334
5.7679 -13.8381 2.1334
6.2698 -13.6413 2.1365
6.7553 -13.4069 2.1365
5.9936 -10.9026 1.7706
7.6994 -12.8870 2.1365
8.1570 -12.6021 2.1365
8.6040 -12.3010 2.1365
9.0400 -11.9841 2.1365
9.4644 -11.6518 2.1365
9.8767 -11.3046 2.1365
10.2762 -10.9429 2.1365
10.3749 -10.2820 2.0789
10.3780 -9.5715 2.0092
10.3808 -8.9061 1.9465
10.3835 -8.2802 1.8900
10.3861 -7.6889 1.8389
10.3885 -7.1280 1.7928
10.3907 -6.5937 1.7511
8.7557 -5.1248 1.4435
6.0306 -3.2449 0.9743
8.7592 -4.3151 1.3891
8.7609 -3.9316 1.3660
8.8581 -3.5990 1.3600
10.4028 -3.7975 1.5751
8.6951 -2.8247 1.3002
8.6965 -2.4838 1.2861
8.6980 -2.1497 1.2740
8.6994 -1.8214 1.2637
8.7008 -1.4979 1.2551
10.4130 -1.4099 1.4937
10.4146 -1.0310 1.4875
10.4163 -0.6546 1.4832
10.4179 -0.2799 1.4809
10.4195 0.0943 1.4804
15.0244 0.6758 2.1365
14.9924 1.2149 2.1365
14.9412 1.7526 2.1365
14.8707 2.2881 2.1365
14.7811 2.8209 2.1365
14.6724 3.3501 2.1365
14.5449 3.8752 2.1365
14.3985 4.3955 2.1365
14.2336 4.9103 2.1365
14.0503 5.4189 2.1365
2.2592 0.9659 0.3485
13.6295 6.4150 2.1365
13.3926 6.9012 2.1365
13.1183 7.3675 2.1333
12.8475 7.8349 2.1333
12.5600 8.2923 2.1333
9.8604 7.0310 1.7163
9.2463 7.1072 1.6525
8.6021 7.1175 1.5818
8.0098 7.1270 1.5187
7.4622 7.1358 1.4623
6.9529 7.1440 1.4116
6.4771 7.1516 1.3661
10.1786 12.0835 2.2365
7.9239 10.1231 1.8195
9.2883 12.7866 2.2365
8.8248 13.1138 2.2365
8.3496 13.4241 2.2365
7.8636 13.7173 2.2365
7.3672 13.9928 2.2365
6.8612 14.2503 2.2365
6.3462 14.4895 2.2365
5.8228 14.7100 2.2365
5.2918 14.9116 2.2365
4.7538 15.0940 2.2365
4.2095 15.2569 2.2365
3.6596 15.4001 2.2365
3.1049 15.5235 2.2365
2.5460 15.6268 2.2365
1.9836 15.7100 2.2365
1.4186 15.7728 2.2365
0.8517 15.8153 2.2365
0.2835 15.8373 2.2365
-0.2852 15.8389 2.2365
-0.8536 15.8200 2.2365
-1.4210 15.7805 2.2365
-1.9867 15.7207 2.2365
-2.5499 15.6405 2.2365
-3.1099 15.5401 2.2365
-3.6659 15.4195 2.2365
-4.2173 15.2790 2.2365
-4.7633 15.1187 2.2365
-5.3031 14.9388 2.2365
-5.8362 14.7395 2.2365
-6.0685 13.8519 2.1334
-6.5621 13.6256 2.1334
-7.0471 13.3817 2.1334
-7.5231 13.1205 2.1334
-7.9893 12.8423 2.1334
-8.4453 12.5474 2.1334
-8.8903 12.2363 2.1334
-9.3238 11.9094 2.1334
-9.7452 11.5670 2.1334
-10.0516 11.0965 2.1119
-10.4185 10.7029 2.1069
-10.7710 10.2982 2.1021
-11.1089 9.8830 2.0974
-11.7788 9.7446 2.1565
-12.1205 9.3152 2.1565
-12.4465 8.8738 2.1565
-12.7564 8.4209 2.1565
-13.0497 7.9572 2.1565
-13.3261 7.4832 2.1565
-13.5853 6.9996 2.1565
-13.8268 6.5070 2.1565
-13.7229 5.8661 2.1063
-13.9174 5.3669 2.1053
-14.0942 4.8616 2.1045
-14.2532 4.3506 2.1037
-14.3942 3.8346 2.1031
-14.5171 3.3142 2.1025
-14.9337 2.8497 2.1468
-15.0188 2.3106 2.1460
-15.1101 1.7722 2.1488
-15.1771 1.2298 2.1509
-15.2365 0.6853 2.1547
-10.0962 0.0913 1.4266
-15.2553 -0.4098 2.1565
-15.2288 -0.9570 2.1565
-15.1826 -1.5028 2.1565
-15.0943 -2.0435 2.1533
-14.9956 -2.5813 2.1514
-14.8720 -3.1134 2.1486
-14.7582 -3.6471 2.1500
-14.6295 -4.1778 2.1521
-14.4835 -4.7046 2.1544
-14.3173 -5.2259 2.1565
-14.1183 -5.7355 2.1565
-13.9011 -6.2377 2.1565
-13.6661 -6.7315 2.1565
-13.4136 -7.2166 2.1565
-13.1438 -7.6922 2.1565
-12.8571 -8.1578 2.1565
-12.5540 -8.6126 2.1565
-12.2348 -9.0563 2.1565
-11.8999 -9.4881 2.1565
-11.5497 -9.9075 2.1565
-11.1849 -10.3141 2.1565
-10.8057 -10.7072 2.1565
-10.4127 -11.0864 2.1565
-9.8985 -11.3277 2.1333
-9.4840 -11.6739 2.1333
-9.0574 -12.0050 2.1333
-8.6193 -12.3205 2.1333
-8.1702 -12.6200 2.1333
-7.7107 -12.9032 2.1333
-7.2415 -13.1697 2.1333
-6.4713 -12.8404 2.0412
-6.2761 -13.6514 2.1333
-6.0610 -14.5370 2.2365
-5.5345 -14.7432 2.2365
-5.0010 -14.9303 2.2365
-4.4612 -15.0982 2.2365
-3.9158 -15.2466 2.2365
-3.3655 -15.3754 2.2365
-2.8111 -15.4845 2.2365
-2.2531 -15.5736 2.2365
-1.6924 -15.6426 2.2365
-1.1296 -15.6915 2.2365
-0.5656 -15.7203 2.2365
-0.0009 -13.5345 2.2365
0.4850 -13.5247 2.2365
0.9701 -13.4975 2.2365
1.4539 -13.4530 2.2365
1.8913 -13.0830 2.1850
2.3038 -12.6985 2.1334
2.7580 -12.6068 2.1334
3.2086 -12.4990 2.1334
3.6551 -12.3751 2.1334
4.0968 -12.2353 2.1334
4.5332 -12.0798 2.1334
4.9637 -11.9088 2.1334
5.3879 -11.7225 2.1334
5.8050 -11.5212 2.1334
6.2238 -11.3214 2.1365
6.6261 -11.0905 2.1365
7.0198 -10.8453 2.1365
6.0105 -8.5930 1.7342
7.7798 -10.3135 2.1365
8.1451 -10.0276 2.1365
8.4998 -9.7287 2.1365
8.8437 -9.4174 2.1365
9.1762 -9.0940 2.1365
9.4970 -8.7589 2.1365
9.8055 -8.4125 2.1365
10.1015 -8.0553 2.1365
10.3846 -7.6877 2.1365
10.3885 -7.1279 2.0832
10.3907 -6.5937 2.0348
8.7557 -5.1248 1.6774
6.0306 -3.2449 1.1322
8.7592 -4.3150 1.6142
8.7609 -3.9315 1.5874
8.8582 -3.5990 1.5805
10.4028 -3.7974 1.8304
8.6951 -2.8247 1.5110
8.6965 -2.4837 1.4946
8.6980 -2.1496 1.4805
8.6994 -1.8213 1.4686
8.7008 -1.4978 1.4586
10.4130 -1.4098 1.7359
10.4146 -1.0309 1.7287
10.4163 -0.6545 1.7238
10.4179 -0.2798 1.7211
10.4195 0.0944 1.7206
12.9267 0.5816 2.1365
12.8990 1.0454 2.1365
12.8547 1.5080 2.1365
12.7938 1.9687 2.1365
12.7164 2.4270 2.1365
12.6227 2.8823 2.1365
12.5127 3.3340 2.1365
12.3865 3.7815 2.1365
12.2444 4.2242 2.1365
12.0865 4.6617 2.1365
2.2590 0.9658 0.4051
11.7240 5.5183 2.1365
11.5200 5.9365 2.1365
11.3010 6.3470 2.1365
11.0674 6.7496 2.1365
10.8030 7.1326 2.1333
10.5415 7.5168 2.1333
10.2663 7.8915 2.1333
9.9778 8.2561 2.1333
7.9470 7.0713 1.7520
7.4619 7.1358 1.7002
6.9527 7.1440 1.6414
6.4769 7.1516 1.5884
8.3491 9.9119 2.1333
7.9139 10.1106 2.1132
7.6185 10.4882 2.1333
7.2381 10.7563 2.1333
7.1797 11.5436 2.2365
6.7616 11.7954 2.2365
6.3347 12.0321 2.2365
5.8995 12.2532 2.2365
5.4565 12.4586 2.2365
5.0064 12.6480 2.2365
4.5497 12.8211 2.2365
4.0871 12.9777 2.2365
3.6190 13.1175 2.2365
3.1462 13.2404 2.2365
2.6692 13.3463 2.2365
2.1887 13.4349 2.2365
1.7052 13.5061 2.2365
1.2195 13.5600 2.2365
0.7320 13.5963 2.2365
0.2436 13.6150 2.2365
-0.2453 13.6162 2.2365
-0.7339 13.5997 2.2365
-1.2217 13.5657 2.2365
-1.7080 13.5141 2.2365
-2.1921 13.4450 2.2365
-2.6734 13.3585 2.2365
-3.1514 13.2548 2.2365
-3.6253 13.1339 2.2365
-4.0946 12.9960 2.2365
-4.5586 12.8412 2.2365
-5.0168 12.6699 2.2365
-5.4685 12.4821 2.2365
-5.9132 12.2782 2.2365
-6.0575 11.5025 2.1334
-6.4666 11.2779 2.1334
-6.8674 11.0388 2.1334
-7.2593 10.7853 2.1334
-7.6417 10.5179 2.1334
-8.0144 10.2368 2.1334
-8.3766 9.9426 2.1334
-8.7280 9.6354 2.1334
-9.0681 9.3158 2.1334
-9.3965 8.9842 2.1334
-9.7127 8.6410 2.1334
-10.0163 8.2865 2.1334
-10.1647 7.8121 2.1040
-10.1671 7.2488 2.0494
-10.6508 7.0311 2.0947
-11.2174 6.8400 2.1565
-11.4551 6.4327 2.1565
-11.4892 5.9197 2.1217
-11.6854 5.4993 2.1202
-11.8669 5.0728 2.1188
-12.0333 4.6405 2.1176
-12.1847 4.2030 2.1164
-12.3208 3.7609 2.1154
-12.4419 3.3146 2.1146
-12.8008 2.9226 2.1565
-12.8963 2.4610 2.1565
-12.9751 1.9963 2.1565
-13.0371 1.5292 2.1565
-13.0823 1.0601 2.1565
-13.1105 0.5898 2.1565
-10.0962 0.0914 1.6593
-13.1162 -0.3522 2.1565
-13.0936 -0.8227 2.1565
-13.0541 -1.2920 2.1565
-12.9977 -1.7595 2.1565
-12.9246 -2.2246 2.1565
-12.8348 -2.6868 2.1565
-12.7285 -3.1454 2.1565
-12.6058 -3.5998 2.1565
-12.4668 -4.0494 2.1565
-12.3118 -4.4937 2.1565
-12.1410 -4.9321 2.1565
-11.9545 -5.3640 2.1565
-11.7526 -5.7888 2.1565
-11.5357 -6.2061 2.1565
-11.3039 -6.6153 2.1565
-11.0576 -7.0158 2.1565
-10.7972 -7.4071 2.1565
-10.5229 -7.7889 2.1565
-10.1247 -8.0724 2.1333
-9.8270 -8.4295 2.1333
-9.5167 -8.7756 2.1333
-9.1943 -9.1103 2.1333
-8.8601 -9.4331 2.1333
-8.5146 -9.7438 2.1333
-8.1582 -10.0418 2.1333
-7.7915 -10.3268 2.1333
-7.4147 -10.5984 2.1333
-7.0286 -10.8563 2.1333
-6.6335 -11.1001 2.1333
-6.2299 -11.3296 2.1333
-6.1000 -12.1033 2.2365
-5.6609 -12.3129 2.2365
-5.2146 -12.5066 2.2365
-4.7618 -12.6842 2.2365
-4.3028 -12.8455 2.2365
-3.8385 -12.9902 2.2365
-3.3693 -13.1181 2.2365
-2.8959 -13.2292 2.2365
-2.4189 -13.3232 2.2365
-1.9388 -13.4001 2.2365
-1.4564 -13.4597 2.2365
-0.9722 -13.5020 2.2365
-0.4868 -13.5270 2.2365
-0.0009 -11.8666 2.2365
0.4251 -11.8582 2.2365
0.8505 -11.8344 2.2365
1.2747 -11.7955 2.2365
1.6972 -11.7414 2.2365
2.0199 -11.1341 2.1334
2.4182 -11.0538 2.1334
2.8133 -10.9593 2.1334
3.2048 -10.8508 2.1334
3.5921 -10.7283 2.1334
3.9748 -10.5920 2.1334
4.3523 -10.4421 2.1334
4.7243 -10.2788 2.1334
5.0901 -10.1023 2.1334
5.4494 -9.9128 2.1334
5.8016 -9.7106 2.1334
6.1553 -9.5097 2.1365
6.4927 -9.2825 2.1365
6.8217 -9.0434 2.1365
6.0302 -7.4239 1.8039
6.0280 -6.8995 1.7280
7.7546 -8.2576 2.1365
8.0462 -7.9740 2.1365
8.3274 -7.6802 2.1365
8.5979 -7.3764 2.1365
8.8574 -7.0632 2.1365
9.1056 -6.7409 2.1365
9.3420 -6.4098 2.1365
9.5665 -6.0706 2.1365
8.8118 -5.1575 1.9252
6.0306 -3.2449 1.2912
8.7592 -4.3149 1.8410
8.7609 -3.9315 1.8104
8.8584 -3.5990 1.8026
10.4028 -3.7973 2.0876
8.6951 -2.8246 1.7233
8.6965 -2.4837 1.7047
8.6980 -2.1496 1.6886
8.6994 -1.8212 1.6750
8.7008 -1.4977 1.6637
10.4130 -1.4097 1.9800
10.4146 -1.0308 1.9718
10.4163 -0.6544 1.9662
10.4179 -0.2797 1.9632
10.4195 0.0945 1.9626
11.3327 0.5100 2.1365
11.3082 0.9166 2.1365
11.2692 1.3221 2.1365
11.2156 1.7260 2.1365
11.1477 2.1277 2.1365
11.0653 2.5268 2.1365
10.9687 2.9228 2.1365
10.8580 3.3150 2.1365
10.7332 3.7031 2.1365
10.5946 4.0864 2.1365
2.2587 0.9657 0.4621
10.2766 4.8372 2.1365
10.0975 5.2036 2.1365
9.9054 5.5634 2.1365
9.7005 5.9161 2.1365
9.4830 6.2613 2.1365
9.2533 6.5985 2.1365
8.9979 6.9167 2.1333
8.7449 7.2361 2.1333
8.4805 7.5463 2.1333
8.2052 7.8468 2.1333
7.9192 8.1373 2.1333
6.4430 7.1144 1.8030
7.3168 8.6866 2.1333
7.0011 8.9447 2.1333
6.6763 9.1914 2.1333
6.3429 9.4262 2.1333
6.0011 9.6489 2.1333
5.6516 9.8592 2.1333
5.2946 10.0569 2.1333
5.1694 10.7373 2.2365
4.7812 10.9172 2.2365
4.3868 11.0829 2.2365
3.9865 11.2344 2.2365
3.5811 11.3715 2.2365
3.1709 11.4938 2.2365
2.7566 11.6014 2.2365
2.3386 11.6940 2.2365
1.9176 11.7714 2.2365
1.4939 11.8337 2.2365
1.0683 11.8808 2.2365
0.6412 11.9124 2.2365
0.2133 11.9287 2.2365
-0.2150 11.9296 2.2365
-0.6431 11.9151 2.2365
-1.0705 11.8851 2.2365
-1.4965 11.8398 2.2365
-1.9206 11.7792 2.2365
-2.3422 11.7034 2.2365
-2.7610 11.6124 2.2365
-3.1761 11.5064 2.2365
-3.5872 11.3855 2.2365
-3.9937 11.2499 2.2365
-4.3951 11.0997 2.2365
-4.7908 10.9351 2.2365
-5.1804 10.7565 2.2365
-5.5632 10.5638 2.2365
-5.9389 10.3576 2.2365
-6.0495 9.7240 2.1452
-6.3595 9.4485 2.1334
-6.6946 9.2143 2.1334
-7.0210 8.9681 2.1334
-7.3384 8.7103 2.1334
-7.6462 8.4412 2.1334
-7.9442 8.1612 2.1334
-8.2319 7.8707 2.1334
-8.5089 7.5700 2.1334
-8.7749 7.2596 2.1334
-9.0295 6.9397 2.1334
-9.2725 6.6110 2.1334
-9.5034 6.2737 2.1334
-9.7221 5.9283 2.1334
-9.9282 5.5753 2.1334
-10.1134 5.2109 2.1317
-10.2873 4.8414 2.1305
-10.4482 4.4664 2.1293
-10.5959 4.0862 2.1283
-10.7302 3.7014 2.1273
-10.8510 3.3123 2.1265
-10.4737 2.7904 2.0317
-10.7752 2.4602 2.0719
-10.7769 2.0567 2.0569
-10.7786 1.6585 2.0447
-10.7864 1.2653 2.0364
-10.7992 0.8752 2.0317
-11.4874 0.5169 2.1565
-10.0962 0.0916 1.8937
-11.4926 -0.3085 2.1565
-11.4730 -0.7207 2.1565
-11.4386 -1.1319 2.1565
-11.3893 -1.5416 2.1565
-11.3254 -1.9492 2.1565
-11.2470 -2.3542 2.1565
-11.1540 -2.7561 2.1565
-11.0466 -3.1543 2.1565
-10.9250 -3.5484 2.1565
-10.7893 -3.9378 2.1565
-10.6397 -4.3220 2.1565
-10.4765 -4.7006 2.1565
-10.2998 -5.0730 2.1565
-10.0015 -5.3805 2.1334
-9.8000 -5.7350 2.1333
-9.5866 -6.0823 2.1333
-9.3610 -6.4217 2.1333
-9.1233 -6.7528 2.1333
-8.8739 -7.0750 2.1333
-8.6132 -7.3881 2.1333
-8.3414 -7.6916 2.1333
-8.0589 -7.9850 2.1333
-7.7661 -8.2682 2.1333
-7.4634 -8.5406 2.1333
-7.1512 -8.8019 2.1333
-6.8298 -9.0519 2.1333
-6.4997 -9.2901 2.1333
-6.1613 -9.5163 2.1333
-6.0965 -10.2012 2.2365
-5.7257 -10.4123 2.2365
-5.3476 -10.6099 2.2365
-4.9627 -10.7939 2.2365
-4.5716 -10.9639 2.2365
-4.1746 -11.1197 2.2365
-3.7723 -11.2613 2.2365
-3.3653 -11.3883 2.2365
-2.9540 -11.5006 2.2365
-2.5390 -11.5981 2.2365
-2.1208 -11.6807 2.2365
-1.6999 -11.7482 2.2365
-1.2770 -11.8006 2.2365
-0.8524 -11.8379 2.2365
-0.4269 -11.8599 2.2365
-0.0009 -10.5549 2.2365
0.3780 -10.5474 2.2365
0.7564 -10.5263 2.2365
1.1337 -10.4918 2.2365
1.5096 -10.4437 2.2365
1.8834 -10.3822 2.2365
2.1509 -9.8323 2.1334
2.5024 -9.7483 2.1334
2.8506 -9.6518 2.1334
3.1952 -9.5428 2.1334
3.5356 -9.4216 2.1334
3.8714 -9.2884 2.1334
4.2023 -9.1431 2.1334
4.5277 -8.9861 2.1334
4.8473 -8.8176 2.1334
5.1607 -8.6378 2.1334
5.4674 -8.4469 2.1334
5.7670 -8.2451 2.1334
6.0681 -8.0443 2.1365
6.3530 -7.8213 2.1365
6.6297 -7.5882 2.1365
6.8979 -7.3453 2.1365
6.0300 -5.9759 1.8000
6.0201 -5.5521 1.7364
7.6480 -6.5614 2.1365
7.8788 -6.2828 2.1365
8.0995 -5.9960 2.1365
8.3098 -5.7016 2.1365
8.5095 -5.3998 2.1365
8.6982 -5.0910 2.1365
6.0307 -3.2448 1.4517
9.0419 -4.4541 2.1365
9.1964 -4.1268 2.1365
9.3391 -3.7942 2.1365
9.4698 -3.4567 2.1365
8.8105 -2.8620 1.9632
9.6947 -2.7686 2.1365
9.7885 -2.4190 2.1365
9.8697 -2.0661 2.1365
9.5161 -1.6380 2.0458
9.9940 -1.3528 2.1365
10.0369 -0.9933 2.1365
10.0669 -0.6324 2.1365
10.0840 -0.2706 2.1365
10.0880 0.0916 2.1365
10.0792 0.4537 2.1365
10.0573 0.8154 2.1365
10.0225 1.1760 2.1365
9.9747 1.5352 2.1365
9.9142 1.8924 2.1365
9.8408 2.2473 2.1365
9.7548 2.5994 2.1365
9.6562 2.9482 2.1365
9.5451 3.2933 2.1365
9.4217 3.6342 2.1365
2.2585 0.9657 0.5196
9.1387 4.3018 2.1365
8.9793 4.6275 2.1365
8.8084 4.9474 2.1365
8.6260 5.2610 2.1365
8.4326 5.5679 2.1365
8.2282 5.8676 2.1365
8.0131 6.1599 2.1365
7.7877 6.4443 2.1365
6.0764 5.4072 1.7190
6.0437 5.7799 1.7672
7.0414 7.2355 2.1333
6.7779 7.4844 2.1333
6.5056 7.7237 2.1333
6.2248 7.9531 2.1333
5.9360 8.1723 2.1333
5.6394 8.3810 2.1333
5.3355 8.5789 2.1333
5.0246 8.7658 2.1333
4.7072 8.9414 2.1333
4.3837 9.1056 2.1333
4.0544 9.2580 2.1333
3.8999 9.8533 2.2365
3.5440 9.9879 2.2365
3.1836 10.1096 2.2365
2.8189 10.2183 2.2365
2.4505 10.3138 2.2365
2.0790 10.3960 2.2365
1.7046 10.4648 2.2365
1.3280 10.5201 2.2365
0.9496 10.5618 2.2365
0.5699 10.5898 2.2365
0.1895 10.6042 2.2365
-0.1912 10.6049 2.2365
-0.5718 10.5919 2.2365
-0.9517 10.5652 2.2365
-1.3303 10.5249 2.2365
-1.7073 10.4709 2.2365
-2.0821 10.4034 2.2365
-2.4543 10.3225 2.2365
-2.8234 10.2282 2.2365
-3.1888 10.1207 2.2365
-3.5501 10.0001 2.2365
-3.9069 9.8666 2.2365
-4.2586 9.7203 2.2365
-4.6049 9.5614 2.2365
-4.9452 9.3902 2.2365
-5.2791 9.2068 2.2365
-5.6062 9.0115 2.2365
-5.9261 8.8046 2.2365
-6.0504 8.3275 2.1691
-6.2609 7.9972 2.1403
-6.5230 7.7425 2.1334
-6.7967 7.5033 2.1334
-7.0615 7.2545 2.1334
-7.3172 6.9963 2.1334
-7.5635 6.7290 2.1334
-7.8000 6.4531 2.1334
-8.0264 6.1688 2.1334
-8.2423 5.8766 2.1334
-8.4477 5.5768 2.1334
-8.6421 5.2698 2.1334
-8.8253 4.9560 2.1334
-8.9971 4.6358 2.1334
-9.1572 4.3097 2.1334
-9.3055 3.9781 2.1334
-9.4418 3.6413 2.1334
-9.5658 3.2999 2.1334
-9.6775 2.9542 2.1334
-9.7767 2.6048 2.1334
-9.8632 2.2521 2.1334
-9.9370 1.8965 2.1334
-9.9979 1.5385 2.1334
-10.0459 1.1785 2.1334
-10.0809 0.8171 2.1334
-10.1029 0.4547 2.1334
-10.0962 0.0917 2.1301
-10.1077 -0.2712 2.1334
-10.0906 -0.6337 2.1334
-10.0604 -0.9954 2.1334
-10.0172 -1.3558 2.1334
-9.9612 -1.7143 2.1334
-9.8922 -2.0705 2.1334
-9.8105 -2.4240 2.1334
-9.7162 -2.7743 2.1334
-9.6094 -3.1210 2.1334
-9.4902 -3.4635 2.1334
-9.3587 -3.8015 2.1334
-9.2153 -4.1346 2.1334
-9.0599 -4.4622 2.1334
-8.8930 -4.7840 2.1334
-8.7145 -5.0996 2.1334
-8.5249 -5.4085 2.1334
-8.3237 -5.7100 2.1333
-8.1125 -6.0044 2.1333
-7.8909 -6.2911 2.1333
-7.6591 -6.5695 2.1333
-7.4175 -6.8395 2.1333
-7.1665 -7.1006 2.1333
-6.9062 -7.3524 2.1333
-6.6371 -7.5948 2.1333
-6.3595 -7.8273 2.1333
-6.1403 -8.1378 2.1566
-6.0600 -8.6615 2.2365
-5.7446 -8.8725 2.2365
-5.4218 -9.0721 2.2365
-5.0922 -9.2599 2.2365
-4.7560 -9.4358 2.2365
-4.4137 -9.5995 2.2365
-4.0659 -9.7508 2.2365
-3.7129 -9.8895 2.2365
-3.3551 -10.0155 2.2365
-2.9932 -10.1286 2.2365
-2.6274 -10.2286 2.2365
-2.2583 -10.3154 2.2365
-1.8864 -10.3890 2.2365
-1.5121 -10.4492 2.2365
-1.1359 -10.4959 2.2365
-0.7583 -10.5291 2.2365
-0.3798 -10.5488 2.2365
-0.0009 -9.4952 2.2365
0.3400 -9.4885 2.2365
0.6804 -9.4696 2.2365
1.0199 -9.4386 2.2365
1.3580 -9.3954 2.2365
1.6943 -9.3401 2.2365
1.9350 -8.8454 2.1334
2.2512 -8.7699 2.1334
2.5645 -8.6831 2.1334
2.8745 -8.5851 2.1334
3.1807 -8.4761 2.1334
3.4829 -8.3562 2.1334
3.7805 -8.2256 2.1334
4.0733 -8.0844 2.1334
4.3608 -7.9328 2.1334
4.6428 -7.7710 2.1334
4.9187 -7.5992 2.1334
5.1883 -7.4177 2.1334
5.4513 -7.2266 2.1334
5.7072 -7.0263 2.1334
5.9644 -6.8267 2.1365
6.2057 -6.6082 2.1365
6.4390 -6.3813 2.1365
6.6641 -6.1461 2.1365
6.8806 -5.9030 2.1365
7.0882 -5.6523 2.1365
6.0208 -4.4571 1.7653
6.0420 -4.1455 1.7267
7.6555 -4.8578 2.1365
7.8252 -4.5800 2.1365
6.0307 -3.2448 1.6136
8.1344 -4.0070 2.1365
8.2733 -3.7125 2.1365
8.4017 -3.4133 2.1365
8.5193 -3.1096 2.1365
8.6259 -2.8019 2.1365
8.7214 -2.4906 2.1365
8.8057 -2.1760 2.1365
8.8787 -1.8586 2.1365
8.9403 -1.5388 2.1365
8.9904 -1.2169 2.1365
9.0290 -0.8934 2.1365
9.0559 -0.5687 2.1365
9.0711 -0.2433 2.1365
9.0748 0.0825 2.1365
9.0667 0.4083 2.1365
9.0469 0.7336 2.1365
9.0155 1.0580 2.1365
8.9725 1.3810 2.1365
8.9179 1.7024 2.1365
8.8519 2.0216 2.1365
8.7744 2.3383 2.1365
8.6856 2.6520 2.1365
8.5856 2.9624 2.1365
8.4746 3.2690 2.1365
2.2582 0.9656 0.5776
8.2198 3.8694 2.1365
8.0764 4.1623 2.1365
7.9225 4.4500 2.1365
7.7585 4.7320 2.1365
6.0856 4.0184 1.7143
6.0469 4.3123 1.7457
6.0498 4.6507 1.7935
7.0041 5.7961 2.1365
6.7922 6.0444 2.1365
6.5716 6.2849 2.1365
6.3327 6.5075 2.1333
6.0956 6.7313 2.1333
5.8507 6.9464 2.1333
5.5981 7.1527 2.1333
5.3383 7.3497 2.1333
5.0715 7.5373 2.1333
4.7982 7.7152 2.1333
4.5186 7.8832 2.1333
4.2331 8.0411 2.1333
3.9421 8.1886 2.1333
3.6460 8.3256 2.1333
3.3451 8.4518 2.1333
3.1869 8.9818 2.2365
2.8627 9.0912 2.2365
2.5348 9.1888 2.2365
2.2035 9.2746 2.2365
1.8693 9.3485 2.2365
1.5327 9.4102 2.2365
1.1941 9.4599 2.2365
0.8538 9.4973 2.2365
0.5124 9.5225 2.2365
0.1703 9.5354 2.2365
-0.1721 9.5359 2.2365
-0.5142 9.5242 2.2365
-0.8558 9.5001 2.2365
-1.1963 9.4638 2.2365
-1.5353 9.4152 2.2365
-1.8723 9.3545 2.2365
-2.2069 9.2817 2.2365
-2.5387 9.1968 2.2365
-2.8673 9.1001 2.2365
-3.1922 8.9917 2.2365
-3.5129 8.8716 2.2365
-3.8292 8.7400 2.2365
-4.1405 8.5971 2.2365
-4.4465 8.4432 2.2365
-4.7467 8.2783 2.2365
-5.0408 8.1027 2.2365
-5.3285 7.9166 2.2365
-5.6092 7.7203 2.2365
-5.8827 7.5140 2.2365
-6.0557 7.1877 2.2027
-6.1112 6.7466 2.1334
-6.3493 6.5229 2.1334
-6.5793 6.2907 2.1334
-6.8007 6.0504 2.1334
-7.0133 5.8023 2.1334
-7.2169 5.5467 2.1334
-7.4111 5.2840 2.1334
-7.5958 5.0144 2.1334
-7.7706 4.7384 2.1334
-7.9354 4.4563 2.1334
-8.0899 4.1685 2.1334
-8.2339 3.8752 2.1334
-8.3673 3.5771 2.1334
-8.4899 3.2743 2.1334
-8.6015 2.9673 2.1334
-8.7019 2.6565 2.1334
-8.7912 2.3423 2.1334
-8.8690 2.0252 2.1334
-8.9354 1.7054 2.1334
-8.9902 1.3835 2.1334
-9.0335 1.0599 2.1334
-9.0650 0.7349 2.1334
-9.0849 0.4090 2.1334
-9.0930 0.0827 2.1334
-9.0894 -0.2438 2.1334
-9.0740 -0.5698 2.1334
-9.0470 -0.8950 2.1334
-9.0082 -1.2191 2.1334
-8.9579 -1.5415 2.1334
-8.8960 -1.8619 2.1334
-8.8226 -2.1798 2.1334
-8.7379 -2.4948 2.1334
-8.6419 -2.8066 2.1334
-8.5348 -3.1147 2.1334
-8.4167 -3.4187 2.1334
-8.2877 -3.7183 2.1334
-8.1481 -4.0130 2.1334
-7.9980 -4.3024 2.1334
-7.8376 -4.5863 2.1334
-7.6672 -4.8642 2.1334
-7.4869 -5.1358 2.1334
-7.2970 -5.4006 2.1334
-7.0972 -5.6581 2.1333
-6.8888 -5.9086 2.1333
-6.6716 -6.1515 2.1333
-6.4458 -6.3864 2.1333
-6.2118 -6.6130 2.1333
-6.1286 -7.0127 2.1900
-5.9970 -7.3810 2.2365
-5.7277 -7.5908 2.2365
-5.4510 -7.7907 2.2365
-5.1673 -7.9806 2.2365
-4.8770 -8.1602 2.2365
-4.5805 -8.3292 2.2365
-4.2781 -8.4875 2.2365
-3.9703 -8.6349 2.2365
-3.6575 -8.7710 2.2365
-3.3400 -8.8959 2.2365
-3.0182 -9.0093 2.2365
-2.6926 -9.1111 2.2365
-2.3636 -9.2012 2.2365
-2.0316 -9.2794 2.2365
-1.6970 -9.3456 2.2365
-1.3603 -9.3998 2.2365
-1.0219 -9.4419 2.2365
-0.6822 -9.4718 2.2365
-0.3418 -9.4896 2.2365
-0.0009 -8.6204 2.2365
0.3086 -8.6144 2.2365
0.6176 -8.5973 2.2365
0.9259 -8.5692 2.2365
1.2328 -8.5300 2.2365
1.5382 -8.4799 2.2365
1.8416 -8.4189 2.2365
2.0438 -7.9622 2.1334
2.3283 -7.8835 2.1334
2.6097 -7.7945 2.1334
2.8878 -7.6956 2.1334
3.1621 -7.5868 2.1334
3.4324 -7.4682 2.1334
3.6982 -7.3400 2.1334
3.9593 -7.2023 2.1334
4.2152 -7.0555 2.1334
4.4658 -6.8995 2.1334
4.7106 -6.7347 2.1334
4.9493 -6.5612 2.1334
5.1817 -6.3793 2.1334
5.4074 -6.1892 2.1334
5.6262 -5.9911 2.1334
5.8377 -5.7853 2.1334
6.0505 -5.5801 2.1365
6.2470 -5.3594 2.1365
6.4355 -5.1317 2.1365
6.6157 -4.8975 2.1365
6.7875 -4.6570 2.1365
6.9505 -4.4104 2.1365
7.1046 -4.1582 2.1365
6.0308 -3.2448 1.7773
6.0291 -2.9699 1.7442
6.0553 -2.7172 1.7223
7.6279 -3.0988 2.1365
7.7346 -2.8231 2.1365
7.8313 -2.5438 2.1365
7.9180 -2.2611 2.1365
7.9945 -1.9755 2.1365
8.0608 -1.6873 2.1365
8.1166 -1.3969 2.1365
8.1621 -1.1047 2.1365
8.1970 -0.8110 2.1365
8.2214 -0.5163 2.1365
8.2352 -0.2208 2.1365
8.2384 0.0750 2.1365
8.2310 0.3707 2.1365
8.2130 0.6660 2.1365
8.1845 0.9605 2.1365
8.1454 1.2538 2.1365
8.0957 1.5456 2.1365
8.0357 1.8353 2.1365
7.9653 2.1228 2.1365
7.8847 2.4076 2.1365
7.7938 2.6893 2.1365
7.6929 2.9676 2.1365
2.2579 0.9655 0.6362
6.0550 2.8504 1.7338
6.0466 3.1163 1.7621
6.0646 3.4066 1.8017
7.0426 4.2955 2.1365
6.8845 4.5460 2.1365
6.7175 4.7906 2.1365
6.5418 5.0291 2.1365
6.3576 5.2612 2.1365
6.1652 5.4865 2.1365
5.9558 5.6962 2.1333
5.7480 5.9068 2.1333
5.5328 6.1099 2.1333
5.3104 6.3051 2.1333
5.0811 6.4923 2.1333
4.8452 6.6711 2.1333
4.6031 6.8413 2.1333
4.3549 7.0027 2.1333
4.1011 7.1551 2.1333
3.8420 7.2983 2.1333
3.5778 7.4322 2.1333
3.3090 7.5564 2.1333
3.0359 7.6709 2.1333
2.8924 8.1519 2.2365
2.5981 8.2511 2.2365
2.3004 8.3397 2.2365
1.9998 8.4175 2.2365
1.6965 8.4845 2.2365
1.3910 8.5405 2.2365
1.0836 8.5855 2.2365
0.7748 8.6194 2.2365
0.4650 8.6422 2.2365
0.1545 8.6538 2.2365
-0.1562 8.6543 2.2365
-0.4668 8.6436 2.2365
-0.7767 8.6217 2.2365
-1.0857 8.5887 2.2365
-1.3933 8.5446 2.2365
-1.6992 8.4894 2.2365
-2.0029 8.4233 2.2365
-2.3040 8.3463 2.2365
-2.6021 8.2585 2.2365
-2.8970 8.1601 2.2365
-3.1881 8.0510 2.2365
-3.4750 7.9316 2.2365
-3.7576 7.8020 2.2365
-4.0352 7.6622 2.2365
-4.3077 7.5126 2.2365
-4.5746 7.3532 2.2365
-4.8356 7.1843 2.2365
-5.0904 7.0062 2.2365
-5.3386 6.8190 2.2365
-5.5798 6.6230 2.2365
-5.8139 6.4184 2.2365
-6.0405 6.2056 2.2365
-6.0627 5.7968 2.1663
-6.1717 5.4908 2.1334
-6.3646 5.2657 2.1334
-6.5494 5.0337 2.1334
-6.7257 4.7953 2.1334
-6.8933 4.5507 2.1334
-7.0519 4.3002 2.1334
-7.2015 4.0442 2.1334
-7.3417 3.7830 2.1334
-7.4725 3.5169 2.1334
-7.5935 3.2463 2.1334
-7.7048 2.9716 2.1334
-7.8061 2.6930 2.1334
-7.8973 2.4110 2.1334
-7.9783 2.1258 2.1334
-8.0490 1.8380 2.1334
-8.1094 1.5478 2.1334
-8.1592 1.2557 2.1334
-8.1985 0.9620 2.1334
-8.2271 0.6670 2.1334
-8.2452 0.3713 2.1334
-8.2526 0.0751 2.1334
-8.2494 -0.2211 2.1334
-8.2355 -0.5170 2.1334
-8.2111 -0.8122 2.1334
-8.1759 -1.1064 2.1334
-8.1303 -1.3990 2.1334
-8.0742 -1.6898 2.1334
-8.0077 -1.9783 2.1334
-7.9308 -2.2643 2.1334
-7.8438 -2.5473 2.1334
-7.7466 -2.8269 2.1334
-7.6395 -3.1029 2.1334
-7.5225 -3.3748 2.1334
-7.3958 -3.6423 2.1334
-7.2597 -3.9051 2.1334
-7.1142 -4.1628 2.1334
-6.9595 -4.4151 2.1334
-6.7959 -4.6616 2.1334
-6.6236 -4.9021 2.1334
-6.4428 -5.1362 2.1334
-6.2537 -5.3637 2.1334
-6.1290 -5.6510 2.1589
-6.1245 -6.0679 2.2329
-5.9117 -6.2934 2.2365
-5.6815 -6.5009 2.2365
-5.4440 -6.7001 2.2365
-5.1995 -6.8906 2.2365
-4.9483 -7.0722 2.2365
-4.6909 -7.2446 2.2365
-4.4274 -7.4077 2.2365
-4.1583 -7.5612 2.2365
-3.8838 -7.7049 2.2365
-3.6044 -7.8388 2.2365
-3.3204 -7.9624 2.2365
-3.0322 -8.0759 2.2365
-2.7401 -8.1789 2.2365
-2.4445 -8.2713 2.2365
-2.1459 -8.3531 2.2365
-1.8445 -8.4242 2.2365
-1.5408 -8.4844 2.2365
-1.2351 -8.5337 2.2365
-0.9279 -8.5719 2.2365
-0.6195 -8.5992 2.2365
-0.3104 -8.6153 2.2365
-0.0009 -7.8855 2.2365
0.2822 -7.8800 2.2365
0.5649 -7.8644 2.2365
0.8469 -7.8387 2.2365
1.1277 -7.8029 2.2365
1.4070 -7.7571 2.2365
1.6846 -7.7012 2.2365
1.9155 -7.4624 2.1858
2.1298 -7.2115 2.1334
2.3872 -7.1302 2.1334
2.6416 -7.0397 2.1334
2.8926 -6.9402 2.1334
3.1398 -6.8317 2.1334
3.3830 -6.7144 2.1334
3.6218 -6.5885 2.1334
3.8560 -6.4542 2.1334
4.0852 -6.3115 2.1334
4.3091 -6.1607 2.1334
4.5275 -6.0021 2.1334
4.7401 -5.8356 2.1334
4.9466 -5.6617 2.1334
5.1463 -5.4801 2.1333
5.3398 -5.2918 2.1333
5.5264 -5.0968 2.1333
5.7059 -4.8951 2.1333
5.8781 -4.6872 2.1333
6.0519 -4.4801 2.1365
6.2090 -4.2600 2.1365
6.3581 -4.0345 2.1365
6.4991 -3.8037 2.1365
6.0308 -3.2448 1.9429
6.7557 -3.3278 2.1365
6.8711 -3.0832 2.1365
6.9777 -2.8346 2.1365
7.0752 -2.5824 2.1365
6.0586 -1.9679 1.8069
6.0340 -1.7230 1.7799
6.0336 -1.4909 1.7628
6.0360 -1.2634 1.7490
6.0381 -1.0391 1.7375
6.0492 -0.8187 1.7310
6.0581 -0.5993 1.7262
6.0644 -0.3807 1.7229
6.0683 -0.1626 1.7211
6.0697 0.0553 1.7208
6.0686 0.2734 1.7221
6.0650 0.4919 1.7249
6.0589 0.7112 1.7291
6.0502 0.9314 1.7350
6.0468 1.1545 1.7446
6.0465 1.3811 1.7576
6.0477 1.6118 1.7735
6.0517 1.8480 1.7928
7.1287 2.4599 2.1365
7.0364 2.7145 2.1365
2.2577 0.9654 0.6955
6.8246 3.2128 2.1365
6.7054 3.4560 2.1365
6.5776 3.6948 2.1365
6.4412 3.9289 2.1365
6.2966 4.1579 2.1365
6.1438 4.3817 2.1365
5.9740 4.5928 2.1333
5.8057 4.8047 2.1333
5.6300 5.0104 2.1333
5.4470 5.2097 2.1333
5.2569 5.4023 2.1333
5.0601 5.5880 2.1333
4.8566 5.7665 2.1333
4.6469 5.9377 2.1333
4.4311 6.1011 2.1333
4.2096 6.2568 2.1333
3.9827 6.4043 2.1333
3.7505 6.5437 2.1333
3.5135 6.6746 2.1333
3.2719 6.7970 2.1333
3.0261 6.9105 2.1333
2.7763 7.0152 2.1333
2.5229 7.1109 2.1333
2.3759 7.5457 2.2365
2.1037 7.6267 2.2365
1.8287 7.6978 2.2365
1.5513 7.7590 2.2365
1.2719 7.8101 2.2365
0.9908 7.8513 2.2365
0.7085 7.8822 2.2365
0.4251 7.9030 2.2365
0.1412 7.9136 2.2365
-0.1429 7.9140 2.2365
-0.4269 7.9042 2.2365
-0.7104 7.8842 2.2365
-0.9929 7.8539 2.2365
-1.2742 7.8136 2.2365
-1.5539 7.7631 2.2365
-1.8316 7.7026 2.2365
-2.1069 7.6322 2.2365
-2.3796 7.5519 2.2365
-2.6491 7.4618 2.2365
-2.9153 7.3622 2.2365
-3.1777 7.2529 2.2365
-3.4361 7.1344 2.2365
-3.6900 7.0066 2.2365
-3.9391 6.8697 2.2365
-4.1832 6.7240 2.2365
-4.4218 6.5696 2.2365
-4.6548 6.4067 2.2365
-4.8817 6.2355 2.2365
-5.1024 6.0563 2.2365
-5.3164 5.8692 2.2365
-5.5236 5.6746 2.2365
-5.7236 5.4726 2.2365
-5.9163 5.2636 2.2365
-6.0659 5.0185 2.2235
-6.0670 4.6630 2.1612
-6.1502 4.3850 2.1334
-6.3034 4.1614 2.1334
-6.4485 3.9323 2.1334
-6.5853 3.6983 2.1334
-6.7136 3.4594 2.1334
-6.8332 3.2161 2.1334
-6.9439 2.9687 2.1334
-7.0457 2.7174 2.1334
-7.1383 2.4627 2.1334
-7.2218 2.2048 2.1334
-7.2959 1.9441 2.1334
-7.3606 1.6809 2.1334
-7.4158 1.4155 2.1334
-7.4614 1.1484 2.1334
-7.4973 0.8798 2.1334
-7.5236 0.6101 2.1334
-7.5402 0.3396 2.1334
-7.5470 0.0688 2.1334
-7.5441 -0.2021 2.1334
-7.5315 -0.4727 2.1334
-7.5091 -0.7427 2.1334
-7.4770 -1.0117 2.1334
-7.4354 -1.2793 2.1334
-7.3841 -1.5452 2.1334
-7.3233 -1.8091 2.1334
-7.2531 -2.0707 2.1334
-7.1735 -2.3295 2.1334
-7.0847 -2.5853 2.1334
-6.9868 -2.8377 2.1334
-6.8798 -3.0864 2.1334
-6.7640 -3.3311 2.1334
-6.6396 -3.5714 2.1334
-6.5065 -3.8071 2.1334
-6.3651 -4.0379 2.1334
-6.2156 -4.2634 2.1334
-6.1044 -4.5177 2.1498
-6.1052 -4.8669 2.2104
-5.9961 -5.1427 2.2365
-5.8072 -5.3541 2.2365
-5.6108 -5.5587 2.2365
-5.4071 -5.7560 2.2365
-5.1966 -5.9459 2.2365
-4.9794 -6.1281 2.2365
-4.7558 -6.3024 2.2365
-4.5261 -6.4685 2.2365
-4.2906 -6.6263 2.2365
-4.0497 -6.7755 2.2365
-3.8035 -6.9160 2.2365
-3.5525 -7.0475 2.2365
-3.2970 -7.1699 2.2365
-3.0372 -7.2831 2.2365
-2.7736 -7.3869 2.2365
-2.5065 -7.4812 2.2365
-2.2361 -7.5658 2.2365
-1.9629 -7.6407 2.2365
-1.6873 -7.7057 2.2365
-1.4094 -7.7608 2.2365
-1.1298 -7.8059 2.2365
-0.8488 -7.8410 2.2365
-0.5667 -7.8659 2.2365
-0.2840 -7.8808 2.2365
-0.0009 -7.2586 2.2365
0.2597 -7.2536 2.2365
0.5199 -7.2393 2.2365
0.7795 -7.2157 2.2365
1.0380 -7.1827 2.2365
1.2952 -7.1406 2.2365
1.5506 -7.0892 2.2365
1.8041 -7.0287 2.2365
1.9605 -6.6384 2.1334
2.1975 -6.5636 2.1334
2.4317 -6.4803 2.1334
2.6627 -6.3887 2.1334
2.8903 -6.2888 2.1334
3.1142 -6.1809 2.1334
3.3340 -6.0650 2.1334
3.5496 -5.9413 2.1334
3.7606 -5.8100 2.1334
3.9667 -5.6712 2.1334
4.1675 -5.5247 2.1333
4.3631 -5.3715 2.1333
4.5532 -5.2114 2.1333
4.7374 -5.0446 2.1333
4.9155 -4.8713 2.1333
5.0873 -4.6918 2.1333
5.2525 -4.5061 2.1333
5.4110 -4.3147 2.1333
5.5625 -4.1178 2.1333
5.7069 -3.9155 2.1333
5.8440 -3.7082 2.1333
5.9826 -3.5014 2.1365
6.1046 -3.2844 2.1365
6.2188 -3.0633 2.1365
6.3250 -2.8381 2.1365
6.4231 -2.6093 2.1365
6.5129 -2.3771 2.1365
6.5943 -2.1418 2.1365
6.6673 -1.9038 2.1365
6.7316 -1.6633 2.1365
6.7874 -1.4206 2.1365
6.8343 -1.1761 2.1365
6.8725 -0.9300 2.1365
6.9019 -0.6827 2.1365
6.9224 -0.4345 2.1365
6.9339 -0.1857 2.1365
6.9365 0.0633 2.1365
6.9302 0.3123 2.1365
6.9150 0.5610 2.1365
6.8909 0.8089 2.1365
6.8579 1.0558 2.1365
6.8160 1.3014 2.1365
6.7654 1.5454 2.1365
6.7061 1.7874 2.1365
6.6380 2.0271 2.1365
6.5615 2.2643 2.1365
6.4765 2.4986 2.1365
2.2574 0.9653 0.7556
6.2815 2.9573 2.1365
6.1718 3.1811 2.1365
6.0540 3.4009 2.1365
5.9195 3.6108 2.1333
5.7865 3.8213 2.1333
5.6461 4.0268 2.1333
5.4983 4.2272 2.1333
5.3435 4.4222 2.1333
5.1817 4.6116 2.1333
5.0132 4.7950 2.1333
4.8383 4.9722 2.1333
4.6570 5.1431 2.1333
4.4698 5.3074 2.1333
4.2767 5.4648 2.1333
4.0781 5.6152 2.1333
3.8742 5.7584 2.1333
3.6653 5.8942 2.1333
3.4516 6.0224 2.1333
3.2335 6.1429 2.1333
3.0111 6.2555 2.1333
2.7849 6.3600 2.1333
2.5550 6.4563 2.1333
2.3218 6.5443 2.1333
2.1865 6.9444 2.2365
1.9359 7.0189 2.2365
1.6829 7.0843 2.2365
1.4276 7.1406 2.2365
1.1705 7.1876 2.2365
0.9118 7.2254 2.2365
0.6519 7.2539 2.2365
0.3912 7.2730 2.2365
0.1299 7.2828 2.2365
-0.1316 7.2831 2.2365
-0.3929 7.2740 2.2365
-0.6538 7.2555 2.2365
-0.9138 7.2277 2.2365
-1.1727 7.1905 2.2365
-1.4300 7.1441 2.2365
-1.6856 7.0884 2.2365
-1.9389 7.0236 2.2365
-2.1898 6.9497 2.2365
-2.4379 6.8668 2.2365
-2.6828 6.7750 2.2365
-2.9243 6.6745 2.2365
-3.1621 6.5654 2.2365
-3.3957 6.4478 2.2365
-3.6250 6.3218 2.2365
-3.8495 6.1877 2.2365
-4.0692 6.0456 2.2365
-4.2835 5.8957 2.2365
-4.4924 5.7382 2.2365
-4.6954 5.5732 2.2365
-4.8924 5.4011 2.2365
-5.0830 5.2220 2.2365
-5.2671 5.0362 2.2365
-5.4444 4.8438 2.2365
-5.6147 4.6452 2.2365
-5.7776 4.4407 2.2365
-5.9332 4.2303 2.2365
-6.0691 4.0067 2.2321
-6.0701 3.7016 2.1822
-6.0794 3.4142 2.1402
-6.1782 3.1836 2.1334
-6.2883 2.9597 2.1334
-6.3902 2.7320 2.1334
-6.4839 2.5008 2.1334
-6.5692 2.2664 2.1334
-6.6460 2.0291 2.1334
-6.7142 1.7891 2.1334
-6.7738 1.5469 2.1334
-6.8246 1.3027 2.1334
-6.8666 1.0569 2.1334
-6.8997 0.8097 2.1334
-6.9239 0.5615 2.1334
-6.9392 0.3126 2.1334
-6.9455 0.0634 2.1334
-6.9429 -0.1859 2.1334
-6.9313 -0.4350 2.1334
-6.9107 -0.6834 2.1334
-6.8813 -0.9310 2.1334
-6.8429 -1.1773 2.1334
-6.7958 -1.4220 2.1334
-6.7399 -1.6649 2.1334
-6.6753 -1.9056 2.1334
-6.6021 -2.1438 2.1334
-6.5204 -2.3793 2.1334
-6.4303 -2.6116 2.1334
-6.3319 -2.8405 2.1334
-6.2254 -3.0657 2.1334
-6.1109 -3.2869 2.1334
-6.0954 -3.5664 2.1715
-6.0968 -3.8675 2.2202
-5.9972 -4.1135 2.2365
-5.8452 -4.3257 2.2365
-5.6857 -4.5324 2.2365
-5.5189 -4.7332 2.2365
-5.3450 -4.9279 2.2365
-5.1643 -5.1162 2.2365
-4.9769 -5.2978 2.2365
-4.7831 -5.4727 2.2365
-4.5832 -5.6404 2.2365
-4.3775 -5.8008 2.2365
-4.1661 -5.9538 2.2365
-3.9494 -6.0990 2.2365
-3.7276 -6.2364 2.2365
-3.5011 -6.3657 2.2365
-3.2700 -6.4868 2.2365
-3.0348 -6.5996 2.2365
-2.7958 -6.7038 2.2365
-2.5531 -6.7994 2.2365
-2.3072 -6.8862 2.2365
-2.0584 -6.9641 2.2365
-1.8069 -7.0331 2.2365
-1.5532 -7.0930 2.2365
-1.2975 -7.1438 2.2365
-1.0401 -7.1853 2.2365
-0.7814 -7.2176 2.2365
-0.5218 -7.2406 2.2365
-0.2615 -7.2543 2.2365
-0.0009 -6.7172 2.2365
0.2403 -6.7126 2.2365
0.4811 -6.6994 2.2365
0.7213 -6.6775 2.2365
0.9605 -6.6470 2.2365
1.1985 -6.6080 2.2365
1.4349 -6.5605 2.2365
1.6695 -6.5046 2.2365
1.9019 -6.4403 2.2365
2.0336 -6.0741 2.1334
2.2503 -5.9971 2.1334
2.4641 -5.9123 2.1334
2.6747 -5.8199 2.1334
2.8819 -5.7200 2.1334
3.0852 -5.6124 2.1333
3.2847 -5.4979 2.1333
3.4799 -5.3764 2.1333
3.6707 -5.2480 2.1333
3.8567 -5.1128 2.1333
4.0378 -4.9710 2.1333
4.2137 -4.8228 2.1333
4.3842 -4.6685 2.1333
4.5490 -4.5081 2.1333
4.7079 -4.3419 2.1333
4.8609 -4.1701 2.1333
5.0075 -3.9930 2.1333
5.1478 -3.8107 2.1333
5.2814 -3.6235 2.1333
5.4082 -3.4316 2.1333
5.5281 -3.2353 2.1333
5.6408 -3.0348 2.1333
5.7463 -2.8305 2.1333
5.8444 -2.6224 2.1333
5.9350 -2.4110 2.1333
6.0272 -2.1998 2.1365
6.1025 -1.9820 2.1365
6.1700 -1.7617 2.1365
6.2295 -1.5392 2.1365
6.2811 -1.3146 2.1365
6.3245 -1.0883 2.1365
6.3599 -0.8606 2.1365
6.3870 -0.6317 2.1365
6.4059 -0.4020 2.1365
6.4166 -0.1718 2.1365
6.4190 0.0587 2.1365
6.4131 0.2891 2.1365
6.3990 0.5192 2.1365
6.3767 0.7486 2.1365
6.3461 0.9771 2.1365
6.3073 1.2044 2.1365
6.2604 1.4301 2.1365
6.2055 1.6541 2.1365
6.1425 1.8759 2.1365
6.0717 2.0954 2.1365
5.9930 2.3121 2.1365
2.2571 0.9653 0.8164
5.8036 2.7324 2.1333
5.7022 2.9392 2.1333
5.5934 3.1422 2.1333
5.4774 3.3412 2.1333
5.3543 3.5360 2.1333
5.2244 3.7262 2.1333
5.0876 3.9116 2.1333
4.9443 4.0920 2.1333
4.7946 4.2672 2.1333
4.6387 4.4369 2.1333
4.4768 4.6008 2.1333
4.3090 4.7589 2.1333
4.1357 4.9109 2.1333
3.9571 5.0566 2.1333
3.7733 5.1957 2.1333
3.5847 5.3282 2.1333
3.3913 5.4538 2.1333
3.1936 5.5724 2.1333
2.9918 5.6838 2.1333
2.7860 5.7879 2.1333
2.5766 5.8846 2.1333
2.3639 5.9737 2.1333
2.1481 6.0551 2.1333
2.0229 6.4253 2.2365
1.7911 6.4941 2.2365
1.5569 6.5546 2.2365
1.3208 6.6067 2.2365
1.0829 6.6502 2.2365
0.8435 6.6851 2.2365
0.6031 6.7115 2.2365
0.3618 6.7291 2.2365
0.1201 6.7381 2.2365
-0.1218 6.7384 2.2365
-0.3636 6.7300 2.2365
-0.6049 6.7129 2.2365
-0.8455 6.6871 2.2365
-1.0850 6.6527 2.2365
-1.3231 6.6097 2.2365
-1.5595 6.5581 2.2365
-1.7939 6.4981 2.2365
-2.0260 6.4298 2.2365
-2.2556 6.3531 2.2365
