ply
format ascii 1.0
element vertex 2039
property float32 x
property float32 y
property float32 z
end_header
-25.9690 17.1446 -2.6200
-72.4860 44.2032 -7.1509
-84.2232 47.2994 -8.1389
-84.1272 43.3493 -7.9770
-46.7118 5.4793 -3.9798
-44.7670 3.6279 -3.8021
-28.7435 0.2603 -2.4353
-28.6501 -0.7694 -2.4291
-29.7040 -1.8665 -2.5235
-28.2682 -2.7980 -2.4095
-27.9470 -3.7835 -2.3931
-26.8523 -4.6223 -2.3130
-26.1540 -5.4754 -2.2692
-27.0718 -6.6903 -2.3691
-32.2819 -9.2192 -2.8532
-33.1016 -10.7527 -2.9590
-38.3969 -14.0156 -3.4764
-27.8554 -11.3167 -2.5581
-35.8084 -16.0685 -3.3404
-34.4340 -16.9621 -3.2681
-34.2770 -18.4424 -3.3151
-25.6197 -14.9944 -2.5291
-25.1814 -15.9784 -2.5417
-20.5104 -14.0720 -2.1205
-16.3217 -12.0822 -1.7317
-16.0156 -12.7704 -1.7473
-15.7037 -13.4717 -1.7655
-15.2919 -14.1023 -1.7755
-14.5031 -14.3720 -1.7431
-13.4245 -14.2942 -1.6746
-14.0293 -16.0563 -1.8212
-11.9807 -14.7484 -1.6234
-11.8730 -15.7382 -1.6847
-13.2281 -18.9102 -1.9725
-13.9702 -21.5811 -2.1978
-13.2465 -22.1692 -2.2082
-16.6725 -30.3248 -2.9594
-15.7281 -31.2114 -2.9894
-14.1851 -30.8586 -2.9053
-13.5497 -32.5031 -3.0128
2.9298 -40.7254 -2.5701
3.1503 -29.1311 -1.8442
4.1609 -28.7704 -1.8294
3.0866 -17.0069 -1.0876
3.4774 -15.8904 -1.0234
4.2041 -16.3724 -1.0633
4.6623 -15.7818 -1.0350
17.0044 -50.7749 -3.3670
19.0577 -50.7752 -3.4095
21.1671 -50.7756 -3.4575
14.5294 -31.6075 -2.1858
14.9425 -29.6524 -2.0858
14.9429 -27.1790 -1.9478
15.2514 -25.5246 -1.8667
16.5231 -25.5248 -1.9083
17.8553 -25.5250 -1.9543
4.2518 -5.6360 -0.4428
16.4162 -20.2087 -1.6323
16.4164 -18.7885 -1.5636
14.5353 -15.4772 -1.3301
14.9451 -14.8102 -1.3175
15.0036 -13.8368 -1.2775
14.9454 -12.8215 -1.2320
14.9456 -11.9175 -1.1954
14.9457 -11.0638 -1.1624
14.9458 -10.2544 -1.1325
14.9460 -9.4839 -1.1054
14.9461 -8.7477 -1.0810
15.0196 -8.0813 -1.0641
16.4055 -8.0816 -1.1404
18.1059 -8.1251 -1.2369
20.1557 -8.1889 -1.3553
21.6675 -7.9094 -1.4361
83.0704 -26.9860 -5.4353
83.0709 -23.7255 -5.3732
82.9196 -20.4935 -5.3095
82.5891 -17.2918 -5.2424
82.9206 -14.2754 -5.2246
16.4388 -2.2258 -1.0295
16.4389 -1.6274 -1.0246
16.4390 -1.0333 -1.0211
16.4390 -0.4418 -1.0189
16.4391 0.1485 -1.0180
16.4392 0.7392 -1.0185
15.1078 1.2240 -0.9376
14.9674 1.7554 -0.9317
14.9675 2.3027 -0.9357
14.9676 2.8561 -0.9411
14.9677 3.4172 -0.9477
14.9678 3.9875 -0.9556
2.1575 0.6586 -0.1391
14.9680 5.1631 -0.9758
14.9681 5.7723 -0.9882
14.9682 6.3986 -1.0023
14.9683 7.0445 -1.0181
7.4919 3.8602 -0.5184
6.8742 3.8603 -0.4847
6.3308 3.8604 -0.4557
5.8478 3.8605 -0.4304
5.6398 4.0211 -0.4253
5.6399 4.3347 -0.4366
5.6399 4.6662 -0.4491
5.6400 5.0179 -0.4630
5.6401 5.3929 -0.4784
5.6401 5.7945 -0.4955
5.6402 6.2269 -0.5147
30.6800 36.4178 -2.9162
28.6765 36.6313 -2.8480
25.1870 34.6692 -2.6227
24.1774 35.9238 -2.6495
24.4192 39.2552 -2.8279
7.2683 12.6773 -0.8937
6.8149 12.9420 -0.8943
6.2942 13.0707 -0.8868
5.9205 13.5155 -0.9018
14.3655 36.2850 -2.3847
13.9340 39.2570 -2.5451
12.3664 39.2572 -2.5143
10.8627 39.3618 -2.4942
10.8637 45.7041 -2.8692
7.0729 35.3518 -2.2018
5.9303 36.3861 -2.2513
5.9002 46.7061 -2.8748
4.1415 46.0165 -2.8213
-7.5806 84.2373 -5.1659
-10.1044 79.9921 -4.9252
-13.0362 79.9892 -4.9512
-16.3967 81.9578 -5.1070
-19.3282 81.3175 -5.1079
-29.5898 93.9360 -6.0209
-32.3046 91.0159 -5.9056
-36.0706 91.1110 -5.9934
-38.8022 88.5805 -5.9163
-42.6552 88.5812 -6.0164
-6.6748 10.7303 -0.7741
-28.4629 42.2922 -3.1235
-28.4634 39.1796 -2.9683
-28.4638 36.3602 -2.8313
-30.4303 36.1219 -2.8971
-32.7181 36.1223 -2.9907
-35.1597 36.1227 -3.0945
-37.7784 36.1231 -3.2101
-31.7176 28.2195 -2.6084
-43.6622 36.1240 -3.4834
-71.8062 51.1973 -5.4259
-71.8068 47.4046 -5.2964
-71.8074 43.7874 -5.1796
-76.6926 43.0683 -5.4196
-84.3951 43.4853 -5.8527
-91.6405 39.1750 -6.1503
-91.4884 35.2821 -6.0543
-84.4325 25.7729 -5.4564
-70.2809 18.7234 -4.4979
-44.7667 5.2502 -2.7935
-44.7670 3.6270 -2.7851
-44.7673 2.0131 -2.7804
-28.7609 0.2599 -1.7855
-28.6673 -0.7705 -1.7812
-29.9096 -1.8800 -1.8624
-26.9663 -2.6697 -1.6850
-26.4994 -3.5880 -1.6636
-27.0128 -4.6505 -1.7062
-26.6515 -5.5801 -1.6958
-28.1560 -6.9588 -1.8072
-31.9595 -9.1279 -2.0721
-41.9280 -13.6208 -2.7498
-43.0728 -15.7233 -2.8615
-27.8489 -11.3147 -1.8768
-34.9314 -15.6758 -2.3917
-34.5948 -17.0421 -2.4101
-30.0791 -16.1843 -2.1356
-25.5863 -14.9755 -1.8545
-25.1484 -15.9580 -1.8639
-20.4379 -14.0227 -1.5518
-16.3001 -12.0666 -1.2702
-15.7269 -12.5407 -1.2604
-15.6824 -13.4539 -1.2952
-15.4484 -14.2472 -1.3178
-14.6033 -14.4717 -1.2897
-13.7926 -14.6866 -1.2643
-14.3475 -16.4209 -1.3688
-12.7206 -15.6596 -1.2668
-11.9098 -15.7874 -1.2421
-12.4815 -17.8433 -1.3681
-13.9979 -21.6243 -1.6188
-13.2729 -22.2138 -1.6266
-17.0487 -31.0097 -2.2249
-15.3858 -30.5328 -2.1501
-14.3558 -31.2307 -2.1620
0.0002 -78.5619 -3.1716
2.8222 -78.5624 -3.1734
2.9915 -41.5848 -1.6828
3.1415 -29.0513 -1.1793
4.2028 -29.0613 -1.1848
15.8518 -87.3455 -3.5813
3.6427 -16.6462 -0.6873
4.1533 -16.1753 -0.6734
14.9995 -50.7746 -2.1342
17.0039 -50.7749 -2.1578
19.0572 -50.7752 -2.1848
20.9909 -50.3542 -2.1969
14.9420 -32.5061 -1.4401
14.9425 -29.6532 -1.3361
14.9624 -27.2152 -1.2491
15.2252 -25.4814 -1.1932
16.4946 -25.4816 -1.2196
17.8246 -25.4818 -1.2488
19.2230 -25.4820 -1.2811
16.4162 -20.2093 -1.0444
16.4359 -18.8114 -1.0014
14.9644 -15.9346 -0.8758
14.9646 -14.8300 -0.8435
14.9647 -13.8014 -0.8145
14.9649 -12.8386 -0.7884
14.9651 -11.9335 -0.7648
14.9652 -11.0787 -0.7435
14.9653 -10.2682 -0.7242
14.9655 -9.4967 -0.7067
14.9656 -8.7595 -0.6908
15.0189 -8.0813 -0.6789
16.4047 -8.0816 -0.7274
18.0086 -8.0818 -0.7845
19.8917 -8.0821 -0.8527
22.1403 -8.0825 -0.9353
83.0704 -26.9879 -3.4631
83.0709 -23.7273 -3.4225
82.9196 -20.4954 -3.3809
82.5431 -17.2840 -3.3353
82.9206 -14.2771 -3.3248
16.4388 -2.2262 -0.6549
16.4389 -1.6278 -0.6516
16.4390 -1.0336 -0.6492
16.4390 -0.4422 -0.6476
16.4391 0.1482 -0.6468
16.4392 0.7389 -0.6469
15.1118 1.2240 -0.5955
14.9674 1.7550 -0.5914
14.9675 2.3024 -0.5938
14.9676 2.8558 -0.5970
14.9677 3.4168 -0.6010
14.9678 3.9872 -0.6059
2.1573 0.6584 -0.0882
14.9680 5.1628 -0.6183
14.9681 5.7720 -0.6260
14.9682 6.3983 -0.6347
14.9683 7.0441 -0.6445
7.4922 3.8602 -0.3281
6.8745 3.8603 -0.3067
6.3311 3.8604 -0.2883
5.8480 3.8605 -0.2722
6.4209 4.5778 -0.3061
5.1123 3.9291 -0.2502
5.0872 4.2087 -0.2560
5.1215 4.5565 -0.2656
5.1602 4.9339 -0.2765
5.2039 5.3462 -0.2888
5.2536 5.8000 -0.3027
5.3104 6.3034 -0.3187
28.6393 36.5830 -1.7954
25.5296 35.1399 -1.6777
24.3990 36.2523 -1.6871
24.4197 39.2552 -1.7842
22.5070 39.2556 -1.7456
6.8080 12.9287 -0.5635
6.2758 13.0322 -0.5576
15.9429 36.3942 -1.5313
15.5106 39.1764 -1.6234
13.9057 39.1767 -1.6013
12.3413 39.1769 -1.5818
10.8627 39.3612 -1.5722
10.8637 45.7035 -1.8085
7.1344 35.6589 -1.3999
5.7928 35.5417 -1.3861
5.8125 46.0115 -1.7850
4.2761 47.5113 -1.8360
-7.5720 84.1381 -3.2525
-10.1047 79.9921 -3.1048
-13.0366 79.9892 -3.1215
-16.2697 81.3203 -3.1949
-19.3295 81.3208 -3.2209
-23.2318 84.1826 -3.3661
-26.5185 84.1832 -3.4031
-29.8805 84.1837 -3.4455
-35.9632 90.8370 -3.7697
-38.8032 88.5805 -3.7329
-42.6178 88.5012 -3.7933
-6.5875 10.5896 -0.4823
-28.4629 42.2909 -1.9725
-28.4634 39.1785 -1.8749
-28.4638 36.3592 -1.7888
-30.4312 36.1219 -1.8308
-32.7191 36.1223 -1.8903
-35.1608 36.1227 -1.9564
-37.7796 36.1231 -2.0300
-31.7165 28.2175 -1.6498
-43.6638 36.1240 -2.2039
-76.3578 58.6860 -3.7481
-71.8062 51.1953 -3.4347
-71.8068 47.4026 -3.3537
-71.8074 43.7856 -3.2807
-76.6961 43.0683 -3.4338
-74.1604 38.2100 -3.2593
-76.1754 35.8486 -3.2918
-87.8732 37.5624 -3.7396
-87.9059 33.8985 -3.6899
-70.2778 18.7210 -2.8556
-44.7665 6.8862 -1.7829
-44.7667 5.2492 -1.7758
-44.7670 3.6260 -1.7710
-44.7673 2.0122 -1.7685
-44.7675 0.4035 -1.7684
-71.6504 -1.9273 -2.8336
-71.6620 -4.5060 -2.8410
-25.5335 -2.5284 -1.0161
-26.5245 -3.5920 -1.0608
-25.9315 -4.4649 -1.0437
-27.1669 -5.6886 -1.1019
-26.6236 -6.5807 -1.0896
-41.6308 -11.8910 -1.7216
-42.2418 -13.7236 -1.7675
-43.1020 -15.7349 -1.8274
-27.8425 -11.3126 -1.1978
-35.9501 -16.1337 -1.5717
-33.3869 -16.4478 -1.4856
-29.9767 -16.1299 -1.3597
-25.1655 -14.7298 -1.1656
-25.1155 -15.9378 -1.1898
-20.3662 -13.9740 -0.9886
-20.1117 -14.8887 -1.0022
-15.3966 -12.2777 -0.7892
-15.3732 -13.1891 -0.8123
-15.5580 -14.3486 -0.8492
-14.7046 -14.5725 -0.8311
-13.8864 -14.7868 -0.8148
-12.7191 -14.5576 -0.7769
-13.3363 -16.4179 -0.8505
-12.9671 -17.1893 -0.8662
-12.5428 -17.9313 -0.8807
-13.1696 -20.3452 -0.9758
-13.9049 -23.2720 -1.0919
-16.8216 -30.5973 -1.4068
-15.8498 -31.4541 -1.4196
-15.2871 -33.2572 -1.4757
-15.2171 -69.5405 -2.8735
-12.6514 -69.7132 -2.8603
-10.1187 -69.9705 -2.8543
-7.5877 -70.1707 -2.8496
-5.0578 -70.3145 -2.8462
-2.8217 -78.5614 -3.1738
3.1363 -87.3094 -1.5575
4.4047 -40.7338 -0.7300
4.2115 -29.1219 -0.5241
16.0816 -88.6148 -1.6033
3.5998 -16.4506 -0.2996
14.9571 -58.2528 -1.0695
14.9864 -50.7313 -0.9400
16.9890 -50.7317 -0.9501
19.0404 -50.7320 -0.9615
21.1480 -50.7324 -0.9745
15.3865 -33.4740 -0.6526
15.0695 -29.9059 -0.5926
16.4414 -29.9062 -0.6033
15.2247 -25.4814 -0.5242
16.4942 -25.4816 -0.5354
3.7798 -5.4037 -0.1162
24.2432 -32.1377 -0.7083
16.4357 -20.2339 -0.4581
26.1303 -29.9078 -0.6969
15.0948 -16.0740 -0.3864
16.4363 -16.2890 -0.4049
14.9649 -12.8391 -0.3440
16.4369 -13.1076 -0.3662
16.8929 -12.5062 -0.3655
24.2459 -16.6365 -0.5105
19.8312 -12.5849 -0.4070
14.9656 -8.7599 -0.3000
15.0182 -8.0813 -0.2945
16.4377 -8.0982 -0.3159
27.8700 -12.5080 -0.5256
19.8906 -8.0821 -0.3687
23.5054 -8.5814 -0.4289
83.0704 -26.9898 -1.4944
83.0709 -23.7292 -1.4753
83.8681 -20.7317 -1.4724
83.8687 -17.5634 -1.4575
83.8692 -14.4423 -1.4447
16.4388 -2.2265 -0.2810
19.8331 -1.9643 -0.3370
28.3083 -1.7806 -0.4786
31.9662 -0.8605 -0.5385
32.0407 0.2881 -0.5385
19.8336 0.8910 -0.3330
15.1157 1.2240 -0.2539
14.9674 1.7547 -0.2518
24.2493 3.7296 -0.4091
24.2495 4.6262 -0.4108
31.0848 7.0954 -0.5295
19.8343 5.2831 -0.3402
2.1570 0.6583 -0.0373
14.9680 5.1625 -0.2615
23.7608 9.1621 -0.4197
42.1689 18.0245 -0.7545
19.8349 9.3339 -0.3600
7.4926 3.8602 -0.1382
6.8748 3.8603 -0.1290
6.3313 3.8604 -0.1211
5.8483 3.8605 -0.1143
6.6113 4.7134 -0.1322
6.6114 5.0811 -0.1356
6.6114 5.4696 -0.1393
6.6115 5.8819 -0.1434
6.6116 6.3214 -0.1481
6.3573 6.5310 -0.1473
5.9160 6.5311 -0.1423
31.9526 37.9265 -0.7996
2.5938 3.3131 -0.0678
2.4071 3.3131 -0.0659
11.5244 17.1227 -0.3317
10.9046 17.5289 -0.3314
22.4615 39.1752 -0.7243
20.6297 39.1755 -0.7095
6.6401 13.7884 -0.2451
15.7693 35.9973 -0.6288
15.5108 39.1764 -0.6738
13.9060 39.1767 -0.6644
12.3415 39.1769 -0.6561
10.8613 39.3556 -0.6519
10.8624 45.6970 -0.7497
9.2083 46.0236 -0.7489
5.7321 35.1690 -0.5684
5.8132 46.0162 -0.7398
4.1416 46.0165 -0.7369
-7.5177 83.5306 -1.3388
-10.0972 79.9295 -1.2866
-10.2564 62.9286 -1.0187
-12.9666 64.8086 -1.0566
-15.4065 64.8144 -1.0657
-10.1762 36.8734 -0.6123
-20.4167 64.8113 -1.0885
-23.0057 64.8132 -1.1026
-25.6662 64.8269 -1.1188
-28.4121 64.8577 -1.1373
-6.6337 13.7753 -0.2458
-14.7813 28.0697 -0.5106
-6.5875 10.5894 -0.2012
-28.4629 42.2897 -0.8235
-28.4634 39.1773 -0.7834
-28.4638 36.3581 -0.7480
-30.4322 36.1219 -0.7663
-32.7201 36.1223 -0.7919
-35.1619 36.1227 -0.8203
-33.1922 31.7358 -0.7485
-31.7141 28.2145 -0.6930
-43.6653 36.1240 -0.9267
-41.2993 31.7400 -0.8532
-51.7433 36.8898 -1.0428
-51.7999 34.1939 -1.0203
-71.8074 43.7837 -1.3850
-76.6995 43.0683 -1.4513
-74.1604 38.2081 -1.3790
-74.1573 34.8970 -1.3573
-78.5952 33.5946 -1.4183
-88.6465 34.1820 -1.5796
-70.2744 18.7186 -1.2163
-44.7665 6.8852 -0.7620
-44.7667 5.2483 -0.7599
-44.7670 3.6251 -0.7587
-44.7673 2.0112 -0.7585
-44.7675 0.4026 -0.7593
-69.1539 -1.8616 -1.1756
-69.1609 -4.3502 -1.1800
-69.1702 -6.8509 -1.1859
-26.5497 -3.5960 -0.4580
-26.1802 -4.5083 -0.4550
-26.6730 -5.5857 -0.4676
-26.8958 -6.6485 -0.4763
-42.9217 -12.2607 -0.7688
-42.5596 -13.8279 -0.7722
-41.3577 -15.0991 -0.7611
-27.8360 -11.3106 -0.5203
-34.6940 -15.5708 -0.6596
-33.4925 -16.5006 -0.6487
-32.4083 -17.4392 -0.6405
-24.6938 -14.4543 -0.4988
-24.6494 -15.6426 -0.5097
-24.6263 -16.8976 -0.5223
-20.0405 -14.8365 -0.4367
-15.9515 -12.7206 -0.3578
-15.0487 -12.9110 -0.3482
-15.0154 -13.8486 -0.3592
-13.7646 -13.6414 -0.3412
-13.7978 -14.6929 -0.3553
-12.9232 -14.7915 -0.3467
-14.1654 -17.4391 -0.3970
-11.8675 -15.7321 -0.3486
-12.2094 -17.4551 -0.3771
-12.0368 -18.5956 -0.3926
-11.5803 -19.3818 -0.4005
-16.3115 -32.3710 -0.6440
-15.1176 -32.8891 -0.6435
-31.8761 -76.4688 -1.4737
-29.0397 -77.3749 -1.4709
-26.8370 -80.1398 -1.5049
-18.3890 -84.0368 -1.5335
-13.6700 -75.3270 -1.3650
-12.1566 -84.0631 -1.5146
-8.1453 -75.3280 -1.3512
3.1360 -87.3094 0.4102
2.2115 -30.7448 0.1449
16.5179 -91.0217 0.4367
18.9443 -86.5756 0.4191
15.0777 -58.7240 0.2874
14.9859 -50.7313 0.2513
16.9885 -50.7317 0.2549
23.4962 -62.6058 0.3195
24.2387 -58.1485 0.3020
15.3861 -33.4740 0.1772
15.0690 -29.9059 0.1616
16.4409 -29.9062 0.1653
15.2243 -25.4814 0.1444
16.4937 -25.4816 0.1482
3.7821 -5.4072 0.0324
24.2432 -32.1387 0.1983
16.4357 -20.2345 0.1290
26.1295 -29.9078 0.1975
15.0944 -16.0740 0.1102
16.4363 -16.2896 0.1162
14.9649 -12.8395 0.1001
16.4369 -13.1080 0.1073
16.8922 -12.5062 0.1079
24.2459 -16.6372 0.1518
19.8312 -12.5854 0.1219
14.9656 -8.7603 0.0906
15.0175 -8.0813 0.0896
16.4377 -8.0986 0.0968
27.8685 -12.5080 0.1624
19.8894 -8.0821 0.1148
23.5054 -8.5820 0.1346
83.0704 -26.9917 0.4728
83.0709 -23.7311 0.4705
82.8944 -20.4929 0.4679
83.8713 -17.5658 0.4724
83.8719 -14.4446 0.4720
16.4388 -2.2269 0.0926
19.8331 -1.9647 0.1119
28.3083 -1.7812 0.1602
52.7674 0.4734 0.3016
19.8336 0.8906 0.1141
15.1197 1.2240 0.0877
14.9674 1.7544 0.0876
24.2493 3.7291 0.1435
24.2495 4.6257 0.1452
31.0848 7.0947 0.1886
19.8343 5.2827 0.1220
2.1568 0.6582 0.0135
14.9680 5.1622 0.0951
23.7621 9.1621 0.1538
42.9381 18.3524 0.2834
19.8349 9.3335 0.1337
7.4929 3.8602 0.0517
6.8751 3.8603 0.0485
6.3315 3.8604 0.0459
5.8485 3.8605 0.0435
6.6113 4.7133 0.0506
6.6114 5.0809 0.0522
6.6114 5.4694 0.0540
6.6115 5.8817 0.0558
6.6116 6.3213 0.0579
6.3575 6.5310 0.0579
5.9161 6.5311 0.0562
31.9534 37.9265 0.3173
2.5938 3.3131 0.0270
2.4071 3.3131 0.0264
2.2300 3.3132 0.0258
10.9626 17.6218 0.1342
22.8451 39.8435 0.2977
20.9820 39.8438 0.2925
19.1880 39.8441 0.2879
15.7188 35.8811 0.2554
15.7757 39.8446 0.2799
14.4736 40.7752 0.2830
12.8453 40.7755 0.2800
10.8613 39.3550 0.2676
10.8624 45.6963 0.3082
9.2084 46.0236 0.3082
7.5014 46.0238 0.3063
5.9004 46.7061 0.3094
4.4319 49.2428 0.3249
-8.3728 93.0292 0.6126
-10.3620 82.0226 0.5417
-10.2564 62.9265 0.4172
-16.8565 84.2483 0.5615
-19.2892 81.1465 0.5443
-10.1764 36.8730 0.2492
-18.4863 58.6816 0.4001
-29.8821 84.1837 0.5797
-36.0706 91.1035 0.6344
-38.8054 88.5805 0.6246
-6.6329 13.7732 0.0985
-31.1745 59.1988 0.4299
-6.5875 10.5891 0.0796
-28.4615 42.2864 0.3245
-28.4620 39.1743 0.3072
-28.4625 36.3552 0.2919
-30.4331 36.1219 0.2975
-32.7211 36.1223 0.3058
-35.1630 36.1227 0.3150
-33.1931 31.7355 0.2858
-31.7112 28.2109 0.2630
-43.6669 36.1240 0.3496
-41.3005 31.7398 0.3199
-51.7760 36.9117 0.3887
-51.7999 34.1925 0.3776
-71.8074 43.7818 0.5091
-76.7030 43.0683 0.5298
-74.1604 38.2063 0.4999
-74.1610 34.8970 0.4885
-80.4884 34.4019 0.5189
-88.6465 34.1799 0.5602
-70.2675 18.7152 0.4216
-44.7665 6.8843 0.2580
-44.7667 5.2473 0.2553
-44.7670 3.6241 0.2528
-44.7673 2.0102 0.2508
-44.7675 0.4016 0.2490
-68.9758 -1.8583 0.3815
-68.5510 -4.3133 0.3774
-69.1150 -6.8469 0.3793
-26.5749 -3.6000 0.1456
-26.4335 -4.5524 0.1447
-27.8845 -5.8400 0.1528
-27.1733 -6.7177 0.1492
-40.7812 -11.6501 0.2247
-41.1292 -13.3639 0.2278
-28.1229 -10.2678 0.1568
-26.9488 -10.9507 0.1514
-26.3229 -11.8143 0.1493
-25.8225 -12.7224 0.1481
-25.8605 -13.9163 0.1503
-26.8891 -15.7398 0.1586
-23.5849 -14.9676 0.1414
-23.6349 -16.2180 0.1443
-19.9699 -14.7848 0.1245
-16.3079 -13.0052 0.1040
-14.7379 -12.6447 0.0963
-14.1180 -13.0213 0.0948
-14.1581 -14.0317 0.0980
-14.0286 -14.9390 0.1003
-13.1337 -15.0328 0.0973
-14.4474 -17.7867 0.1112
-12.6250 -16.7367 0.1014
-13.3077 -19.0256 0.1118
-11.7704 -18.1844 0.1040
-11.2083 -18.7597 0.1046
-11.2971 -20.5495 0.1119
-32.8456 -78.7962 0.4041
-29.9933 -79.9173 0.4033
-18.4204 -84.1812 0.4047
-13.6698 -75.3270 0.3593
-12.1681 -84.1436 0.3987
-8.1452 -75.3280 0.3552
-0.0001 -57.2424 1.5580
1.8963 -52.7982 1.4382
5.6658 -78.7708 2.1502
8.4879 -78.5002 2.1502
11.2973 -78.1251 2.1502
14.0901 -77.6457 2.1502
18.1731 -83.0540 2.3173
14.5586 -56.7040 1.5963
14.8930 -50.4180 1.4341
16.8832 -50.4184 1.4511
18.9218 -50.4187 1.4705
21.0162 -50.4191 1.4923
14.5629 -31.6839 0.9532
14.5634 -28.9032 0.8853
14.5638 -26.4923 0.8275
15.0367 -25.1681 0.8030
16.2904 -25.1683 0.8218
3.7771 -5.4002 0.1808
18.9850 -25.1687 0.8655
16.0729 -19.7885 0.7005
14.5655 -16.6722 0.6088
14.5657 -15.5115 0.5857
14.5659 -14.4363 0.5650
14.5660 -13.4350 0.5465
14.5662 -12.4979 0.5298
16.4369 -13.1085 0.5809
16.8916 -12.5062 0.5813
24.4132 -16.7527 0.8198
19.8312 -12.5859 0.6511
14.9656 -8.7607 0.4812
15.0168 -8.0813 0.4737
16.4377 -8.0990 0.5096
17.3075 -7.7684 0.5282
19.1170 -7.7687 0.5752
21.2777 -7.7691 0.6322
23.9101 -7.7695 0.7024
82.3074 -23.5149 2.3946
82.8944 -20.4947 2.3915
83.5828 -17.5072 2.3946
83.8694 -14.4460 2.3892
16.4388 -2.2272 0.4663
19.8331 -1.9651 0.5609
28.3083 -1.7818 0.7992
34.7852 -0.9378 0.9816
34.7855 0.3113 0.9825
19.8336 0.8902 0.5614
15.1236 1.2240 0.4296
14.9674 1.7541 0.4271
24.2493 3.7286 0.6962
24.2495 4.6252 0.7013
31.0848 7.0941 0.9068
19.8343 5.2823 0.5844
2.1566 0.6581 0.0643
14.9680 5.1618 0.4518
23.7634 9.1621 0.7276
23.6343 10.1011 0.7350
19.8349 9.3330 0.6275
7.4932 3.8602 0.2415
6.8754 3.8603 0.2262
6.3318 3.8604 0.2129
5.8487 3.8605 0.2014
6.6113 4.7131 0.2336
6.6114 5.0807 0.2401
6.6114 5.4692 0.2473
6.6115 5.8815 0.2552
6.6116 6.3211 0.2640
6.3577 6.5310 0.2633
5.9163 6.5311 0.2547
2.7707 3.2886 0.1244
2.5939 3.3131 0.1218
2.4072 3.3131 0.1186
2.2300 3.3132 0.1157
10.9626 17.6214 0.6018
22.8456 39.8435 1.3324
20.9824 39.8438 1.3070
19.1884 39.8441 1.2841
17.4553 39.8443 1.2636
15.7760 39.8446 1.2453
14.4739 40.7752 1.2578
12.8456 40.7755 1.2431
10.8613 39.3544 1.1874
10.0463 42.2625 1.2637
9.2085 46.0236 1.3656
7.5015 46.0238 1.3569
5.8133 46.0162 1.3497
4.4320 49.2438 1.4388
3.9451 73.1824 2.1327
1.3791 76.8226 2.2358
-1.3796 76.8301 2.2358
-4.1372 76.7415 2.2358
-6.8906 76.5570 2.2358
-9.6365 76.2775 2.2358
-12.3716 75.9020 2.2358
-15.0928 75.4313 2.2358
-17.7969 74.8664 2.2358
-10.1765 36.8726 1.1109
-18.4124 58.4455 1.7789
-21.4909 60.5424 1.8642
-23.5918 59.5841 1.8587
-26.2956 60.0230 1.8996
-6.6321 13.7712 0.4428
-30.8966 58.6695 1.9198
-33.5477 58.5079 1.9515
-6.6752 10.7298 0.3654
-26.7013 39.6702 1.3817
-28.4620 39.1731 1.3981
-28.4625 36.3541 1.3320
-30.4340 36.1219 1.3616
-32.7222 36.1223 1.4038
-35.1642 36.1227 1.4507
-33.1939 31.7353 1.3204
-31.7082 28.2073 1.2191
-41.5987 34.4119 1.5493
-41.3016 31.7395 1.4934
-63.5650 45.3144 2.2358
-51.7434 34.1538 1.7739
-45.7449 27.8900 1.5313
-65.1322 36.5698 2.1327
-66.4735 34.2445 2.1326
-67.7331 31.8707 2.1325
-68.9140 29.4532 2.1326
-71.7314 27.6562 2.1852
-44.5813 15.3742 1.3389
-44.5816 13.6044 1.3218
-44.5818 11.8730 1.3068
-44.5821 10.1744 1.2938
-44.5824 8.5033 1.2825
-44.5827 6.8550 1.2731
-44.5829 5.2248 1.2654
-44.5832 3.6083 1.2594
-44.5835 2.0011 1.2551
-44.5837 0.3990 1.2524
-35.9662 -0.9697 1.0094
-29.5680 -1.8611 0.8302
-27.6516 -2.7398 0.7777
-25.8938 -3.5082 0.7305
-24.6714 -4.2495 0.6990
-23.7332 -4.9711 0.6763
-22.9348 -5.6704 0.6582
-22.2132 -6.3462 0.6428
-21.5513 -7.0030 0.6298
-20.9283 -7.6415 0.6186
-20.3997 -8.2899 0.6107
-19.9038 -8.9338 0.6044
-19.4608 -9.5885 0.6004
-19.0572 -10.2557 0.5983
-18.7918 -11.0005 0.6014
-18.6595 -11.8422 0.6097
-18.5307 -12.7160 0.6195
-19.6016 -14.5126 0.6716
-22.3459 -17.8209 0.7863
-14.4395 -12.3891 0.5230
-13.9557 -12.8720 0.5214
-13.9893 -13.8647 0.5405
-14.2672 -15.1935 0.5715
-13.3513 -15.2822 0.5560
-12.4815 -15.3669 0.5420
-13.1969 -17.4952 0.5996
-13.4625 -19.2474 0.6423
-11.5154 -17.7908 0.5791
-10.9331 -18.2995 0.5822
-11.4213 -20.7758 0.6472
-14.3745 -28.5282 0.8716
-13.1127 -28.5284 0.8563
-11.8917 -28.5286 0.8426
-10.7068 -28.5288 0.8304
-25.0620 -74.8422 2.1502
-22.3656 -75.7145 2.1502
-10.2137 -39.7803 1.1183
-10.1933 -46.5838 1.2980
-9.7769 -53.8757 1.4904
-9.0726 -62.7387 1.7253
-6.7370 -62.3046 1.7055
-4.4094 -61.3000 1.6726
-2.1462 -59.7495 1.6272
-0.0002 -44.9198 2.2358
1.6121 -44.8880 2.2358
3.0734 -42.7316 2.1327
3.1278 -28.9287 1.4487
4.1298 -28.5599 1.4369
7.6571 -42.1968 2.1358
9.2455 -42.2546 2.1546
10.7540 -41.8867 2.1546
12.2477 -41.4640 2.1546
13.7246 -40.9871 2.1546
15.1828 -40.4569 2.1546
16.6298 -39.8969 2.1558
14.5629 -31.6848 1.7398
14.5634 -28.9040 1.6153
14.5638 -26.4930 1.5094
15.0363 -25.1681 1.4643
16.2900 -25.1683 1.4980
3.7707 -5.3912 0.3289
18.9844 -25.1687 1.5766
16.0729 -19.7891 1.2755
14.5655 -16.6727 1.1082
14.5657 -15.5120 1.0656
14.5659 -14.4368 1.0276
14.5660 -13.4355 0.9934
14.5662 -12.4983 0.9627
14.5663 -11.6172 0.9351
14.5665 -10.7852 0.9101
14.5666 -9.9962 0.8877
14.5667 -9.2452 0.8674
14.5669 -8.5276 0.8491
14.5670 -7.8396 0.8327
15.7654 -7.7682 0.8852
17.3066 -7.7684 0.9561
19.1160 -7.7687 1.0406
21.2763 -7.7691 1.1430
23.9084 -7.7695 1.2694
41.0226 -11.7209 2.1558
41.3895 -10.2340 2.1558
41.7026 -8.7359 2.1558
41.9613 -7.2285 2.1558
16.0759 -2.1784 0.8219
16.0760 -1.5932 0.8190
16.0761 -1.0122 0.8172
16.0762 -0.4338 0.8164
16.0763 0.1435 0.8167
14.5685 0.6536 0.7413
14.5686 1.1788 0.7435
14.5687 1.7070 0.7466
14.5687 2.2398 0.7507
14.5688 2.7785 0.7559
14.5689 3.3246 0.7621
14.5690 3.8797 0.7694
2.1564 0.6580 0.1151
14.5692 5.0240 0.7874
14.5693 5.6169 0.7983
14.5694 6.2265 0.8105
14.5695 6.8551 0.8242
7.4936 3.8602 0.4317
6.8757 3.8603 0.4041
6.3320 3.8604 0.3802
5.8489 3.8605 0.3595
6.6113 4.7129 0.4167
6.6114 5.0806 0.4281
6.6114 5.4691 0.4408
6.6115 5.8814 0.4548
6.6116 6.3209 0.4703
6.3578 6.5310 0.4689
5.9164 6.5311 0.4535
2.7863 3.3070 0.2226
2.5939 3.3131 0.2167
2.4072 3.3131 0.2110
2.2301 3.3132 0.2058
10.9626 17.6210 1.0699
14.3561 25.0370 1.4883
19.4740 36.9787 2.1558
6.3695 13.2259 0.7574
16.7627 38.2626 2.1558
15.3752 38.8317 2.1558
13.9688 39.3515 2.1558
12.5452 39.8214 2.1558
10.8613 39.3537 2.1083
9.6533 40.6089 2.1558
8.1886 40.9257 2.1558
6.7138 41.1906 2.1558
5.1746 40.9599 2.1327
3.7008 41.1185 2.1327
2.2223 41.2251 2.1327
0.7768 43.2750 2.2358
-0.7772 43.2772 2.2358
-2.3304 43.2247 2.2358
-3.8810 43.1176 2.2358
-5.4270 42.9558 2.2358
-6.6448 40.7659 2.1325
-6.6888 33.4286 1.7599
-9.5561 40.1984 2.1325
-11.0121 39.8988 2.1358
-10.1942 32.3581 1.7502
-11.2597 31.7189 1.7359
-12.5645 31.7323 1.7597
-13.9069 31.7434 1.7864
-6.6312 13.7691 0.7875
-19.3203 36.6863 2.1358
-20.6323 35.9822 2.1358
-6.6753 10.7296 0.6505
-23.1791 34.4361 2.1358
-24.4106 33.5960 2.1358
-25.6120 32.7124 2.1358
-26.7821 31.7865 2.1358
-27.8787 30.7746 2.1327
-28.9796 29.7685 2.1327
-30.0447 28.7236 2.1327
-31.0959 27.6616 2.1343
-33.4268 27.6509 2.2235
-34.6072 26.5940 2.2358
-35.5595 25.3488 2.2358
-36.4675 24.0698 2.2358
-31.6046 19.2680 1.8929
-38.1457 21.4167 2.2358
-37.1165 19.1200 2.1325
-37.8023 17.7863 2.1325
-38.4404 16.4282 2.1325
-39.4558 15.2113 2.1558
-40.0020 13.7941 2.1558
-40.4976 12.3573 2.1558
-40.7885 10.8618 2.1477
-41.1841 9.3980 2.1480
-40.4977 7.7234 2.0950
-37.9602 5.8360 1.9503
-31.6357 3.7068 1.6164
-28.2264 2.2838 1.4361
-26.2426 1.1773 1.3313
-24.9184 0.2225 1.2621
-23.7881 -0.6418 1.2044
-22.9980 -1.4480 1.1655
-22.2106 -2.2012 1.1281
-21.5518 -2.9204 1.0986
-20.9903 -3.6159 1.0752
-20.4860 -4.2914 1.0559
-20.0075 -4.9471 1.0390
-19.5492 -5.5855 1.0243
-19.1682 -6.2291 1.0148
-18.8056 -6.8668 1.0074
-18.4572 -7.5010 1.0019
-18.1407 -8.1428 0.9994
-17.8300 -8.7854 0.9984
-17.4873 -9.4112 0.9969
-17.1614 -10.0464 0.9977
-16.8552 -10.6975 1.0011
-16.6250 -11.4087 1.0105
-16.3739 -12.1233 1.0206
-16.2045 -12.9236 1.0377
-15.8889 -13.6331 1.0477
-13.7969 -12.7259 0.9389
-13.8242 -13.7015 0.9731
-21.4273 -22.8191 1.5643
-13.4984 -15.4510 1.0249
-12.6868 -15.6200 1.0049
-21.5177 -28.5269 1.7836
-12.9717 -18.5461 1.1293
-13.0809 -20.2099 1.2009
-10.6708 -17.8607 1.0375
-15.6827 -28.5279 1.6229
-14.3743 -28.5282 1.5921
-13.1124 -28.5284 1.5644
-11.8915 -28.5286 1.5397
-10.7066 -28.5288 1.5177
-10.1721 -30.3773 1.5953
-10.1912 -34.5008 1.7912
-10.2092 -39.7635 2.0437
-9.1581 -41.8539 2.1327
-7.6505 -42.1590 2.1327
-6.1854 -42.7732 2.1510
-4.8293 -44.6621 2.2358
-3.2230 -44.8070 2.2358
-1.6126 -44.8928 2.2358
-0.0002 -30.8905 2.2358
1.1085 -30.8691 2.2358
2.1134 -29.3847 2.1325
3.1665 -29.2876 2.1325
4.2153 -29.1523 2.1325
5.2584 -28.9789 2.1325
6.3039 -28.8116 2.1358
7.3330 -28.5626 2.1358
8.4254 -28.5247 2.1546
9.4422 -28.1989 2.1546
10.4463 -27.8365 2.1546
11.4363 -27.4379 2.1546
12.4110 -27.0037 2.1546
13.3692 -26.5345 2.1546
14.3094 -26.0310 2.1546
15.0359 -25.1681 2.1270
16.1406 -24.9382 2.1558
3.7642 -5.3821 0.4768
17.8775 -23.7018 2.1558
16.0729 -19.7897 1.8519
14.5655 -16.6732 1.6087
14.5657 -15.5125 1.5467
14.5659 -14.4372 1.4912
14.5660 -13.4359 1.4414
14.5662 -12.4988 1.3966
14.5663 -11.6176 1.3563
14.5665 -10.7856 1.3199
14.5666 -9.9966 1.2871
14.5667 -9.2456 1.2574
14.5669 -8.5280 1.2307
14.5670 -7.8400 1.2067
15.7646 -7.7682 1.2825
17.3057 -7.7684 1.3849
19.1148 -7.7687 1.5070
21.2750 -7.7691 1.6550
23.9067 -7.7695 1.8376
28.3419 -8.0984 2.1558
28.6012 -7.0726 2.1558
28.8234 -6.0386 2.1558
29.0082 -4.9977 2.1558
16.0759 -2.1788 1.1887
16.0760 -1.5936 1.1842
16.0761 -1.0125 1.1814
16.0762 -0.4341 1.1800
16.0763 0.1432 1.1802
14.5685 0.6533 1.0710
14.5686 1.1785 1.0739
14.5687 1.7067 1.0782
14.5687 2.2395 1.0840
14.5688 2.7781 1.0912
14.5689 3.3243 1.0999
14.5690 3.8794 1.1102
2.1562 0.6579 0.1661
14.5692 5.0237 1.1358
14.5693 5.6166 1.1513
14.5694 6.2262 1.1687
14.5695 6.8548 1.1882
7.4939 3.8602 0.6223
6.8759 3.8603 0.5824
6.3323 3.8604 0.5479
5.8491 3.8605 0.5180
6.6113 4.7128 0.6003
6.6114 5.0804 0.6167
6.6114 5.4689 0.6348
6.6115 5.8812 0.6549
6.6116 6.3207 0.6771
6.3580 6.5310 0.6750
5.9166 6.5311 0.6528
2.7721 3.2900 0.3188
2.5940 3.3131 0.3119
2.4073 3.3131 0.3036
2.2301 3.3132 0.2961
10.9626 17.6206 1.5391
14.4564 25.2114 2.1558
13.5395 25.7093 2.1558
6.3451 13.1749 1.0851
11.6561 26.6058 2.1558
10.6919 27.0032 2.1558
8.3768 23.5978 1.8589
8.7248 27.6943 2.1558
7.7243 27.9870 2.1558
6.7141 28.2440 2.1558
5.6345 28.1603 2.1327
4.6197 28.3431 2.1327
2.9218 23.1282 1.7313
2.5741 28.6004 2.1327
1.6205 30.0605 2.2358
0.5403 30.0999 2.2358
-0.5406 30.1011 2.2358
-1.6210 30.0639 2.2358
-2.6993 29.9884 2.2358
-3.7745 29.8747 2.2358
-4.8450 29.7230 2.2358
-5.9096 29.5334 2.2358
-6.9669 29.3062 2.2358
-8.0157 29.0415 2.2358
-9.0391 28.6908 2.2320
-9.9974 28.1622 2.2170
-11.0249 27.8432 2.2212
-12.0990 27.6159 2.2358
-6.6304 13.7670 1.1329
-14.0558 26.6890 2.2358
-15.0086 26.1738 2.2358
-6.6754 10.7295 0.9362
-16.8571 25.0432 2.2358
-17.7505 24.4291 2.2358
-18.6217 23.7834 2.2358
-19.4696 23.1069 2.2358
-20.2932 22.4005 2.2358
-21.0915 21.6650 2.2358
-21.8633 20.9012 2.2358
-21.5652 19.1829 2.1327
-22.2479 18.4029 2.1327
-22.9016 17.5981 2.1325
-23.5278 16.7713 2.1325
-24.1244 15.9223 2.1325
-24.9597 15.2163 2.1558
-25.5005 14.3164 2.1558
-26.0089 13.3975 2.1558
-26.4845 12.4605 2.1558
-26.9264 11.5068 2.1558
-27.3341 10.5374 2.1558
-27.7071 9.5537 2.1558
-28.0448 8.5568 2.1558
-28.3254 7.5423 2.1542
-27.5072 6.2764 2.0725
-25.7298 4.9064 1.9232
-24.3533 3.7435 1.8083
-23.2767 2.7269 1.7191
-22.3915 1.8113 1.6471
-21.6549 0.9710 1.5886
-21.0153 0.1872 1.5395
-20.4493 -0.5522 1.4978
-19.9086 -1.2539 1.4599
-19.4390 -1.9269 1.4290
-19.0196 -2.5777 1.4034
-18.6119 -3.2066 1.3803
-18.2238 -3.8179 1.3602
-17.8747 -4.4201 1.3445
-17.5506 -5.0148 1.3323
-17.2250 -5.5980 1.3214
-16.9479 -6.1889 1.3158
-16.6810 -6.7795 1.3125
-16.4212 -7.3713 1.3115
-16.1647 -7.9652 1.3125
-15.9108 -8.5631 1.3155
-15.6827 -9.1812 1.3226
-15.4611 -9.8131 1.3322
-15.2583 -10.4712 1.3458
-15.0689 -11.1575 1.3631
-14.8905 -11.8760 1.3842
-14.7153 -12.6265 1.4087
-14.5452 -13.4165 1.4371
-13.6627 -13.5418 1.3966
-13.6849 -14.5742 1.4511
-13.8099 -15.8080 1.5231
-12.8995 -15.8822 1.4842
-13.9213 -18.4565 1.6766
-12.6773 -18.1257 1.6037
-12.4744 -19.2732 1.6642
-12.0871 -20.2318 1.7080
-12.9198 -23.5025 1.9433
-12.1529 -24.1198 1.9566
-11.4619 -24.9379 1.9880
-11.0929 -26.6132 2.0881
-10.2184 -27.2283 2.1059
-9.3531 -27.9318 2.1327
-8.3454 -28.2525 2.1327
-7.3265 -28.5363 2.1327
-6.2980 -28.7830 2.1327
-5.5154 -30.3934 2.2358
-4.4210 -30.5730 2.2358
-3.3209 -30.7126 2.2358
-2.2164 -30.8122 2.2358
-1.1090 -30.8714 2.2358
-0.0002 -23.5205 2.2358
0.8440 -23.5045 2.2358
1.6870 -23.4579 2.2358
2.4110 -22.3011 2.1325
3.2097 -22.1985 2.1325
4.0041 -22.0671 2.1325
3.5019 -16.0056 1.5581
4.0690 -15.8495 1.5563
6.3605 -21.5344 2.1358
7.1284 -21.2894 2.1358
7.8868 -21.0167 2.1358
8.7105 -20.8987 2.1546
9.4534 -20.5691 2.1546
10.1838 -20.2129 2.1546
10.9006 -19.8305 2.1546
11.6030 -19.4225 2.1546
12.2901 -18.9894 2.1546
3.7578 -5.3730 0.6247
13.6145 -18.0506 2.1546
14.2502 -17.5460 2.1546
14.5655 -16.6737 2.1109
14.5657 -15.5130 2.0294
14.5659 -14.4377 1.9564
14.5660 -13.4363 1.8909
14.5662 -12.4992 1.8320
14.5663 -11.6180 1.7789
14.5665 -10.7860 1.7310
14.5666 -9.9970 1.6878
14.5667 -9.2460 1.6488
14.5669 -8.5284 1.6136
14.5670 -7.8404 1.5819
15.7639 -7.7682 1.6810
17.3047 -7.7684 1.8150
19.1137 -7.7687 1.9749
21.1482 -7.7233 2.1558
21.4043 -6.9568 2.1558
21.6327 -6.1818 2.1558
21.8330 -5.3994 2.1558
22.0050 -4.6106 2.1558
22.1485 -3.8164 2.1558
16.0759 -2.1791 1.5567
16.0760 -1.5939 1.5507
16.0761 -1.0129 1.5467
16.0762 -0.4345 1.5448
16.0763 0.1428 1.5448
14.5685 0.6530 1.4018
14.5686 1.1782 1.4055
14.5687 1.7064 1.4110
14.5687 2.2392 1.4183
14.5688 2.7778 1.4276
14.5689 3.3239 1.4389
14.5690 3.8791 1.4522
2.1560 0.6578 0.2172
14.5692 5.0234 1.4854
14.5693 5.6163 1.5055
14.5694 6.2259 1.5281
14.5695 6.8545 1.5534
7.4942 3.8602 0.8136
6.8762 3.8603 0.7613
6.3325 3.8604 0.7162
5.8493 3.8605 0.6770
6.6113 4.7126 0.7844
6.6114 5.0802 0.8058
5.8866 4.8692 0.7385
6.6115 5.8810 0.8556
6.6116 6.3205 0.8846
5.8933 6.0535 0.8173
5.7042 6.2965 0.8221
2.7322 3.2426 0.4104
2.5941 3.3131 0.4073
2.4074 3.3131 0.3965
2.2302 3.3132 0.3867
10.9405 17.5847 2.0058
11.0709 19.3068 2.1558
10.3691 19.6889 2.1558
6.3216 13.1259 1.4116
8.9274 20.3770 2.1558
8.1892 20.6821 2.1558
7.4408 20.9607 2.1558
6.6830 21.2125 2.1558
5.8533 21.2076 2.1327
5.0879 21.4028 2.1327
4.3161 21.5706 2.1327
3.5388 21.7110 2.1327
2.7570 21.8235 2.1327
1.9718 21.9082 2.1327
1.2413 23.0267 2.2358
0.4138 23.0568 2.2358
-0.4142 23.0575 2.2358
-1.2417 23.0287 2.2358
-2.0677 22.9705 2.2358
-2.8912 22.8830 2.2358
-3.7111 22.7662 2.2358
-4.5264 22.6203 2.2358
-5.3361 22.4456 2.2358
-6.1392 22.2421 2.2358
-6.9346 22.0102 2.2358
-7.7213 21.7501 2.2358
-8.4984 21.4621 2.2358
-9.2649 21.1466 2.2358
-6.5939 13.6908 1.4714
-10.7622 20.4346 2.2358
-10.9612 19.1149 2.1327
-6.6755 10.7294 1.2228
-12.3094 18.2865 2.1327
-12.9607 17.8367 2.1326
-13.5958 17.3638 2.1326
-14.2136 16.8685 2.1326
-14.8137 16.3514 2.1326
-15.3949 15.8130 2.1326
-16.1310 15.4206 2.1558
-16.6788 14.8358 2.1558
-17.2056 14.2315 2.1558
-17.7106 13.6087 2.1558
-18.1931 12.9680 2.1558
-18.6526 12.3103 2.1558
-19.0885 11.6365 2.1558
-19.5001 10.9472 2.1558
-19.8870 10.2435 2.1558
-20.2485 9.5261 2.1558
-20.5844 8.7961 2.1558
-20.8939 8.0542 2.1558
-21.1767 7.3015 2.1558
-21.4326 6.5389 2.1558
-21.6610 5.7673 2.1558
-21.6839 4.9472 2.1383
-21.3018 4.0616 2.0841
-20.7635 3.1913 2.0182
-20.1009 2.3544 1.9437
-19.6006 1.5851 1.8879
-19.1467 0.8582 1.8394
-18.7208 0.1664 1.7961
-18.3005 -0.4946 1.7557
-17.9097 -1.1284 1.7204
-17.5593 -1.7410 1.6910
-17.2119 -2.3330 1.6640
-16.9017 -2.9123 1.6425
-16.6308 -3.4845 1.6267
-16.3454 -4.0423 1.6114
-16.0557 -4.5880 1.5975
-15.8254 -5.1434 1.5914
-15.6011 -5.6974 1.5879
-15.3586 -6.2424 1.5845
-15.1075 -6.7820 1.5822
-14.8617 -7.3235 1.5825
-14.6353 -7.8770 1.5870
-14.4226 -8.4438 1.5954
-14.2174 -9.0241 1.6070
-14.0111 -9.6155 1.6212
-13.8380 -10.2464 1.6423
-13.6805 -10.9113 1.6686
-13.5123 -11.5947 1.6973
-13.3685 -12.3315 1.7334
-13.2368 -13.1201 1.7758
-13.0628 -13.9120 1.8179
-12.8580 -14.7188 1.8614
-12.5853 -15.4958 1.9009
-12.3464 -16.3689 1.9519
-12.1039 -17.3063 2.0102
-11.8319 -18.2811 2.0724
-11.4094 -19.0978 2.1168
-10.8785 -19.7896 2.1484
-10.0881 -20.0225 2.1327
-9.3642 -20.3743 2.1327
-6.6395 -15.9293 1.6412
-7.8802 -20.9982 2.1327
-7.1220 -21.2695 2.1327
-6.3680 -21.5586 2.1372
-5.8483 -22.7791 2.2358
-5.0272 -22.9756 2.2358
-4.1995 -23.1422 2.2358
-3.3662 -23.2787 2.2358
-2.5285 -23.3849 2.2358
-1.6876 -23.4606 2.2358
-0.8444 -23.5058 2.2358
-0.0002 -18.9741 2.2358
0.6808 -18.9614 2.2358
1.3609 -18.9240 2.2358
1.9450 -17.9909 2.1325
2.5893 -17.9085 2.1325
3.2302 -17.8027 2.1325
3.6061 -16.4821 1.9887
4.2298 -16.4763 2.0053
5.1238 -17.3477 2.1325
5.7425 -17.1507 2.1325
6.3633 -16.9574 2.1358
6.9669 -16.7159 2.1358
7.5614 -16.4528 2.1358
8.2174 -16.3103 2.1546
8.7961 -16.0024 2.1546
9.3633 -15.6738 2.1546
9.9181 -15.3250 2.1546
3.7513 -5.3640 0.7727
4.0067 -5.3124 0.7856
11.5015 -14.1620 2.1546
11.9999 -13.7372 2.1546
12.4826 -13.2948 2.1546
12.9489 -12.8354 2.1546
13.3983 -12.3596 2.1546
13.8301 -11.8680 2.1546
14.2438 -11.3612 2.1546
14.5665 -10.7864 2.1439
14.5666 -9.9974 2.0902
14.5667 -9.2464 2.0418
14.5669 -8.5288 1.9981
14.5670 -7.8407 1.9588
15.7631 -7.7682 2.0813
16.6012 -7.4530 2.1558
16.8534 -6.8504 2.1558
17.0837 -6.2393 2.1558
17.2918 -5.6205 2.1558
17.4775 -4.9948 2.1558
17.6405 -4.3630 2.1558
17.7806 -3.7259 2.1558
17.8978 -3.0843 2.1558
16.0759 -2.1795 1.9262
16.0760 -1.5943 1.9187
16.0761 -1.0132 1.9137
16.0762 -0.4348 1.9112
16.0763 0.1425 1.9111
14.5685 0.6527 1.7340
14.5686 1.1779 1.7384
14.5687 1.7061 1.7451
14.5687 2.2389 1.7541
14.5688 2.7775 1.7655
14.5689 3.3236 1.7793
14.5690 3.8788 1.7957
2.1558 0.6577 0.2685
14.5692 5.0230 1.8365
14.5693 5.6160 1.8612
14.5694 6.2255 1.8891
14.5695 6.8542 1.9203
7.4946 3.8602 1.0057
6.8765 3.8603 0.9410
6.3328 3.8604 0.8852
5.8495 3.8605 0.8367
5.7677 4.1111 0.8457
5.7459 4.4151 0.8654
5.7220 4.7329 0.8870
6.1826 5.4993 0.9886
5.9800 5.7166 0.9886
5.7699 5.9265 0.9886
5.5524 6.1288 0.9886
5.3279 6.3231 0.9886
2.5941 3.3131 0.5032
2.4074 3.3131 0.4898
2.2223 3.3014 0.4761
9.5193 15.3001 2.1558
8.9628 15.6300 2.1558
8.3949 15.9399 2.1558
6.2982 13.0771 1.7371
7.2280 16.4978 2.1558
6.6305 16.7451 2.1558
6.0246 16.9710 2.1558
5.3531 16.9912 2.1327
4.7394 17.1714 2.1327
4.1197 17.3297 2.1327
3.4948 17.4657 2.1327
2.8654 17.5794 2.1327
2.2324 17.6707 2.1327
1.6738 18.5968 2.2358
1.0051 18.6449 2.2358
0.3350 18.6692 2.2358
-0.3354 18.6696 2.2358
-1.0055 18.6462 2.2358
-1.6743 18.5989 2.2358
-2.3410 18.5278 2.2358
-3.0049 18.4330 2.2358
-3.6650 18.3146 2.2358
-4.3204 18.1727 2.2358
-4.9705 18.0076 2.2358
-5.6144 17.8194 2.2358
-6.2512 17.6083 2.2358
-6.8801 17.3747 2.2358
-7.1545 16.3291 2.1327
-6.5871 13.6762 1.8157
-8.3100 15.7780 2.1326
-8.8724 15.4719 2.1326
-6.6756 10.7292 1.5107
-9.9628 14.8001 2.1326
-10.6040 14.5929 2.1558
-11.1231 14.2055 2.1558
-11.6282 13.7998 2.1558
-12.1186 13.3762 2.1558
-12.5937 12.9353 2.1558
-13.0528 12.4776 2.1558
-13.4953 12.0037 2.1558
-13.9208 11.5141 2.1558
-14.3286 11.0096 2.1558
-14.7181 10.4907 2.1558
-15.0890 9.9581 2.1558
-15.4407 9.4124 2.1558
-15.7727 8.8543 2.1558
-16.0846 8.2846 2.1558
-16.3761 7.7039 2.1558
-16.6466 7.1130 2.1558
-16.8958 6.5126 2.1558
-17.1234 5.9035 2.1558
-17.3292 5.2865 2.1558
-17.5127 4.6624 2.1558
-17.6698 4.0310 2.1553
-17.7608 3.3860 2.1496
-17.8295 2.7399 2.1440
-17.7877 2.0831 2.1280
-17.5394 1.4180 2.0902
-17.3099 0.7755 2.0576
-16.9998 0.1507 2.0182
-16.6974 -0.4516 1.9824
-16.4216 -1.0350 1.9523
-16.1494 -1.6015 1.9249
-15.8748 -2.1522 1.8997
-15.6103 -2.6901 1.8778
-15.3892 -3.2247 1.8635
-15.1537 -3.7479 1.8495
-14.9227 -4.2646 1.8383
-14.6891 -4.7745 1.8290
-14.4674 -5.2837 1.8234
-14.2396 -5.7879 1.8192
-14.0056 -6.2876 1.8165
-13.7838 -6.7927 1.8178
-13.5795 -7.3091 1.8239
-13.3758 -7.8312 1.8326
-13.1770 -8.3640 1.8449
-12.9626 -8.8963 1.8580
-12.7501 -9.4411 1.8746
-12.5496 -10.0097 1.8963
-12.3823 -10.6253 1.9271
-12.2182 -11.2708 1.9629
-12.0207 -11.9150 1.9982
-11.7660 -12.5313 2.0290
-11.5151 -13.1818 2.0657
-11.2524 -13.8549 2.1061
-10.9597 -14.5307 2.1473
-10.4551 -14.9491 2.1519
-9.8248 -15.1803 2.1327
-9.2749 -15.5253 2.1327
-8.7127 -15.8501 2.1327
-8.1391 -16.1545 2.1327
-7.5549 -16.4379 2.1327
-6.6325 -15.9127 2.0322
-6.3675 -16.9676 2.1361
-6.0233 -17.9886 2.2358
-5.3742 -18.1943 2.2358
-4.7179 -18.3765 2.2358
-4.0555 -18.5348 2.2358
-3.3877 -18.6690 2.2358
-2.7155 -18.7790 2.2358
-2.0398 -18.8646 2.2358
-1.3614 -18.9257 2.2358
-0.6812 -18.9623 2.2358
-0.0002 -15.8870 2.2358
0.5700 -15.8763 2.2358
1.1394 -15.8451 2.2358
1.7073 -15.7934 2.2358
2.1680 -14.9951 2.1325
2.7046 -14.9068 2.1325
3.2377 -14.7991 2.1325
2.8668 -11.1675 1.6231
4.2903 -14.5264 2.1325
4.8085 -14.3617 2.1325
5.3203 -14.1784 2.1325
5.8252 -13.9768 2.1325
6.3320 -13.7781 2.1358
6.8216 -13.5403 2.1358
7.3022 -13.2850 2.1358
7.7733 -13.0125 2.1358
8.3064 -12.8350 2.1546
3.7449 -5.3549 0.9210
3.9992 -5.3026 0.9363
9.6333 -11.8621 2.1546
10.0511 -11.5067 2.1546
10.4558 -11.1365 2.1546
10.8468 -10.7521 2.1546
11.2236 -10.3538 2.1546
11.5857 -9.9424 2.1546
11.9328 -9.5182 2.1546
12.2642 -9.0819 2.1546
12.5796 -8.6340 2.1546
12.8787 -8.1752 2.1546
13.1609 -7.7060 2.1546
13.4261 -7.2270 2.1546
13.6738 -6.7389 2.1546
13.9037 -6.2423 2.1546
14.1155 -5.7379 2.1546
14.3090 -5.2263 2.1546
14.4840 -4.7082 2.1546
14.6401 -4.1843 2.1546
14.7774 -3.6552 2.1546
14.8955 -3.1216 2.1546
14.9943 -2.5843 2.1546
15.0737 -2.0439 2.1546
15.1337 -1.5012 2.1546
15.1741 -0.9567 2.1546
15.1950 -0.4113 2.1546
15.1963 0.1344 2.1546
14.5685 0.6523 2.0680
14.5686 1.1775 2.0732
14.5687 1.7058 2.0811
14.5687 2.2386 2.0917
14.5688 2.7772 2.1052
14.5689 3.3233 2.1216
14.5690 3.8784 2.1410
2.1556 0.6576 0.3201
14.3368 4.9426 2.1546
14.1552 5.4560 2.1558
13.9472 5.9594 2.1558
13.7213 6.4548 2.1558
7.4949 3.8602 1.1988
6.8768 3.8603 1.1216
6.3330 3.8604 1.0551
5.8498 3.8605 0.9972
5.6406 4.0204 0.9857
5.5076 4.2318 0.9886
5.3512 4.4261 0.9886
5.2354 4.6567 0.9977
5.2355 5.0047 1.0314
5.2356 5.3776 1.0690
5.6402 6.2255 1.1967
5.4324 6.4469 1.2011
9.3273 11.9121 2.1558
8.8925 12.2377 2.1558
8.4464 12.5475 2.1558
7.9896 12.8412 2.1558
7.5226 13.1183 2.1558
7.0461 13.3786 2.1558
6.2749 13.0283 2.0619
6.0669 13.8473 2.1558
5.5058 13.9046 2.1327
5.0028 14.0924 2.1327
4.4934 14.2621 2.1327
3.9783 14.4135 2.1327
3.4581 14.5464 2.1327
2.9335 14.6607 2.1327
2.4052 14.7562 2.1327
1.8761 14.8503 2.1352
1.4050 15.6102 2.2358
0.8436 15.6506 2.2358
0.2812 15.6710 2.2358
-0.2816 15.6713 2.2358
-0.8440 15.6515 2.2358
-1.4054 15.6117 2.2358
-1.9651 15.5519 2.2358
-2.5223 15.4722 2.2358
-3.0763 15.3726 2.2358
-3.6265 15.2533 2.2358
-4.1721 15.1145 2.2358
-4.7124 14.9563 2.2358
-5.2468 14.7788 2.2358
-5.7746 14.5825 2.2358
-6.2611 14.2897 2.2237
-6.4937 13.4821 2.1327
-6.9744 13.2418 2.1327
-7.4462 12.9845 2.1327
-6.6757 10.7291 1.8002
-8.3610 12.4201 2.1326
-8.8027 12.1137 2.1326
-9.2333 11.7917 2.1326
-9.6522 11.4544 2.1326
-10.0589 11.1023 2.1326
-10.5668 10.8531 2.1558
-10.9517 10.4687 2.1558
-11.3226 10.0707 2.1558
-11.6791 9.6596 2.1558
-12.0208 9.2360 2.1558
-12.3471 8.8003 2.1558
-12.6577 8.3532 2.1558
-12.9523 7.8951 2.1558
-13.2302 7.4267 2.1558
-13.4913 6.9485 2.1558
-13.7351 6.4612 2.1558
-13.9614 5.9653 2.1558
-14.1698 5.4615 2.1558
-14.3601 4.9505 2.1558
-14.5320 4.4329 2.1558
-14.6853 3.9093 2.1558
-14.8197 3.3804 2.1558
-14.9351 2.8470 2.1558
-15.0313 2.3096 2.1558
-15.1082 1.7689 2.1558
-15.1545 1.2249 2.1542
-15.1904 0.6802 2.1539
-15.1951 0.1344 2.1520
-15.1857 -0.4110 2.1509
-15.0401 -0.9482 2.1332
-14.8968 -1.4776 2.1185
-14.7087 -1.9944 2.1001
-14.4640 -2.4929 2.0761
-14.2710 -2.9907 2.0620
-14.0918 -3.4855 2.0524
-13.8830 -3.9678 2.0409
-13.6650 -4.4419 2.0306
-13.4611 -4.9165 2.0248
-13.2598 -5.3899 2.0218
-13.0529 -5.8602 2.0207
-12.8442 -6.3299 2.0218
-12.6428 -6.8052 2.0269
-12.4518 -7.2905 2.0365
-12.2501 -7.7760 2.0475
-12.0598 -8.2770 2.0636
-11.8420 -8.7690 2.0785
-11.5973 -9.2504 2.0921
-11.3515 -9.7411 2.1092
-11.1311 -10.2683 2.1350
-10.8618 -10.7667 2.1558
-10.4700 -11.1513 2.1558
-9.9567 -11.3982 2.1327
-9.5425 -11.7499 2.1327
-9.1159 -12.0864 2.1327
-8.6773 -12.4074 2.1327
-8.2274 -12.7124 2.1327
-7.7667 -13.0010 2.1327
-7.2958 -13.2727 2.1327
-6.8153 -13.5273 2.1327
-6.3260 -13.7644 2.1327
-6.1101 -14.6597 2.2358
-5.5804 -14.8706 2.2358
-5.0434 -15.0622 2.2358
-4.4998 -15.2344 2.2358
-3.9503 -15.3868 2.2358
-3.3956 -15.5192 2.2358
-2.8365 -15.6315 2.2358
-2.2737 -15.7236 2.2358
-1.7079 -15.7952 2.2358
-1.1399 -15.8464 2.2358
-0.5704 -15.8770 2.2358
-0.0002 -13.6517 2.2358
0.4898 -13.6426 2.2358
0.9791 -13.6158 2.2358
1.4671 -13.5714 2.2358
1.8793 -12.9987 2.1513
2.3241 -12.8097 2.1325
2.7822 -12.7173 2.1325
2.6657 -10.3843 1.7564
3.0620 -10.3677 1.7712
4.1321 -12.3419 2.1325
4.5720 -12.1846 2.1325
5.0059 -12.0115 2.1325
5.4333 -11.8229 2.1325
5.8535 -11.6190 2.1325
6.2756 -11.4175 2.1358
6.6805 -11.1836 2.1358
7.0768 -10.9352 2.1358
3.7384 -5.3458 1.0698
3.9917 -5.2929 1.0873
8.2798 -10.1957 2.1546
8.6392 -9.8905 2.1546
8.9872 -9.5726 2.1546
9.3235 -9.2424 2.1546
9.6476 -8.9003 2.1546
9.9592 -8.5469 2.1546
10.2578 -8.1825 2.1546
10.5430 -7.8076 2.1546
10.8145 -7.4228 2.1546
11.0719 -7.0286 2.1546
11.3149 -6.6254 2.1546
11.5432 -6.2138 2.1546
11.7565 -5.7943 2.1546
11.9545 -5.3675 2.1546
12.1371 -4.9340 2.1546
12.3039 -4.4942 2.1546
12.4547 -4.0489 2.1546
12.5894 -3.5985 2.1546
12.7078 -3.1436 2.1546
12.8098 -2.6848 2.1546
12.8952 -2.2228 2.1546
12.9640 -1.7581 2.1546
13.0160 -1.2914 2.1546
13.0512 -0.8231 2.1546
13.0696 -0.3541 2.1546
13.0711 0.1153 2.1546
13.0558 0.5843 2.1546
13.0237 1.0524 2.1546
12.9749 1.5189 2.1546
12.9093 1.9833 2.1546
12.8272 2.4449 2.1546
12.7286 2.9032 2.1546
12.6136 3.3576 2.1546
2.1553 0.6574 0.3720
12.3354 4.2523 2.1546
12.1725 4.6915 2.1546
11.9939 5.1245 2.1546
11.8069 5.5540 2.1558
7.4952 3.8602 1.3932
6.8771 3.8603 1.3035
6.3333 3.8604 1.2261
5.8500 3.8605 1.1588
5.6398 4.0197 1.1453
5.6399 4.3333 1.1763
5.6399 4.6647 1.2107
5.6400 5.0164 1.2488
5.6400 5.3913 1.2910
5.6401 5.7929 1.3380
5.6402 6.2253 1.3903
5.5531 6.5899 1.4265
8.0284 10.2530 2.1558
7.6543 10.5335 2.1558
7.2704 10.8003 2.1558
6.8773 11.0533 2.1558
6.4755 11.2920 2.1558
6.0654 11.5162 2.1558
5.5871 11.6000 2.1327
5.1666 11.7923 2.1327
4.7397 11.9694 2.1327
4.3066 12.1312 2.1327
3.8681 12.2773 2.1327
3.4247 12.4078 2.1327
2.9769 12.5222 2.1327
2.5254 12.6207 2.1327
2.0747 12.7282 2.1369
1.6912 13.3862 2.2358
1.2095 13.4382 2.2358
0.7262 13.4730 2.2358
0.2421 13.4905 2.2358
-0.2424 13.4907 2.2358
-0.7266 13.4737 2.2358
-1.2099 13.4393 2.2358
-1.6917 13.3877 2.2358
-2.1713 13.3190 2.2358
-2.6483 13.2332 2.2358
-3.1218 13.1304 2.2358
-3.5915 13.0107 2.2358
-4.0566 12.8744 2.2358
-4.5165 12.7215 2.2358
-4.9708 12.5523 2.2358
-5.4187 12.3669 2.2358
-5.8598 12.1656 2.2358
-6.1699 11.7140 2.1919
-6.4094 11.1762 2.1327
-6.6759 10.7290 2.0915
-7.1965 10.6900 2.1327
-7.5766 10.4260 2.1327
-7.9470 10.1487 2.1326
-8.3074 9.8582 2.1326
-8.6572 9.5550 2.1326
-8.9960 9.2394 2.1326
-9.3233 8.9119 2.1326
-9.6388 8.5728 2.1326
-9.9420 8.2226 2.1326
-10.3441 7.9475 2.1558
-10.6246 7.5724 2.1558
-10.8916 7.1874 2.1558
-11.1447 6.7930 2.1558
-11.3835 6.3897 2.1558
-11.6078 5.9781 2.1558
-11.8172 5.5586 2.1558
-12.0115 5.1319 2.1558
-12.1905 4.6983 2.1558
-12.3538 4.2586 2.1558
-12.5012 3.8131 2.1558
-12.6326 3.3626 2.1558
-12.7479 2.9076 2.1558
-12.8467 2.4486 2.1558
-12.9291 1.9863 2.1558
-12.9948 1.5212 2.1558
-13.0437 1.0540 2.1558
-13.0759 0.5852 2.1558
-13.0913 0.1155 2.1558
-13.0897 -0.3546 2.1558
-13.0713 -0.8244 2.1558
-13.0360 -1.2933 2.1558
-12.9838 -1.7608 2.1558
-12.9149 -2.2262 2.1558
-12.8293 -2.6889 2.1558
-12.7142 -3.1451 2.1536
-12.5811 -3.5960 2.1511
-12.4509 -4.0475 2.1519
-12.2822 -4.4862 2.1488
-12.1136 -4.9243 2.1485
-11.9407 -5.3612 2.1502
-11.7400 -5.7860 2.1497
-11.5292 -6.2060 2.1501
-11.3026 -6.6180 2.1504
-11.0775 -7.0319 2.1539
-10.8295 -7.4329 2.1558
-10.5574 -7.8180 2.1558
-10.1615 -8.1054 2.1327
-9.8656 -8.4662 2.1327
-9.5567 -8.8162 2.1327
-9.2355 -9.1548 2.1327
-8.9021 -9.4816 2.1327
-8.5572 -9.7963 2.1327
-8.2010 -10.0984 2.1327
-7.8342 -10.3874 2.1327
-7.4572 -10.6631 2.1327
-7.0704 -10.9250 2.1327
-6.6744 -11.1728 2.1327
-6.2697 -11.4062 2.1327
-6.1398 -12.1867 2.2358
-5.6989 -12.4002 2.2358
-5.2505 -12.5976 2.2358
-4.7953 -12.7787 2.2358
-4.3338 -12.9433 2.2358
-3.8667 -13.0911 2.2358
-3.3945 -13.2220 2.2358
-2.9178 -13.3357 2.2358
-2.4374 -13.4322 2.2358
-1.9537 -13.5112 2.2358
-1.4676 -13.5728 2.2358
-0.9795 -13.6167 2.2358
-0.4901 -13.6430 2.2358
-0.0002 -11.9569 2.2358
0.4289 -11.9489 2.2358
0.8575 -11.9255 2.2358
1.2849 -11.8867 2.2358
1.7106 -11.8325 2.2358
2.0356 -11.2197 2.1325
2.4368 -11.1388 2.1325
2.7448 -10.6929 2.0648
3.2292 -10.9340 2.1325
3.6192 -10.8103 2.1325
4.0046 -10.6726 2.1325
4.3847 -10.5212 2.1325
4.7590 -10.3561 2.1325
5.1272 -10.1776 2.1325
5.4886 -9.9861 2.1325
3.5860 -6.0034 1.3088
3.9416 -6.0908 1.3580
3.7319 -5.3366 1.2191
3.9845 -5.2834 1.2390
4.5373 -5.5873 1.3478
4.5181 -5.1727 1.2863
7.8046 -8.3132 2.1358
8.0968 -8.0266 2.1358
8.4520 -7.7976 2.1546
8.7251 -7.4881 2.1546
8.9869 -7.1690 2.1546
9.2370 -6.8407 2.1546
9.4751 -6.5037 2.1546
9.7008 -6.1584 2.1546
9.9139 -5.8053 2.1546
10.1142 -5.4448 2.1546
10.3014 -5.0774 2.1546
10.4751 -4.7035 2.1546
10.6353 -4.3237 2.1546
10.7817 -3.9385 2.1546
10.9142 -3.5483 2.1546
11.0325 -3.1537 2.1546
11.1366 -2.7551 2.1546
11.2262 -2.3532 2.1546
11.3013 -1.9483 2.1546
11.3619 -1.5411 2.1546
11.4078 -1.1321 2.1546
11.4389 -0.7217 2.1546
11.4553 -0.3106 2.1546
11.4570 0.1008 2.1546
11.4438 0.5119 2.1546
11.4160 0.9222 2.1546
11.3735 1.3312 2.1546
11.3163 1.7383 2.1546
11.2445 2.1430 2.1546
11.1584 2.5448 2.1546
11.0579 2.9433 2.1546
2.1551 0.6573 0.4243
10.8144 3.7278 2.1546
10.6719 4.1129 2.1546
10.5156 4.4926 2.1546
10.3458 4.8664 2.1546
7.4956 3.8602 1.5891
6.8774 3.8603 1.4867
6.3335 3.8604 1.3984
5.8502 3.8605 1.3217
5.6398 4.0196 1.3061
5.6399 4.3332 1.3415
5.6399 4.6646 1.3807
5.6400 5.0163 1.4241
5.6400 5.3912 1.4722
5.6401 5.7928 1.5257
5.6402 6.2252 1.5854
5.6802 6.7406 1.6638
7.0407 8.9913 2.1558
6.7127 9.2374 2.1558
6.3761 9.4715 2.1558
6.0314 9.6935 2.1558
5.6182 9.7969 2.1327
5.2625 9.9915 2.1327
4.9000 10.1733 2.1327
4.5313 10.3420 2.1327
4.1569 10.4975 2.1327
3.7771 10.6394 2.1327
3.3926 10.7677 2.1327
3.0037 10.8821 2.1327
2.6109 10.9826 2.1327
2.2149 11.0690 2.1327
1.8621 11.4235 2.1868
1.4832 11.7404 2.2358
1.0608 11.7860 2.2358
0.6370 11.8165 2.2358
0.2123 11.8318 2.2358
-0.2126 11.8320 2.2358
-0.6373 11.8170 2.2358
-1.0612 11.7868 2.2358
-1.4837 11.7416 2.2358
-1.9044 11.6812 2.2358
-2.3227 11.6058 2.2358
-2.7380 11.5156 2.2358
-3.1499 11.4106 2.2358
-3.5577 11.2909 2.2358
-3.9611 11.1567 2.2358
-4.3594 11.0082 2.2358
-4.7522 10.8455 2.2358
-5.1390 10.6688 2.2358
-5.5193 10.4785 2.2358
-5.8925 10.2746 2.2358
-6.1695 9.9149 2.2041
-6.3110 9.3743 2.1327
-6.6442 9.1428 2.1327
-6.9690 8.8994 2.1327
-7.2849 8.6445 2.1327
-7.5915 8.3785 2.1327
-7.8884 8.1016 2.1326
-8.1753 7.8142 2.1326
-8.4518 7.5168 2.1326
-8.7174 7.2095 2.1326
-8.9720 6.8930 2.1326
-9.2151 6.5675 2.1326
-9.4464 6.2334 2.1326
-9.6656 5.8912 2.1326
-9.8725 5.5413 2.1326
-10.0667 5.1842 2.1326
-10.3598 4.8729 2.1558
-10.5299 4.4986 2.1558
-10.6865 4.1184 2.1558
-10.8294 3.7328 2.1558
-10.9584 3.3423 2.1558
-11.0734 2.9473 2.1558
-11.1741 2.5483 2.1558
-11.2604 2.1460 2.1558
-11.3323 1.7407 2.1558
-11.3896 1.3330 2.1558
-11.4323 0.9235 2.1558
-11.4602 0.5127 2.1558
-11.4733 0.1010 2.1558
-11.4717 -0.3110 2.1558
-11.4552 -0.7227 2.1558
-11.4240 -1.1336 2.1558
-11.3780 -1.5433 2.1558
-11.3174 -1.9510 2.1558
-11.2421 -2.3564 2.1558
-11.1522 -2.7589 2.1558
-11.0480 -3.1580 2.1558
-10.9294 -3.5531 2.1558
-10.7967 -3.9438 2.1558
-10.6499 -4.3295 2.1558
-10.4894 -4.7098 2.1558
-10.3153 -5.0841 2.1558
-10.0192 -5.3935 2.1327
-9.8207 -5.7505 2.1327
-9.6094 -6.1002 2.1327
-9.3857 -6.4421 2.1327
-9.1497 -6.7758 2.1327
-8.9018 -7.1008 2.1327
-8.6424 -7.4168 2.1327
-8.3717 -7.7232 2.1327
