ply
format ascii 1.0
element vertex 2129
property float32 x
property float32 y
property float32 z
end_header
4.0097 12.7216 1.0692
7.0757 25.6253 2.1327
6.1465 25.8447 2.1327
5.2033 25.9937 2.1294
3.8476 23.5958 1.9213
3.3211 26.2780 2.1294
2.3746 26.3737 2.1294
1.4947 27.7203 2.2327
0.4982 27.7554 2.2327
-0.4990 27.7580 2.2327
-1.4960 27.7278 2.2327
-2.4916 27.6650 2.2327
-3.4851 27.5696 2.2327
-4.4755 27.4415 2.2327
-5.4618 27.2810 2.2327
-6.2036 26.0813 2.1497
-7.0757 25.6225 2.1296
-7.9993 25.3770 2.1296
-8.9153 25.1009 2.1296
-9.8229 24.7945 2.1296
-10.8375 24.7232 2.1527
-11.7343 24.3512 2.1526
-12.3567 23.4499 2.1076
-12.5994 21.9601 2.0098
-12.7431 20.4705 1.9108
-12.9064 19.1629 1.8275
-13.1942 18.1477 1.7714
-13.4265 17.1378 1.7153
-13.5556 16.0780 1.6534
-10.5161 11.6007 1.2283
-10.9091 11.1984 1.2236
-11.3017 10.7970 1.2205
-11.6950 10.3956 1.2188
-12.9998 10.7452 1.3103
-11.9190 9.1518 1.1644
-13.6648 9.7328 1.2965
-16.4624 10.8561 1.5197
-17.3595 10.5735 1.5619
-18.1485 10.1792 1.5943
-18.9436 9.7482 1.6275
-15.7714 7.4121 1.3272
-16.2476 6.9352 1.3413
-16.7386 6.4446 1.3575
-21.9779 7.5676 1.7536
-21.5367 6.5608 1.6930
-23.3220 6.1990 1.8087
-24.1166 5.4915 1.8477
-24.8829 4.7334 1.8858
-25.0569 3.8402 1.8809
-25.2020 2.9410 1.8762
-27.0748 2.1779 2.0016
-10.6370 0.4722 0.7819
-27.4391 0.2321 2.0081
-27.4652 -0.7539 2.0037
-27.4339 -1.7401 1.9977
-27.2726 -2.7156 1.9848
-27.5586 -3.7473 2.0071
-23.3716 -4.0371 1.7057
-22.9010 -4.8081 1.6770
-27.3459 -6.7745 2.0121
-25.3348 -7.2506 1.8756
-26.8682 -8.7443 2.0043
-26.6266 -9.7356 2.0043
-26.3477 -10.7206 2.0043
-26.0315 -11.6977 2.0043
-25.6780 -12.6653 2.0043
-25.2875 -13.6221 2.0043
-24.9352 -14.6103 2.0103
-25.5557 -16.2331 2.0995
-25.6664 -17.6271 2.1527
-25.0910 -18.5914 2.1527
-24.4779 -19.5357 2.1527
-23.8275 -20.4585 2.1527
-22.2697 -20.5543 2.0717
-21.1108 -20.9365 2.0272
-19.6452 -20.9339 1.9524
-17.7391 -20.3170 1.8298
-16.9894 -20.9291 1.8246
-10.1383 -13.4481 1.1374
-10.1365 -14.5002 1.1922
-10.1344 -15.6656 1.2549
-13.0344 -21.8279 1.7066
-10.1294 -18.4351 1.4094
-12.2542 -24.3322 1.8224
-13.9555 -30.3767 2.2327
-12.8749 -30.9021 2.2327
-11.7754 -31.3908 2.2331
-6.3719 -19.0370 1.3356
-9.5162 -32.2296 2.2334
-8.3602 -32.5753 2.2330
-7.1902 -32.8736 2.2326
-5.8847 -32.4411 2.1861
-4.6125 -31.9084 2.1365
-3.4547 -31.9612 2.1296
-2.2175 -30.8364 2.0476
-1.1556 -32.1746 2.1321
-0.0005 -25.1281 2.2334
0.9005 -25.1013 2.2328
1.7168 -23.8892 2.1296
2.3140 -21.4179 1.9161
3.4226 -23.6862 2.1296
4.2677 -23.5354 2.1296
5.1060 -23.3521 2.1296
5.9447 -23.1703 2.1327
6.7664 -22.9229 2.1327
7.5772 -22.6441 2.1327
8.4496 -22.5310 2.1514
9.2421 -22.1883 2.1514
10.0199 -21.8159 2.1514
10.7820 -21.4143 2.1514
11.5272 -20.9844 2.1514
12.2544 -20.5268 2.1514
12.9626 -20.0426 2.1514
13.6508 -19.5324 2.1514
14.3180 -18.9972 2.1514
14.9634 -18.4380 2.1514
15.5860 -17.8558 2.1514
16.4107 -17.4919 2.1814
16.9935 -16.8579 2.1814
17.5508 -16.2036 2.1814
18.0821 -15.5301 2.1814
1.8629 -1.4872 0.2186
2.0025 -1.4842 0.2291
2.1600 -1.4839 0.2415
2.3348 -1.4836 0.2555
2.5247 -1.4798 0.2709
16.1146 -8.6840 1.6989
16.1133 -7.9509 1.6717
16.1120 -7.2433 1.6477
16.1108 -6.5584 1.6265
14.6007 -5.3413 1.4575
14.5997 -4.7541 1.4432
14.5986 -4.1806 1.4311
14.5976 -3.6189 1.4211
14.5966 -3.0671 1.4131
14.5956 -2.5237 1.4071
14.5947 -1.9870 1.4029
14.5937 -1.4556 1.4007
14.5927 -0.9280 1.4002
14.5918 -0.4029 1.4016
3.8984 0.0323 0.3753
3.8983 0.1724 0.3767
14.5890 1.1712 1.4165
14.5880 1.7000 1.4251
14.5870 2.2333 1.4357
14.5861 2.7723 1.4482
14.5851 3.3188 1.4627
14.5841 3.8741 1.4793
16.3231 4.9700 1.6769
20.6609 7.1108 2.1527
20.3431 7.8291 2.1527
16.3161 6.9618 1.7561
18.1707 8.5368 1.9920
16.5893 8.5340 1.8553
16.0828 9.0180 1.8378
16.0814 9.7923 1.8807
16.0799 10.6012 1.9280
16.0784 11.4491 1.9799
15.5268 11.9193 1.9674
14.5694 12.0400 1.9034
14.5678 12.9467 1.9664
14.5661 13.9129 2.0360
14.5642 14.9476 2.1132
14.2478 15.7146 2.1514
13.6523 16.1901 2.1514
13.0420 16.6444 2.1514
12.4176 17.0772 2.1514
11.7800 17.4880 2.1514
11.1297 17.8765 2.1514
10.4676 18.2424 2.1514
9.7944 18.5853 2.1514
9.1108 18.9050 2.1514
8.4177 19.2013 2.1514
7.6484 19.3041 2.1327
4.3300 12.1903 1.3298
3.8023 12.0618 1.3010
3.3912 12.2796 1.3113
4.7845 20.1148 2.1294
4.0570 20.2644 2.1294
2.8622 17.5504 1.8329
2.5899 20.4898 2.1294
1.8672 20.7361 2.1471
1.1657 21.6163 2.2327
0.3885 21.6438 2.2327
-0.3893 21.6453 2.2327
-1.1668 21.6208 2.2327
-1.9432 21.5703 2.2327
-2.7176 21.4939 2.2327
-3.4895 21.3915 2.2327
-4.2578 21.2633 2.2327
-5.0219 21.1093 2.2327
-5.7809 20.9298 2.2327
-6.2323 19.7677 2.1296
-6.9443 19.5479 2.1296
-7.6492 19.3041 2.1296
-8.3462 19.0364 2.1296
-9.0346 18.7452 2.1296
-9.7136 18.4305 2.1296
-10.4952 18.2891 2.1527
-11.0739 17.7855 2.1360
-11.4234 16.9575 2.0816
-11.7450 16.1512 2.0300
-12.0781 15.4134 1.9874
-12.3736 14.6729 1.9448
-10.5827 11.6715 1.5936
-10.9781 11.2665 1.5883
-11.3731 10.8626 1.5850
-11.7689 10.4588 1.5838
-13.1216 10.8430 1.7089
-12.1428 9.3211 1.5336
-11.6718 8.3109 1.4325
-14.7761 9.7412 1.7656
-15.3886 9.3701 1.7934
-16.0090 8.9762 1.8228
-16.6575 8.5687 1.8561
-17.1630 8.0631 1.8745
-17.7649 7.5797 1.9047
-18.2880 7.0379 1.9277
-18.8281 6.4798 1.9540
-19.3258 5.8840 1.9775
-19.6209 5.2120 1.9822
-19.8475 4.5161 1.9823
-20.0433 3.8095 1.9818
-20.2141 3.0947 1.9812
-20.9355 2.4397 2.0367
-21.1254 1.6959 2.0425
-10.1452 0.4487 0.9761
-21.3480 0.1772 2.0465
-21.4066 -0.5910 2.0474
-21.4271 -1.3625 2.0472
-21.3220 -2.1265 2.0377
-21.2264 -2.8897 2.0318
-21.0726 -3.6434 2.0229
-20.8753 -4.3862 2.0124
-20.6971 -5.1307 2.0064
-20.5309 -5.8792 2.0043
-20.3592 -6.6293 2.0043
-20.1598 -7.3745 2.0043
-19.9325 -8.1137 2.0043
-19.6776 -8.8458 2.0043
-19.3951 -9.5698 2.0043
-19.0854 -10.2845 2.0043
-18.8079 -11.0236 2.0106
-18.7117 -11.8893 2.0399
-10.1500 -6.9727 1.1305
-18.5621 -13.7573 2.1164
-10.1480 -8.1011 1.1869
-10.1469 -8.7143 1.2200
-10.1457 -9.3664 1.2569
-10.1467 -10.0651 1.2984
-10.1666 -10.8358 1.3472
-10.1550 -11.6332 1.3976
-10.1401 -12.4939 1.4537
-10.1383 -13.4507 1.5192
-10.1364 -14.5029 1.5934
-11.8314 -18.2922 1.9587
-10.1531 -17.0058 1.7783
-10.1294 -18.4383 1.8863
-10.6951 -21.2399 2.1296
-9.9378 -21.6351 2.1296
-9.1651 -22.0013 2.1296
-8.3781 -22.3377 2.1296
-6.3702 -19.0348 1.7902
-7.0955 -24.0348 2.2333
-6.2345 -24.2965 2.2338
-5.3634 -24.5249 2.2344
-4.4834 -24.7195 2.2349
-3.5961 -24.8803 2.2355
-2.7019 -24.9994 2.2354
-1.8031 -25.0774 2.2348
-0.9022 -25.1201 2.2341
-0.0005 -20.0066 2.2333
0.7169 -19.9893 2.2331
1.4330 -19.9446 2.2328
2.0476 -18.9562 2.1296
2.7252 -18.8639 2.1296
3.3986 -18.7459 2.1296
4.0667 -18.6023 2.1296
4.7285 -18.4335 2.1296
3.3062 -11.2028 1.3080
3.6516 -10.9145 1.2898
4.0702 -10.8552 1.3003
7.3037 -17.5380 2.1327
7.9203 -17.2478 2.1327
8.5999 -17.0837 2.1514
9.1969 -16.7455 2.1514
9.7800 -16.3853 2.1514
10.3485 -16.0038 2.1514
10.9015 -15.6017 2.1514
11.4382 -15.1795 2.1514
11.9581 -14.7381 2.1514
12.4603 -14.2781 2.1514
12.9443 -13.8003 2.1514
13.4093 -13.3054 2.1514
13.8548 -12.7944 2.1514
14.2803 -12.2679 2.1514
1.8704 -1.4936 0.2740
2.0019 -1.4842 0.2858
2.1594 -1.4839 0.3011
2.3341 -1.4836 0.3184
16.0999 -9.4398 2.1527
16.1146 -8.6870 2.1158
16.1133 -7.9538 2.0809
16.1120 -7.2462 2.0500
16.1108 -6.5612 2.0227
14.6007 -5.3438 1.8116
14.5997 -4.7566 1.7929
14.5986 -4.1831 1.7770
14.5976 -3.6213 1.7637
14.5966 -3.0695 1.7528
14.5956 -2.5261 1.7445
14.5947 -1.9894 1.7385
14.5937 -1.4579 1.7347
14.5928 -0.9304 1.7333
14.5918 -0.4053 1.7341
3.9021 0.0318 0.4646
3.8893 0.1714 0.4645
14.5890 1.1688 1.7499
14.5880 1.6977 1.7597
14.5870 2.2309 1.7719
14.5861 2.7700 1.7865
14.5851 3.3164 1.8035
14.5841 3.8717 1.8232
16.3218 4.9669 2.0656
16.7799 5.7722 2.1527
16.5292 6.3585 2.1527
16.2587 6.9344 2.1527
15.9688 7.4995 2.1527
15.6600 8.0531 2.1527
15.3238 8.5896 2.1514
14.9787 9.1181 2.1514
14.6162 9.6334 2.1514
14.2367 10.1349 2.1514
13.8407 10.6222 2.1514
13.4289 11.0947 2.1514
13.0016 11.5521 2.1514
12.5596 11.9937 2.1514
12.1033 12.4193 2.1514
11.6334 12.8283 2.1514
11.1504 13.2205 2.1514
10.6549 13.5953 2.1514
10.1475 13.9526 2.1514
9.6288 14.2919 2.1514
9.0994 14.6128 2.1514
8.5600 14.9153 2.1514
7.9413 15.0664 2.1327
7.3885 15.3286 2.1327
6.8276 15.5716 2.1327
6.2592 15.7952 2.1327
5.6752 15.9748 2.1294
3.8637 12.2546 1.6149
3.4553 12.5099 1.6320
3.9173 16.4667 2.1294
3.3219 16.5905 2.1294
2.7229 16.6940 2.1294
2.1209 16.7771 2.1294
1.5900 17.6563 2.2327
0.9546 17.7004 2.2327
0.3181 17.7230 2.2327
-0.3189 17.7241 2.2327
-0.9556 17.7035 2.2327
-1.5913 17.6614 2.2327
-2.2255 17.5977 2.2327
-2.8573 17.5125 2.2327
-3.4860 17.4059 2.2327
-4.1112 17.2780 2.2327
-4.7319 17.1289 2.2327
-5.3476 16.9586 2.2327
-5.9576 16.7674 2.2327
-6.2583 15.7910 2.1296
-6.8273 15.5692 2.1296
-7.3890 15.3279 2.1296
-7.9426 15.0673 2.1296
-8.4876 14.7877 2.1296
-9.0233 14.4893 2.1296
-9.5492 14.1724 2.1296
-10.0645 13.8373 2.1296
-10.6825 13.6296 2.1525
-11.0914 13.1496 2.1354
-11.3890 12.5580 2.1015
-11.0481 11.3358 1.9593
-11.4457 10.9293 1.9559
-11.8441 10.5230 1.9550
-12.3468 10.2002 1.9730
-12.3762 9.4977 1.9187
-11.8815 8.4579 1.7906
-13.1266 8.6512 1.9267
-13.4246 8.1717 1.9227
-13.7937 7.7316 1.9309
-14.1543 7.2785 1.9399
-14.5146 6.8163 1.9507
-14.8753 6.3441 1.9634
-14.9442 5.7485 1.9401
-15.1841 5.2231 1.9417
-15.4053 4.6878 1.9432
-15.6094 4.1438 1.9449
-16.2034 3.6842 1.9970
-16.5762 3.1478 2.0234
-16.7541 2.5623 2.0282
-16.9489 1.9724 2.0376
-17.1082 1.3706 2.0451
-10.1809 0.4487 1.2117
-17.2878 0.1407 2.0511
-17.3244 -0.4811 2.0517
-17.3748 -1.1077 2.0566
-17.3591 -1.7341 2.0564
-10.1452 -1.3828 1.2043
-10.1501 -1.7566 1.2090
-16.8302 -3.5390 2.0142
-10.1576 -2.5197 1.2231
-16.0846 -4.6086 1.9512
-10.1579 -3.3093 1.2433
-10.1564 -3.7170 1.2560
-12.3351 -5.0233 1.5436
-10.1543 -4.5665 1.2878
-10.1535 -5.0117 1.3071
-10.1527 -5.4728 1.3288
-10.1518 -5.9520 1.3532
-10.1745 -6.4667 1.3837
-10.1500 -6.9747 1.4109
-14.6372 -10.8513 2.0837
-10.1480 -8.1032 1.4825
-10.1469 -8.7164 1.5246
-13.8373 -12.7774 2.1430
-10.1444 -10.0652 1.6234
-12.9774 -13.8346 2.1515
-10.1529 -11.6332 1.7488
-10.1401 -12.4964 1.8201
-10.1383 -13.4533 1.9027
-10.1364 -14.5056 1.9962
-10.3756 -16.0444 2.1527
-9.6994 -16.2488 2.1296
-9.1202 -16.6042 2.1296
-8.5273 -16.9377 2.1296
-7.9216 -17.2487 2.1296
-7.3041 -17.5368 2.1296
-6.6756 -17.8014 2.1296
-6.1484 -18.3749 2.1689
-5.6503 -19.1423 2.2327
-4.9632 -19.3447 2.2329
-4.2685 -19.5212 2.2331
-3.5673 -19.6708 2.2332
-2.8605 -19.7934 2.2334
-2.1493 -19.8887 2.2335
-1.4348 -19.9565 2.2336
-0.7182 -19.9965 2.2336
-0.0005 -16.6008 2.2327
0.5948 -16.5887 2.2327
1.1891 -16.5541 2.2327
1.7816 -16.4971 2.2327
2.2619 -15.6597 2.1296
2.8210 -15.5628 2.1296
3.3758 -15.4450 2.1296
3.9256 -15.3064 2.1296
3.4095 -11.5549 1.6245
3.7074 -11.0834 1.5769
4.1514 -11.0738 1.5968
6.0668 -14.5706 2.1327
6.5801 -14.3319 2.1327
7.0836 -14.0744 2.1327
7.5768 -13.7983 2.1327
8.0588 -13.5043 2.1327
8.6040 -13.3087 2.1514
9.0658 -12.9772 2.1514
9.5144 -12.6290 2.1514
9.9491 -12.2647 2.1514
10.3696 -11.8850 2.1514
10.7751 -11.4903 2.1514
11.1652 -11.0814 2.1514
11.5393 -10.6588 2.1514
11.8971 -10.2232 2.1514
1.8802 -1.5018 0.3305
2.0013 -1.4842 0.3428
2.1587 -1.4839 0.3609
2.3334 -1.4836 0.3816
13.4257 -7.8745 2.1514
13.6769 -7.3755 2.1514
13.9093 -6.8684 2.1514
14.1227 -6.3541 2.1514
14.3168 -5.8331 2.1514
14.4915 -5.3064 2.1514
14.5997 -4.7591 2.1445
14.5986 -4.1856 2.1247
14.5976 -3.6238 2.1081
14.5966 -3.0720 2.0944
14.5957 -2.5285 2.0837
14.5947 -1.9917 2.0758
14.5937 -1.4603 2.0706
14.5928 -0.9328 2.0682
14.5918 -0.4076 2.0684
3.9059 0.0311 0.5545
3.8802 0.1704 0.5524
14.5890 1.1665 2.0852
14.5880 1.6953 2.0961
14.5870 2.2285 2.1099
14.5861 2.7676 2.1266
14.5851 3.3140 2.1462
14.4671 3.8383 2.1514
14.2954 4.3478 2.1514
14.1062 4.8501 2.1514
13.8997 5.3446 2.1514
13.6764 5.8307 2.1514
13.4365 6.3079 2.1514
13.1805 6.7757 2.1514
12.9087 7.2335 2.1514
12.6215 7.6808 2.1514
12.3193 8.1172 2.1514
12.0026 8.5421 2.1514
11.6717 8.9552 2.1514
11.3272 9.3560 2.1514
10.9694 9.7441 2.1514
10.5989 10.1191 2.1514
10.2161 10.4805 2.1514
9.8215 10.8280 2.1514
9.4156 11.1614 2.1514
8.9990 11.4801 2.1514
8.5720 11.7840 2.1514
8.0644 11.9675 2.1327
7.6223 12.2384 2.1327
7.1715 12.4936 2.1327
6.7126 12.7330 2.1327
6.2461 12.9564 2.1327
5.7638 13.1433 2.1294
5.2845 13.3336 2.1294
4.7993 13.5072 2.1294
4.3087 13.6640 2.1294
3.8133 13.8038 2.1294
3.3135 13.9266 2.1294
2.8101 14.0321 2.1294
2.3034 14.1203 2.1294
1.8696 14.7877 2.2190
1.3451 14.9351 2.2327
0.8076 14.9727 2.2327
0.2690 14.9918 2.2327
-0.2699 14.9926 2.2327
-0.8085 14.9749 2.2327
-1.3463 14.9388 2.2327
-1.8827 14.8843 2.2327
-2.4170 14.8114 2.2327
-2.9487 14.7203 2.2327
-3.4772 14.6110 2.2327
-4.0019 14.4836 2.2327
-4.5222 14.3383 2.2327
-5.0375 14.1750 2.2327
-5.5472 13.9941 2.2327
-6.0508 13.7957 2.2327
-6.2453 12.9529 2.1296
-6.7122 12.7308 2.1296
-7.1717 12.4925 2.1296
-7.6230 12.2383 2.1296
-8.0658 11.9685 2.1296
-8.4995 11.6832 2.1296
-8.9235 11.3829 2.1296
-9.3374 11.0677 2.1296
-9.7406 10.7380 2.1296
-10.1327 10.3941 2.1296
-10.6271 10.1452 2.1527
-10.9833 9.7558 2.1496
-11.0669 9.1405 2.0974
-11.1079 8.5221 2.0429
-11.1622 7.9436 1.9961
-11.3228 7.4601 1.9727
-11.5322 7.0175 1.9610
-11.7501 6.5839 1.9535
-11.9923 6.1645 1.9525
-12.2183 5.7356 1.9513
-12.4050 5.2884 1.9463
-12.5897 4.8406 1.9435
-12.7650 4.3887 1.9416
-12.9254 3.9309 1.9399
-13.6552 3.6227 2.0250
-13.8591 3.1489 2.0336
-14.0425 2.6643 2.0415
-14.1550 2.1624 2.0416
-14.2584 1.6569 2.0429
-14.3625 1.1483 2.0469
-10.2171 0.4486 1.4502
-14.4935 0.1156 2.0515
-14.5462 -0.4063 2.0560
-14.5490 -0.9298 2.0560
-14.5254 -1.4534 2.0549
-10.1452 -1.3844 1.4388
-10.1501 -1.7582 1.4449
-13.9954 -2.9452 2.0024
-10.1576 -2.5214 1.4627
-13.6324 -3.9083 1.9785
-10.1579 -3.3110 1.4879
-10.1564 -3.7187 1.5037
-13.4030 -5.4604 2.0086
-13.4038 -6.0302 2.0364
-10.1535 -5.0135 1.5663
-10.1527 -5.4746 1.5929
-10.1518 -5.9539 1.6226
-12.4069 -7.8879 2.0238
-10.1500 -6.9766 1.6928
-12.5997 -9.3432 2.1527
-10.1480 -8.1052 1.7798
-10.1469 -8.7185 1.8308
-11.5721 -10.6881 2.1527
-10.1444 -10.0674 1.9505
-10.1666 -10.8404 2.0257
-10.3968 -11.9151 2.1527
-9.8675 -12.1629 2.1296
-9.4355 -12.5231 2.1296
-8.9899 -12.8673 2.1296
-8.5313 -13.1949 2.1296
-8.0603 -13.5053 2.1296
-7.5776 -13.7981 2.1296
-7.0838 -14.0728 2.1296
-6.5796 -14.3290 2.1296
-6.1293 -14.7185 2.1519
-5.8115 -15.4997 2.2327
-5.2550 -15.7073 2.2327
-4.6908 -15.8940 2.2327
-4.1197 -16.0593 2.2327
-3.5425 -16.2031 2.2327
-2.9601 -16.3249 2.2327
-2.3733 -16.4248 2.2327
-1.7831 -16.5024 2.2327
-1.1903 -16.5577 2.2327
-0.5958 -16.5905 2.2327
-0.0005 -14.1764 2.2327
0.5078 -14.1662 2.2327
1.0153 -14.1369 2.2327
1.5212 -14.0887 2.2327
1.9382 -13.4215 2.1371
2.4089 -13.2922 2.1296
2.8829 -13.1924 2.1296
3.3527 -13.0749 2.1296
3.8175 -12.9401 2.1296
3.8088 -11.3886 1.8966
4.7297 -12.6189 2.1296
5.1758 -12.4331 2.1296
5.6144 -12.2309 2.1296
6.0536 -12.0301 2.1327
6.4759 -11.7958 2.1327
6.8888 -11.5460 2.1327
7.2919 -11.2814 2.1327
7.6844 -11.0021 2.1327
8.0660 -10.7088 2.1327
8.5103 -10.4932 2.1514
8.8715 -10.1702 2.1514
9.2201 -9.8344 2.1514
9.5558 -9.4863 2.1514
9.8779 -9.1264 2.1514
10.1863 -8.7553 2.1514
1.9118 -1.5275 0.3925
2.0008 -1.4842 0.4001
2.1581 -1.4839 0.4212
2.3327 -1.4836 0.4452
11.5076 -6.7517 2.1514
11.7257 -6.3254 2.1514
11.9277 -5.8921 2.1514
12.1136 -5.4523 2.1514
12.2831 -5.0067 2.1514
12.4360 -4.5559 2.1514
12.5722 -4.1004 2.1514
12.6917 -3.6410 2.1514
12.7943 -3.1783 2.1514
12.8799 -2.7128 2.1514
12.9487 -2.2453 2.1514
13.0004 -1.7763 2.1514
13.0351 -1.3065 2.1514
13.0530 -0.8365 2.1514
13.0539 -0.3668 2.1514
3.9097 0.0305 0.6452
3.8712 0.1693 0.6404
12.9563 1.0338 2.1514
12.8907 1.4959 2.1514
12.8088 1.9548 2.1514
12.7108 2.4097 2.1514
12.5969 2.8601 2.1514
12.4673 3.3056 2.1514
12.3222 3.7456 2.1514
12.1618 4.1795 2.1514
11.9865 4.6069 2.1514
11.7965 5.0272 2.1514
11.5922 5.4400 2.1514
11.3737 5.8448 2.1514
11.1414 6.2411 2.1514
10.8958 6.6286 2.1514
10.6370 7.0067 2.1514
10.3655 7.3750 2.1514
10.0816 7.7332 2.1514
9.7858 8.0809 2.1514
9.4784 8.4176 2.1514
9.1598 8.7431 2.1514
8.8304 9.0569 2.1514
8.4907 9.3588 2.1514
8.0700 9.5643 2.1327
7.7140 9.8389 2.1327
7.3490 10.1008 2.1327
6.9754 10.3496 2.1327
6.5938 10.5852 2.1327
6.2046 10.8072 2.1327
5.7993 10.9987 2.1294
5.3968 11.1927 2.1294
4.9881 11.3726 2.1294
4.5737 11.5382 2.1294
4.1541 11.6894 2.1294
3.7297 11.8259 2.1294
3.3010 11.9476 2.1294
2.8685 12.0545 2.1294
2.4328 12.1464 2.1294
1.9942 12.2232 2.1294
1.6287 12.8804 2.2327
1.1646 12.9291 2.2327
0.6991 12.9617 2.2327
0.2329 12.9784 2.2327
-0.2337 12.9789 2.2327
-0.7001 12.9634 2.2327
-1.1657 12.9318 2.2327
-1.6300 12.8842 2.2327
-2.0926 12.8207 2.2327
-2.5528 12.7412 2.2327
-3.0101 12.6459 2.2327
-3.4641 12.5348 2.2327
-3.9142 12.4081 2.2327
-4.3598 12.2659 2.2327
-4.8005 12.1082 2.2327
-5.2358 11.9354 2.2327
-5.6652 11.7475 2.2327
-6.0881 11.5447 2.2327
-6.2037 10.8042 2.1296
-6.5933 10.5830 2.1296
-6.9754 10.3483 2.1296
-7.3494 10.1002 2.1296
-7.7149 9.8390 2.1296
-8.0715 9.5651 2.1296
-8.4187 9.2786 2.1296
-8.7561 8.9799 2.1296
-9.0833 8.6693 2.1296
-9.3997 8.3471 2.1296
-9.7051 8.0136 2.1296
-9.9991 7.6693 2.1296
-10.1752 7.2391 2.1076
-10.3081 6.7895 2.0806
-10.4519 6.3581 2.0594
-10.6020 5.9385 2.0428
-10.7618 5.5299 2.0312
-10.9103 5.1197 2.0203
-11.0503 4.7089 2.0107
-11.1805 4.2968 2.0021
-11.2997 3.8830 1.9942
-11.8415 3.5993 2.0626
-11.9392 3.1654 2.0553
-12.0240 2.7299 2.0486
-12.1344 2.3003 2.0488
-12.2327 1.8667 2.0496
-12.3056 1.4280 2.0487
-12.3733 0.9873 2.0495
-10.2536 0.4485 1.6919
-12.4167 0.0970 2.0437
-12.4117 -0.3487 2.0404
-12.3097 -0.7887 2.0238
-12.4574 -1.2485 2.0509
-10.1452 -1.3861 1.6747
-10.1501 -1.7599 1.6822
-12.3533 -2.6017 2.0583
-10.1576 -2.5231 1.7039
-12.2076 -3.5018 2.0643
-10.1579 -3.3127 1.7341
-10.1564 -3.7204 1.7528
-11.9505 -4.8707 2.0882
-11.8347 -5.3264 2.0970
-10.1535 -5.0153 1.8272
-10.1527 -5.4765 1.8586
-10.1518 -5.9557 1.8937
-11.2967 -7.1842 2.1511
-10.1500 -6.9786 1.9765
-10.1725 -7.5454 2.0297
-10.1480 -8.1073 2.0789
-10.1031 -8.6830 2.1296
-9.7967 -9.0505 2.1296
-9.4767 -9.4068 2.1296
-9.1433 -9.7514 2.1296
-8.7970 -10.0837 2.1296
-8.4382 -10.4033 2.1296
-8.0675 -10.7096 2.1296
-7.6854 -11.0022 2.1296
-7.2923 -11.2806 2.1296
-6.8887 -11.5444 2.1296
-6.4753 -11.7931 2.1296
-6.1304 -12.1810 2.1570
-5.8934 -12.8366 2.2327
-5.4327 -13.0478 2.2327
-4.9641 -13.2416 2.2327
-4.4884 -13.4179 2.2327
-4.0061 -13.5763 2.2327
-3.5181 -13.7166 2.2327
-3.0251 -13.8385 2.2327
-2.5276 -13.9420 2.2327
-2.0265 -14.0267 2.2327
-1.5226 -14.0926 2.2327
-1.0164 -14.1395 2.2327
-0.5088 -14.1675 2.2327
-0.0005 -12.3586 2.2327
0.4425 -12.3498 2.2327
0.8849 -12.3246 2.2327
1.3259 -12.2828 2.2327
1.7650 -12.2247 2.2327
2.0999 -11.5892 2.1296
2.5132 -11.5027 2.1296
2.9229 -11.4010 2.1296
3.3283 -11.2841 2.1296
3.7290 -11.1522 2.1296
4.1243 -11.0056 2.1296
4.5136 -10.8445 2.1296
4.8965 -10.6691 2.1296
5.2724 -10.4797 2.1296
5.6408 -10.2767 2.1296
6.0098 -10.0748 2.1327
6.3622 -9.8450 2.1327
6.7055 -9.6025 2.1327
7.0393 -9.3477 2.1327
7.3632 -9.0809 2.1327
7.6768 -8.8026 2.1327
7.9796 -8.5132 2.1327
8.3440 -8.2853 2.1514
8.6266 -7.9723 2.1514
8.8973 -7.6494 2.1514
2.4677 -1.9722 0.5799
1.9956 -1.4808 0.4567
2.1575 -1.4839 0.4818
2.3266 -1.4802 0.5080
10.0597 -5.9041 2.1514
10.2521 -5.5325 2.1514
10.4307 -5.1545 2.1514
10.5951 -4.7708 2.1514
10.7453 -4.3818 2.1514
10.8811 -3.9881 2.1514
11.0023 -3.5903 2.1514
11.1089 -3.1889 2.1514
11.2009 -2.7844 2.1514
11.2780 -2.3773 2.1514
11.3403 -1.9683 2.1514
11.3878 -1.5579 2.1514
11.4204 -1.1465 2.1514
11.4382 -0.7349 2.1514
11.4412 -0.3234 2.1514
3.9143 0.0299 0.7368
3.8627 0.1683 0.7288
11.3621 0.9047 2.1514
11.3067 1.3103 2.1514
11.2370 1.7130 2.1514
11.1530 2.1125 2.1514
11.0551 2.5082 2.1514
10.9433 2.8997 2.1514
10.8178 3.2865 2.1514
10.6789 3.6680 2.1514
10.5268 4.0440 2.1514
10.3617 4.4139 2.1514
10.1838 4.7773 2.1514
9.9935 5.1337 2.1514
9.7910 5.4829 2.1514
9.5766 5.8242 2.1514
9.3506 6.1575 2.1514
9.1132 6.4823 2.1514
8.8649 6.7981 2.1514
8.6060 7.1048 2.1514
8.3368 7.4020 2.1514
7.9873 7.6222 2.1327
7.7011 7.8969 2.1327
7.4057 8.1611 2.1327
7.1015 8.4147 2.1327
6.7889 8.6572 2.1327
6.4683 8.8886 2.1327
6.1401 9.1085 2.1327
5.7959 9.3025 2.1294
5.4542 9.4985 2.1294
5.1062 9.6824 2.1294
4.7522 9.8540 2.1294
4.3926 10.0131 2.1294
4.0279 10.1596 2.1294
3.6585 10.2933 2.1294
3.2849 10.4141 2.1294
2.9075 10.5218 2.1294
2.5267 10.6163 2.1294
2.1429 10.6976 2.1294
1.8418 11.2875 2.2327
1.4347 11.3446 2.2327
1.0259 11.3877 2.2327
0.6159 11.4165 2.2327
0.2051 11.4311 2.2327
-0.2060 11.4316 2.2327
-0.6168 11.4178 2.2327
-1.0269 11.3898 2.2327
-1.4359 11.3476 2.2327
-1.8433 11.2912 2.2327
-2.2486 11.2208 2.2327
-2.6513 11.1364 2.2327
-3.0510 11.0380 2.2327
-3.4472 10.9258 2.2327
-3.8395 10.7999 2.2327
-4.2273 10.6604 2.2327
-4.6103 10.5074 2.2327
-4.9879 10.3411 2.2327
-5.3598 10.1617 2.2327
-5.7255 9.9694 2.2327
-6.0845 9.7643 2.2327
-6.1749 9.1588 2.1420
-6.4677 8.8866 2.1296
-6.7886 8.6558 2.1296
-7.1016 8.4138 2.1296
-7.4061 8.1607 2.1296
-7.7020 7.8970 2.1296
-7.9887 7.6227 2.1296
-8.2659 7.3383 2.1296
-8.5333 7.0441 2.1296
-8.7904 6.7404 2.1296
-9.0371 6.4275 2.1296
-9.2728 6.1057 2.1296
-9.4973 5.7755 2.1296
-9.7103 5.4372 2.1296
-9.9115 5.0912 2.1296
-9.9518 4.6681 2.0982
-10.0466 4.2793 2.0818
-10.1659 3.9051 2.0734
-10.4716 3.5966 2.1053
-10.5962 3.2189 2.1029
-10.6924 2.8330 2.0976
-10.7763 2.4448 2.0926
-10.8647 2.0578 2.0913
-10.9396 1.6676 2.0899
-10.9982 1.2745 2.0881
-11.0444 0.8794 2.0866
-10.2907 0.4485 1.9373
-11.1261 0.0851 2.0897
-11.1410 -0.3148 2.0903
-11.1247 -0.7146 2.0878
-11.0965 -1.1139 2.0858
-10.1453 -1.3878 1.9125
-10.1501 -1.7616 1.9214
-10.1714 -2.1438 1.9360
-10.1577 -2.5248 1.9468
-10.8203 -3.1057 2.0910
-10.1579 -3.3145 1.9821
-10.1564 -3.7222 2.0039
-10.1786 -4.1504 2.0337
-10.1779 -4.5825 2.0624
-10.1925 -5.0364 2.0980
-10.0223 -5.4080 2.0990
-9.9434 -5.8353 2.1224
-9.7725 -6.2168 2.1296
-9.5544 -6.5710 2.1296
-9.3232 -6.9173 2.1296
-9.0791 -7.2552 2.1296
-8.8226 -7.5843 2.1296
-8.5538 -7.9041 2.1296
-8.2732 -8.2140 2.1296
-7.9810 -8.5137 2.1296
-7.6777 -8.8026 2.1296
-7.3637 -9.0804 2.1296
-7.0394 -9.3466 2.1296
-6.7052 -9.6008 2.1296
-6.3615 -9.8426 2.1296
-6.1306 -10.2757 2.1727
-5.9211 -10.7857 2.2327
-5.5341 -10.9980 2.2327
-5.1392 -11.1959 2.2327
-4.7371 -11.3792 2.2327
-4.3282 -11.5474 2.2327
-3.9132 -11.7003 2.2327
-3.4926 -11.8378 2.2327
-3.0670 -11.9595 2.2327
-2.6371 -12.0653 2.2327
-2.2034 -12.1551 2.2327
-1.7665 -12.2286 2.2327
-1.3272 -12.2858 2.2327
-0.8860 -12.3265 2.2327
-0.4435 -12.3508 2.2327
-0.0005 -10.9438 2.2327
0.3918 -10.9362 2.2327
0.7834 -10.9139 2.2327
1.1740 -10.8772 2.2327
1.5628 -10.8260 2.2327
1.9121 -10.5550 2.1901
2.2254 -10.1873 2.1296
2.5883 -10.0976 2.1296
2.9474 -9.9946 2.1296
3.3024 -9.8783 2.1296
3.6527 -9.7491 2.1296
3.0412 -7.3082 1.6200
4.3372 -9.4523 2.1296
4.6705 -9.2852 2.1296
4.9972 -9.1060 2.1296
5.3169 -8.9150 2.1296
5.6287 -8.7118 2.1294
5.9421 -8.5110 2.1327
6.2385 -8.2860 2.1327
6.5262 -8.0504 2.1327
6.8049 -7.8045 2.1327
7.0741 -7.5488 2.1327
7.3335 -7.2836 2.1327
7.5827 -7.0093 2.1327
7.8215 -6.7262 2.1327
2.4670 -1.9721 0.6536
2.0749 -1.5401 0.5353
2.1518 -1.4805 0.5417
8.7429 -5.5640 2.1514
8.9269 -5.2410 2.1514
9.0990 -4.9119 2.1514
9.2587 -4.5771 2.1514
9.4060 -4.2371 2.1514
9.5407 -3.8923 2.1514
9.6626 -3.5433 2.1514
9.7717 -3.1904 2.1514
9.8679 -2.8343 2.1514
9.9510 -2.4754 2.1514
10.0210 -2.1141 2.1514
10.0779 -1.7509 2.1514
10.1216 -1.3864 2.1514
10.1521 -1.0209 2.1514
10.1694 -0.6551 2.1514
10.1736 -0.2892 2.1514
3.9190 0.0293 0.8295
3.8541 0.1673 0.8175
10.1078 0.8032 2.1514
10.0600 1.1641 2.1514
9.9994 1.5227 2.1514
9.9261 1.8784 2.1514
9.8404 2.2310 2.1514
9.7422 2.5798 2.1514
9.6319 2.9245 2.1514
9.5095 3.2647 2.1514
9.3753 3.6000 2.1514
9.2295 3.9300 2.1514
9.0723 4.2542 2.1514
8.9039 4.5723 2.1514
8.7245 4.8840 2.1514
8.5345 5.1888 2.1514
8.3341 5.4865 2.1514
8.0527 5.7263 2.1327
7.8342 6.0061 2.1327
7.6062 6.2778 2.1327
7.3690 6.5411 2.1327
7.1229 6.7957 2.1327
6.8683 7.0413 2.1327
6.6054 7.2777 2.1327
6.3347 7.5045 2.1327
6.0564 7.7216 2.1327
5.7621 7.9166 2.1294
5.4701 8.1131 2.1294
5.1717 8.2992 2.1294
4.8672 8.4747 2.1294
4.5569 8.6393 2.1294
4.2412 8.7930 2.1294
2.9826 6.7979 1.6200
2.7352 6.8978 1.6200
3.2657 9.1864 2.1294
2.9323 9.2946 2.1294
2.5954 9.3911 2.1294
2.2556 9.4758 2.1294
1.9130 9.5486 2.1294
1.6442 10.0753 2.2327
1.2808 10.1265 2.2327
0.9158 10.1650 2.2327
0.5498 10.1909 2.2327
0.1830 10.2039 2.2327
-0.1839 10.2043 2.2327
-0.5507 10.1919 2.2327
-0.9169 10.1667 2.2327
-1.2820 10.1289 2.2327
-1.6456 10.0783 2.2327
-2.0074 10.0152 2.2327
-2.3668 9.9395 2.2327
-2.7235 9.8513 2.2327
-3.0770 9.7507 2.2327
-3.4270 9.6378 2.2327
-3.7730 9.5128 2.2327
-4.1145 9.3757 2.2327
-4.4513 9.2268 2.2327
-4.7828 9.0661 2.2327
-5.1088 8.8938 2.2327
-5.4287 8.7102 2.2327
-5.7422 8.5153 2.2327
-6.0490 8.3095 2.2327
-6.1664 7.8607 2.1686
-6.3545 7.5270 2.1365
-6.6050 7.2763 2.1296
-6.8681 7.0403 2.1296
-7.1230 6.7951 2.1296
-7.3694 6.5408 2.1296
-7.6069 6.2778 2.1296
-7.8353 6.0063 2.1296
-8.0542 5.7267 2.1296
-8.2632 5.4394 2.1296
-8.4623 5.1445 2.1296
-8.6510 4.8424 2.1296
-8.8291 4.5335 2.1296
-8.9964 4.2182 2.1296
-9.1525 3.8968 2.1296
-9.2974 3.5698 2.1296
-9.4307 3.2374 2.1296
-9.5522 2.9001 2.1296
-9.6618 2.5583 2.1296
-9.7594 2.2124 2.1296
-9.8446 1.8629 2.1296
-9.9174 1.5101 2.1296
-9.9776 1.1545 2.1296
-10.0251 0.7966 2.1296
-9.9402 0.4316 2.1043
-9.9479 0.0745 2.1013
-9.9437 -0.2826 2.0986
-9.9368 -0.6400 2.0980
-10.0691 -1.0125 2.1296
-10.0388 -1.3749 2.1296
-9.9953 -1.7364 2.1296
-9.9388 -2.0965 2.1296
-9.8693 -2.4548 2.1296
-9.7867 -2.8107 2.1296
-9.6912 -3.1638 2.1296
-9.5828 -3.5137 2.1296
-9.4616 -3.8597 2.1296
-9.3278 -4.2015 2.1296
-9.1815 -4.5385 2.1296
-9.0229 -4.8703 2.1296
-8.8520 -5.1965 2.1296
-8.6692 -5.5166 2.1296
-8.4746 -5.8300 2.1296
-8.2685 -6.1364 2.1296
-8.0511 -6.4354 2.1296
-7.8227 -6.7264 2.1296
-7.5835 -7.0092 2.1296
-7.3339 -7.2831 2.1296
-7.0742 -7.5480 2.1296
-6.8047 -7.8033 2.1296
-6.5257 -8.0487 2.1296
-6.2377 -8.2838 2.1296
-6.1330 -8.7832 2.1984
-5.9089 -9.1440 2.2327
-5.5809 -9.3560 2.2327
-5.2451 -9.5559 2.2327
-4.9019 -9.7433 2.2327
-4.5519 -9.9180 2.2327
-4.1954 -10.0796 2.2327
-3.8331 -10.2280 2.2327
-3.4654 -10.3630 2.2327
-3.0928 -10.4843 2.2327
-2.7158 -10.5916 2.2327
-2.3350 -10.6850 2.2327
-1.9510 -10.7642 2.2327
-1.5641 -10.8290 2.2327
-1.1751 -10.8795 2.2327
-0.7845 -10.9155 2.2327
-0.3927 -10.9370 2.2327
-0.0005 -9.8104 2.2327
0.3511 -9.8036 2.2327
0.7021 -9.7838 2.2327
1.0522 -9.7510 2.2327
1.4007 -9.7053 2.2327
1.7473 -9.6467 2.2327
1.9946 -9.1328 2.1295
2.3200 -9.0527 2.1295
2.6420 -8.9607 2.1295
2.9604 -8.8568 2.1295
2.6973 -7.2004 1.7541
2.7267 -6.5537 1.6201
2.9583 -6.4483 1.6200
4.1876 -8.3267 2.1294
4.4808 -8.1665 2.1294
4.7677 -7.9958 2.1294
5.0480 -7.8147 2.1294
5.3213 -7.6236 2.1294
5.5872 -7.4226 2.1294
5.8454 -7.2122 2.1294
6.1048 -7.0033 2.1327
6.3469 -6.7744 2.1327
6.5802 -6.5371 2.1327
6.8045 -6.2915 2.1327
7.0195 -6.0381 2.1327
2.4662 -1.9720 0.7280
7.4205 -5.5092 2.1327
2.2392 -1.5411 0.6279
7.7812 -4.9535 2.1327
7.9459 -4.6666 2.1327
8.0998 -4.3741 2.1327
8.3154 -4.1124 2.1514
8.4487 -3.8074 2.1514
8.5706 -3.4981 2.1514
8.6812 -3.1850 2.1514
8.7803 -2.8683 2.1514
8.8677 -2.5486 2.1514
8.9435 -2.2263 2.1514
9.0075 -1.9018 2.1514
9.0597 -1.5755 2.1514
9.1001 -1.2480 2.1514
9.1286 -0.9195 2.1514
9.1453 -0.5906 2.1514
9.1502 -0.2617 2.1514
3.9237 0.0287 0.9233
3.8455 0.1663 0.9067
3.9616 0.3141 0.9372
9.0523 1.0460 2.1514
8.9988 1.3688 2.1514
8.9340 1.6892 2.1514
8.8578 2.0067 2.1514
8.7704 2.3210 2.1514
8.6721 2.6316 2.1514
8.5629 2.9382 2.1514
8.4430 3.2405 2.1514
8.3125 3.5380 2.1514
8.1006 3.7971 2.1327
7.9510 4.0816 2.1327
7.7917 4.3603 2.1327
7.6227 4.6330 2.1327
7.4444 4.8994 2.1327
7.2570 5.1590 2.1327
7.0607 5.4117 2.1327
6.8558 5.6571 2.1327
6.6426 5.8949 2.1327
6.4213 6.1249 2.1327
6.1923 6.3468 2.1327
5.9558 6.5604 2.1327
5.7033 6.7551 2.1294
5.4531 6.9511 2.1294
5.1964 7.1380 2.1294
4.9335 7.3157 2.1294
4.6646 7.4839 2.1294
4.3901 7.6427 2.1294
3.1272 5.9277 1.6200
2.9107 6.0334 1.6200
2.6961 6.1439 1.6233
2.6722 6.7378 1.7544
2.9462 8.2865 2.1294
2.6455 8.3844 2.1294
2.3417 8.4717 2.1294
2.0351 8.5483 2.1294
1.8098 9.0318 2.2327
1.4836 9.0896 2.2327
1.1557 9.1359 2.2327
0.8263 9.1707 2.2327
0.4960 9.1940 2.2327
0.1651 9.2058 2.2327
-0.1660 9.2061 2.2327
-0.4969 9.1949 2.2327
-0.8273 9.1721 2.2327
-1.1568 9.1378 2.2327
-1.4848 9.0920 2.2327
-1.8112 9.0348 2.2327
-2.1355 8.9662 2.2327
-2.4572 8.8864 2.2327
-2.7761 8.7953 2.2327
-3.0917 8.6932 2.2327
-3.4037 8.5800 2.2327
-3.7116 8.4560 2.2327
-4.0152 8.3212 2.2327
-4.3140 8.1758 2.2327
-4.6077 8.0199 2.2327
-4.8960 7.8538 2.2327
-5.1784 7.6776 2.2327
-5.4546 7.4915 2.2327
-5.7244 7.2957 2.2327
-5.9872 7.0904 2.2327
-6.1619 6.7866 2.2037
-6.1914 6.3451 2.1296
-6.4207 6.1235 2.1296
-6.6422 5.8938 2.1296
-6.8556 5.6562 2.1296
-7.0608 5.4111 2.1296
-7.2573 5.1586 2.1296
-7.4450 4.8992 2.1296
-7.6235 4.6330 2.1296
-7.7927 4.3605 2.1296
-7.9523 4.0818 2.1296
-8.1021 3.7974 2.1296
-8.2419 3.5076 2.1296
-8.3714 3.2127 2.1296
-8.4905 2.9131 2.1296
-8.5989 2.6092 2.1296
-8.6966 2.3012 2.1296
-8.7833 1.9896 2.1296
-8.8590 1.6749 2.1296
-8.9234 1.3572 2.1296
-8.9765 1.0372 2.1296
-9.0182 0.7151 2.1296
-9.0483 0.3913 2.1296
-9.0669 0.0664 2.1296
-9.0737 -0.2594 2.1296
-9.0689 -0.5856 2.1296
-9.0523 -0.9117 2.1296
-9.0240 -1.2374 2.1296
-8.9839 -1.5622 2.1296
-8.9320 -1.8856 2.1296
-8.8684 -2.2074 2.1296
-8.7932 -2.5269 2.1296
-8.7063 -2.8438 2.1296
-8.6080 -3.1577 2.1296
-8.4982 -3.4682 2.1296
-8.3771 -3.7747 2.1296
-8.2447 -4.0770 2.1296
-8.1014 -4.3745 2.1296
-7.9472 -4.6668 2.1296
-7.7822 -4.9536 2.1296
-7.6068 -5.2345 2.1296
-7.4210 -5.5090 2.1296
-7.2252 -5.7767 2.1296
-7.0195 -6.0373 2.1296
-6.8043 -6.2905 2.1296
-6.5797 -6.5357 2.1296
-6.3462 -6.7727 2.1296
-6.1452 -7.0486 2.1440
-6.1361 -7.5697 2.2325
-5.8653 -7.7908 2.2327
-5.5859 -8.0013 2.2327
-5.2988 -8.2015 2.2327
-5.0043 -8.3911 2.2327
-4.7029 -8.5698 2.2327
-4.3950 -8.7373 2.2327
-4.0810 -8.8935 2.2327
-3.7612 -9.0380 2.2327
-3.4362 -9.1706 2.2327
-3.1065 -9.2912 2.2327
-2.7724 -9.3996 2.2327
-2.4344 -9.4956 2.2327
-2.0930 -9.5790 2.2327
-1.7487 -9.6498 2.2327
-1.4020 -9.7077 2.2327
-1.0533 -9.7528 2.2327
-0.7032 -9.7850 2.2327
-0.3521 -9.8042 2.2327
-0.0005 -8.8812 2.2327
0.3178 -8.8750 2.2327
0.6355 -8.8572 2.2327
0.9523 -8.8276 2.2327
1.2678 -8.7864 2.2327
1.5815 -8.7335 2.2327
1.8930 -8.6692 2.2327
2.1195 -8.2720 2.1492
2.3916 -8.1129 2.1294
2.6799 -8.0192 2.1294
2.9644 -7.9149 2.1294
2.6960 -6.4811 1.7693
2.7018 -5.8904 1.6342
2.9166 -5.8006 1.6380
3.1795 -5.7961 1.6688
4.3173 -7.2419 2.1294
4.5714 -7.0784 2.1294
4.8192 -6.9057 2.1294
5.0603 -6.7241 2.1294
5.2945 -6.5340 2.1294
5.5214 -6.3355 2.1294
5.7408 -6.1290 2.1294
5.9613 -5.9237 2.1327
6.1650 -5.7017 2.1327
6.3603 -5.4725 2.1327
2.4654 -1.9720 0.8031
6.7248 -4.9942 2.1327
2.2386 -1.5411 0.6926
7.0529 -4.4913 2.1327
7.2028 -4.2316 2.1327
7.3430 -3.9668 2.1327
7.4735 -3.6974 2.1327
7.5939 -3.4236 2.1327
7.7043 -3.1459 2.1327
7.8044 -2.8647 2.1327
7.8942 -2.5802 2.1327
7.9736 -2.2930 2.1327
8.0425 -2.0034 2.1327
8.1009 -1.7118 2.1327
8.1487 -1.4185 2.1327
8.2578 -1.1339 2.1514
8.2845 -0.8359 2.1514
8.3005 -0.5375 2.1514
8.3057 -0.2389 2.1514
3.9285 0.0281 1.0183
3.8368 0.1653 0.9964
3.9517 0.3127 1.0296
8.1485 0.9402 2.1327
8.1012 1.2309 2.1327
8.0435 1.5195 2.1327
7.9757 1.8055 2.1327
7.8978 2.0887 2.1327
7.8100 2.3686 2.1327
7.7123 2.6450 2.1327
7.6050 2.9175 2.1327
7.4882 3.1858 2.1327
7.3621 3.4495 2.1327
7.2268 3.7084 2.1327
7.0825 3.9621 2.1327
6.9295 4.2104 2.1327
6.7680 4.4528 2.1327
6.5981 4.6892 2.1327
6.4201 4.9193 2.1327
6.2343 5.1428 2.1327
6.0408 5.3595 2.1327
5.8311 5.5606 2.1294
5.6234 5.7625 2.1294
5.4090 5.9568 2.1294
5.1880 6.1434 2.1294
4.9607 6.3220 2.1294
4.7274 6.4924 2.1294
4.4884 6.6544 2.1294
4.2440 6.8078 2.1294
3.0873 5.3735 1.6458
2.8482 5.3980 1.6216
2.6793 5.5528 1.6388
2.6733 6.0909 1.7688
2.9515 7.4409 2.1294
2.6812 7.5398 2.1294
2.4076 7.6290 2.1294
2.1311 7.7087 2.1294
1.8851 7.9170 2.1673
1.6471 8.2187 2.2327
1.3502 8.2714 2.2327
1.0518 8.3136 2.2327
0.7521 8.3454 2.2327
0.4514 8.3667 2.2327
0.1503 8.3774 2.2327
-0.1511 8.3777 2.2327
-0.4523 8.3673 2.2327
-0.7530 8.3465 2.2327
-1.0528 8.3152 2.2327
-1.3514 8.2734 2.2327
-1.6484 8.2212 2.2327
-1.9435 8.1586 2.2327
-2.2363 8.0857 2.2327
-2.5264 8.0026 2.2327
-2.8135 7.9094 2.2327
-3.0973 7.8061 2.2327
-3.3774 7.6929 2.2327
-3.6534 7.5700 2.2327
-3.9252 7.4373 2.2327
-4.1922 7.2952 2.2327
-4.4542 7.1437 2.2327
-4.7109 6.9830 2.2327
-4.9619 6.8133 2.2327
-5.2070 6.6348 2.2327
-5.4458 6.4476 2.2327
-5.6780 6.2521 2.2327
-5.9033 6.0484 2.2327
-6.1215 5.8367 2.2327
-6.1612 5.4656 2.1724
-6.2334 5.1415 2.1296
-6.4195 4.9182 2.1296
-6.5976 4.6883 2.1296
-6.7677 4.4521 2.1296
-6.9294 4.2098 2.1296
-7.0826 3.9617 2.1296
-7.2270 3.7081 2.1296
-7.3625 3.4494 2.1296
-7.4888 3.1857 2.1296
-7.6058 2.9175 2.1296
-7.7133 2.6451 2.1296
-7.8111 2.3687 2.1296
-7.8990 2.0888 2.1296
-7.9771 1.8056 2.1296
-8.0450 1.5196 2.1296
-8.1027 1.2310 2.1296
-8.1501 0.9403 2.1296
-8.1872 0.6478 2.1296
-8.2137 0.3538 2.1296
-8.2297 0.0588 2.1296
-8.2351 -0.2368 2.1296
-8.2299 -0.5328 2.1296
-8.2140 -0.8287 2.1296
-8.1875 -1.1241 2.1296
-8.1503 -1.4186 2.1296
-8.1025 -1.7119 2.1296
-8.0440 -2.0036 2.1296
-7.9750 -2.2932 2.1296
-7.8955 -2.5804 2.1296
-7.8055 -2.8648 2.1296
-7.7052 -3.1459 2.1296
-7.5947 -3.4236 2.1296
-7.4741 -3.6973 2.1296
-7.3435 -3.9666 2.1296
-7.2030 -4.2312 2.1296
-7.0529 -4.4908 2.1296
-6.8933 -4.7449 2.1296
-6.7244 -4.9933 2.1296
-6.5465 -5.2355 2.1296
-6.3596 -5.4712 2.1296
-6.1642 -5.7001 2.1296
-6.1387 -6.0990 2.1933
-6.0266 -6.4331 2.2327
-5.7961 -6.6496 2.2327
-5.5577 -6.8577 2.2327
-5.3117 -7.0569 2.2327
-5.0584 -7.2471 2.2327
-4.7982 -7.4280 2.2327
-4.5313 -7.5993 2.2327
-4.2582 -7.7607 2.2327
-3.9792 -7.9120 2.2327
-3.6947 -8.0531 2.2327
-3.4051 -8.1836 2.2327
-3.1108 -8.3034 2.2327
-2.8121 -8.4123 2.2327
-2.5096 -8.5101 2.2327
-2.2036 -8.5968 2.2327
-1.8946 -8.6721 2.2327
-1.5829 -8.7360 2.2327
-1.2690 -8.7884 2.2327
-0.9534 -8.8291 2.2327
-0.6365 -8.8582 2.2327
-0.3187 -8.8755 2.2327
-0.0005 -8.1047 2.2327
0.2899 -8.0992 2.2327
0.5798 -8.0829 2.2327
0.8689 -8.0560 2.2327
1.1568 -8.0185 2.2327
1.4431 -7.9704 2.2327
1.7273 -7.9119 2.2327
1.9212 -7.4994 2.1349
2.1824 -7.4046 2.1294
2.4455 -7.3193 2.1294
2.7052 -7.2244 2.1294
2.9172 -7.0143 2.0978
2.6985 -5.8843 1.7884
2.9165 -5.8015 1.7947
3.7031 -6.7519 2.1294
3.9407 -6.6115 2.1294
4.1728 -6.4625 2.1294
4.3992 -6.3052 2.1294
4.6196 -6.1398 2.1294
4.8336 -5.9665 2.1294
5.0411 -5.7857 2.1294
5.2416 -5.5974 2.1294
5.4351 -5.4021 2.1294
5.6212 -5.2000 2.1294
5.7996 -4.9914 2.1294
2.4647 -1.9719 0.8791
6.1421 -4.5628 2.1327
2.2380 -1.5411 0.7580
6.4427 -4.1041 2.1327
6.5802 -3.8672 2.1327
6.7088 -3.6255 2.1327
6.8285 -3.3796 2.1327
6.9391 -3.1297 2.1327
7.0405 -2.8762 2.1327
7.1326 -2.6194 2.1327
7.2153 -2.3596 2.1327
7.2885 -2.0973 2.1327
7.3521 -1.8327 2.1327
7.4060 -1.5662 2.1327
7.4503 -1.2982 2.1327
7.4849 -1.0290 2.1327
7.5097 -0.7590 2.1327
7.5249 -0.4885 2.1327
7.5302 -0.2179 2.1327
3.9333 0.0274 1.1146
3.8281 0.1643 1.0868
3.9418 0.3112 1.1226
7.4551 0.8589 2.1327
7.4124 1.1250 2.1327
7.3603 1.3891 2.1327
7.2988 1.6510 2.1327
7.2281 1.9103 2.1327
7.1483 2.1667 2.1327
7.0594 2.4199 2.1327
6.9617 2.6695 2.1327
6.8553 2.9153 2.1327
6.7403 3.1570 2.1327
6.6169 3.3942 2.1327
6.4853 3.6268 2.1327
6.3457 3.8544 2.1327
6.1981 4.0767 2.1327
6.0430 4.2935 2.1327
5.8714 4.4976 2.1294
5.7018 4.7023 2.1294
5.5251 4.9008 2.1294
5.3418 5.0927 2.1294
5.1518 5.2780 2.1294
4.9556 5.4563 2.1294
4.7534 5.6276 2.1294
4.5453 5.7915 2.1294
4.3318 5.9479 2.1294
4.1130 6.0966 2.1294
3.8892 6.2375 2.1294
3.0910 5.3791 1.7981
2.8345 5.3710 1.7609
2.6772 5.5475 1.7868
2.8930 6.5901 2.0885
2.7052 6.8188 2.1294
2.4575 6.9096 2.1294
2.2068 6.9916 2.1294
1.9534 7.0647 2.1294
1.7800 7.4746 2.2327
1.5098 7.5324 2.2327
1.2377 7.5808 2.2327
0.9641 7.6196 2.2327
0.6894 7.6487 2.2327
0.4138 7.6682 2.2327
0.1377 7.6781 2.2327
-0.1386 7.6783 2.2327
-0.4147 7.6688 2.2327
-0.6903 7.6497 2.2327
-0.9651 7.6209 2.2327
-1.2388 7.5825 2.2327
-1.5110 7.5345 2.2327
-1.7815 7.4770 2.2327
-2.0498 7.4100 2.2327
-2.3156 7.3336 2.2327
-2.5787 7.2480 2.2327
-2.8387 7.1531 2.2327
-3.0954 7.0492 2.2327
-3.3483 6.9362 2.2327
-3.5971 6.8144 2.2327
-3.8417 6.6839 2.2327
-4.0816 6.5448 2.2327
-4.3166 6.3972 2.2327
-4.5464 6.2414 2.2327
-4.7707 6.0776 2.2327
-4.9892 5.9058 2.2327
-5.2017 5.7263 2.2327
-5.4078 5.5393 2.2327
-5.6073 5.3451 2.2327
-5.8000 5.1438 2.2327
-5.9856 4.9357 2.2327
-6.1582 4.7167 2.2307
-6.1595 4.3757 2.1710
-6.1973 4.0756 2.1296
-6.3492 3.8560 2.1310
-6.4847 3.6260 2.1296
-6.6165 3.3936 2.1296
-6.7400 3.1564 2.1296
-6.8551 2.9149 2.1296
-6.9617 2.6692 2.1296
-7.0595 2.4196 2.1296
-7.0907 2.1489 2.1124
-7.1700 1.8947 2.1124
-7.2427 1.6381 2.1131
-7.3607 1.3890 2.1296
-7.4129 1.1249 2.1296
-7.4557 0.8589 2.1296
-7.4889 0.5913 2.1296
-7.5126 0.3223 2.1296
-7.5266 0.0525 2.1296
-7.5309 -0.2179 2.1296
-7.5255 -0.4885 2.1296
-7.5104 -0.7590 2.1296
-7.4855 -1.0290 2.1296
-7.4509 -1.2982 2.1296
-7.4065 -1.5661 2.1296
-7.3525 -1.8326 2.1296
-7.2888 -2.0971 2.1296
-7.2155 -2.3594 2.1296
-7.1328 -2.6191 2.1296
-7.0406 -2.8759 2.1296
-6.9391 -3.1293 2.1296
-6.8283 -3.3791 2.1296
-6.7085 -3.6249 2.1296
-6.5797 -3.8664 2.1296
-6.4421 -4.1032 2.1296
-6.2959 -4.3350 2.1296
-6.1522 -4.5696 2.1334
-6.1409 -4.9124 2.1875
-6.0884 -5.2392 2.2327
-5.9009 -5.4580 2.2327
-5.7054 -5.6699 2.2327
-5.5022 -5.8747 2.2327
-5.2915 -6.0720 2.2327
-5.0736 -6.2616 2.2327
-4.8487 -6.4431 2.2327
-4.6173 -6.6164 2.2327
-4.3795 -6.7812 2.2327
-4.1358 -6.9373 2.2327
-3.8863 -7.0843 2.2327
-3.6316 -7.2221 2.2327
-3.3718 -7.3506 2.2327
-3.1074 -7.4694 2.2327
-2.8387 -7.5785 2.2327
-2.5662 -7.6777 2.2327
-2.2901 -7.7668 2.2327
-2.0108 -7.8457 2.2327
-1.7288 -7.9143 2.2327
-1.4444 -7.9725 2.2327
-1.1579 -8.0202 2.2327
-0.8700 -8.0573 2.2327
-0.5808 -8.0838 2.2327
-0.2908 -8.0996 2.2327
-0.0005 -7.4456 2.2327
0.2662 -7.4406 2.2327
0.5325 -7.4257 2.2327
0.7981 -7.4011 2.2327
1.0625 -7.3667 2.2327
1.3255 -7.3226 2.2327
1.5866 -7.2689 2.2327
1.8456 -7.2057 2.2327
2.0047 -6.8032 2.1294
2.2465 -6.7250 2.1294
2.4851 -6.6380 2.1294
2.7204 -6.5423 2.1294
2.7803 -6.0640 2.0057
3.0330 -6.0345 2.0314
3.4023 -6.2048 2.1294
3.6207 -6.0760 2.1294
3.8342 -5.9394 2.1294
4.0424 -5.7951 2.1294
4.2451 -5.6433 2.1294
4.4420 -5.4844 2.1294
4.6328 -5.3184 2.1294
4.8174 -5.1457 2.1294
4.9955 -4.9664 2.1294
5.1668 -4.7810 2.1294
5.3311 -4.5895 2.1294
2.4639 -1.9718 0.9560
5.6380 -4.1896 2.1294
2.2373 -1.5412 0.8242
5.9147 -3.7690 2.1294
6.0505 -3.5571 2.1327
6.1692 -3.3351 2.1327
6.2796 -3.1092 2.1327
6.3818 -2.8796 2.1327
6.4755 -2.6466 2.1327
6.5606 -2.4105 2.1327
6.6371 -2.1718 2.1327
6.7049 -1.9306 2.1327
6.7639 -1.6873 2.1327
6.8140 -1.4422 2.1327
6.8552 -1.1958 2.1327
6.8875 -0.9481 2.1327
4.1580 -0.4210 1.2831
4.2439 -0.2763 1.3069
4.3534 -0.1267 1.3396
3.9382 0.0268 1.2124
3.8193 0.1632 1.1779
3.9319 0.3098 1.2164
4.3224 0.4972 1.3431
4.1926 0.6356 1.3102
4.0775 0.7688 1.2831
6.7211 1.5191 2.1327
6.6564 1.7580 2.1327
6.5833 1.9942 2.1327
6.5019 2.2276 2.1327
6.4124 2.4577 2.1327
6.3148 2.6843 2.1327
6.2092 2.9071 2.1327
6.0959 3.1258 2.1327
5.9751 3.3403 2.1327
5.8378 3.5447 2.1294
5.7024 3.7495 2.1294
5.5599 3.9491 2.1294
5.4106 4.1435 2.1294
5.2546 4.3324 2.1294
5.0921 4.5155 2.1294
4.9233 4.6927 2.1294
4.7485 4.8636 2.1294
4.5679 5.0283 2.1294
4.3816 5.1863 2.1294
4.1900 5.3376 2.1294
3.9933 5.4820 2.1294
3.7917 5.6193 2.1294
3.5856 5.7494 2.1294
3.3750 5.8721 2.1294
2.9615 5.6106 1.9955
2.7591 5.7161 1.9972
2.7198 6.1945 2.1294
2.4944 6.2863 2.1294
2.2660 6.3701 2.1294
2.0349 6.4459 2.1294
1.8840 6.8125 2.2272
1.6414 6.8914 2.2327
1.3922 6.9448 2.2327
1.1413 6.9895 2.2327
0.8890 7.0253 2.2327
0.6357 7.0522 2.2327
0.3815 7.0703 2.2327
0.1269 7.0794 2.2327
-0.1278 7.0795 2.2327
-0.3825 7.0708 2.2327
-0.6366 7.0531 2.2327
-0.8901 7.0264 2.2327
-1.1424 6.9909 2.2327
-1.3934 6.9466 2.2327
-1.6428 6.8934 2.2327
-1.8901 6.8316 2.2327
-2.1352 6.7610 2.2327
-2.3778 6.6819 2.2327
-2.6175 6.5942 2.2327
-2.8540 6.4982 2.2327
-3.0871 6.3939 2.2327
-3.3164 6.2813 2.2327
-3.5418 6.1608 2.2327
-3.7629 6.0323 2.2327
-3.9794 5.8961 2.2327
-4.1910 5.7522 2.2327
-4.3976 5.6009 2.2327
-4.5988 5.4423 2.2327
-4.7944 5.2767 2.2327
-4.9841 5.1041 2.2327
-5.1677 4.9248 2.2327
-5.3450 4.7390 2.2327
-5.5158 4.5470 2.2327
-5.6797 4.3489 2.2327
-5.8366 4.1450 2.2327
-5.9863 3.9355 2.2327
-6.1285 3.7207 2.2327
-6.1559 3.4409 2.1944
-6.1616 3.1590 2.1529
-6.2084 2.9063 2.1296
-6.3140 2.6836 2.1296
-6.4117 2.4571 2.1296
-6.5014 2.2271 2.1296
-6.5828 1.9939 2.1296
-6.6560 1.7577 2.1296
-6.7207 1.5189 2.1296
-6.7769 1.2777 2.1296
-6.8245 1.0344 2.1296
-6.8634 0.7895 2.1296
-6.8935 0.5430 2.1296
-6.9148 0.2955 2.1296
-6.9272 0.0471 2.1296
-6.9307 -0.2017 2.1296
-6.9252 -0.4507 2.1296
-6.9108 -0.6996 2.1296
-6.8874 -0.9480 2.1296
-6.8551 -1.1956 2.1296
-6.8138 -1.4420 2.1296
-6.7636 -1.6870 2.1296
-6.7046 -1.9302 2.1296
-6.6367 -2.1714 2.1296
-6.5601 -2.4100 2.1296
-6.4749 -2.6460 2.1296
-6.3811 -2.8789 2.1296
-6.2789 -3.1084 2.1296
-6.1683 -3.3342 2.1296
-6.1468 -3.6132 2.1639
-6.1427 -3.9137 2.2087
-6.0681 -4.1793 2.2327
-5.9186 -4.3974 2.2327
-5.7613 -4.6100 2.2327
-5.5962 -4.8169 2.2327
-5.4235 -5.0177 2.2327
-5.2436 -5.2122 2.2327
-5.0566 -5.4001 2.2327
-4.8627 -5.5812 2.2327
-4.6622 -5.7551 2.2327
-4.4554 -5.9217 2.2327
-4.2426 -6.0807 2.2327
-4.0239 -6.2319 2.2327
-3.7998 -6.3750 2.2327
-3.5705 -6.5098 2.2327
-3.3363 -6.6363 2.2327
-3.0976 -6.7541 2.2327
-2.8546 -6.8631 2.2327
-2.6078 -6.9631 2.2327
-2.3573 -7.0541 2.2327
-2.1037 -7.1358 2.2327
-1.8471 -7.2081 2.2327
-1.5880 -7.2710 2.2327
-1.3267 -7.3244 2.2327
-1.0637 -7.3681 2.2327
-0.7991 -7.4021 2.2327
-0.5335 -7.4264 2.2327
-0.2672 -7.4409 2.2327
-0.0005 -6.8787 2.2327
0.2459 -6.8740 2.2327
0.4919 -6.8603 2.2327
0.7372 -6.8376 2.2327
0.9815 -6.8059 2.2327
1.2244 -6.7653 2.2327
1.4656 -6.7158 2.2327
1.7048 -6.6575 2.2327
1.9079 -6.4759 2.1939
2.0753 -6.2136 2.1294
2.2958 -6.1334 2.1294
2.5131 -6.0452 2.1294
2.7270 -5.9491 2.1294
2.9372 -5.8453 2.1294
3.1434 -5.7339 2.1294
3.3453 -5.6151 2.1294
3.5427 -5.4890 2.1294
3.7352 -5.3559 2.1294
3.9226 -5.2159 2.1294
4.1048 -5.0692 2.1294
4.2813 -4.9160 2.1294
4.4521 -4.7566 2.1294
4.6168 -4.5912 2.1294
4.7754 -4.4200 2.1294
4.9275 -4.2432 2.1294
2.4631 -1.9718 1.0339
5.2117 -3.8739 2.1294
2.2367 -1.5412 0.8914
5.4680 -3.4855 2.1294
5.5853 -3.2848 2.1294
5.6952 -3.0801 2.1294
5.7975 -2.8717 2.1294
5.8922 -2.6598 2.1294
5.9882 -2.4486 2.1327
6.0673 -2.2304 2.1327
6.1384 -2.0097 2.1327
6.2014 -1.7868 2.1327
6.2564 -1.5619 2.1327
6.3031 -1.3352 2.1327
6.3417 -1.1073 2.1327
3.8337 -0.5284 1.2831
4.0689 -0.4127 1.3572
4.2185 -0.2753 1.4040
4.3332 -0.1269 1.4410
3.9432 0.0261 1.3119
3.8104 0.1622 1.2699
3.9222 0.3083 1.3111
4.2987 0.4937 1.4432
4.1701 0.6314 1.4079
3.9739 0.7486 1.3510
3.7433 0.8454 1.2831
6.1622 1.6264 2.1327
6.0949 1.8452 2.1327
6.0199 2.0613 2.1327
5.9373 2.2745 2.1327
5.8383 2.4806 2.1294
5.7411 2.6868 2.1294
5.6366 2.8892 2.1294
5.5251 3.0876 2.1294
5.4067 3.2819 2.1294
5.2816 3.4717 2.1294
5.1499 3.6568 2.1294
5.0118 3.8370 2.1294
4.8675 4.0122 2.1294
4.7172 4.1820 2.1294
4.5610 4.3463 2.1294
4.3993 4.5049 2.1294
4.2321 4.6576 2.1294
4.0597 4.8042 2.1294
3.8823 4.9446 2.1294
3.7002 5.0785 2.1294
3.5135 5.2059 2.1294
3.3225 5.3266 2.1294
3.1275 5.4405 2.1294
2.9287 5.5474 2.1294
2.7263 5.6471 2.1294
2.5205 5.7397 2.1294
2.3117 5.8249 2.1294
2.1001 5.9027 2.1294
1.8955 6.0033 2.1402
1.7504 6.3283 2.2327
1.5213 6.3860 2.2327
1.2903 6.4356 2.2327
1.0578 6.4771 2.2327
0.8240 6.5103 2.2327
0.5892 6.5353 2.2327
0.3536 6.5520 2.2327
0.1176 6.5605 2.2327
-0.1185 6.5606 2.2327
-0.3545 6.5525 2.2327
-0.5901 6.5360 2.2327
-0.8250 6.5113 2.2327
-1.0589 6.4783 2.2327
-1.2915 6.4371 2.2327
-1.5226 6.3878 2.2327
-1.7518 6.3303 2.2327
-1.9789 6.2648 2.2327
-2.2037 6.1914 2.2327
-2.4257 6.1100 2.2327
-2.6449 6.0208 2.2327
-2.8608 5.9240 2.2327
-3.0733 5.8196 2.2327
-3.2820 5.7077 2.2327
-3.4867 5.5884 2.2327
-3.6872 5.4620 2.2327
-3.8832 5.3285 2.2327
-4.0744 5.1882 2.2327
-4.2607 5.0410 2.2327
-4.4417 4.8873 2.2327
-4.6173 4.7273 2.2327
-4.7872 4.5610 2.2327
-4.9512 4.3887 2.2327
-5.1091 4.2106 2.2327
-5.2607 4.0269 2.2327
-5.4058 3.8379 2.2327
-5.5441 3.6437 2.2327
-5.6756 3.4446 2.2327
-5.8000 3.2408 2.2327
-5.9171 3.0325 2.2327
-6.0269 2.8201 2.2327
-6.1291 2.6038 2.2327
-6.1539 2.3571 2.2077
-6.1540 2.1069 2.1774
-6.1593 1.8645 2.1524
-6.1640 1.6266 2.1305
-6.2209 1.4048 2.1296
-6.2725 1.1815 2.1296
-6.3162 0.9563 2.1296
-6.3518 0.7295 2.1296
-6.3793 0.5014 2.1296
-6.3985 0.2723 2.1296
-6.4096 0.0425 2.1296
-6.4125 -0.1877 2.1296
-6.4070 -0.4181 2.1296
-6.3933 -0.6483 2.1296
-6.3712 -0.8780 2.1296
-6.3409 -1.1070 2.1296
-6.3024 -1.3349 2.1296
-6.2556 -1.5614 2.1296
-6.2006 -1.7863 2.1296
-6.1561 -2.0152 2.1361
-6.1504 -2.2606 2.1591
-6.1452 -2.5124 2.1858
-6.1447 -2.7734 2.2179
-6.0863 -3.0142 2.2327
-5.9787 -3.2329 2.2327
-5.8633 -3.4477 2.2327
-5.7400 -3.6583 2.2327
-5.6091 -3.8644 2.2327
-5.4707 -4.0658 2.2327
-5.3250 -4.2621 2.2327
-5.1722 -4.4531 2.2327
-5.0124 -4.6385 2.2327
-4.8459 -4.8180 2.2327
-4.6728 -4.9914 2.2327
-4.4935 -5.1586 2.2327
-4.3080 -5.3191 2.2327
-4.1168 -5.4728 2.2327
-3.9200 -5.6195 2.2327
-3.7179 -5.7590 2.2327
-3.5107 -5.8910 2.2327
-3.2987 -6.0155 2.2327
-3.0823 -6.1321 2.2327
-2.8617 -6.2408 2.2327
-2.6372 -6.3413 2.2327
-2.4090 -6.4336 2.2327
-2.1776 -6.5175 2.2327
-1.9433 -6.5928 2.2327
-1.7063 -6.6596 2.2327
-1.4669 -6.7176 2.2327
-1.2256 -6.7668 2.2327
-0.9825 -6.8071 2.2327
-0.7382 -6.8385 2.2327
-0.4928 -6.8609 2.2327
-0.2468 -6.8743 2.2327
-0.0005 -6.3853 2.2327
0.2282 -6.3810 2.2327
0.4565 -6.3683 2.2327
0.6841 -6.3472 2.2327
0.9109 -6.3179 2.2327
1.1363 -6.2802 2.2327
1.3603 -6.2344 2.2327
1.5823 -6.1804 2.2327
1.8022 -6.1183 2.2327
1.9262 -5.7685 2.1294
2.1309 -5.6942 2.1294
2.3327 -5.6124 2.1294
2.5314 -5.5234 2.1294
2.7266 -5.4271 2.1294
2.9180 -5.3239 2.1294
3.1055 -5.2137 2.1294
3.2888 -5.0968 2.1294
3.4677 -4.9734 2.1294
3.6418 -4.8436 2.1294
3.8110 -4.7076 2.1294
3.9751 -4.5656 2.1294
4.1338 -4.4177 2.1294
4.2870 -4.2643 2.1294
4.4344 -4.1054 2.1294
4.5759 -3.9414 2.1294
2.4623 -1.9717 1.1130
4.8402 -3.5989 2.1294
2.2361 -1.5413 0.9595
5.0787 -3.2385 2.1294
5.1879 -3.0522 2.1294
5.2902 -2.8621 2.1294
5.3856 -2.6687 2.1294
5.4738 -2.4720 2.1294
5.5547 -2.2724 2.1294
5.6284 -2.0702 2.1294
5.6946 -1.8655 2.1294
5.7534 -1.6588 2.1294
5.8047 -1.4502 2.1294
5.8484 -1.2400 2.1294
5.8845 -1.0285 2.1294
3.5629 -0.4917 1.2831
4.0209 -0.4085 1.4430
4.1929 -0.2744 1.5014
4.3101 -0.1270 1.5420
3.9483 0.0255 1.4131
3.8014 0.1611 1.3628
3.9127 0.3069 1.4069
4.2712 0.4898 1.5424
4.1476 0.6273 1.5061
3.9368 0.7409 1.4394
3.4808 0.7855 1.2831
5.7216 1.5090 2.1294
5.6594 1.7123 2.1294
5.5900 1.9131 2.1294
5.5136 2.1111 2.1294
5.4302 2.3062 2.1294
5.3400 2.4981 2.1294
5.2431 2.6865 2.1294
5.1396 2.8712 2.1294
5.0297 3.0520 2.1294
4.9135 3.2287 2.1294
4.7912 3.4011 2.1294
4.6629 3.5689 2.1294
4.5289 3.7320 2.1294
4.3892 3.8902 2.1294
4.2440 4.0432 2.1294
4.0937 4.1909 2.1294
3.9382 4.3331 2.1294
3.7779 4.4697 2.1294
3.6130 4.6005 2.1294
3.4436 4.7253 2.1294
3.2699 4.8440 2.1294
3.0923 4.9565 2.1294
2.9109 5.0626 2.1294
2.7258 5.1622 2.1294
2.5375 5.2552 2.1294
0.8577 1.9527 0.7785
2.1517 5.4208 2.1294
1.9548 5.4933 2.1294
1.8406 5.8284 2.2327
1.6293 5.8896 2.2327
1.4161 5.9434 2.2327
1.2011 5.9897 2.2327
0.9846 6.0283 2.2327
0.7670 6.0593 2.2327
0.5484 6.0826 2.2327
0.3291 6.0982 2.2327
0.1095 6.1060 2.2327
-0.1103 6.1061 2.2327
-0.3300 6.0985 2.2327
-0.5493 6.0832 2.2327
-0.7680 6.0601 2.2327
-0.9857 6.0294 2.2327
-1.2022 5.9910 2.2327
-1.4173 5.9450 2.2327
-1.6307 5.8914 2.2327
-1.8421 5.8303 2.2327
-2.0512 5.7618 2.2327
-2.2579 5.6860 2.2327
-0.8580 1.9528 0.7781
-0.9277 1.9207 0.7779
-2.8604 5.4153 2.2327
-3.0546 5.3110 2.2327
-3.2450 5.1999 2.2327
-3.4315 5.0821 2.2327
-3.6138 4.9577 2.2327
-3.7916 4.8269 2.2327
-3.9648 4.6898 2.2327
