ply
format ascii 1.0
element vertex 2175
property float32 x
property float32 y
property float32 z
end_header
-2.2884 9.4360 2.2351
-2.6336 9.3779 2.2351
-2.9775 9.3070 2.2351
-3.3195 9.2233 2.2351
-3.6593 9.1269 2.2351
-3.9962 9.0177 2.2351
-4.3299 8.8958 2.2351
-4.6597 8.7613 2.2351
-4.9852 8.6142 2.2351
-5.3058 8.4547 2.2351
-5.6210 8.2829 2.2351
-5.9304 8.0989 2.2351
-6.2335 7.9029 2.2351
-6.5296 7.6951 2.2351
-6.8184 7.4758 2.2351
-7.0992 7.2452 2.2351
-7.3088 6.9437 2.2160
-7.2832 6.4397 2.1320
-7.5259 6.1890 2.1320
-7.7592 5.9287 2.1320
-7.9827 5.6591 2.1320
-8.1962 5.3806 2.1320
-8.3990 5.0937 2.1320
-8.5910 4.7986 2.1320
-8.7716 4.4958 2.1320
-8.9406 4.1859 2.1320
-9.0977 3.8692 2.1320
-9.2424 3.5462 2.1320
-9.3747 3.2175 2.1320
-7.1832 2.1817 1.6131
-7.3631 1.9518 1.6351
-9.6937 2.2021 2.1320
-9.7734 1.8556 2.1320
-9.8395 1.5061 2.1320
-9.8919 1.1540 2.1320
-9.9304 0.8001 2.1320
-9.9550 0.4448 2.1320
-9.9657 0.0888 2.1320
-9.9624 -0.2674 2.1320
-9.9451 -0.6231 2.1320
-9.9139 -0.9778 2.1320
-9.8688 -1.3310 2.1320
-9.8099 -1.6820 2.1320
-9.7373 -2.0302 2.1320
-9.6512 -2.3750 2.1320
-9.5517 -2.7161 2.1320
-9.4391 -3.0527 2.1320
-9.3135 -3.3843 2.1320
-9.1752 -3.7104 2.1320
-9.0245 -4.0306 2.1320
-8.8617 -4.3442 2.1320
-8.7856 -4.7037 2.1562
-8.9119 -5.1896 2.2351
-8.7062 -5.4957 2.2354
-8.4891 -5.7933 2.2356
-8.2610 -6.0818 2.2359
-8.0224 -6.3608 2.2362
-7.7736 -6.6299 2.2364
-7.5153 -6.8888 2.2367
-7.2477 -7.1372 2.2369
-6.9714 -7.3747 2.2371
-6.6870 -7.6011 2.2374
-6.3947 -7.8160 2.2376
-6.0953 -8.0193 2.2378
-5.7890 -8.2107 2.2381
-5.4760 -8.3891 2.2381
-5.1569 -8.5544 2.2378
-4.8327 -8.7073 2.2376
-4.5039 -8.8476 2.2374
-4.1711 -8.9752 2.2371
-3.8348 -9.0902 2.2369
-3.4955 -9.1923 2.2367
-3.1536 -9.2816 2.2364
-2.8098 -9.3581 2.2362
-2.4645 -9.4218 2.2360
-2.1181 -9.4728 2.2358
-1.7712 -9.5110 2.2356
-1.4243 -9.5367 2.2354
-1.0777 -9.5498 2.2352
-0.7308 -9.5342 2.2312
-0.3716 -9.1455 2.1427
-0.0449 -8.6382 2.2351
0.2569 -8.3668 2.1723
0.5466 -8.1948 2.1377
0.8378 -8.1438 2.1371
1.1261 -8.0829 2.1366
1.3298 -7.5495 2.0128
1.6928 -7.9311 2.1356
1.5919 -6.3338 1.7247
1.7361 -5.9884 1.6512
1.8759 -5.6963 1.5927
1.9744 -5.3411 1.5164
2.0726 -5.0415 1.4555
3.2908 -7.2514 2.1320
3.5403 -7.1097 2.1320
3.7840 -6.9599 2.1320
4.0219 -6.8022 2.1320
4.2537 -6.6368 2.1320
4.4792 -6.4639 2.1320
4.6980 -6.2838 2.1320
4.9102 -6.0968 2.1320
5.1153 -5.9031 2.1320
5.3134 -5.7029 2.1320
5.5041 -5.4965 2.1320
5.6873 -5.2842 2.1320
5.8629 -5.0662 2.1320
6.0307 -4.8428 2.1320
6.2577 -4.6642 2.1551
6.4112 -4.4283 2.1551
6.5564 -4.1877 2.1551
6.6932 -3.9427 2.1551
6.8216 -3.6936 2.1551
6.9413 -3.4407 2.1551
7.0524 -3.1843 2.1551
7.1547 -2.9245 2.1551
7.2481 -2.6618 2.1551
7.3326 -2.3963 2.1551
7.4081 -2.1284 2.1551
7.4746 -1.8584 2.1551
7.5320 -1.5864 2.1551
7.5100 -1.3007 2.1351
7.5487 -1.0284 2.1351
7.5783 -0.7550 2.1351
7.5988 -0.4809 2.1351
7.6101 -0.2063 2.1351
7.6123 0.0685 2.1351
7.6053 0.3431 2.1351
7.5892 0.6175 2.1351
7.5639 0.8913 2.1351
7.5295 1.1641 2.1351
7.4860 1.4357 2.1351
7.4335 1.7058 2.1351
7.3719 1.9743 2.1351
7.3014 2.2407 2.1351
7.2219 2.5048 2.1351
7.1336 2.7663 2.1351
7.0364 3.0250 2.1351
6.9306 3.2806 2.1351
6.8161 3.5328 2.1351
6.6931 3.7813 2.1351
6.5616 4.0258 2.1351
6.4217 4.2661 2.1351
6.2737 4.5020 2.1351
6.1175 4.7331 2.1351
5.9533 4.9592 2.1351
5.7813 5.1800 2.1351
5.6016 5.3953 2.1351
5.4143 5.6048 2.1351
5.2120 5.7997 2.1320
5.0104 5.9964 2.1320
4.8018 6.1866 2.1320
4.5863 6.3700 2.1320
4.3642 6.5462 2.1320
4.1357 6.7152 2.1320
2.3283 4.1043 1.2725
3.6601 7.0301 2.1320
3.4136 7.1756 2.1320
3.1616 7.3129 2.1320
2.9043 7.4417 2.1320
2.6420 7.5618 2.1320
2.3749 7.6730 2.1320
2.1035 7.7751 2.1320
1.8279 7.8679 2.1320
1.5484 7.9511 2.1320
1.2654 8.0248 2.1320
0.9792 8.0885 2.1320
0.6902 8.1423 2.1320
0.4179 8.5818 2.2351
0.1099 8.6167 2.2351
-0.2000 8.6407 2.2351
-0.5115 8.6537 2.2351
-0.8241 8.6556 2.2351
-1.1374 8.6461 2.2351
-1.4510 8.6254 2.2351
-1.7646 8.5932 2.2351
-2.0777 8.5496 2.2351
-2.3898 8.4945 2.2351
-2.7005 8.4279 2.2351
-3.0094 8.3498 2.2351
-3.3161 8.2602 2.2351
-3.6200 8.1591 2.2351
-3.9208 8.0466 2.2351
-4.2180 7.9227 2.2351
-4.5111 7.7876 2.2351
-4.7997 7.6414 2.2351
-5.0833 7.4841 2.2351
-5.3615 7.3160 2.2351
-5.6339 7.1372 2.2351
-5.8999 6.9479 2.2351
-6.1591 6.7482 2.2351
-6.4112 6.5385 2.2351
-6.6556 6.3190 2.2351
-6.8920 6.0899 2.2351
-7.0757 5.8152 2.2212
-7.0006 5.3458 2.1320
-7.2008 5.1018 2.1320
-7.3918 4.8498 2.1320
-7.5733 4.5903 2.1320
-7.7450 4.3237 2.1320
-7.9066 4.0503 2.1320
-8.0576 3.7705 2.1320
-6.7245 2.8584 1.7488
-8.3273 3.1935 2.1320
-8.4454 2.8971 2.1320
-7.1749 2.1781 1.7887
-7.3489 1.9471 1.8119
-8.7302 1.9822 2.1320
-8.8014 1.6702 2.1320
-8.8603 1.3555 2.1320
-8.9071 1.0386 2.1320
-8.9415 0.7201 2.1320
-8.9634 0.4003 2.1320
-8.9729 0.0799 2.1320
-8.9700 -0.2406 2.1320
-8.9545 -0.5608 2.1320
-8.9266 -0.8801 2.1320
-8.8864 -1.1979 2.1320
-8.8338 -1.5139 2.1320
-8.7690 -1.8274 2.1320
-8.6921 -2.1380 2.1320
-8.6033 -2.4452 2.1320
-8.5027 -2.7485 2.1320
-8.3905 -3.0474 2.1320
-8.2670 -3.3414 2.1320
-8.1323 -3.6302 2.1320
-7.9867 -3.9133 2.1320
-7.8802 -4.2167 2.1455
-8.0348 -4.6763 2.2351
-7.8506 -4.9529 2.2354
-7.6562 -5.2219 2.2356
-7.4519 -5.4828 2.2358
-7.2381 -5.7354 2.2361
-7.0151 -5.9792 2.2363
-6.7834 -6.2140 2.2365
-6.5434 -6.4394 2.2367
-6.2956 -6.6551 2.2369
-6.0402 -6.8609 2.2372
-5.7777 -7.0565 2.2374
-5.5086 -7.2418 2.2376
-5.2334 -7.4164 2.2378
-4.9524 -7.5803 2.2380
-4.6660 -7.7330 2.2381
-4.3741 -7.8733 2.2379
-4.0779 -8.0023 2.2377
-3.7779 -8.1200 2.2374
-3.4746 -8.2263 2.2372
-3.1684 -8.3210 2.2370
-2.8598 -8.4043 2.2368
-2.5492 -8.4761 2.2366
-2.2371 -8.5363 2.2364
-1.9238 -8.5849 2.2362
-1.6099 -8.6221 2.2359
-1.2957 -8.6478 2.2357
-0.9817 -8.6622 2.2355
-0.6683 -8.6652 2.2354
-0.3559 -8.6571 2.2352
-0.0449 -7.9012 2.2354
0.2380 -7.8754 2.2352
0.5191 -7.8399 2.2351
0.7693 -7.5136 2.1544
1.0409 -7.4976 2.1650
1.2876 -7.3306 2.1345
1.5457 -7.2585 2.1340
1.8003 -7.1776 2.1335
2.0513 -7.0879 2.1330
1.8688 -5.6838 1.7340
1.9737 -5.3467 1.6560
2.0863 -5.0813 1.6000
2.1585 -4.7620 1.5268
2.2243 -4.4718 1.4620
2.4077 -4.4330 1.4802
3.6869 -6.2415 2.1320
3.9003 -6.0909 2.1320
4.1080 -5.9333 2.1320
4.3097 -5.7691 2.1320
4.5052 -5.5983 2.1320
4.6944 -5.4213 2.1320
4.8770 -5.2383 2.1320
5.0530 -5.0495 2.1320
5.2221 -4.8552 2.1320
5.3842 -4.6556 2.1320
5.5392 -4.4509 2.1320
5.6869 -4.2414 2.1320
5.8272 -4.0274 2.1320
5.9600 -3.8090 2.1320
6.0851 -3.5866 2.1320
6.2025 -3.3604 2.1320
6.3121 -3.1306 2.1320
6.4832 -2.9289 2.1551
6.5778 -2.6902 2.1551
6.6643 -2.4487 2.1551
6.7425 -2.2046 2.1551
6.8124 -1.9583 2.1551
6.8740 -1.7099 2.1551
6.9801 -1.4709 2.1716
6.9071 -1.1969 2.1351
6.9429 -0.9464 2.1351
6.9704 -0.6948 2.1351
6.9893 -0.4426 2.1351
6.9998 -0.1899 2.1351
7.0019 0.0630 2.1351
6.9954 0.3158 2.1351
6.9805 0.5683 2.1351
6.9571 0.8201 2.1351
6.9253 1.0712 2.1351
6.8850 1.3211 2.1351
6.8364 1.5696 2.1351
6.7794 1.8165 2.1351
6.7141 2.0615 2.1351
6.6406 2.3043 2.1351
6.5589 2.5447 2.1351
6.4690 2.7825 2.1351
6.3711 3.0173 2.1351
6.2652 3.2490 2.1351
6.1515 3.4772 2.1351
6.0299 3.7017 2.1351
5.9007 3.9223 2.1351
5.7638 4.1386 2.1351
5.6195 4.3505 2.1351
5.4600 4.5512 2.1320
5.3014 4.7532 2.1320
5.1357 4.9500 2.1320
4.9632 5.1413 2.1320
4.7838 5.3271 2.1320
4.5979 5.5069 2.1320
4.4056 5.6806 2.1320
4.2070 5.8479 2.1320
4.0023 6.0086 2.1320
3.7918 6.1626 2.1320
2.3286 4.1089 1.3884
3.3541 6.4491 2.1320
3.1274 6.5814 2.1320
2.8956 6.7059 2.1320
2.6591 6.8226 2.1320
2.4181 6.9312 2.1320
2.1729 7.0316 2.1320
1.9236 7.1236 2.1320
1.6707 7.2071 2.1320
1.4144 7.2817 2.1320
1.1550 7.3475 2.1320
0.8928 7.4042 2.1320
0.6584 7.8120 2.2351
0.3785 7.8520 2.2351
0.0967 7.8821 2.2351
-0.1868 7.9022 2.2351
-0.4715 7.9122 2.2351
-0.7571 7.9120 2.2351
-1.0433 7.9014 2.2351
-1.3296 7.8806 2.2351
-1.6157 7.8493 2.2351
-1.9012 7.8076 2.2351
-2.1857 7.7554 2.2351
-2.4689 7.6928 2.2351
-2.7502 7.6197 2.2351
-3.0293 7.5361 2.2351
-3.3059 7.4422 2.2351
-3.5794 7.3378 2.2351
-3.8496 7.2233 2.2351
-4.1159 7.0985 2.2351
-4.3780 6.9637 2.2351
-4.6355 6.8189 2.2351
-4.8879 6.6643 2.2351
-5.1349 6.5000 2.2351
-5.3761 6.3263 2.2351
-5.6110 6.1433 2.2351
-5.8394 5.9512 2.2351
-6.0608 5.7503 2.2351
-6.2748 5.5409 2.2351
-6.4810 5.3231 2.2351
-6.6792 5.0973 2.2351
-6.8690 4.8638 2.2351
-6.8032 4.4610 2.1568
-6.8889 4.1731 2.1320
-7.0440 3.9302 2.1320
-7.1899 3.6811 2.1320
-7.3264 3.4264 2.1320
-7.4531 3.1664 2.1320
-7.5698 2.9014 2.1320
-7.6764 2.6319 2.1320
-7.1664 2.1744 1.9657
-7.3347 1.9423 1.9899
-7.9333 1.8003 2.1320
-7.9974 1.5169 2.1320
-8.0506 1.2310 2.1320
-8.0927 0.9432 2.1320
-8.1237 0.6539 2.1320
-8.1435 0.3635 2.1320
-8.1521 0.0725 2.1320
-8.1494 -0.2185 2.1320
-8.1355 -0.5093 2.1320
-8.1103 -0.7992 2.1320
-8.0740 -1.0879 2.1320
-8.0266 -1.3749 2.1320
-6.4276 -1.3388 1.7198
-6.5213 -1.6033 1.7602
-7.8186 -2.2211 2.1320
-7.7278 -2.4968 2.1320
-7.6266 -2.7685 2.1320
-7.5151 -3.0360 2.1320
-7.3935 -3.2987 2.1320
-7.3511 -3.5999 2.1581
-7.4654 -3.9926 2.2351
-7.3084 -4.2511 2.2353
-7.1417 -4.5031 2.2355
-6.9658 -4.7483 2.2357
-6.7810 -4.9863 2.2359
-6.5875 -5.2167 2.2361
-6.3858 -5.4394 2.2363
-6.1760 -5.6539 2.2365
-5.9587 -5.8600 2.2367
-5.7342 -6.0574 2.2369
-5.5027 -6.2459 2.2371
-5.2648 -6.4253 2.2373
-5.0208 -6.5952 2.2375
-4.7711 -6.7557 2.2377
-4.5161 -6.9064 2.2379
-4.2562 -7.0472 2.2380
-3.9915 -7.1776 2.2381
-3.7224 -7.2969 2.2379
-3.4496 -7.4059 2.2377
-3.1737 -7.5046 2.2375
-2.8951 -7.5928 2.2372
-2.6141 -7.6707 2.2370
-2.3311 -7.7380 2.2368
-2.0467 -7.7948 2.2366
-1.7610 -7.8412 2.2364
-1.4747 -7.8771 2.2362
-1.1879 -7.9025 2.2360
-0.9012 -7.9176 2.2359
-0.6149 -7.9224 2.2357
-0.3294 -7.9169 2.2355
-0.0449 -7.2727 2.2356
0.2156 -7.2505 2.2354
0.4744 -7.2191 2.2352
0.7314 -7.1785 2.2351
0.9761 -7.0560 2.2120
1.1822 -6.7494 2.1332
1.4351 -6.7551 2.1553
1.6549 -6.6112 2.1323
1.8866 -6.5306 2.1320
2.1151 -6.4430 2.1320
2.3398 -6.3476 2.1320
2.0751 -5.0606 1.7277
2.1553 -4.7607 1.6546
2.2438 -4.5161 1.6003
2.2948 -4.2294 1.5304
2.3430 -3.9704 1.4694
2.4147 -3.7744 1.4312
3.7894 -5.4779 2.1320
3.9762 -5.3271 2.1320
2.7589 -3.4311 1.4148
4.3327 -5.0074 2.1320
4.5020 -4.8391 2.1320
4.6652 -4.6653 2.1320
4.8221 -4.4863 2.1320
4.9725 -4.3024 2.1320
5.1163 -4.1137 2.1320
5.2535 -3.9206 2.1320
5.3837 -3.7231 2.1320
5.5070 -3.5216 2.1320
5.6233 -3.3163 2.1320
5.7323 -3.1074 2.1320
5.8341 -2.8951 2.1320
5.9286 -2.6798 2.1320
6.0156 -2.4616 2.1320
6.0951 -2.2408 2.1320
6.1670 -2.0176 2.1320
6.2313 -1.7922 2.1320
6.2880 -1.5650 2.1320
6.3369 -1.3361 2.1320
6.3872 -1.1074 2.1351
6.4206 -0.8756 2.1351
6.4461 -0.6429 2.1351
6.4638 -0.4095 2.1351
6.4736 -0.1757 2.1351
6.4754 0.0583 2.1351
6.4695 0.2922 2.1351
6.4556 0.5258 2.1351
6.4338 0.7588 2.1351
6.4042 0.9911 2.1351
6.3668 1.2222 2.1351
6.3216 1.4521 2.1351
6.2686 1.6805 2.1351
6.2079 1.9070 2.1351
6.1395 2.1316 2.1351
6.0636 2.3538 2.1351
5.9800 2.5736 2.1351
5.8891 2.7906 2.1351
5.7823 3.0002 2.1320
5.6768 3.2107 2.1320
5.5640 3.4177 2.1320
5.4442 3.6210 2.1320
5.3173 3.8203 2.1320
5.1835 4.0155 2.1320
5.0430 4.2063 2.1320
4.8958 4.3924 2.1320
4.7422 4.5737 2.1320
4.5821 4.7500 2.1320
4.4158 4.9209 2.1320
4.2435 5.0863 2.1320
4.0652 5.2460 2.1320
3.8813 5.3997 2.1320
3.6917 5.5473 2.1320
2.4566 3.9962 1.4977
2.2802 4.0276 1.4746
2.0344 3.9159 1.4029
2.8820 6.0720 2.1320
2.6677 6.1859 2.1320
1.6706 4.2922 1.4543
2.2264 6.3914 2.1320
1.9999 6.4828 2.1320
1.7698 6.5664 2.1320
1.5364 6.6420 2.1320
1.2999 6.7096 2.1320
1.0607 6.7688 2.1320
0.8560 7.1286 2.2286
0.6027 7.1939 2.2351
0.3449 7.2293 2.2351
0.0854 7.2556 2.2351
-0.1755 7.2726 2.2351
-0.4374 7.2803 2.2351
-0.7001 7.2786 2.2351
-0.9632 7.2675 2.2351
-1.2263 7.2468 2.2351
-1.4891 7.2165 2.2351
-1.7512 7.1767 2.2351
-2.0124 7.1273 2.2351
-2.2721 7.0683 2.2351
-2.5301 6.9997 2.2351
-2.7860 6.9216 2.2351
-3.0394 6.8339 2.2351
-3.2900 6.7369 2.2351
-3.5373 6.6304 2.2351
-3.7810 6.5146 2.2351
-4.0209 6.3897 2.2351
-4.2563 6.2556 2.2351
-4.4871 6.1127 2.2351
-4.7128 5.9610 2.2351
-4.9332 5.8007 2.2351
-5.1478 5.6319 2.2351
-5.3562 5.4550 2.2351
-5.5582 5.2700 2.2351
-5.7535 5.0773 2.2351
-5.9416 4.8770 2.2351
-6.1224 4.6694 2.2351
-6.2954 4.4549 2.2351
-6.4604 4.2337 2.2351
-6.6171 4.0061 2.2351
-6.6441 3.7049 2.1951
-6.5860 3.3701 2.1320
-6.7208 3.1415 2.1354
-6.8255 2.8983 2.1320
-6.9318 2.6555 2.1320
-7.0288 2.4086 2.1320
-7.1163 2.1581 2.1320
-7.1943 1.9041 2.1320
-7.2625 1.6473 2.1320
-7.3208 1.3878 2.1320
-7.3692 1.1262 2.1320
-7.4075 0.8629 2.1320
-7.4357 0.5982 2.1320
-7.4536 0.3325 2.1320
-6.3461 0.0564 1.8133
-7.4590 -0.1999 2.1320
-7.4463 -0.4659 2.1320
-7.4234 -0.7312 2.1320
-7.3904 -0.9953 2.1320
-7.3472 -1.2579 2.1320
-7.2940 -1.5186 2.1320
-7.2310 -1.7769 2.1320
-7.1581 -2.0324 2.1320
-7.0755 -2.2848 2.1320
-6.9833 -2.5337 2.1320
-6.8819 -2.7787 2.1320
-6.9713 -3.1087 2.1950
-6.9732 -3.4130 2.2351
-6.8390 -3.6556 2.2353
-6.6959 -3.8927 2.2354
-6.5441 -4.1239 2.2356
-6.3837 -4.3489 2.2358
-6.2152 -4.5675 2.2360
-6.0388 -4.7792 2.2362
-5.8547 -4.9838 2.2363
-5.6633 -5.1811 2.2365
-5.4650 -5.3708 2.2367
-5.2599 -5.5525 2.2369
-5.0486 -5.7262 2.2371
-4.8312 -5.8916 2.2372
-4.6083 -6.0485 2.2374
-4.3800 -6.1967 2.2376
-4.1468 -6.3360 2.2378
-3.9090 -6.4663 2.2380
-3.6671 -6.5875 2.2381
-3.4208 -6.6985 2.2380
-3.1711 -6.8000 2.2378
-2.9183 -6.8920 2.2376
-2.6630 -6.9745 2.2374
-2.4053 -7.0474 2.2372
-2.1458 -7.1108 2.2370
-1.8848 -7.1645 2.2368
-1.6226 -7.2086 2.2366
-1.3596 -7.2432 2.2365
-1.0962 -7.2681 2.2363
-0.8326 -7.2835 2.2361
-0.5694 -7.2893 2.2359
-0.3067 -7.2857 2.2358
-0.0449 -6.7300 2.2358
0.1961 -6.7106 2.2356
0.4358 -6.6827 2.2355
0.6739 -6.6464 2.2353
0.9099 -6.6017 2.2352
1.1437 -6.5490 2.2351
1.3443 -6.3430 2.1850
1.5297 -6.1238 2.1320
1.7478 -6.0612 2.1356
1.9569 -5.9707 2.1320
2.1655 -5.8832 2.1320
2.1712 -5.3019 1.9527
2.5717 -5.6873 2.1320
2.2226 -4.4785 1.7114
2.2920 -4.2287 1.6499
2.3643 -4.0104 1.6002
2.4040 -3.7612 1.5374
2.4399 -3.5303 1.4809
2.4950 -3.3455 1.4430
2.7585 -3.4332 1.5255
4.0183 -4.6477 2.1320
4.1760 -4.4919 2.1320
4.3280 -4.3311 2.1320
4.4741 -4.1654 2.1320
4.6143 -3.9951 2.1320
4.7483 -3.8203 2.1320
4.8761 -3.6413 2.1320
4.9976 -3.4582 2.1320
5.1126 -3.2713 2.1320
5.2210 -3.0808 2.1320
5.3227 -2.8870 2.1320
5.4177 -2.6900 2.1320
5.5058 -2.4901 2.1320
5.5870 -2.2875 2.1320
5.6612 -2.0824 2.1320
5.7284 -1.8751 2.1320
5.7884 -1.6657 2.1320
5.8413 -1.4546 2.1320
5.8870 -1.2419 2.1320
5.9254 -1.0279 2.1320
5.9565 -0.8127 2.1320
5.9803 -0.5968 2.1320
5.9967 -0.3801 2.1320
6.0059 -0.1631 2.1320
6.0076 0.0541 2.1320
6.0021 0.2712 2.1320
5.9891 0.4880 2.1320
5.9688 0.7043 2.1320
5.9412 0.9198 2.1320
5.9064 1.1344 2.1320
5.8642 1.3477 2.1320
5.8148 1.5596 2.1320
5.7582 1.7698 2.1320
5.6945 1.9781 2.1320
5.6237 2.1842 2.1320
5.5459 2.3880 2.1320
5.4611 2.5892 2.1320
5.3695 2.7876 2.1320
5.2710 2.9829 2.1320
5.1659 3.1749 2.1320
5.0541 3.3635 2.1320
4.9358 3.5484 2.1320
4.8111 3.7293 2.1320
4.6801 3.9061 2.1320
4.5430 4.0786 2.1320
4.3998 4.2465 2.1320
4.2507 4.4096 2.1320
4.0959 4.5678 2.1320
3.9354 4.7207 2.1320
3.7695 4.8683 2.1320
3.5983 5.0103 2.1320
3.4220 5.1466 2.1320
2.4504 3.9900 1.6121
2.2760 4.0242 1.5885
2.0338 3.9189 1.5139
1.7922 3.7803 1.4315
1.7222 3.9985 1.4865
1.6863 4.3384 1.5858
2.0604 5.9236 2.1320
1.8501 6.0074 2.1320
1.6366 6.0839 2.1320
1.4201 6.1529 2.1320
1.2009 6.2144 2.1320
1.0066 6.4444 2.1919
0.7916 6.6197 2.2351
0.5546 6.6597 2.2351
0.3159 6.6913 2.2351
0.0757 6.7144 2.2351
-0.1657 6.7290 2.2351
-0.4080 6.7349 2.2351
-0.6509 6.7322 2.2351
-0.8941 6.7207 2.2351
-1.1372 6.7004 2.2351
-1.3800 6.6712 2.2351
-1.6220 6.6333 2.2351
-1.8631 6.5864 2.2351
-2.1027 6.5308 2.2351
-2.3407 6.4663 2.2351
-2.5767 6.3930 2.2351
-2.8103 6.3110 2.2351
-3.0411 6.2203 2.2351
-3.2690 6.1209 2.2351
-3.4934 6.0131 2.2351
-3.7142 5.8968 2.2351
-3.9309 5.7722 2.2351
-4.1432 5.6395 2.2351
-4.3508 5.4986 2.2351
-4.5534 5.3500 2.2351
-4.7506 5.1936 2.2351
-4.9422 5.0297 2.2351
-5.1277 4.8585 2.2351
-5.3071 4.6802 2.2351
-5.4798 4.4950 2.2351
-5.6457 4.3032 2.2351
-5.8045 4.1050 2.2351
-5.9559 3.9008 2.2351
-6.0996 3.6907 2.2351
-6.2354 3.4750 2.2351
-6.3631 3.2542 2.2351
-6.4825 3.0285 2.2351
-6.4533 2.7387 2.1876
-6.4068 2.4531 2.1387
-6.4755 2.2178 2.1320
-6.5557 1.9870 2.1320
-6.6271 1.7531 2.1320
-6.6895 1.5165 2.1320
-6.7430 1.2776 2.1320
-6.7873 1.0368 2.1320
-6.8223 0.7943 2.1320
-6.8481 0.5506 2.1320
-6.8646 0.3061 2.1320
-6.3448 0.0564 1.9685
-6.8694 -0.1841 2.1320
-6.8578 -0.4289 2.1320
-6.8369 -0.6731 2.1320
-6.8066 -0.9163 2.1320
-6.7671 -1.1580 2.1320
-6.7184 -1.3980 2.1320
-6.6606 -1.6359 2.1320
-6.5938 -1.8712 2.1320
-6.5181 -2.1038 2.1320
-6.6300 -2.4043 2.1970
-6.6473 -2.6826 2.2351
-6.5412 -2.9153 2.2352
-6.4266 -3.1438 2.2353
-6.3035 -3.3675 2.2355
-6.1722 -3.5862 2.2356
-6.0328 -3.7995 2.2358
-5.8857 -4.0072 2.2359
-5.7310 -4.2091 2.2361
-5.5690 -4.4047 2.2362
-5.4000 -4.5938 2.2364
-5.2242 -4.7762 2.2366
-5.0420 -4.9517 2.2367
-4.8536 -5.1199 2.2369
-4.6593 -5.2808 2.2371
-4.4595 -5.4340 2.2373
-4.2545 -5.5795 2.2374
-4.0445 -5.7171 2.2376
-3.8299 -5.8465 2.2378
-3.6111 -5.9677 2.2379
-3.3883 -6.0805 2.2381
-3.1617 -6.1843 2.2381
-2.9316 -6.2791 2.2379
-2.6987 -6.3652 2.2377
-2.4633 -6.4425 2.2375
-2.2257 -6.5110 2.2374
-1.9863 -6.5708 2.2372
-1.7454 -6.6216 2.2370
-1.5033 -6.6635 2.2368
-1.2604 -6.6966 2.2366
-1.0170 -6.7208 2.2365
-0.7735 -6.7362 2.2363
-0.5301 -6.7429 2.2361
-0.2871 -6.7407 2.2359
-0.0449 -6.2560 2.2359
0.1792 -6.2390 2.2358
0.4021 -6.2140 2.2357
0.6236 -6.1812 2.2355
0.8432 -6.1406 2.2354
1.0609 -6.0923 2.2352
1.2762 -6.0365 2.2351
1.4785 -5.9313 2.2193
1.6208 -5.6311 2.1320
1.8184 -5.5572 2.1320
2.0129 -5.4766 2.1320
2.1699 -5.3059 2.0990
2.3916 -5.2956 2.1320
2.5755 -5.1956 2.1320
2.4113 -4.4537 1.8657
2.3418 -3.9761 1.7032
2.3991 -3.7571 1.6485
2.4626 -3.5663 1.6057
2.4989 -3.3536 1.5522
2.5208 -3.1400 1.4971
2.5571 -2.9599 1.4568
2.6082 -2.8076 1.4296
4.0317 -4.0376 2.1320
2.7597 -2.5711 1.4115
4.2994 -3.7250 2.1320
4.4248 -3.5624 2.1320
4.5444 -3.3957 2.1320
4.6581 -3.2253 2.1320
4.7657 -3.0512 2.1320
4.8671 -2.8737 2.1320
4.9624 -2.6931 2.1320
5.0513 -2.5095 2.1320
5.1338 -2.3232 2.1320
5.2099 -2.1342 2.1320
5.2794 -1.9430 2.1320
5.3423 -1.7496 2.1320
5.3985 -1.5543 2.1320
5.4481 -1.3574 2.1320
5.4908 -1.1589 2.1320
5.5268 -0.9592 2.1320
5.5560 -0.7585 2.1320
5.5783 -0.5569 2.1320
5.5937 -0.3548 2.1320
5.6023 -0.1523 2.1320
5.6039 0.0504 2.1320
5.5987 0.2531 2.1320
5.5866 0.4554 2.1320
5.5676 0.6573 2.1320
5.5417 0.8584 2.1320
5.5090 1.0586 2.1320
5.4696 1.2577 2.1320
5.4233 1.4553 2.1320
5.3703 1.6514 2.1320
5.3106 1.8457 2.1320
5.2443 2.0380 2.1320
5.1714 2.2280 2.1320
5.0921 2.4156 2.1320
5.0062 2.6005 2.1320
4.9141 2.7825 2.1320
4.8156 2.9615 2.1320
4.7111 3.1371 2.1320
4.6004 3.3093 2.1320
4.4837 3.4778 2.1320
4.3612 3.6423 2.1320
4.2329 3.8028 2.1320
4.0990 3.9590 2.1320
3.9596 4.1106 2.1320
3.8149 4.2576 2.1320
3.6649 4.3997 2.1320
3.5099 4.5368 2.1320
3.3500 4.6686 2.1320
3.1853 4.7950 2.1320
2.4441 3.9837 1.7277
2.2717 4.0207 1.7039
1.8203 3.5113 1.4564
1.7786 3.7560 1.5273
0.8423 1.9581 0.7818
1.6654 4.2907 1.6846
1.9149 5.5140 2.1320
1.7190 5.5912 2.1320
1.5200 5.6615 2.1320
1.3184 5.7250 2.1320
1.1332 5.8801 2.1684
0.9516 6.1125 2.2351
0.7331 6.1565 2.2351
0.5126 6.1928 2.2351
0.2906 6.2213 2.2351
0.0672 6.2418 2.2351
-0.1572 6.2544 2.2351
-0.3824 6.2590 2.2351
-0.6080 6.2555 2.2351
-0.8339 6.2438 2.2351
-1.0596 6.2240 2.2351
-1.2849 6.1960 2.2351
-1.5095 6.1598 2.2351
-1.7330 6.1154 2.2351
-1.9553 6.0628 2.2351
-2.1759 6.0020 2.2351
-2.3945 5.9331 2.2351
-0.8730 1.9581 0.7473
-0.9427 1.9261 0.7459
-3.0357 5.6781 2.2351
-3.2435 5.5772 2.2351
-3.4478 5.4686 2.2351
-3.6482 5.3524 2.2351
-3.8446 5.2285 2.2351
-4.0365 5.0973 2.2351
-4.2238 4.9589 2.2351
-4.4061 4.8133 2.2351
-4.5831 4.6608 2.2351
-4.7545 4.5017 2.2351
-4.9201 4.3360 2.2351
-5.0796 4.1639 2.2351
-5.2327 3.9858 2.2351
-5.3792 3.8019 2.2351
-5.5189 3.6124 2.2351
-5.6515 3.4175 2.2351
-5.7768 3.2176 2.2351
-5.8945 3.0128 2.2351
-6.0046 2.8036 2.2351
-6.1068 2.5902 2.2351
-6.2009 2.3729 2.2351
-6.2867 2.1520 2.2351
-6.2974 1.9077 2.2116
-6.2558 1.6540 2.1735
-6.2160 1.4084 2.1396
-6.2432 1.1823 2.1320
-6.2840 0.9594 2.1320
-6.3289 0.7364 2.1362
-6.3401 0.5095 2.1320
-6.3553 0.2832 2.1320
-6.3447 0.0563 2.1263
-6.3597 -0.1704 2.1320
-6.3490 -0.3969 2.1320
-6.3297 -0.6229 2.1320
-6.3018 -0.8479 2.1320
-6.2654 -1.0717 2.1320
-6.2661 -1.3033 2.1476
-6.3075 -1.5484 2.1805
-6.3497 -1.8010 2.2172
-6.3278 -2.0413 2.2351
-6.2465 -2.2640 2.2352
-6.1570 -2.4834 2.2353
-6.0592 -2.6991 2.2354
-5.9535 -2.9107 2.2355
-5.8400 -3.1181 2.2357
-5.7188 -3.3208 2.2358
-5.5902 -3.5187 2.2359
-5.4544 -3.7114 2.2361
-5.3116 -3.8986 2.2362
-5.1620 -4.0802 2.2364
-5.0059 -4.2558 2.2365
-4.8436 -4.4252 2.2367
-4.6753 -4.5883 2.2368
-4.5012 -4.7447 2.2370
-4.3217 -4.8943 2.2371
-4.1370 -5.0370 2.2373
-3.9474 -5.1725 2.2374
-3.7532 -5.3007 2.2376
-3.5547 -5.4214 2.2377
-3.3522 -5.5345 2.2379
-3.1460 -5.6399 2.2381
-2.9363 -5.7372 2.2381
-2.7233 -5.8260 2.2380
-2.5075 -5.9067 2.2378
-2.2894 -5.9794 2.2376
-2.0692 -6.0439 2.2374
-1.8473 -6.1003 2.2372
-1.6239 -6.1484 2.2371
-1.3993 -6.1883 2.2369
-1.1739 -6.2200 2.2367
-0.9480 -6.2435 2.2366
-0.7218 -6.2589 2.2364
-0.4957 -6.2660 2.2363
-0.2700 -6.2650 2.2361
-0.0449 -5.8382 2.2361
0.1642 -5.8231 2.2360
0.3724 -5.8006 2.2358
0.5792 -5.7707 2.2357
0.7843 -5.7336 2.2355
0.9877 -5.6893 2.2354
1.1889 -5.6379 2.2353
1.3879 -5.5795 2.2351
1.5843 -5.5145 2.2351
1.7261 -5.2840 2.1699
1.8779 -5.1171 2.1320
2.0796 -5.0921 2.1557
2.2324 -4.9492 2.1320
2.4045 -4.8563 2.1320
2.4105 -4.4571 1.9973
2.7377 -4.6532 2.1320
2.8984 -4.5433 2.1320
2.4389 -3.5352 1.7021
2.4862 -3.3394 1.6528
2.5413 -3.1681 1.6151
2.5790 -2.9877 1.5720
2.5860 -2.7859 1.5164
2.6046 -2.6102 1.4733
2.6385 -2.4599 1.4434
4.0203 -3.4856 2.1320
4.1380 -3.3337 2.1320
4.2502 -3.1779 2.1320
4.3569 -3.0186 2.1320
4.4579 -2.8559 2.1320
4.5531 -2.6900 2.1320
4.6426 -2.5211 2.1320
4.7261 -2.3493 2.1320
4.8036 -2.1750 2.1320
4.8750 -1.9982 2.1320
4.9403 -1.8192 2.1320
4.9995 -1.6383 2.1320
5.0523 -1.4555 2.1320
5.0988 -1.2711 2.1320
5.1390 -1.0853 2.1320
5.1728 -0.8983 2.1320
5.2002 -0.7103 2.1320
5.2212 -0.5216 2.1320
5.2357 -0.3323 2.1320
5.2438 -0.1426 2.1320
5.2453 0.0472 2.1320
5.2404 0.2370 2.1320
5.2291 0.4265 2.1320
5.2112 0.6155 2.1320
5.1869 0.8039 2.1320
5.1562 0.9913 2.1320
5.1191 1.1777 2.1320
5.0756 1.3628 2.1320
5.0258 1.5463 2.1320
4.9698 1.7282 2.1320
4.9075 1.9081 2.1320
4.8390 2.0859 2.1320
4.7645 2.2614 2.1320
4.6839 2.4344 2.1320
4.5973 2.6047 2.1320
4.5049 2.7720 2.1320
4.4067 2.9363 2.1320
4.3028 3.0972 2.1320
4.1933 3.2546 2.1320
4.0783 3.4084 2.1320
3.9580 3.5582 2.1320
3.8324 3.7041 2.1320
3.7016 3.8456 2.1320
3.5659 3.9828 2.1320
3.4253 4.1153 2.1320
2.2333 2.8891 1.4517
2.0723 2.8905 1.4115
2.9757 4.4837 2.1320
1.9089 3.1144 1.4446
1.8591 3.2939 1.4932
1.8391 3.5517 1.5760
0.8501 1.7973 0.7819
0.7850 1.8272 0.7806
0.7189 1.8548 0.7793
0.6518 1.8800 0.7780
0.5840 1.9027 0.7766
0.5153 1.9230 0.7752
0.4459 1.9408 0.7738
0.3760 1.9561 0.7724
0.8856 5.7075 2.2351
0.6814 5.7479 2.2351
0.4755 5.7810 2.2351
0.2682 5.8068 2.2351
0.0597 5.8252 2.2351
-0.1497 5.8362 2.2351
-0.3598 5.8396 2.2351
-0.5702 5.8356 2.2351
-0.7808 5.8239 2.2351
-0.9912 5.8046 2.2351
-0.4067 1.9561 0.7567
-0.4766 1.9408 0.7553
-0.5460 1.9230 0.7539
-0.6147 1.9027 0.7525
-0.6826 1.8800 0.7512
-0.7496 1.8548 0.7498
-0.8157 1.8272 0.7485
-0.8808 1.7973 0.7472
-0.9447 1.7651 0.7459
-3.0241 5.1946 2.2351
-3.2139 5.0928 2.2351
-3.4002 4.9839 2.2351
-3.5827 4.8681 2.2351
-3.7609 4.7454 2.2351
-3.9348 4.6159 2.2351
-4.1040 4.4800 2.2351
-4.2683 4.3376 2.2351
-4.4274 4.1890 2.2351
-4.5810 4.0344 2.2351
-4.7290 3.8740 2.2351
-4.8710 3.7079 2.2351
-5.0069 3.5365 2.2351
-5.1364 3.3599 2.2351
-5.2593 3.1784 2.2351
-5.3754 2.9922 2.2351
-5.4845 2.8016 2.2351
-5.5865 2.6069 2.2351
-5.6812 2.4083 2.2351
-5.7683 2.2062 2.2351
-5.8479 2.0007 2.2351
-5.9196 1.7923 2.2351
-5.9835 1.5812 2.2351
-6.0394 1.3677 2.2351
-6.0871 1.1521 2.2351
-6.1267 0.9349 2.2351
-6.1363 0.7137 2.2272
-6.1229 0.4918 2.2140
-6.1090 0.2721 2.2038
-6.0948 0.0541 2.1964
-6.0804 -0.1628 2.1919
-6.0843 -0.3802 2.1970
-6.1231 -0.6023 2.2177
-6.1601 -0.8284 2.2410
-6.1086 -1.0443 2.2351
-6.0651 -1.2608 2.2351
-6.0136 -1.4755 2.2352
-5.9540 -1.6879 2.2352
-5.8865 -1.8979 2.2353
-5.8111 -2.1051 2.2354
-5.7281 -2.3091 2.2355
-5.6376 -2.5098 2.2356
-5.5396 -2.7068 2.2357
-5.4343 -2.8998 2.2358
-5.3220 -3.0886 2.2360
-5.2027 -3.2728 2.2361
-5.0768 -3.4523 2.2362
-4.9444 -3.6268 2.2364
-4.8056 -3.7960 2.2365
-4.6608 -3.9597 2.2366
-4.5102 -4.1178 2.2368
-4.3539 -4.2699 2.2369
-4.1924 -4.4159 2.2370
-4.0257 -4.5556 2.2372
-3.8542 -4.6889 2.2373
-3.6781 -4.8156 2.2375
-3.4977 -4.9354 2.2376
-3.3132 -5.0484 2.2378
-3.1250 -5.1543 2.2379
-2.9333 -5.2531 2.2381
-2.7384 -5.3445 2.2381
-2.5403 -5.4279 2.2380
-2.3396 -5.5038 2.2378
-2.1366 -5.5723 2.2376
-1.9317 -5.6332 2.2375
-1.7250 -5.6865 2.2373
-1.5170 -5.7322 2.2372
-1.3078 -5.7702 2.2370
-1.0978 -5.8006 2.2368
-0.8872 -5.8233 2.2367
-0.6764 -5.8384 2.2365
-0.4655 -5.8459 2.2364
-0.2549 -5.8458 2.2362
-0.0449 -5.4667 2.2362
0.1510 -5.4532 2.2361
0.3459 -5.4328 2.2359
0.5397 -5.4055 2.2358
0.7319 -5.3713 2.2357
0.9226 -5.3305 2.2355
1.1113 -5.2829 2.2354
1.2978 -5.2289 2.2353
1.4820 -5.1683 2.2352
1.6637 -5.1016 2.2351
1.8211 -4.9699 2.2089
1.9324 -4.7382 2.1396
2.0904 -4.6404 2.1320
2.2581 -4.5659 2.1377
2.4097 -4.4605 2.1314
2.5650 -4.3641 2.1320
2.7159 -4.2615 2.1320
2.8630 -4.1538 2.1320
3.0060 -4.0412 2.1320
2.5200 -3.1443 1.7084
2.5555 -2.9628 1.6615
2.5997 -2.8028 1.6258
2.6309 -2.6386 1.5869
2.6372 -2.4605 1.5382
2.6406 -2.2910 1.4929
2.6533 -2.1390 1.4573
2.6815 -2.0063 1.4338
4.0876 -2.8339 2.1320
4.1827 -2.6813 2.1320
4.2724 -2.5257 2.1320
4.3566 -2.3672 2.1320
4.4352 -2.2061 2.1320
4.5083 -2.0424 2.1320
4.5755 -1.8765 2.1320
4.6371 -1.7085 2.1320
4.6927 -1.5386 2.1320
4.7425 -1.3670 2.1320
4.7864 -1.1938 2.1320
4.8242 -1.0194 2.1320
4.8561 -0.8437 2.1320
4.8819 -0.6672 2.1320
4.9017 -0.4899 2.1320
4.9154 -0.3121 2.1320
4.9229 -0.1340 2.1320
4.9244 0.0443 2.1320
4.9198 0.2226 2.1320
4.9091 0.4006 2.1320
4.8923 0.5781 2.1320
4.8694 0.7550 2.1320
4.8404 0.9311 2.1320
4.8055 1.1061 2.1320
4.7645 1.2799 2.1320
4.7176 1.4523 2.1320
4.6648 1.6230 2.1320
4.6061 1.7920 2.1320
4.5417 1.9589 2.1320
4.4715 2.1236 2.1320
4.3956 2.2859 2.1320
4.3141 2.4457 2.1320
4.2270 2.6027 2.1320
4.1346 2.7567 2.1320
4.0368 2.9076 2.1320
3.9337 3.0552 2.1320
3.8256 3.1993 2.1320
3.7123 3.3397 2.1320
3.5941 3.4764 2.1320
3.4712 3.6089 2.1320
3.3435 3.7373 2.1320
3.2113 3.8614 2.1320
2.2310 2.8887 1.5470
1.9814 2.7662 1.4399
1.9329 2.9151 1.4777
1.9102 3.1195 1.5428
1.8793 3.3332 1.6110
0.8548 1.6527 0.7820
0.7950 1.6829 0.7808
0.7340 1.7109 0.7796
0.6722 1.7367 0.7784
0.6094 1.7603 0.7771
0.5458 1.7816 0.7758
0.4815 1.8006 0.7745
0.4165 1.8172 0.7732
0.3511 1.8316 0.7719
0.2851 1.8435 0.7706
0.2187 1.8532 0.7693
0.1521 1.8604 0.7679
0.0852 1.8652 0.7666
0.0182 1.8676 0.7652
-0.0489 1.8676 0.7639
-0.1159 1.8652 0.7625
-0.1828 1.8604 0.7612
-0.2494 1.8532 0.7599
-0.3158 1.8436 0.7585
-0.3818 1.8316 0.7572
-0.4473 1.8172 0.7559
-0.5122 1.8006 0.7546
-0.5765 1.7816 0.7533
-0.6401 1.7603 0.7520
-0.7029 1.7367 0.7507
-0.7647 1.7109 0.7495
-0.8257 1.6829 0.7483
-0.8856 1.6527 0.7471
-0.9443 1.6204 0.7459
-3.0069 4.7600 2.2351
-3.1806 4.6577 2.2351
-3.3508 4.5490 2.2351
-3.5170 4.4339 2.2351
-3.6791 4.3125 2.2351
-3.8369 4.1851 2.2351
-3.9900 4.0517 2.2351
-4.1382 3.9125 2.2351
-4.2813 3.7678 2.2351
-4.4191 3.6177 2.2351
-4.5514 3.4623 2.2351
-4.6779 3.3020 2.2351
-4.7984 3.1369 2.2351
-4.9128 2.9672 2.2351
-5.0209 2.7932 2.2351
-5.1225 2.6151 2.2351
-5.2174 2.4332 2.2351
-5.3054 2.2478 2.2351
-5.3865 2.0590 2.2351
-5.4605 1.8671 2.2351
-5.5272 1.6725 2.2351
-5.5866 1.4755 2.2351
-5.6388 1.2763 2.2352
-5.6833 1.0751 2.2352
-5.7201 0.8723 2.2352
-5.7492 0.6683 2.2352
-5.7706 0.4632 2.2352
-5.7842 0.2575 2.2352
-5.7901 0.0513 2.2351
-5.7882 -0.1549 2.2351
-5.7787 -0.3609 2.2352
-5.7614 -0.5664 2.2352
-5.7363 -0.7711 2.2353
-5.7036 -0.9746 2.2353
-5.6631 -1.1766 2.2354
-5.6152 -1.3770 2.2354
-5.5598 -1.5753 2.2355
-5.4970 -1.7714 2.2356
-5.4268 -1.9648 2.2357
-5.3495 -2.1553 2.2357
-5.2652 -2.3427 2.2358
-5.1740 -2.5267 2.2359
-5.0760 -2.7070 2.2360
-4.9714 -2.8834 2.2361
-4.8604 -3.0556 2.2362
-4.7431 -3.2234 2.2364
-4.6198 -3.3866 2.2365
-4.4906 -3.5448 2.2366
-4.3557 -3.6980 2.2367
-4.2154 -3.8459 2.2369
-4.0698 -3.9883 2.2370
-3.9192 -4.1251 2.2371
-3.7638 -4.2560 2.2372
-3.6039 -4.3809 2.2374
-3.4397 -4.4997 2.2375
-3.2715 -4.6121 2.2377
-3.0994 -4.7182 2.2378
-2.9238 -4.8176 2.2379
-2.7449 -4.9105 2.2381
-2.5630 -4.9965 2.2382
-2.3781 -5.0750 2.2380
-2.1907 -5.1467 2.2378
-2.0011 -5.2113 2.2377
-1.8096 -5.2689 2.2375
-1.6166 -5.3194 2.2374
-1.4221 -5.3628 2.2372
-1.2266 -5.3991 2.2371
-1.0302 -5.4282 2.2369
-0.8332 -5.4501 2.2368
-0.6360 -5.4649 2.2366
-0.4387 -5.4726 2.2365
-0.2416 -5.4732 2.2364
-0.0449 -5.1339 2.2363
0.1391 -5.1218 2.2362
0.3222 -5.1032 2.2360
0.5042 -5.0781 2.2359
0.6850 -5.0466 2.2358
0.8642 -5.0087 2.2357
1.0416 -4.9646 2.2355
1.2170 -4.9143 2.2354
1.3903 -4.8579 2.2353
1.5612 -4.7955 2.2352
1.7295 -4.7273 2.2351
1.8952 -4.6535 2.2351
1.9944 -4.4331 2.1662
2.1151 -4.2820 2.1320
2.2995 -4.2613 2.1653
2.4098 -4.1045 2.1320
2.5520 -4.0083 2.1320
2.6906 -3.9073 2.1320
2.8253 -3.8017 2.1320
2.7482 -3.4320 1.9821
3.0829 -3.5772 2.1320
2.5877 -2.7920 1.7211
2.6041 -2.6138 1.6705
2.6372 -2.4624 1.6358
2.6683 -2.3167 1.6041
2.6768 -2.1595 1.5632
2.6579 -1.9900 1.5109
2.6589 -1.8446 1.4742
2.6704 -1.7129 1.4468
4.0196 -2.3778 2.1320
4.0991 -2.2287 2.1320
2.7630 -1.3751 1.4115
4.2422 -1.9231 2.1320
4.3058 -1.7669 2.1320
4.3638 -1.6088 2.1320
4.4164 -1.4488 2.1320
4.4634 -1.2873 2.1320
4.5048 -1.1242 2.1320
4.5406 -0.9600 2.1320
4.5707 -0.7946 2.1320
4.5951 -0.6284 2.1320
4.6138 -0.4614 2.1320
4.6267 -0.2940 2.1320
4.6338 -0.1262 2.1320
4.6352 0.0417 2.1320
4.6309 0.2096 2.1320
4.6207 0.3772 2.1320
4.6049 0.5445 2.1320
4.5833 0.7110 2.1320
4.5559 0.8768 2.1320
4.5229 1.0417 2.1320
4.4843 1.2053 2.1320
4.4400 1.3676 2.1320
4.3901 1.5283 2.1320
4.3347 1.6873 2.1320
4.2738 1.8444 2.1320
4.2076 1.9994 2.1320
4.1359 2.1522 2.1320
4.0590 2.3025 2.1320
3.9769 2.4502 2.1320
3.8897 2.5950 2.1320
3.7974 2.7369 2.1320
3.7002 2.8757 2.1320
3.5981 3.0112 2.1320
3.4913 3.1431 2.1320
3.3798 3.2715 2.1320
3.2638 3.3960 2.1320
3.1435 3.5166 2.1320
2.0407 2.4558 1.4412
1.9967 2.5875 1.4730
1.9719 2.7555 1.5247
1.9557 2.9524 1.5911
1.9069 3.1173 1.6391
0.8570 1.5217 0.7821
0.8018 1.5521 0.7810
0.7456 1.5804 0.7798
0.6884 1.6067 0.7787
0.6303 1.6309 0.7775
0.5713 1.6531 0.7763
0.5116 1.6731 0.7751
0.4512 1.6909 0.7739
0.3902 1.7066 0.7727
0.3287 1.7200 0.7715
0.2668 1.7313 0.7702
0.2045 1.7403 0.7690
0.1419 1.7471 0.7677
0.0791 1.7516 0.7665
0.0161 1.7538 0.7652
-0.0468 1.7538 0.7639
-0.1098 1.7516 0.7627
-0.1726 1.7471 0.7614
-0.2352 1.7403 0.7601
-0.2975 1.7313 0.7589
-0.3594 1.7200 0.7576
-0.4210 1.7066 0.7564
-0.4819 1.6909 0.7552
-0.5423 1.6731 0.7540
-0.6020 1.6531 0.7528
-0.6610 1.6309 0.7516
-0.7191 1.6067 0.7504
-0.7763 1.5804 0.7492
-0.8325 1.5521 0.7481
-0.8877 1.5217 0.7470
-0.9418 1.4894 0.7459
-0.9946 1.4552 0.7448
-3.1439 4.2643 2.2351
-3.2994 4.1560 2.2351
-3.4511 4.0419 2.2351
-3.5986 3.9221 2.2351
-3.7418 3.7968 2.2351
-3.8803 3.6661 2.2351
-4.0142 3.5302 2.2351
-4.1429 3.3893 2.2351
-4.2665 3.2435 2.2351
-4.3848 3.0931 2.2351
-4.4974 2.9382 2.2351
-4.6043 2.7791 2.2351
-4.7052 2.6160 2.2351
-4.8001 2.4491 2.2351
-4.8887 2.2786 2.2351
-4.9709 2.1048 2.2351
-5.0466 1.9279 2.2351
-5.1157 1.7482 2.2351
-5.1780 1.5660 2.2351
-5.2336 1.3814 2.2352
-5.2825 1.1950 2.2354
-5.3239 1.0066 2.2353
-5.3583 0.8167 2.2353
-5.3855 0.6256 2.2353
-5.4054 0.4337 2.2353
-5.4182 0.2410 2.2353
-5.4236 0.0480 2.2353
-5.4219 -0.1450 2.2353
-5.4132 -0.3379 2.2354
-5.3972 -0.5303 2.2355
-5.3737 -0.7219 2.2356
-5.3432 -0.9125 2.2356
-5.3054 -1.1017 2.2356
-5.2606 -1.2894 2.2357
-5.2088 -1.4751 2.2357
-5.1502 -1.6587 2.2358
-5.0847 -1.8399 2.2359
-5.0125 -2.0184 2.2359
-4.9337 -2.1940 2.2360
-4.8485 -2.3664 2.2361
-4.7570 -2.5354 2.2362
-4.6592 -2.7007 2.2363
-4.5555 -2.8622 2.2364
-4.4459 -3.0195 2.2365
-4.3307 -3.1725 2.2366
-4.2099 -3.3210 2.2367
-4.0838 -3.4648 2.2368
-3.9526 -3.6036 2.2369
-3.8165 -3.7373 2.2371
-3.6756 -3.8657 2.2372
-3.5303 -3.9887 2.2373
-3.3807 -4.1062 2.2374
-3.2271 -4.2178 2.2376
-3.0696 -4.3236 2.2377
-2.9086 -4.4234 2.2378
-2.7442 -4.5171 2.2379
-2.5767 -4.6046 2.2381
-2.4064 -4.6857 2.2382
-2.2332 -4.7599 2.2380
-2.0576 -4.8276 2.2379
-1.8800 -4.8887 2.2377
-1.7006 -4.9433 2.2376
-1.5196 -4.9912 2.2374
-1.3373 -5.0325 2.2373
-1.1539 -5.0670 2.2371
-0.9697 -5.0949 2.2370
-0.7849 -5.1161 2.2369
-0.5998 -5.1305 2.2367
-0.4146 -5.1383 2.2366
-0.2296 -5.1394 2.2364
-0.0449 -4.8338 2.2364
0.1283 -4.8229 2.2363
0.3008 -4.8058 2.2361
0.4723 -4.7827 2.2360
0.6426 -4.7534 2.2359
0.8114 -4.7182 2.2358
0.9787 -4.6771 2.2357
1.1441 -4.6302 2.2355
1.3075 -4.5775 2.2354
1.4686 -4.5191 2.2353
1.6274 -4.4552 2.2352
1.7836 -4.3858 2.2351
1.9370 -4.3113 2.2351
2.0433 -4.1416 2.1876
2.1319 -3.9554 2.1320
2.2695 -3.8696 2.1320
2.4159 -3.7985 2.1428
2.5346 -3.6843 2.1320
2.6618 -3.5850 2.1320
2.7453 -3.4314 2.1013
2.9051 -3.3738 2.1320
3.0209 -3.2621 2.1320
3.1326 -3.1466 2.1320
2.6471 -2.4734 1.7418
2.6403 -2.2941 1.6838
2.6594 -2.1470 1.6473
2.6810 -2.0087 1.6164
2.6884 -1.8663 1.5808
2.6705 -1.7142 1.5344
2.6524 -1.5700 1.4918
2.6459 -1.4395 1.4592
2.6581 -1.3237 1.4398
4.0012 -1.8149 2.1320
4.0613 -1.6676 2.1320
4.1162 -1.5184 2.1320
4.1660 -1.3675 2.1320
4.2105 -1.2150 2.1320
4.2496 -1.0612 2.1320
4.2835 -0.9061 2.1320
4.3120 -0.7501 2.1320
2.8466 -0.3895 1.4000
4.3527 -0.4356 2.1320
4.3650 -0.2775 2.1320
4.3717 -0.1191 2.1320
4.3731 0.0394 2.1320
4.3689 0.1978 2.1320
4.3593 0.3561 2.1320
4.3443 0.5139 2.1320
4.3239 0.6712 2.1320
4.2980 0.8276 2.1320
4.2668 0.9832 2.1320
4.2302 1.1376 2.1320
4.1883 1.2908 2.1320
4.1411 1.4424 2.1320
4.0887 1.5925 2.1320
4.0311 1.7407 2.1320
3.9684 1.8869 2.1320
3.9007 2.0310 2.1320
3.8279 2.1728 2.1320
3.7503 2.3120 2.1320
2.4829 1.6576 1.4433
3.5805 2.5824 2.1320
3.4886 2.7132 2.1320
3.3921 2.8408 2.1320
3.2911 2.9651 2.1320
2.1319 2.0651 1.4267
2.0891 2.1754 1.4479
2.0532 2.2987 1.4776
2.0309 2.4461 1.5220
2.0204 2.6206 1.5819
1.9811 2.7710 1.6260
1.9320 2.9195 1.6686
0.8569 1.4023 0.7820
0.8060 1.4327 0.7810
0.7540 1.4613 0.7800
0.7011 1.4880 0.7789
0.6472 1.5127 0.7778
0.5925 1.5356 0.7767
0.5370 1.5564 0.7756
0.4808 1.5752 0.7745
0.4239 1.5920 0.7734
0.3665 1.6068 0.7722
0.3086 1.6194 0.7711
0.2503 1.6300 0.7699
0.1916 1.6385 0.7687
0.1327 1.6449 0.7675
0.0735 1.6491 0.7663
0.0143 1.6513 0.7651
-0.0450 1.6513 0.7639
-0.1042 1.6491 0.7628
-0.1634 1.6449 0.7616
-0.2223 1.6385 0.7604
-0.2810 1.6300 0.7592
-0.3393 1.6194 0.7580
-0.3972 1.6068 0.7569
-0.4547 1.5920 0.7557
-0.5115 1.5752 0.7546
-0.5677 1.5564 0.7534
-0.6232 1.5356 0.7523
-0.6780 1.5127 0.7512
-0.7318 1.4880 0.7501
-0.7848 1.4613 0.7491
-0.8367 1.4327 0.7480
-0.8876 1.4023 0.7470
-0.9374 1.3701 0.7460
-0.9860 1.3361 0.7450
-3.1039 3.9063 2.2351
-3.2462 3.7987 2.2351
-3.3846 3.6859 2.2351
-3.5189 3.5678 2.2351
-3.6488 3.4448 2.2351
-3.7743 3.3168 2.2351
-3.8951 3.1842 2.2351
-4.0109 3.0471 2.2351
-4.1217 2.9056 2.2351
-4.2273 2.7600 2.2351
-4.3274 2.6104 2.2351
-4.4220 2.4570 2.2351
-4.5109 2.3001 2.2351
-4.5939 2.1399 2.2351
-4.6709 1.9766 2.2351
-4.7418 1.8104 2.2351
-4.8065 1.6416 2.2351
-4.8649 1.4705 2.2351
-4.9173 1.2972 2.2353
-4.9630 1.1220 2.2355
-5.0018 0.9451 2.2355
-5.0339 0.7668 2.2354
-5.0594 0.5874 2.2354
-5.0780 0.4072 2.2354
-5.0900 0.2263 2.2354
-5.0951 0.0451 2.2354
-5.0936 -0.1362 2.2354
-5.0856 -0.3173 2.2357
-5.0706 -0.4980 2.2358
-5.0487 -0.6779 2.2358
-5.0200 -0.8569 2.2358
-4.9847 -1.0346 2.2359
-4.9427 -1.2108 2.2359
-4.8942 -1.3852 2.2359
-4.8392 -1.5577 2.2360
-4.7779 -1.7279 2.2361
-4.7103 -1.8956 2.2361
-4.6365 -2.0606 2.2362
-4.5566 -2.2226 2.2363
-4.4708 -2.3814 2.2363
-4.3792 -2.5368 2.2364
-4.2819 -2.6886 2.2365
-4.1792 -2.8365 2.2366
-4.0712 -2.9805 2.2367
-3.9579 -3.1201 2.2368
-3.8397 -3.2554 2.2369
-3.7167 -3.3860 2.2370
-3.5890 -3.5119 2.2371
-3.4569 -3.6329 2.2373
-3.3206 -3.7487 2.2374
-3.1802 -3.8594 2.2375
-3.0360 -3.9646 2.2376
-2.8883 -4.0644 2.2377
-2.7371 -4.1585 2.2378
-2.5828 -4.2470 2.2380
-2.4255 -4.3296 2.2381
-2.2655 -4.4061 2.2381
-2.1028 -4.4763 2.2380
-1.9379 -4.5404 2.2379
-1.7710 -4.5984 2.2377
-1.6024 -4.6502 2.2376
-1.4323 -4.6957 2.2374
-1.2609 -4.7350 2.2373
-1.0884 -4.7680 2.2372
-0.9152 -4.7947 2.2370
-0.7414 -4.8151 2.2369
-0.5672 -4.8292 2.2368
-0.3929 -4.8370 2.2366
-0.2188 -4.8385 2.2365
-0.0450 -4.5615 2.2364
0.1186 -4.5517 2.2363
0.2814 -4.5360 2.2362
0.4433 -4.5145 2.2361
0.6041 -4.4873 2.2360
0.7635 -4.4545 2.2359
0.9215 -4.4160 2.2358
1.0778 -4.3721 2.2357
1.2322 -4.3227 2.2355
1.3845 -4.2679 2.2354
1.5346 -4.2079 2.2353
1.6822 -4.1427 2.2352
1.8272 -4.0725 2.2351
1.9696 -3.9974 2.2351
2.0862 -3.8751 2.2109
2.1529 -3.6750 2.1430
2.2688 -3.5709 2.1320
2.4414 -3.5524 2.1755
2.5131 -3.3879 2.1320
2.6300 -3.2902 2.1320
2.7434 -3.1887 2.1320
2.8529 -3.0833 2.1320
2.9587 -2.9743 2.1320
2.7856 -2.6049 1.9405
3.1581 -2.7460 2.1320
3.2516 -2.6270 2.1320
2.6570 -1.9922 1.6956
2.6629 -1.8499 1.6573
2.6769 -1.7194 1.6277
2.6830 -1.5892 1.5970
2.6709 -1.4540 1.5587
2.6405 -1.3158 1.5134
2.6317 -1.1945 1.4838
2.6247 -1.0784 1.4578
2.6306 -0.9710 1.4416
2.6348 -0.8654 1.4266
3.9799 -1.1492 2.1320
4.0170 -1.0037 2.1320
4.0491 -0.8571 2.1320
4.0761 -0.7094 2.1320
2.7235 -0.3729 1.4169
4.1147 -0.4120 2.1320
4.1263 -0.2625 2.1320
4.1328 -0.1127 2.1320
4.1340 0.0372 2.1320
4.1301 0.1871 2.1320
4.1210 0.3368 2.1320
4.1068 0.4861 2.1320
4.0874 0.6348 2.1320
4.0629 0.7828 2.1320
4.0333 0.9299 2.1320
3.9986 1.0760 2.1320
2.6590 0.8199 1.4320
3.9142 1.3642 2.1320
3.8645 1.5060 2.1320
3.8099 1.6462 2.1320
3.7505 1.7844 2.1320
3.6863 1.9206 2.1320
3.6174 2.0545 2.1320
3.5438 2.1861 2.1320
2.4827 1.6586 1.5273
2.2444 1.6199 1.4145
2.2055 1.7164 1.4266
2.1682 1.8171 1.4425
2.1296 1.9201 1.4604
2.1047 2.0403 1.4912
2.0892 2.1773 1.5331
2.0776 2.3280 1.5832
2.0433 2.4632 1.6217
1.9991 2.5953 1.6577
0.9006 1.2608 0.7829
0.8547 1.2929 0.7820
0.8077 1.3233 0.7810
0.7597 1.3520 0.7801
0.7107 1.3789 0.7791
0.6607 1.4041 0.7781
0.6099 1.4275 0.7771
0.5583 1.4490 0.7760
0.5059 1.4687 0.7750
0.4529 1.4865 0.7739
0.3992 1.5023 0.7729
0.3450 1.5162 0.7718
0.2904 1.5282 0.7707
0.2353 1.5382 0.7696
0.1799 1.5462 0.7685
0.1243 1.5522 0.7673
0.0685 1.5562 0.7662
0.0126 1.5582 0.7651
-0.0433 1.5582 0.7640
-0.0992 1.5562 0.7628
-0.1550 1.5522 0.7617
-0.2107 1.5462 0.7606
-0.2660 1.5382 0.7595
-0.3211 1.5282 0.7584
-0.3757 1.5162 0.7573
-0.4299 1.5023 0.7562
-0.4836 1.4865 0.7551
-0.5366 1.4687 0.7541
-0.5890 1.4490 0.7530
-0.6406 1.4275 0.7520
-0.6914 1.4041 0.7509
-0.7414 1.3790 0.7499
-0.7904 1.3520 0.7489
-0.8385 1.3233 0.7480
-0.8854 1.2929 0.7470
-0.9313 1.2608 0.7461
-0.9759 1.2271 0.7452
-3.0610 3.5789 2.2351
-3.1911 3.4723 2.2351
-3.3174 3.3609 2.2351
-3.4396 3.2448 2.2351
-3.5576 3.1241 2.2351
-3.6711 2.9990 2.2351
-3.7800 2.8696 2.2351
-3.8841 2.7362 2.2351
-3.9833 2.5989 2.2351
-4.0774 2.4580 2.2351
-4.1663 2.3134 2.2351
-4.2498 2.1656 2.2351
-4.3277 2.0147 2.2351
-4.4001 1.8609 2.2351
-4.4667 1.7044 2.2351
-4.5275 1.5454 2.2351
-4.5826 1.3843 2.2353
-4.6318 1.2212 2.2355
-4.6746 1.0562 2.2356
-4.7110 0.8897 2.2356
-4.7412 0.7218 2.2355
-4.7651 0.5529 2.2355
-4.7826 0.3832 2.2355
-4.7938 0.2130 2.2355
-4.7986 0.0424 2.2355
-4.7974 -0.1282 2.2356
-4.7899 -0.2987 2.2358
-4.7758 -0.4688 2.2360
-4.7552 -0.6382 2.2360
-4.7283 -0.8067 2.2361
-4.6951 -0.9740 2.2361
-4.6557 -1.1399 2.2361
-4.6101 -1.3041 2.2361
-4.5585 -1.4665 2.2362
-4.5009 -1.6268 2.2363
-4.4374 -1.7848 2.2363
-4.3680 -1.9401 2.2364
-4.2930 -2.0928 2.2365
-4.2124 -2.2424 2.2365
-4.1263 -2.3888 2.2366
-4.0349 -2.5318 2.2367
-3.9383 -2.6713 2.2367
-3.8368 -2.8069 2.2368
-3.7303 -2.9386 2.2369
-3.6192 -3.0662 2.2370
-3.5035 -3.1894 2.2371
-3.3834 -3.3082 2.2372
-3.2592 -3.4224 2.2373
-3.1310 -3.5317 2.2374
-2.9989 -3.6362 2.2376
-2.8633 -3.7357 2.2377
-2.7242 -3.8299 2.2378
-2.5820 -3.9189 2.2379
-2.4367 -4.0026 2.2380
-2.2887 -4.0807 2.2381
-2.1380 -4.1531 2.2381
-1.9848 -4.2196 2.2380
-1.8295 -4.2804 2.2378
-1.6723 -4.3354 2.2377
-1.5135 -4.3846 2.2376
-1.3532 -4.4280 2.2375
-1.1916 -4.4654 2.2373
-1.0291 -4.4970 2.2372
-0.8658 -4.5225 2.2371
-0.7019 -4.5422 2.2369
-0.5377 -4.5559 2.2368
-0.3733 -4.5637 2.2367
-0.2090 -4.5655 2.2366
-0.0449 -4.3132 2.2365
0.1097 -4.3042 2.2364
0.2637 -4.2897 2.2363
0.4168 -4.2698 2.2362
0.5689 -4.2444 2.2361
0.7198 -4.2137 2.2360
0.8693 -4.1776 2.2359
1.0173 -4.1364 2.2357
1.1634 -4.0899 2.2356
1.3076 -4.0384 2.2355
1.4497 -3.9820 2.2354
0.8798 -2.1701 1.2373
1.7270 -3.8544 2.2352
1.8618 -3.7834 2.2351
1.9938 -3.7080 2.2351
2.1312 -3.6421 2.2437
2.1864 -3.4448 2.1726
2.2629 -3.2959 2.1320
2.3770 -3.2075 2.1320
2.5294 -3.1673 2.1676
2.5954 -3.0193 2.1320
2.6993 -2.9197 2.1320
2.7995 -2.8167 2.1320
2.7854 -2.6067 2.0505
2.9887 -2.6007 2.1320
3.0774 -2.4881 2.1320
3.1621 -2.3725 2.1320
3.2426 -2.2542 2.1320
2.6578 -1.7083 1.7073
2.6525 -1.5722 1.6677
2.6589 -1.4484 1.6391
2.6652 -1.3290 1.6135
2.6621 -1.2090 1.5852
2.6447 -1.0873 1.5514
2.6145 -0.9656 1.5131
2.6017 -0.8550 1.4876
2.5903 -0.7484 1.4654
2.5880 -0.6470 1.4505
2.5872 -0.5480 1.4386
2.5853 -0.4502 1.4279
2.7236 -0.3731 1.4962
3.8967 -0.3904 2.1320
3.9077 -0.2487 2.1320
3.9138 -0.1068 2.1320
3.9150 0.0353 2.1320
3.9113 0.1773 2.1320
3.9027 0.3191 2.1320
3.8892 0.4606 2.1320
3.8708 0.6015 2.1320
3.8475 0.7417 2.1320
3.8194 0.8811 2.1320
3.7865 1.0195 2.1320
2.4819 0.7658 1.4115
3.7063 1.2925 2.1320
3.6591 1.4269 2.1320
3.6073 1.5596 2.1320
3.5509 1.6905 2.1320
3.4900 1.8195 2.1320
2.2935 1.3035 1.4279
2.2632 1.3971 1.4383
2.2312 1.4916 1.4501
2.2005 1.5893 1.4651
2.1775 1.6959 1.4882
2.1565 1.8087 1.5160
2.1505 1.9404 1.5584
2.1296 2.0661 1.5945
2.0958 2.1859 1.6254
2.0563 2.3062 1.6563
2.0249 2.4433 1.6988
0.8929 1.1603 0.7827
0.8507 1.1921 0.7819
0.8073 1.2225 0.7810
0.7629 1.2512 0.7801
0.7175 1.2784 0.7792
0.6712 1.3038 0.7783
0.6239 1.3277 0.7774
0.5759 1.3497 0.7764
0.5270 1.3701 0.7754
0.4775 1.3887 0.7744
0.4273 1.4055 0.7734
0.3766 1.4205 0.7724
0.3254 1.4336 0.7714
0.2737 1.4449 0.7703
0.2217 1.4544 0.7693
0.1693 1.4620 0.7682
0.1167 1.4677 0.7672
0.0640 1.4715 0.7661
0.0111 1.4734 0.7651
-0.0418 1.4734 0.7640
-0.0947 1.4715 0.7629
-0.1474 1.4677 0.7619
-0.2000 1.4620 0.7608
-0.2524 1.4544 0.7598
-0.3044 1.4449 0.7587
-0.3561 1.4336 0.7577
-0.4073 1.4205 0.7566
-0.4581 1.4055 0.7556
-0.5082 1.3887 0.7546
-0.5577 1.3701 0.7536
-0.6066 1.3497 0.7526
-0.6546 1.3277 0.7517
-0.7019 1.3038 0.7507
-0.7482 1.2784 0.7498
-0.7936 1.2512 0.7489
-0.8380 1.2225 0.7480
-0.8814 1.1921 0.7471
-0.9236 1.1603 0.7462
-0.9647 1.1269 0.7454
-3.0152 3.2782 2.2351
-3.1343 3.1728 2.2351
-3.2494 3.0630 2.2351
-3.3606 2.9489 2.2351
-3.4675 2.8306 2.2351
-3.5701 2.7084 2.2351
-3.6682 2.5824 2.2351
-3.7617 2.4527 2.2351
-3.8503 2.3195 2.2351
-3.9340 2.1830 2.2351
-4.0126 2.0435 2.2351
-4.0860 1.9010 2.2351
-4.1541 1.7558 2.2351
-4.2169 1.6081 2.2351
-4.2744 1.4582 2.2353
-4.3263 1.3061 2.2355
-4.3725 1.1522 2.2356
-4.4127 0.9965 2.2357
-4.4470 0.8393 2.2357
-4.4754 0.6810 2.2356
-4.4979 0.5216 2.2356
-4.5144 0.3615 2.2356
-4.5250 0.2009 2.2356
-4.5296 0.0400 2.2356
-4.5285 -0.1210 2.2358
-4.5214 -0.2818 2.2360
-4.5082 -0.4423 2.2362
-4.4888 -0.6021 2.2362
-4.4635 -0.7610 2.2362
-4.4323 -0.9189 2.2363
-4.3951 -1.0755 2.2363
-4.3522 -1.2305 2.2363
-4.3036 -1.3837 2.2364
-4.2493 -1.5350 2.2364
-4.1895 -1.6840 2.2365
-4.1242 -1.8307 2.2365
-4.0535 -1.9748 2.2366
-3.9776 -2.1161 2.2367
-3.8965 -2.2544 2.2367
-3.8104 -2.3894 2.2368
-3.7195 -2.5211 2.2369
-3.6238 -2.6493 2.2370
-3.5234 -2.7737 2.2370
-3.4187 -2.8942 2.2371
-3.3097 -3.0107 2.2372
-3.1965 -3.1230 2.2373
-3.0794 -3.2310 2.2374
-2.9585 -3.3344 2.2375
-2.8341 -3.4333 2.2376
-2.7061 -3.5274 2.2377
-2.5750 -3.6166 2.2378
-2.4409 -3.7009 2.2379
-2.3038 -3.7802 2.2380
-2.1642 -3.8543 2.2381
-2.0219 -3.9228 2.2381
-1.8774 -3.9860 2.2380
-0.9289 -2.1703 1.2011
-1.5824 -4.0960 2.2377
-1.4325 -4.1428 2.2376
-1.2811 -4.1841 2.2375
-1.1286 -4.2198 2.2373
-0.9751 -4.2500 2.2372
-0.8208 -4.2745 2.2371
-0.6659 -4.2934 2.2370
-0.5107 -4.3068 2.2369
-0.3553 -4.3145 2.2367
-0.2000 -4.3166 2.2366
-0.0449 -4.0855 2.2366
0.1015 -4.0773 2.2365
0.2474 -4.0639 2.2364
0.3925 -4.0452 2.2362
0.5367 -4.0215 2.2361
0.3731 -2.1917 1.2274
0.4514 -2.1756 1.2288
0.5291 -2.1567 1.2301
0.6060 -2.1349 1.2313
0.6820 -2.1103 1.2325
0.7570 -2.0829 1.2337
0.8310 -2.0528 1.2347
1.6349 -3.6540 2.2353
1.7628 -3.5870 2.2352
1.8881 -3.5157 2.2352
2.0107 -3.4400 2.2351
2.1305 -3.3603 2.2351
2.2158 -3.2308 2.2038
2.2702 -3.0665 2.1493
2.3572 -2.9545 2.1320
0.9028 -1.0513 0.7827
2.6025 -2.8175 2.1691
2.6532 -2.6717 2.1320
2.7449 -2.5709 2.1320
2.8330 -2.4671 2.1320
2.9172 -2.3603 2.1320
2.9977 -2.2508 2.1320
3.0742 -2.1387 2.1320
3.1467 -2.0240 2.1320
3.2151 -1.9069 2.1320
2.6595 -1.4497 1.7290
2.6384 -1.3165 1.6845
2.6367 -1.1983 1.6557
2.6397 -1.0859 1.6329
2.6406 -0.9759 1.6115
2.6326 -0.8657 1.5872
2.6175 -0.7567 1.5614
2.5899 -0.6479 1.5305
2.5662 -0.5438 1.5044
2.5539 -0.4451 1.4873
2.5419 -0.3484 1.4723
2.5304 -0.2537 1.4596
2.5253 -0.1609 1.4526
2.5187 -0.0688 1.4465
2.5109 0.0226 1.4416
2.5019 0.1135 1.4378
2.4918 0.2039 1.4352
2.4802 0.2939 1.4335
2.4671 0.3836 1.4327
2.4524 0.4730 1.4328
2.4358 0.5622 1.4336
2.4174 0.6513 1.4352
2.3978 0.7403 1.4379
2.3771 0.8295 1.4418
2.3551 0.9190 1.4470
2.3315 1.0086 1.4531
2.3060 1.0985 1.4600
2.2862 1.1927 1.4729
2.2655 1.2885 1.4875
2.2444 1.3864 1.5044
2.2319 1.4931 1.5299
2.2235 1.6071 1.5616
2.2031 1.7171 1.5883
2.1758 1.8263 1.6136
2.1412 1.9336 1.6370
2.1051 2.0440 1.6630
2.0786 2.1698 1.7009
2.5083 2.8155 2.1320
0.8838 1.0674 0.7825
0.8449 1.0990 0.7818
0.8049 1.1292 0.7810
0.7639 1.1579 0.7801
0.7218 1.1851 0.7793
0.6788 1.2108 0.7784
0.6349 1.2350 0.7776
0.5902 1.2575 0.7767
0.5446 1.2785 0.7758
0.4984 1.2977 0.7748
0.4515 1.3154 0.7739
0.4040 1.3313 0.7729
0.3559 1.3455 0.7720
0.3074 1.3579 0.7710
0.2584 1.3686 0.7700
0.2091 1.3776 0.7690
0.1596 1.3848 0.7680
0.1097 1.3901 0.7670
0.0598 1.3937 0.7660
0.0097 1.3955 0.7650
-0.0404 1.3955 0.7640
-0.0905 1.3937 0.7630
-0.1405 1.3901 0.7620
-0.1903 1.3848 0.7610
-0.2398 1.3776 0.7600
-0.2892 1.3686 0.7590
-0.3381 1.3579 0.7580
-0.3866 1.3455 0.7571
-0.4347 1.3313 0.7561
-0.4822 1.3154 0.7551
-0.5291 1.2977 0.7542
-0.5754 1.2785 0.7533
-0.6209 1.2575 0.7523
-0.6656 1.2350 0.7514
-0.7095 1.2108 0.7505
-0.7525 1.1851 0.7497
-0.7946 1.1579 0.7488
-0.8357 1.1292 0.7480
-0.8757 1.0990 0.7472
-0.9145 1.0674 0.7464
-0.9523 1.0344 0.7457
-0.9888 1.0001 0.7449
-3.0756 2.8968 2.2351
-3.1806 2.7888 2.2351
-3.2815 2.6768 2.2351
-3.3784 2.5611 2.2351
-3.4710 2.4418 2.2351
-3.5592 2.3191 2.2351
-3.6429 2.1930 2.2351
-3.7218 2.0639 2.2351
-3.7960 1.9319 2.2351
-3.8653 1.7971 2.2351
-3.9297 1.6598 2.2351
-3.9891 1.5202 2.2353
-4.0433 1.3785 2.2354
-4.0922 1.2347 2.2356
-4.1358 1.0891 2.2357
-4.1737 0.9419 2.2358
-4.2060 0.7934 2.2357
-4.2328 0.6437 2.2357
-4.2540 0.4930 2.2357
-4.2696 0.3417 2.2357
-4.2795 0.1899 2.2357
-4.2841 0.0378 2.2358
-4.2830 -0.1144 2.2360
-4.2763 -0.2664 2.2362
-4.2639 -0.4181 2.2363
-4.2456 -0.5692 2.2364
-4.2217 -0.7194 2.2364
-4.1923 -0.8687 2.2365
-4.1572 -1.0166 2.2365
-4.1167 -1.1632 2.2365
-4.0708 -1.3081 2.2365
-4.0196 -1.4511 2.2366
-3.9631 -1.5921 2.2366
-3.9015 -1.7308 2.2367
-3.8349 -1.8671 2.2368
-3.7632 -2.0007 2.2368
-3.6867 -2.1315 2.2369
-3.6054 -2.2593 2.2369
-3.5196 -2.3840 2.2370
-3.4292 -2.5053 2.2371
-3.3345 -2.6230 2.2372
-3.2356 -2.7371 2.2372
-3.1326 -2.8474 2.2373
-3.0257 -2.9538 2.2374
-0.9707 -1.0176 0.7450
-0.9336 -1.0513 0.7458
-2.6833 -3.2477 2.2377
-2.5625 -3.3370 2.2378
-2.4386 -3.4216 2.2379
-2.3118 -3.5016 2.2380
-2.1823 -3.5767 2.2381
-2.0503 -3.6471 2.2382
-1.9157 -3.7121 2.2381
-0.9528 -2.0202 1.1986
-0.8800 -2.0530 1.2005
-0.8061 -2.0831 1.2023
-0.7310 -2.1104 1.2042
-0.6550 -2.1350 1.2061
-0.5781 -2.1568 1.2079
