ply
format ascii 1.0
element vertex 2166
property float32 x
property float32 y
property float32 z
end_header
-11.1835 6.2654 2.1529
-11.4160 5.8672 2.1529
-11.6347 5.4607 2.1529
-11.8390 5.0461 2.1529
-12.0289 4.6239 2.1529
-12.2040 4.1948 2.1529
-12.3640 3.7591 2.1529
-12.5086 3.3174 2.1529
-12.6376 2.8703 2.1529
-12.7509 2.4182 2.1529
-12.8481 1.9617 2.1529
-12.9291 1.5014 2.1529
-12.9936 1.0378 2.1529
-13.0417 0.5715 2.1529
-13.0730 0.1032 2.1529
-13.0876 -0.3667 2.1529
-13.0853 -0.8374 2.1529
-13.0660 -1.3085 2.1529
-13.0298 -1.7792 2.1529
-12.9765 -2.2490 2.1529
-12.9062 -2.7172 2.1529
-12.8189 -3.1832 2.1529
-12.7146 -3.6463 2.1529
-12.5934 -4.1060 2.1529
-12.4554 -4.5617 2.1529
-12.3008 -5.0126 2.1529
-12.1296 -5.4582 2.1529
-11.8565 -5.8555 2.1375
-11.7382 -6.3308 2.1529
-11.5185 -6.7566 2.1529
-11.2830 -7.1746 2.1529
-11.0321 -7.5842 2.1529
-10.7660 -7.9847 2.1529
-10.4850 -8.3756 2.1529
-10.0802 -8.6625 2.1298
-9.7739 -9.0286 2.1298
-9.4539 -9.3834 2.1298
-9.1207 -9.7266 2.1298
-8.7748 -10.0575 2.1298
-8.4165 -10.3757 2.1298
-8.0463 -10.6806 2.1298
-7.6647 -10.9719 2.1298
-7.2723 -11.2490 2.1298
-6.8696 -11.5116 2.1298
-6.4571 -11.7592 2.1298
-6.2210 -12.3602 2.1953
-5.8764 -12.7989 2.2329
-5.4168 -13.0091 2.2329
-4.9495 -13.2020 2.2329
-4.4750 -13.3775 2.2329
-3.9942 -13.5353 2.2329
-3.5076 -13.6750 2.2329
-3.0159 -13.7965 2.2329
-2.5200 -13.8996 2.2329
-2.0204 -13.9841 2.2329
-1.5179 -14.0499 2.2329
-1.0132 -14.0968 2.2329
-0.5071 -14.1249 2.2329
-0.0003 -12.3263 2.2329
0.4417 -12.3178 2.2329
0.8829 -12.2929 2.2329
1.3229 -12.2516 2.2329
1.7610 -12.1939 2.2329
2.0949 -11.5596 2.1297
2.5073 -11.4738 2.1297
2.9161 -11.3727 2.1297
3.3207 -11.2565 2.1297
3.7206 -11.1255 2.1297
4.1152 -10.9798 2.1297
4.5039 -10.8196 2.1297
4.8862 -10.6452 2.1297
5.1185 -10.1725 2.0718
5.3352 -9.7186 2.0183
5.4614 -9.1543 1.9419
5.5477 -8.5835 1.8632
5.6341 -8.0671 1.7952
5.7940 -7.6930 1.7585
5.9101 -7.2877 1.7147
5.8456 -6.7019 1.6266
5.8012 -6.1882 1.5529
5.7508 -5.7094 1.4850
5.7393 -5.3032 1.4334
4.8551 -4.1735 1.1755
4.9003 -3.9156 1.1529
4.9128 -3.6447 1.1255
4.9709 -3.4184 1.1112
4.9910 -3.1747 1.0908
5.0624 -2.9706 1.0836
5.0958 -2.7493 1.0702
5.1895 -2.5640 1.0711
5.2843 -2.3789 1.0737
5.4008 -2.2018 1.0819
5.5636 -2.0386 1.1005
5.7850 -1.8872 1.1316
5.9995 -1.7216 1.1622
6.1923 -1.5387 1.1896
6.3006 -1.3275 1.2020
6.3012 -1.0931 1.1954
6.3012 -0.8614 1.1903
6.2664 -0.6285 1.1802
6.1713 -0.3959 1.1604
6.0750 -0.1712 1.1419
5.9813 0.0463 1.1253
5.8755 0.2566 1.1079
5.6795 0.4528 1.0747
5.4948 0.6373 1.0447
5.3198 0.8115 1.0177
5.1580 0.9774 0.9941
5.0756 1.1520 0.9868
5.0418 1.3364 0.9901
4.9914 1.5169 0.9915
4.9402 1.6973 0.9940
4.8879 1.8782 0.9976
4.8346 2.0599 1.0024
4.8171 2.2602 1.0161
4.8455 2.4896 1.0415
4.8746 2.7302 1.0694
4.9044 2.9832 1.0999
4.9594 3.2663 1.1391
4.8709 3.4651 1.1478
4.8230 3.6990 1.1683
4.8008 3.9639 1.1978
4.7558 4.2231 1.2249
4.7062 4.4916 1.2540
4.6679 4.7871 1.2900
4.6705 5.1474 1.3421
5.0050 5.9311 1.4998
2.1298 2.7162 0.6675
4.7537 6.5330 1.5638
4.5866 6.8045 1.5894
4.4098 7.0784 1.6164
4.2130 7.3374 1.6409
4.1134 7.8004 1.7113
4.0166 8.3293 1.7955
4.4039 10.0396 2.1297
4.0384 10.1866 2.1297
3.6681 10.3208 2.1297
3.2936 10.4420 2.1297
2.9152 10.5500 2.1297
2.5334 10.6449 2.1297
2.1486 10.7264 2.1297
1.7978 11.0174 2.1736
1.4386 11.3751 2.2329
1.0287 11.4181 2.2329
0.6176 11.4469 2.2329
0.2058 11.4615 2.2329
-0.2063 11.4617 2.2329
-0.6181 11.4477 2.2329
-1.0293 11.4193 2.2329
-1.4393 11.3767 2.2329
-1.8476 11.3199 2.2329
-2.2538 11.2490 2.2329
-2.6574 11.1640 2.2329
-3.0580 11.0650 2.2329
-3.4550 10.9521 2.2329
-3.8480 10.8254 2.2329
-4.2365 10.6851 2.2329
-4.6201 10.5313 2.2329
-4.9983 10.3641 2.2329
-5.3707 10.1838 2.2329
-5.7368 9.9905 2.2329
-6.0962 9.7845 2.2329
-6.2511 9.2732 2.1646
-6.4794 8.9039 2.1298
-6.8004 8.6722 2.1298
-7.1135 8.4291 2.1298
-7.4181 8.1751 2.1298
-7.7138 7.9103 2.1298
-8.0004 7.6351 2.1298
-8.2774 7.3497 2.1298
-8.5445 7.0546 2.1298
-8.8013 6.7499 2.1298
-9.0475 6.4361 2.1298
-9.2827 6.1134 2.1298
-9.5067 5.7824 2.1298
-9.7191 5.4433 2.1298
-9.9197 5.0965 2.1298
-10.1081 4.7425 2.1298
-10.3955 4.4290 2.1529
-10.5605 4.0577 2.1529
-10.7125 3.6804 2.1529
-10.8511 3.2974 2.1529
-10.9762 2.9093 2.1529
-11.0875 2.5165 2.1529
-11.1849 2.1194 2.1529
-11.2683 1.7187 2.1529
-11.3373 1.3148 2.1529
-11.3919 0.9081 2.1529
-11.4320 0.4992 2.1529
-11.4575 0.0887 2.1529
-11.4682 -0.3231 2.1529
-11.4642 -0.7354 2.1529
-11.4452 -1.1479 2.1529
-11.4115 -1.5600 2.1529
-11.3628 -1.9711 2.1529
-11.2992 -2.3806 2.1529
-11.2208 -2.7881 2.1529
-11.1276 -3.1930 2.1529
-11.0196 -3.5947 2.1529
-10.8971 -3.9927 2.1529
-10.7599 -4.3865 2.1529
-10.6084 -4.7754 2.1529
-10.4426 -5.1590 2.1529
-10.1527 -5.4774 2.1298
-9.9611 -5.8448 2.1298
-9.7559 -6.2053 2.1298
-9.5375 -6.5584 2.1298
-9.3060 -6.9037 2.1298
-9.0618 -7.2406 2.1298
-8.8052 -7.5686 2.1298
-8.5364 -7.8872 2.1298
-8.2559 -8.1961 2.1298
-7.9639 -8.4946 2.1298
-7.6609 -8.7825 2.1298
-7.3472 -9.0592 2.1298
-7.0232 -9.3244 2.1298
-6.6895 -9.5776 2.1298
-6.3464 -9.8185 2.1298
-6.2233 -10.4305 2.2112
-5.9066 -10.7584 2.2329
-5.5203 -10.9700 2.2329
-5.1263 -11.1671 2.2329
-4.7251 -11.3496 2.2329
-4.3171 -11.5172 2.2329
-3.9031 -11.6695 2.2329
-3.4835 -11.8065 2.2329
-3.0590 -11.9278 2.2329
-2.6301 -12.0333 2.2329
-2.1975 -12.1228 2.2329
-1.7618 -12.1961 2.2329
-1.3236 -12.2532 2.2329
-0.8835 -12.2940 2.2329
-0.4422 -12.3184 2.2329
-0.0003 -10.9184 2.2329
0.3911 -10.9110 2.2329
0.7819 -10.8890 2.2329
1.1716 -10.8526 2.2329
1.5596 -10.8017 2.2329
1.8555 -10.2401 2.1297
2.2208 -10.1644 2.1297
2.5830 -10.0753 2.1297
2.9415 -9.9728 2.1297
3.2959 -9.8572 2.1297
3.6456 -9.7286 2.1297
3.9902 -9.5872 2.1297
4.3292 -9.4333 2.1297
4.6621 -9.2670 2.1297
4.9885 -9.0887 2.1297
5.3079 -8.8985 2.1297
5.4868 -8.4909 2.0792
5.5966 -8.0150 2.0120
5.7528 -7.6398 1.9697
5.8440 -7.2077 1.9126
5.7950 -6.6453 1.8188
5.7605 -6.1461 1.7391
5.7122 -5.6724 1.6634
5.6757 -5.2456 1.5983
4.8193 -4.1437 1.3156
4.8649 -3.8883 1.2903
4.8963 -3.6335 1.2645
4.9545 -3.4081 1.2483
4.9980 -3.1801 1.2310
5.0694 -2.9756 1.2227
5.1340 -2.7709 1.2148
5.2285 -2.5841 1.2157
5.3385 -2.4042 1.2217
5.4725 -2.2320 1.2346
5.6497 -2.0711 1.2584
5.8524 -1.9101 1.2889
6.0426 -1.7349 1.3177
6.2389 -1.5513 1.3490
6.2943 -1.3272 1.3514
6.2954 -1.0931 1.3439
6.2969 -0.8618 1.3383
6.2635 -0.6292 1.3271
6.1536 -0.3957 1.3015
6.0490 -0.1714 1.2787
5.9485 0.0451 1.2585
5.8333 0.2538 1.2367
5.6368 0.4485 1.1991
5.4547 0.6318 1.1657
5.2821 0.8049 1.1356
5.1179 0.9690 1.1083
5.0132 1.1371 1.0950
4.9644 1.3151 1.0952
4.9148 1.4928 1.0966
4.8809 1.6762 1.1030
4.8490 1.8625 1.1114
4.8176 2.0519 1.1216
4.8091 2.2556 1.1389
4.8559 2.4941 1.1717
4.9060 2.7469 1.2080
4.9599 3.0161 1.2484
4.9439 3.2552 1.2743
4.8367 3.4399 1.2789
4.7648 3.6535 1.2949
4.7413 3.9138 1.3271
4.7367 4.2051 1.3684
4.6944 4.4793 1.4030
4.6508 4.7685 1.4414
4.6534 5.1276 1.4996
4.9736 5.8927 1.6712
2.1299 2.7157 0.7485
4.8114 6.6110 1.7745
4.6431 6.8871 1.8037
4.4445 7.1328 1.8261
4.2542 7.4079 1.8573
4.1553 7.8786 1.9376
4.0517 8.4007 2.0299
3.9296 8.9568 2.1297
3.6036 9.0885 2.1297
3.2734 9.2086 2.1297
2.9392 9.3171 2.1297
2.6017 9.4139 2.1297
2.2610 9.4988 2.1297
1.9177 9.5718 2.1297
1.6483 10.0998 2.2329
1.2840 10.1511 2.2329
0.9181 10.1896 2.2329
0.5512 10.2154 2.2329
0.1837 10.2284 2.2329
-0.1842 10.2286 2.2329
-0.5518 10.2160 2.2329
-0.9187 10.1906 2.2329
-1.2846 10.1524 2.2329
-1.6490 10.1015 2.2329
-2.0115 10.0380 2.2329
-2.3717 9.9618 2.2329
-2.7290 9.8731 2.2329
-3.0832 9.7719 2.2329
-3.4338 9.6585 2.2329
-3.7803 9.5328 2.2329
-4.1223 9.3950 2.2329
-4.4596 9.2454 2.2329
-4.7915 9.0840 2.2329
-5.1178 8.9109 2.2329
-5.4380 8.7265 2.2329
-5.7518 8.5308 2.2329
-6.0587 8.3242 2.2329
-6.2460 7.9635 2.1934
-6.3435 7.5151 2.1298
-6.6145 7.2879 2.1298
-6.8776 7.0512 2.1298
-7.1324 6.8052 2.1298
-7.3786 6.5501 2.1298
-7.6159 6.2863 2.1298
-7.8440 6.0141 2.1298
-8.0625 5.7338 2.1298
-8.2712 5.4457 2.1298
-8.4698 5.1502 2.1298
-8.6580 4.8475 2.1298
-8.8356 4.5380 2.1298
-9.0023 4.2221 2.1298
-6.5084 2.7718 1.5136
-9.3021 3.5727 2.1298
-9.4347 3.2399 2.1298
-9.5555 2.9022 2.1298
-9.6644 2.5601 2.1298
-9.7611 2.2139 2.1298
-9.8456 1.8641 2.1298
-9.9176 1.5112 2.1298
-9.9770 1.1555 2.1298
-10.0236 0.7975 2.1298
-10.0575 0.4377 2.1298
-10.0785 0.0764 2.1298
-10.0866 -0.2857 2.1298
-10.0816 -0.6483 2.1298
-10.0635 -1.0109 2.1298
-10.0324 -1.3730 2.1298
-9.9883 -1.7342 2.1298
-9.9310 -2.0939 2.1298
-9.8608 -2.4517 2.1298
-9.7775 -2.8071 2.1298
-9.6813 -3.1597 2.1298
-9.5723 -3.5089 2.1298
-9.4506 -3.8543 2.1298
-9.3163 -4.1953 2.1298
-9.1696 -4.5317 2.1298
-9.0105 -4.8628 2.1298
-8.8393 -5.1881 2.1298
-8.6562 -5.5074 2.1298
-8.4614 -5.8200 2.1298
-8.2551 -6.1256 2.1298
-8.0376 -6.4237 2.1298
-7.8091 -6.7139 2.1298
-7.5699 -6.9958 2.1298
-7.3204 -7.2689 2.1298
-7.0608 -7.5329 2.1298
-6.7914 -7.7873 2.1298
-6.5127 -8.0319 2.1298
-6.2366 -8.2816 2.1338
-6.2157 -8.9009 2.2329
-5.8964 -9.1239 2.2329
-5.5689 -9.3352 2.2329
-5.2336 -9.5344 2.2329
-4.8911 -9.7212 2.2329
-4.5417 -9.8952 2.2329
-4.1860 -10.0563 2.2329
-3.8244 -10.2043 2.2329
-3.4574 -10.3387 2.2329
-3.0856 -10.4596 2.2329
-2.7095 -10.5667 2.2329
-2.3296 -10.6598 2.2329
-1.9463 -10.7387 2.2329
-1.5604 -10.8035 2.2329
-1.1723 -10.8539 2.2329
-0.7825 -10.8899 2.2329
-0.3917 -10.9114 2.2329
-0.0003 -9.7899 2.2329
0.3506 -9.7832 2.2329
0.7010 -9.7636 2.2329
1.0504 -9.7311 2.2329
1.3983 -9.6857 2.2329
1.7442 -9.6275 2.2329
1.9911 -9.1147 2.1297
2.3159 -9.0350 2.1297
2.6374 -8.9434 2.1297
2.9553 -8.8401 2.1297
3.2690 -8.7252 2.1297
3.5782 -8.5988 2.1297
3.8824 -8.4612 2.1297
4.1811 -8.3125 2.1297
4.4741 -8.1530 2.1297
4.7609 -7.9829 2.1297
5.0410 -7.8025 2.1297
5.3142 -7.6121 2.1297
5.5800 -7.4118 2.1297
5.7787 -7.1287 2.1080
5.7548 -6.6006 2.0130
5.7200 -6.1042 1.9244
5.6158 -5.5779 1.8222
4.8715 -4.5033 1.5285
4.7853 -4.1155 1.4554
4.8316 -3.8627 1.4276
4.8844 -3.6256 1.4051
4.9465 -3.4035 1.3881
5.0152 -3.1919 1.3756
5.1059 -2.9980 1.3714
5.2000 -2.8074 1.3700
5.3288 -2.6346 1.3795
5.4820 -2.4698 1.3967
5.6048 -2.2869 1.4075
5.7684 -2.1156 1.4300
5.9160 -1.9319 1.4500
6.0874 -1.7488 1.4772
6.2886 -1.5646 1.5129
6.3383 -1.3375 1.5140
6.3391 -1.1017 1.5053
6.3404 -0.8688 1.4988
6.3165 -0.6355 1.4884
6.1870 -0.3989 1.4551
6.0812 -0.1732 1.4294
5.9796 0.0444 1.4065
5.8792 0.2549 1.3856
5.7172 0.4540 1.3518
5.5221 0.6387 1.3116
5.3395 0.8128 1.2757
5.1676 0.9776 1.2435
5.0663 1.1483 1.2295
5.0347 1.3329 1.2339
5.0012 1.5182 1.2395
4.9685 1.7055 1.2471
4.9366 1.8953 1.2566
4.9054 2.0884 1.2682
4.8802 2.2881 1.2833
4.9093 2.5207 1.3151
4.9616 2.7772 1.3563
5.0180 3.0505 1.4020
4.9080 3.2307 1.4041
4.7863 3.4031 1.4045
4.7091 3.6099 1.4202
4.6819 3.8638 1.4541
4.7296 4.1978 1.5160
4.6855 4.4699 1.5536
4.6337 4.7499 1.5932
4.6371 5.1085 1.6576
4.9381 5.8495 1.8404
2.1299 2.7153 0.8302
4.8710 6.6917 1.9924
4.6829 6.9448 2.0175
4.4800 7.1885 2.0413
4.2966 7.4804 2.0800
4.1190 7.8084 2.1297
3.8339 7.9478 2.1297
3.5442 8.0771 2.1297
3.2503 8.1962 2.1297
2.9526 8.3048 2.1297
2.6513 8.4030 2.1297
2.3468 8.4905 2.1297
2.0396 8.5673 2.1297
1.7987 8.9769 2.2144
1.4869 9.1098 2.2329
1.1583 9.1561 2.2329
0.8283 9.1910 2.2329
0.4973 9.2143 2.2329
0.1657 9.2261 2.2329
-0.1662 9.2262 2.2329
-0.4978 9.2148 2.2329
-0.8288 9.1918 2.2329
-1.1589 9.1572 2.2329
-1.4876 9.1112 2.2329
-1.8146 9.0536 2.2329
-2.1394 8.9847 2.2329
-2.4617 8.9044 2.2329
-2.7811 8.8129 2.2329
-3.0972 8.7102 2.2329
-3.4096 8.5965 2.2329
-3.7180 8.4720 2.2329
-4.0219 8.3366 2.2329
-4.3211 8.1906 2.2329
-4.6151 8.0341 2.2329
-4.9036 7.8673 2.2329
-5.1862 7.6905 2.2329
-5.4626 7.5037 2.2329
-5.7324 7.3072 2.2329
-5.9953 7.1012 2.2329
-6.2446 6.8790 2.2306
-6.2514 6.4079 2.1478
-6.4361 6.1394 2.1324
-6.6497 5.9016 2.1298
-6.8629 5.6634 2.1298
-7.0679 5.4177 2.1298
-7.2641 5.1646 2.1298
-7.4515 4.9046 2.1298
-7.6297 4.6379 2.1298
-7.7985 4.3648 2.1298
-7.9577 4.0857 2.1298
-8.1070 3.8008 2.1298
-6.5013 2.7677 1.6792
-8.3752 3.2153 2.1298
-8.4938 2.9153 2.1298
-8.6016 2.6111 2.1298
-8.6987 2.3028 2.1298
-8.7848 1.9910 2.1298
-8.8599 1.6761 2.1298
-8.9236 1.3583 2.1298
-8.9761 1.0381 2.1298
-9.0171 0.7160 2.1298
-9.0466 0.3923 2.1298
-9.0644 0.0673 2.1298
-9.0706 -0.2583 2.1298
-9.0651 -0.5844 2.1298
-9.0479 -0.9103 2.1298
-9.0189 -1.2357 2.1298
-8.9782 -1.5602 2.1298
-8.9257 -1.8833 2.1298
-8.8616 -2.2047 2.1298
-8.7858 -2.5238 2.1298
-8.6985 -2.8403 2.1298
-8.5996 -3.1537 2.1298
-8.4894 -3.4636 2.1298
-8.3678 -3.7696 2.1298
-8.2352 -4.0713 2.1298
-8.0915 -4.3682 2.1298
-7.9370 -4.6599 2.1298
-7.7718 -4.9461 2.1298
-7.5961 -5.2263 2.1298
-7.4102 -5.5001 2.1298
-7.2143 -5.7672 2.1298
-7.0086 -6.0271 2.1298
-6.7934 -6.2795 2.1298
-6.5689 -6.5241 2.1298
-6.3354 -6.7604 2.1298
-6.2281 -7.1428 2.1769
-6.1256 -7.5560 2.2329
-5.8546 -7.7758 2.2329
-5.5755 -7.9857 2.2329
-5.2888 -8.1852 2.2329
-4.9947 -8.3742 2.2329
-4.6938 -8.5524 2.2329
-4.3863 -8.7194 2.2329
-4.0728 -8.8751 2.2329
-3.7536 -9.0191 2.2329
-3.4292 -9.1514 2.2329
-3.1001 -9.2716 2.2329
-2.7666 -9.3797 2.2329
-2.4293 -9.4754 2.2329
-2.0886 -9.5586 2.2329
-1.7450 -9.6292 2.2329
-1.3990 -9.6871 2.2329
-1.0510 -9.7321 2.2329
-0.7015 -9.7643 2.2329
-0.3512 -9.7836 2.2329
-0.0003 -8.8642 2.2329
0.3174 -8.8582 2.2329
0.6346 -8.8405 2.2329
0.9509 -8.8112 2.2329
1.2659 -8.7702 2.2329
1.5791 -8.7177 2.2329
1.8258 -8.3596 2.1570
2.0968 -8.1816 2.1297
2.3880 -8.0989 2.1297
2.6758 -8.0056 2.1297
2.9600 -7.9018 2.1297
3.2401 -7.7876 2.1297
3.5156 -7.6633 2.1297
3.7864 -7.5290 2.1297
4.0519 -7.3849 2.1297
4.3118 -7.2313 2.1297
4.5657 -7.0683 2.1297
4.8134 -6.8961 2.1297
5.0545 -6.7151 2.1297
5.2887 -6.5255 2.1297
5.5157 -6.3276 2.1297
5.6796 -6.0624 2.1091
5.4967 -5.4609 1.9685
4.8216 -4.4583 1.6696
4.7685 -4.1020 1.6004
4.8194 -3.8539 1.5713
4.8806 -3.6237 1.5491
4.9634 -3.4161 1.5367
5.0310 -3.2030 1.5223
5.1644 -3.0333 1.5301
5.2662 -2.8441 1.5303
5.4421 -2.6916 1.5538
5.6290 -2.5370 1.5815
5.7522 -2.3480 1.5929
5.9028 -2.1658 1.6135
6.0148 -1.9651 1.6253
6.1876 -1.7786 1.6552
6.3759 -1.5874 1.6909
6.3810 -1.3475 1.6799
6.3839 -1.1105 1.6707
6.3849 -0.8759 1.6633
6.3710 -0.6420 1.6542
6.2281 -0.4025 1.6139
6.1142 -0.1751 1.5833
6.0114 0.0437 1.5576
5.9104 0.2553 1.5343
5.7988 0.4596 1.5101
5.6070 0.6476 1.4667
5.4191 0.8240 1.4257
5.2426 0.9910 1.3891
5.1422 1.1647 1.3740
5.1269 1.3565 1.3833
5.0931 1.5453 1.3896
5.0604 1.7361 1.3980
5.0285 1.9297 1.4088
4.9975 2.1268 1.4218
4.9743 2.3314 1.4394
4.9645 2.5482 1.4634
5.0191 2.8084 1.5095
5.0780 3.0861 1.5609
4.8870 3.2159 1.5380
4.7473 3.3745 1.5324
4.6578 3.5696 1.5451
4.6316 3.8214 1.5822
4.7224 4.1905 1.6648
4.6738 4.4577 1.7042
4.6190 4.7339 1.7464
4.6206 5.0894 1.8162
4.7371 5.6102 1.9412
2.1300 2.7148 0.9128
4.7359 6.5048 2.1297
4.4966 6.6673 2.1297
4.2518 6.8212 2.1297
4.0020 6.9663 2.1297
3.7473 7.1025 2.1297
3.4880 7.2296 2.1297
3.2246 7.3475 2.1297
2.9573 7.4561 2.1297
2.6865 7.5552 2.1297
2.4124 7.6447 2.1297
2.1354 7.7245 2.1297
1.8559 7.7946 2.1297
1.6504 8.2356 2.2329
1.3530 8.2884 2.2329
1.0540 8.3307 2.2329
0.7537 8.3625 2.2329
0.4525 8.3837 2.2329
0.1507 8.3944 2.2329
-0.1512 8.3945 2.2329
-0.4530 8.3841 2.2329
-0.7543 8.3631 2.2329
-1.0546 8.3316 2.2329
-1.3537 8.2895 2.2329
-1.6512 8.2370 2.2329
-1.9468 8.1741 2.2329
-2.2400 8.1009 2.2329
-2.5305 8.0174 2.2329
-2.8180 7.9238 2.2329
-3.1022 7.8201 2.2329
-3.3826 7.7064 2.2329
-3.6590 7.5830 2.2329
-3.9310 7.4498 2.2329
-4.1983 7.3072 2.2329
-4.4605 7.1551 2.2329
-4.7174 6.9939 2.2329
-4.9685 6.8237 2.2329
-5.2136 6.6446 2.2329
-5.4525 6.4569 2.2329
-5.6847 6.2608 2.2329
-5.9100 6.0565 2.2329
-6.1281 5.8442 2.2329
-6.2430 5.5393 2.1992
-6.2530 5.1588 2.1344
-6.4345 4.9309 2.1329
-6.6033 4.6935 2.1298
-6.7731 4.4568 2.1298
-6.9345 4.2140 2.1298
-7.0874 3.9655 2.1298
-7.2315 3.7115 2.1298
-7.3666 3.4524 2.1298
-6.4943 2.7636 1.8461
-7.6090 2.9198 2.1298
-7.7160 2.6471 2.1298
-7.8134 2.3705 2.1298
-7.9008 2.0903 2.1298
-7.9784 1.8070 2.1298
-8.0458 1.5208 2.1298
-8.1029 1.2321 2.1298
-8.1498 0.9413 2.1298
-8.1863 0.6487 2.1298
-8.2123 0.3548 2.1298
-8.2277 0.0598 2.1298
-8.2326 -0.2358 2.1298
-8.2269 -0.5316 2.1298
-8.2104 -0.8273 2.1298
-8.1834 -1.1225 2.1298
-8.1457 -1.4168 2.1298
-8.0974 -1.7099 2.1298
-8.0384 -2.0012 2.1298
-7.9690 -2.2905 2.1298
-7.8890 -2.5773 2.1298
-7.7987 -2.8613 2.1298
-7.6980 -3.1421 2.1298
-7.5872 -3.4193 2.1298
-7.4662 -3.6925 2.1298
-7.3354 -3.9613 2.1298
-7.1947 -4.2254 2.1298
-7.0444 -4.4845 2.1298
-6.8846 -4.7381 2.1298
-6.7156 -4.9858 2.1298
-6.5376 -5.2275 2.1298
-6.3507 -5.4626 2.1298
-6.2343 -5.7641 2.1572
-6.2286 -6.1874 2.2290
-6.0173 -6.4224 2.2329
-5.7870 -6.6383 2.2329
-5.5488 -6.8458 2.2329
-5.3030 -7.0445 2.2329
-5.0499 -7.2342 2.2329
-4.7900 -7.4146 2.2329
-4.5234 -7.5854 2.2329
-4.2507 -7.7463 2.2329
-3.9721 -7.8972 2.2329
-3.6880 -8.0379 2.2329
-3.3989 -8.1680 2.2329
-3.1050 -8.2875 2.2329
-2.8069 -8.3961 2.2329
-2.5049 -8.4937 2.2329
-2.1994 -8.5801 2.2329
-1.8909 -8.6553 2.2329
-1.5798 -8.7191 2.2329
-1.2665 -8.7713 2.2329
-0.9515 -8.8120 2.2329
-0.6351 -8.8411 2.2329
-0.3179 -8.8585 2.2329
-0.0003 -8.0905 2.2329
0.2896 -8.0851 2.2329
0.5791 -8.0690 2.2329
0.8677 -8.0422 2.2329
1.1552 -8.0049 2.2329
1.4410 -7.9571 2.2329
1.7249 -7.8988 2.2329
1.9136 -7.4681 2.1297
2.1794 -7.3928 2.1297
2.4422 -7.3078 2.1297
2.7016 -7.2133 2.1297
2.9573 -7.1093 2.1297
3.2090 -6.9961 2.1297
3.4562 -6.8738 2.1297
3.6987 -6.7425 2.1297
3.9361 -6.6025 2.1297
4.1681 -6.4540 2.1297
4.3945 -6.2971 2.1297
4.6148 -6.1322 2.1297
4.8289 -5.9594 2.1297
5.0363 -5.7790 2.1297
5.2370 -5.5912 2.1297
5.3813 -5.3474 2.1104
4.7674 -4.4093 1.8076
4.7471 -4.0846 1.7445
4.8071 -3.8451 1.7159
4.8688 -3.6160 1.6918
4.9702 -3.4218 1.6846
5.0471 -3.2142 1.6717
5.1810 -3.0440 1.6802
5.3432 -2.8866 1.6994
5.5659 -2.7538 1.7391
5.7971 -2.6137 1.7824
5.8773 -2.4001 1.7809
5.9775 -2.1943 1.7878
6.0961 -1.9927 1.8022
6.3128 -1.8156 1.8475
6.4183 -1.5990 1.8620
6.4231 -1.3575 1.8497
6.4284 -1.1193 1.8401
6.4307 -0.8832 1.8321
6.4271 -0.6487 1.8249
6.2815 -0.4069 1.7799
6.1478 -0.1771 1.7407
6.0440 0.0430 1.7121
5.9422 0.2558 1.6864
5.8296 0.4611 1.6595
5.6955 0.6569 1.6285
5.5022 0.8358 1.5822
5.3208 1.0049 1.5408
5.2214 1.1818 1.5246
5.2115 1.3780 1.5365
5.1897 1.5737 1.5471
5.1568 1.7684 1.5566
5.1250 1.9659 1.5686
5.0956 2.1676 1.5837
5.0732 2.3768 1.6036
5.0517 2.5921 1.6265
5.0786 2.8408 1.6682
5.1047 3.1013 1.7136
4.8659 3.2011 1.6723
4.7245 3.3574 1.6653
4.6070 3.5297 1.6687
4.6174 3.8087 1.7222
4.7017 4.1711 1.8096
4.6179 4.4033 1.8383
4.5293 4.6409 1.8694
4.5708 5.0333 1.9612
4.6678 5.5271 2.0880
2.1301 2.7144 0.9964
4.3390 5.9585 2.1297
4.1199 6.1077 2.1297
3.8958 6.2489 2.1297
3.6670 6.3821 2.1297
3.4337 6.5071 2.1297
3.1963 6.6239 2.1297
2.9550 6.7321 2.1297
2.7101 6.8318 2.1297
2.4620 6.9228 2.1297
2.2109 7.0049 2.1297
1.9571 7.0782 2.1297
1.7834 7.4889 2.2329
1.5126 7.5469 2.2329
1.2401 7.5953 2.2329
0.9660 7.6341 2.2329
0.6908 7.6633 2.2329
0.4147 7.6828 2.2329
0.1381 7.6926 2.2329
-0.1386 7.6927 2.2329
-0.4152 7.6831 2.2329
-0.6913 7.6638 2.2329
-0.9666 7.6349 2.2329
-1.2407 7.5962 2.2329
-1.5134 7.5480 2.2329
-1.7842 7.4902 2.2329
-2.0529 7.4230 2.2329
-2.3191 7.3463 2.2329
-2.5825 7.2603 2.2329
-2.8429 7.1651 2.2329
-3.0998 7.0607 2.2329
-3.3529 6.9474 2.2329
-3.6020 6.8251 2.2329
-3.8468 6.6942 2.2329
-4.0869 6.5546 2.2329
-4.3221 6.4066 2.2329
-4.5520 6.2503 2.2329
-4.7763 6.0860 2.2329
-4.9949 5.9137 2.2329
-5.2073 5.7338 2.2329
-5.4134 5.5464 2.2329
-5.6129 5.3517 2.2329
-5.8055 5.1499 2.2329
-5.9909 4.9413 2.2329
-6.1690 4.7262 2.2329
-6.2416 4.4352 2.1985
-6.2490 4.1108 2.1460
-6.3493 3.8572 2.1298
-6.4888 3.6294 2.1298
-6.6203 3.3966 2.1298
-6.7435 3.1592 2.1298
-6.4871 2.7594 2.0146
-6.7729 2.5978 2.0713
-7.0619 2.4215 2.1298
-7.1504 2.1682 2.1298
-7.2299 1.9116 2.1298
-7.3003 1.6522 2.1298
-7.3614 1.3902 2.1298
-7.4132 1.1260 2.1298
-7.4555 0.8599 2.1298
-7.4883 0.5922 2.1298
-7.5115 0.3233 2.1298
-7.5250 0.0535 2.1298
-7.5289 -0.2168 2.1298
-7.5230 -0.4873 2.1298
-7.5074 -0.7577 2.1298
-7.4821 -1.0275 2.1298
-7.4471 -1.2965 2.1298
-7.4023 -1.5643 2.1298
-7.3479 -1.8305 2.1298
-7.2838 -2.0947 2.1298
-7.2102 -2.3567 2.1298
-7.1271 -2.6161 2.1298
-7.0346 -2.8725 2.1298
-6.9328 -3.1255 2.1298
-6.8218 -3.3749 2.1298
-6.7018 -3.6203 2.1298
-6.5728 -3.8614 2.1298
-6.4350 -4.0978 2.1298
-6.2887 -4.3291 2.1298
-6.2340 -4.6295 2.1646
-6.2300 -4.9828 2.2223
-6.0806 -5.2316 2.2329
-5.8931 -5.4499 2.2329
-5.6977 -5.6613 2.2329
-5.4945 -5.8656 2.2329
-5.2839 -6.0624 2.2329
-5.0661 -6.2516 2.2329
-4.8415 -6.4327 2.2329
-4.6102 -6.6055 2.2329
-4.3727 -6.7699 2.2329
-4.1292 -6.9255 2.2329
-3.8801 -7.0722 2.2329
-3.6256 -7.2097 2.2329
-3.3662 -7.3378 2.2329
-3.1022 -7.4564 2.2329
-2.8339 -7.5652 2.2329
-2.5618 -7.6641 2.2329
-2.2861 -7.7530 2.2329
-2.0073 -7.8317 2.2329
-1.7257 -7.9002 2.2329
-1.4418 -7.9583 2.2329
-1.1558 -8.0059 2.2329
-0.8683 -8.0430 2.2329
-0.5796 -8.0694 2.2329
-0.2901 -8.0853 2.2329
-0.0003 -7.4336 2.2329
0.2660 -7.4286 2.2329
0.5320 -7.4138 2.2329
0.7971 -7.3893 2.2329
1.0612 -7.3551 2.2329
1.3238 -7.3113 2.2329
1.5846 -7.2578 2.2329
1.8185 -7.0982 2.2029
2.0023 -6.7931 2.1297
2.2437 -6.7152 2.1297
2.4822 -6.6285 2.1297
2.7172 -6.5332 2.1297
2.9485 -6.4293 2.1297
3.1757 -6.3171 2.1297
3.3986 -6.1967 2.1297
3.6169 -6.0683 2.1297
3.8303 -5.9320 2.1297
4.0384 -5.7881 2.1297
4.2411 -5.6368 2.1297
4.4380 -5.4782 2.1297
4.6289 -5.3127 2.1297
4.8136 -5.1403 2.1297
4.6862 -4.6579 1.9993
4.7138 -4.3607 1.9443
4.7257 -4.0672 1.8891
4.7906 -3.8329 1.8601
4.8569 -3.6081 1.8356
4.9581 -3.4144 1.8277
5.0699 -3.2297 1.8263
5.2563 -3.0892 1.8537
5.4451 -2.9427 1.8832
5.7098 -2.8260 1.9399
5.8653 -2.6455 1.9608
5.9542 -2.4325 1.9616
6.0439 -2.2197 1.9652
6.2050 -2.0294 1.9942
6.4755 -1.8635 2.0600
6.4619 -1.6110 2.0376
6.4663 -1.3677 2.0239
6.4714 -1.1278 2.0132
6.4772 -0.8906 2.0054
6.4790 -0.6550 1.9991
6.3366 -0.4115 1.9510
6.1964 -0.1795 1.9062
6.0773 0.0422 1.8704
5.9749 0.2562 1.8421
5.8611 0.4626 1.8125
5.7514 0.6625 1.7862
5.5889 0.8481 1.7456
5.4024 1.0194 1.6991
5.3040 1.1996 1.6820
5.2946 1.3991 1.6952
5.2864 1.6022 1.7113
5.2583 1.8023 1.7234
5.2266 2.0040 1.7368
5.1991 2.2108 1.7543
5.1774 2.4248 1.7766
5.1570 2.6451 1.8024
5.1404 2.8744 1.8329
5.0795 3.0851 1.8509
4.8437 3.1856 1.8068
4.6914 3.3330 1.7947
4.5682 3.4991 1.7958
4.4982 3.7095 1.8207
4.5171 4.0064 1.8866
4.4827 4.2734 1.9364
4.4301 4.5383 1.9840
4.5194 4.9757 2.1040
4.3882 5.1949 2.1297
2.1301 2.7139 1.0810
3.9995 5.4913 2.1297
3.7977 5.6289 2.1297
3.5913 5.7593 2.1297
3.3805 5.8823 2.1297
3.1655 5.9977 2.1297
2.9467 6.1055 2.1297
2.7243 6.2055 2.1297
2.4986 6.2975 2.1297
2.2699 6.3815 2.1297
2.0384 6.4574 2.1297
1.8122 6.5532 2.1388
1.6443 6.9038 2.2329
1.3947 6.9573 2.2329
1.1434 7.0020 2.2329
0.8907 7.0379 2.2329
0.6369 7.0649 2.2329
0.3824 7.0829 2.2329
0.1273 7.0919 2.2329
-0.1278 7.0920 2.2329
-0.3829 7.0832 2.2329
-0.6374 7.0653 2.2329
-0.8913 7.0385 2.2329
-1.1440 7.0029 2.2329
-1.3954 6.9583 2.2329
-1.6451 6.9049 2.2329
-1.8928 6.8428 2.2329
-2.1382 6.7720 2.2329
-2.3810 6.6925 2.2329
-2.6210 6.6046 2.2329
-2.8577 6.5082 2.2329
-3.0911 6.4036 2.2329
-3.3206 6.2907 2.2329
-3.5461 6.1697 2.2329
-3.7673 6.0409 2.2329
-3.9840 5.9042 2.2329
-4.1957 5.7600 2.2329
-4.4023 5.6083 2.2329
-4.6036 5.4493 2.2329
-4.7992 5.2832 2.2329
-4.9889 5.1102 2.2329
-5.1725 4.9306 2.2329
-5.3497 4.7444 2.2329
-5.5203 4.5520 2.2329
-5.6841 4.3535 2.2329
-5.8408 4.1492 2.2329
-5.9903 3.9394 2.2329
-6.1324 3.7242 2.2329
-6.2405 3.4893 2.2235
-6.2402 3.2005 2.1794
-6.2484 2.9261 2.1425
-6.3167 2.6858 2.1298
-6.4308 2.4655 2.1354
-6.5034 2.2289 2.1298
-6.5845 1.9955 2.1298
-6.6573 1.7591 2.1298
-6.7217 1.5201 2.1298
-6.7775 1.2788 2.1298
-6.8247 1.0355 2.1298
-6.8632 0.7905 2.1298
-6.8930 0.5440 2.1298
-6.9139 0.2965 2.1298
-6.9259 0.0481 2.1298
-6.9290 -0.2007 2.1298
-6.9231 -0.4496 2.1298
-6.9083 -0.6983 2.1298
-6.8846 -0.9466 2.1298
-6.8519 -1.1940 2.1298
-6.8102 -1.4403 2.1298
-6.7597 -1.6851 2.1298
-6.7004 -1.9281 2.1298
-6.6322 -2.1689 2.1298
-6.5554 -2.4074 2.1298
-6.4699 -2.6430 2.1298
-6.3759 -2.8756 2.1298
-6.2734 -3.1047 2.1298
-6.2376 -3.3707 2.1557
-6.2317 -3.6621 2.1961
-6.2031 -3.9512 2.2329
-6.0616 -4.1740 2.2329
-5.9121 -4.3916 2.2329
-5.7547 -4.6038 2.2329
-5.5896 -4.8103 2.2329
-5.4170 -5.0107 2.2329
-5.2370 -5.2048 2.2329
-5.0501 -5.3923 2.2329
-4.8563 -5.5730 2.2329
-4.6559 -5.7465 2.2329
-4.4493 -5.9128 2.2329
-4.2366 -6.0714 2.2329
-4.0182 -6.2222 2.2329
-3.7943 -6.3650 2.2329
-3.5652 -6.4995 2.2329
-3.3313 -6.6257 2.2329
-3.0929 -6.7432 2.2329
-2.8503 -6.8519 2.2329
-2.6037 -6.9517 2.2329
-2.3536 -7.0425 2.2329
-2.1003 -7.1240 2.2329
-1.8441 -7.1962 2.2329
-1.5854 -7.2590 2.2329
-1.3245 -7.3123 2.2329
-1.0619 -7.3559 2.2329
-0.7977 -7.3899 2.2329
-0.5325 -7.4142 2.2329
-0.2666 -7.4288 2.2329
-0.0003 -6.8682 2.2329
0.2457 -6.8637 2.2329
0.4914 -6.8501 2.2329
0.7364 -6.8275 2.2329
0.9804 -6.7959 2.2329
1.2230 -6.7555 2.2329
1.4639 -6.7062 2.2329
1.7029 -6.6481 2.2329
1.8498 -6.2771 2.1297
2.0730 -6.2052 2.1297
2.2933 -6.1252 2.1297
2.5105 -6.0373 2.1297
2.7242 -5.9415 2.1297
2.9343 -5.8380 2.1297
3.1403 -5.7269 2.1297
3.3422 -5.6084 2.1297
3.5394 -5.4826 2.1297
3.7319 -5.3498 2.1297
3.9193 -5.2102 2.1297
4.1014 -5.0638 2.1297
4.2780 -4.9110 2.1297
4.4489 -4.7519 2.1297
4.6137 -4.5868 2.1297
4.6666 -4.3181 2.0825
4.7042 -4.0497 2.0344
4.7706 -3.8179 2.0038
4.8590 -3.6107 1.9866
4.9884 -3.4363 1.9891
5.1190 -3.2620 1.9946
5.3107 -3.1222 2.0257
5.5932 -3.0238 2.0922
5.7960 -2.8698 2.1297
5.9564 -2.6877 2.1533
6.0149 -2.4584 2.1428
6.0514 -2.2235 2.1276
6.2322 -2.0394 2.1656
6.4779 -1.8653 2.2280
6.5051 -1.6228 2.2176
6.5108 -1.3781 2.2030
6.5156 -1.1366 2.1911
6.5212 -0.8978 2.1824
6.5271 -0.6609 2.1768
6.3934 -0.4163 2.1275
6.2506 -0.1820 2.0781
6.1152 0.0415 2.0339
6.0084 0.2567 2.0017
5.8933 0.4642 1.9692
5.7826 0.6651 1.9405
5.6755 0.8603 1.9152
5.4877 1.0346 1.8646
5.3906 1.2183 1.8467
5.3816 1.4212 1.8613
5.3740 1.6278 1.8792
5.3653 1.8380 1.8994
5.3338 2.0441 1.9144
5.3084 2.2563 1.9345
5.2876 2.4754 1.9595
5.2683 2.7013 1.9885
5.2504 2.9350 2.0216
5.0522 3.0675 1.9878
4.8220 3.1704 1.9421
4.6392 3.2950 1.9162
4.5040 3.4491 1.9116
4.4028 3.6299 1.9240
4.3472 3.8548 1.9601
4.3531 4.1489 2.0299
4.3350 4.4399 2.0958
4.2379 4.6648 2.1297
4.0654 4.8117 2.1297
2.1302 2.7135 1.1669
3.7055 5.0867 2.1297
3.5187 5.2144 2.1297
3.3275 5.3353 2.1297
3.1323 5.4494 2.1297
2.9332 5.5565 2.1297
2.7305 5.6565 2.1297
2.5245 5.7493 2.1297
2.3154 5.8347 2.1297
2.1035 5.9127 2.1297
1.8890 5.9831 2.1297
1.7532 6.3390 2.2329
1.5238 6.3968 2.2329
1.2925 6.4465 2.2329
1.0596 6.4880 2.2329
0.8254 6.5213 2.2329
0.5902 6.5463 2.2329
0.3543 6.5631 2.2329
0.1180 6.5715 2.2329
-0.1185 6.5715 2.2329
-0.3548 6.5633 2.2329
-0.5908 6.5467 2.2329
-0.8260 6.5219 2.2329
-1.0602 6.4888 2.2329
-1.2932 6.4474 2.2329
-1.5245 6.3979 2.2329
-1.7540 6.3402 2.2329
-1.9814 6.2744 2.2329
-2.2064 6.2007 2.2329
-2.4287 6.1191 2.2329
-2.6481 6.0297 2.2329
-2.8642 5.9325 2.2329
-3.0768 5.8278 2.2329
-3.2857 5.7156 2.2329
-3.4906 5.5960 2.2329
-3.6912 5.4692 2.2329
-3.8872 5.3354 2.2329
-4.0785 5.1947 2.2329
-4.2648 5.0472 2.2329
-4.4459 4.8932 2.2329
-4.6214 4.7327 2.2329
-4.7913 4.5661 2.2329
-4.9552 4.3935 2.2329
-5.1130 4.2151 2.2329
-5.2645 4.0311 2.2329
-5.4094 3.8417 2.2329
-5.5476 3.6472 2.2329
-5.6789 3.4478 2.2329
-5.8031 3.2437 2.2329
-5.9200 3.0352 2.2329
-6.0295 2.8225 2.2329
-6.1315 2.6060 2.2329
-6.2257 2.3858 2.2329
-6.2388 2.1371 2.2070
-6.2385 1.8895 2.1798
-6.2433 1.6486 2.1578
-6.2474 1.4118 2.1386
-6.2731 1.1826 2.1298
-6.3164 0.9573 2.1298
-6.3517 0.7305 2.1298
-6.3788 0.5024 2.1298
-6.3978 0.2733 2.1298
-6.4277 0.0436 2.1362
-6.4276 -0.1872 2.1353
-6.4269 -0.4184 2.1370
-6.3912 -0.6471 2.1298
-6.3688 -0.8767 2.1298
-6.3382 -1.1055 2.1298
-6.2994 -1.3333 2.1298
-6.2523 -1.5596 2.1298
-6.2420 -1.7972 2.1453
-6.2369 -2.0407 2.1657
-6.2334 -2.2902 2.1899
-6.2330 -2.5473 2.2189
-6.1810 -2.7888 2.2329
-6.0813 -3.0108 2.2329
-5.9736 -3.2292 2.2329
-5.8580 -3.4437 2.2329
-5.7347 -3.6539 2.2329
-5.6037 -3.8597 2.2329
-5.4652 -4.0607 2.2329
-5.3194 -4.2567 2.2329
-5.1666 -4.4473 2.2329
-5.0068 -4.6324 2.2329
-4.8403 -4.8116 2.2329
-4.6673 -4.9847 2.2329
-4.4880 -5.1515 2.2329
-4.3027 -5.3117 2.2329
-4.1116 -5.4651 2.2329
-3.9149 -5.6115 2.2329
-3.7129 -5.7506 2.2329
-3.5060 -5.8824 2.2329
-3.2942 -6.0065 2.2329
-3.0780 -6.1229 2.2329
-2.8577 -6.2313 2.2329
-2.6334 -6.3317 2.2329
-2.4056 -6.4238 2.2329
-2.1745 -6.5075 2.2329
-1.9404 -6.5827 2.2329
-1.7037 -6.6493 2.2329
-1.4647 -6.7072 2.2329
-1.2237 -6.7563 2.2329
-0.9810 -6.7966 2.2329
-0.7370 -6.8280 2.2329
-0.4919 -6.8504 2.2329
-0.2463 -6.8638 2.2329
-0.0003 -6.3762 2.2329
0.2281 -6.3719 2.2329
0.4561 -6.3593 2.2329
0.6835 -6.3384 2.2329
0.9100 -6.3092 2.2329
1.1352 -6.2717 2.2329
1.3589 -6.2260 2.2329
1.5807 -6.1722 2.2329
1.8003 -6.1103 2.2329
1.9243 -5.7612 2.1297
2.1288 -5.6870 2.1297
2.3305 -5.6055 2.1297
2.5290 -5.5167 2.1297
2.7241 -5.4207 2.1297
2.9154 -5.3177 2.1297
3.1029 -5.2079 2.1297
3.2861 -5.0913 2.1297
3.4649 -4.9681 2.1297
3.6390 -4.8386 2.1297
3.8082 -4.7029 2.1297
3.9724 -4.5611 2.1297
4.1311 -4.4136 2.1297
4.2843 -4.2604 2.1297
4.4318 -4.1019 2.1297
4.5734 -3.9381 2.1297
4.7088 -3.7695 2.1297
4.8380 -3.5961 2.1297
4.9607 -3.4182 2.1297
5.0769 -3.2361 2.1297
5.1863 -3.0500 2.1297
5.2888 -2.8602 2.1297
5.3843 -2.6669 2.1297
5.4727 -2.4705 2.1297
5.5540 -2.2710 2.1297
5.6279 -2.0689 2.1297
5.6944 -1.8644 2.1297
5.7535 -1.6577 2.1297
5.8050 -1.4492 2.1297
6.3248 -1.3399 2.3029
6.3641 -1.1113 2.3029
6.3952 -0.8815 2.3029
6.4179 -0.6510 2.3029
6.4323 -0.4199 2.3029
6.3181 -0.1851 2.2598
6.1688 0.0408 2.2072
6.0427 0.2571 2.1656
5.9265 0.4658 2.1302
5.8146 0.6678 2.0988
5.7065 0.8640 2.0711
5.5771 1.0505 2.0381
5.4814 1.2379 2.0195
5.4729 1.4444 2.0357
5.4660 1.6547 2.0554
5.4608 1.8698 2.0788
5.4472 2.0866 2.1022
5.4241 2.3045 2.1254
5.3450 2.5013 2.1297
5.2482 2.6900 2.1297
5.1448 2.8750 2.1297
5.0290 3.0525 2.1271
4.8004 3.1552 2.0784
4.6141 3.2762 2.0487
4.4525 3.4087 2.0312
4.3237 3.5638 2.0308
4.2677 3.7833 2.0682
4.2081 4.0098 2.1091
4.0988 4.1970 2.1297
3.9433 4.3396 2.1297
3.7829 4.4764 2.1297
2.1303 2.7130 1.2540
3.4483 4.7326 2.1297
3.2745 4.8515 2.1297
3.0967 4.9642 2.1297
2.9150 5.0705 2.1297
2.7298 5.1703 2.1297
2.5412 5.2635 2.1297
0.8578 1.9531 0.7775
2.1550 5.4295 2.1297
1.9577 5.5022 2.1297
1.8027 5.7091 2.1837
1.6318 5.8991 2.2329
1.4183 5.9530 2.2329
1.2030 5.9993 2.2329
0.9862 6.0380 2.2329
0.7683 6.0690 2.2329
0.5494 6.0923 2.2329
0.3298 6.1079 2.2329
0.1098 6.1157 2.2329
-0.1103 6.1158 2.2329
-0.3303 6.1081 2.2329
-0.5499 6.0926 2.2329
-0.7688 6.0695 2.2329
-0.9868 6.0386 2.2329
-1.2036 6.0000 2.2329
-1.4190 5.9539 2.2329
-1.6326 5.9001 2.2329
-1.8442 5.8388 2.2329
-2.0536 5.7701 2.2329
-2.2605 5.6941 2.2329
-0.8579 1.9531 0.7773
-0.9277 1.9211 0.7771
-2.8635 5.4226 2.2329
-3.0578 5.3180 2.2329
-3.2484 5.2066 2.2329
-3.4349 5.0885 2.2329
-3.6173 4.9638 2.2329
-3.7952 4.8327 2.2329
-3.9684 4.6954 2.2329
-4.1367 4.5519 2.2329
-4.2999 4.4024 2.2329
-4.4578 4.2473 2.2329
-4.6102 4.0865 2.2329
-4.7568 3.9204 2.2329
-4.8975 3.7490 2.2329
-5.0322 3.5727 2.2329
-5.1605 3.3916 2.2329
-5.2824 3.2060 2.2329
-5.3977 3.0160 2.2329
-5.5062 2.8220 2.2329
-5.6078 2.6241 2.2329
-5.7024 2.4226 2.2329
-5.7897 2.2177 2.2329
-5.8698 2.0097 2.2329
-5.9424 1.7988 2.2329
-6.0075 1.5853 2.2329
-6.0649 1.3695 2.2329
-6.1147 1.1517 2.2329
-6.1566 0.9321 2.2329
-6.1907 0.7109 2.2329
-6.2168 0.4886 2.2329
-6.2350 0.2653 2.2329
-6.2362 0.0413 2.2297
-6.2359 -0.1826 2.2289
-6.2357 -0.4070 2.2309
-6.2273 -0.6316 2.2329
-6.2053 -0.8552 2.2329
-6.1751 -1.0781 2.2329
-6.1370 -1.2999 2.2329
-6.0908 -1.5204 2.2329
-6.0367 -1.7391 2.2329
-5.9747 -1.9559 2.2329
-5.9048 -2.1705 2.2329
-5.8272 -2.3825 2.2329
-5.7420 -2.5917 2.2329
-5.6491 -2.7979 2.2329
-5.5489 -3.0006 2.2329
-5.4412 -3.1997 2.2329
-5.3264 -3.3949 2.2329
-5.2045 -3.5858 2.2329
-5.0757 -3.7724 2.2329
-4.9401 -3.9542 2.2329
-4.7980 -4.1311 2.2329
-4.6494 -4.3028 2.2329
-4.4946 -4.4690 2.2329
-4.3338 -4.6296 2.2329
-4.1672 -4.7843 2.2329
-3.9950 -4.9329 2.2329
-3.8175 -5.0752 2.2329
-3.6347 -5.2109 2.2329
-3.4471 -5.3400 2.2329
-3.2549 -5.4622 2.2329
-3.0583 -5.5773 2.2329
-2.8575 -5.6852 2.2329
-2.6528 -5.7857 2.2329
-2.4446 -5.8787 2.2329
-2.2331 -5.9641 2.2329
-2.0185 -6.0417 2.2329
-1.8012 -6.1115 2.2329
-1.5815 -6.1732 2.2329
-1.3596 -6.2269 2.2329
-1.1359 -6.2724 2.2329
-0.9106 -6.3098 2.2329
-0.6841 -6.3389 2.2329
-0.4567 -6.3596 2.2329
-0.2286 -6.3721 2.2329
-0.0003 -5.9436 2.2329
0.2126 -5.9397 2.2329
0.4251 -5.9279 2.2329
0.6370 -5.9085 2.2329
0.8481 -5.8813 2.2329
1.0580 -5.8464 2.2329
1.2665 -5.8039 2.2329
1.4732 -5.7538 2.2329
1.6780 -5.6962 2.2329
1.8209 -5.4528 2.1622
1.9842 -5.3017 2.1297
2.1722 -5.2258 2.1297
2.3573 -5.1432 2.1297
2.5392 -5.0538 2.1297
2.7176 -4.9579 2.1297
2.8924 -4.8556 2.1297
3.0633 -4.7470 2.1297
3.2301 -4.6324 2.1297
3.3925 -4.5117 2.1297
3.5503 -4.3853 2.1297
3.7034 -4.2533 2.1297
3.8516 -4.1159 2.1297
3.9945 -3.9732 2.1297
4.1322 -3.8255 2.1297
4.2643 -3.6730 2.1297
4.3908 -3.5158 2.1297
4.5114 -3.3543 2.1297
4.6260 -3.1885 2.1297
4.7345 -3.0188 2.1297
4.8367 -2.8454 2.1297
4.9325 -2.6685 2.1297
5.0218 -2.4883 2.1297
5.1045 -2.3052 2.1297
5.1805 -2.1192 2.1297
5.2496 -1.9308 2.1297
5.3119 -1.7401 2.1297
5.3672 -1.5474 2.1297
5.4156 -1.3529 2.1297
5.4568 -1.1569 2.1297
5.4910 -0.9597 2.1297
5.5180 -0.7615 2.1297
5.5379 -0.5626 2.1297
5.5506 -0.3633 2.1297
5.5561 -0.1637 2.1297
5.5545 0.0358 2.1297
5.5457 0.2350 2.1297
5.5298 0.4337 2.1297
5.5068 0.6315 2.1297
5.4767 0.8283 2.1297
5.4397 1.0237 2.1297
5.3957 1.2176 2.1297
5.3448 1.4096 2.1297
5.2872 1.5997 2.1297
5.2228 1.7874 2.1297
5.1518 1.9726 2.1297
5.0743 2.1550 2.1297
4.9904 2.3345 2.1297
4.9002 2.5107 2.1297
4.8039 2.6836 2.1297
4.7015 2.8528 2.1297
4.5932 3.0182 2.1297
4.4792 3.1795 2.1297
4.3596 3.3366 2.1297
4.2345 3.4893 2.1297
4.1041 3.6374 2.1297
3.9687 3.7807 2.1297
3.8283 3.9191 2.1297
3.6831 4.0523 2.1297
3.5334 4.1803 2.1297
2.1303 2.7125 1.3426
3.2210 4.4197 2.1297
3.0587 4.5310 2.1297
2.8927 4.6363 2.1297
2.7231 4.7358 2.1297
2.5501 4.8291 2.1297
0.8655 1.7923 0.7764
0.8004 1.8223 0.7766
0.7343 1.8498 0.7768
0.6673 1.8750 0.7770
0.5993 1.8977 0.7771
0.5306 1.9180 0.7772
0.4613 1.9358 0.7773
0.3913 1.9511 0.7774
0.9214 5.6402 2.2329
0.7178 5.6692 2.2329
0.5133 5.6910 2.2329
0.3081 5.7056 2.2329
0.1026 5.7129 2.2329
-0.1031 5.7130 2.2329
-0.3086 5.7058 2.2329
-0.5138 5.6913 2.2329
-0.7183 5.6697 2.2329
-0.9220 5.6408 2.2329
-0.3915 1.9511 0.7773
-0.4615 1.9358 0.7772
-0.5308 1.9180 0.7771
-0.5995 1.8977 0.7770
-0.6674 1.8750 0.7768
-0.7345 1.8498 0.7766
-0.8006 1.8223 0.7764
-0.8657 1.7923 0.7762
-0.9296 1.7601 0.7760
-2.8564 4.9668 2.2329
-3.0344 4.8626 2.2329
-3.2086 4.7522 2.2329
-3.3788 4.6356 2.2329
-3.5449 4.5130 2.2329
-3.7066 4.3846 2.2329
-3.8637 4.2505 2.2329
-4.0160 4.1108 2.2329
-4.1634 3.9657 2.2329
-4.3055 3.8155 2.2329
-4.4423 3.6602 2.2329
-4.5736 3.5000 2.2329
-4.6991 3.3353 2.2329
-4.8188 3.1661 2.2329
-4.9324 2.9926 2.2329
-5.0399 2.8151 2.2329
-5.1410 2.6338 2.2329
-5.2357 2.4490 2.2329
-5.3237 2.2607 2.2329
-5.4051 2.0693 2.2329
-5.4796 1.8751 2.2329
-5.5471 1.6782 2.2329
-5.6077 1.4788 2.2329
-5.6610 1.2774 2.2329
-5.7072 1.0740 2.2329
-5.7461 0.8690 2.2329
-5.7777 0.6625 2.2329
-5.8018 0.4550 2.2329
-5.8185 0.2466 2.2329
-5.8277 0.0376 2.2329
-5.8295 -0.1717 2.2329
-5.8237 -0.3811 2.2329
-5.8103 -0.5903 2.2329
-5.7895 -0.7989 2.2329
-5.7611 -1.0068 2.2329
-5.7253 -1.2137 2.2329
-5.6819 -1.4193 2.2329
-5.6312 -1.6233 2.2329
-5.5731 -1.8255 2.2329
-5.5078 -2.0255 2.2329
-5.4352 -2.2232 2.2329
-5.3554 -2.4182 2.2329
-5.2686 -2.6104 2.2329
-5.1749 -2.7993 2.2329
-5.0743 -2.9849 2.2329
-4.9670 -3.1668 2.2329
-4.8532 -3.3448 2.2329
-4.7329 -3.5186 2.2329
-4.6063 -3.6880 2.2329
-4.4736 -3.8528 2.2329
-4.3350 -4.0127 2.2329
-4.1905 -4.1676 2.2329
-4.0405 -4.3172 2.2329
-3.8850 -4.4613 2.2329
-3.7244 -4.5997 2.2329
-3.5588 -4.7322 2.2329
-3.3883 -4.8586 2.2329
-3.2134 -4.9788 2.2329
-3.0341 -5.0926 2.2329
-2.8507 -5.1998 2.2329
-2.6635 -5.3003 2.2329
-2.4727 -5.3939 2.2329
-2.2786 -5.4805 2.2329
-2.0814 -5.5600 2.2329
-1.8814 -5.6322 2.2329
-1.6788 -5.6971 2.2329
-1.4740 -5.7546 2.2329
-1.2672 -5.8046 2.2329
-1.0586 -5.8470 2.2329
-0.8487 -5.8818 2.2329
-0.6376 -5.9088 2.2329
-0.4256 -5.9282 2.2329
-0.2131 -5.9398 2.2329
-0.0003 -5.5600 2.2329
0.1988 -5.5563 2.2329
0.3976 -5.5453 2.2329
0.5958 -5.5271 2.2329
0.7932 -5.5017 2.2329
0.9896 -5.4691 2.2329
1.1846 -5.4294 2.2329
1.3780 -5.3826 2.2329
1.5695 -5.3288 2.2329
1.7589 -5.2681 2.2329
1.8560 -4.9600 2.1297
2.0318 -4.8891 2.1297
2.2050 -4.8118 2.1297
2.3752 -4.7283 2.1297
2.5421 -4.6387 2.1297
2.7057 -4.5431 2.1297
2.8656 -4.4416 2.1297
3.0217 -4.3345 2.1297
3.1737 -4.2217 2.1297
3.3215 -4.1035 2.1297
3.4648 -3.9802 2.1297
3.6035 -3.8517 2.1297
3.7373 -3.7183 2.1297
3.8663 -3.5802 2.1297
3.9900 -3.4376 2.1297
4.1084 -3.2907 2.1297
4.2214 -3.1396 2.1297
4.3288 -2.9846 2.1297
4.4305 -2.8259 2.1297
4.5263 -2.6637 2.1297
4.6161 -2.4983 2.1297
4.6999 -2.3297 2.1297
4.7774 -2.1584 2.1297
4.8487 -1.9844 2.1297
4.9136 -1.8081 2.1297
4.9721 -1.6297 2.1297
5.0241 -1.4493 2.1297
5.0695 -1.2674 2.1297
5.1083 -1.0839 2.1297
5.1405 -0.8994 2.1297
5.1660 -0.7139 2.1297
5.1848 -0.5277 2.1297
5.1969 -0.3410 2.1297
5.2023 -0.1542 2.1297
5.2010 0.0327 2.1297
5.1930 0.2192 2.1297
5.1783 0.4052 2.1297
5.1569 0.5905 2.1297
5.1290 0.7748 2.1297
5.0945 0.9579 2.1297
5.0535 1.1395 2.1297
5.0060 1.3194 2.1297
4.9522 1.4974 2.1297
4.8921 1.6733 2.1297
4.8258 1.8468 2.1297
4.7534 2.0178 2.1297
4.6749 2.1860 2.1297
4.5906 2.3512 2.1297
4.5005 2.5132 2.1297
4.4047 2.6718 2.1297
4.3034 2.8269 2.1297
4.1967 2.9781 2.1297
4.0848 3.1254 2.1297
3.9677 3.2686 2.1297
3.8456 3.4075 2.1297
3.7188 3.5418 2.1297
3.5873 3.6716 2.1297
3.4514 3.7965 2.1297
2.2575 2.6702 1.4519
2.1304 2.7120 1.4327
2.0580 2.8233 1.4519
2.8666 4.2455 2.1297
2.7110 4.3443 2.1297
2.5521 4.4376 2.1297
0.8703 1.6477 0.7755
0.8104 1.6779 0.7757
0.7495 1.7059 0.7758
0.6876 1.7317 0.7760
0.6248 1.7553 0.7762
0.5612 1.7766 0.7763
0.4969 1.7956 0.7764
0.4319 1.8123 0.7765
0.3664 1.8266 0.7766
0.3004 1.8386 0.7767
0.2340 1.8482 0.7767
0.1674 1.8554 0.7768
0.1005 1.8602 0.7768
0.0334 1.8626 0.7768
-0.0336 1.8626 0.7768
-0.1006 1.8602 0.7768
-0.1675 1.8554 0.7767
-0.2342 1.8482 0.7767
-0.3006 1.8386 0.7766
-0.3666 1.8266 0.7765
-0.4321 1.8123 0.7764
-0.4970 1.7956 0.7763
-0.5614 1.7766 0.7762
-0.6249 1.7553 0.7760
-0.6877 1.7317 0.7759
-0.7496 1.7059 0.7757
-0.8106 1.6779 0.7755
-0.8705 1.6477 0.7753
-0.9292 1.6154 0.7751
-2.8438 4.5563 2.2329
-3.0070 4.4527 2.2329
-3.1665 4.3433 2.2329
-3.3220 4.2283 2.2329
-3.4735 4.1079 2.2329
-3.6206 3.9821 2.2329
-3.7632 3.8511 2.2329
-3.9012 3.7150 2.2329
-4.0343 3.5741 2.2329
-4.1623 3.4285 2.2329
-4.2852 3.2784 2.2329
-4.4027 3.1239 2.2329
-4.5146 2.9653 2.2329
-4.6210 2.8027 2.2329
-4.7215 2.6363 2.2329
-4.8161 2.4664 2.2329
-4.9046 2.2931 2.2329
-4.9869 2.1167 2.2329
-5.0629 1.9374 2.2329
-5.1325 1.7554 2.2329
-5.1955 1.5709 2.2329
-5.2520 1.3841 2.2329
-5.3018 1.1954 2.2329
-5.3449 1.0049 2.2329
-5.3811 0.8128 2.2329
-5.4104 0.6195 2.2329
-5.4328 0.4251 2.2329
-5.4483 0.2300 2.2329
-5.4567 0.0343 2.2329
-5.4581 -0.1617 2.2329
-5.4524 -0.3577 2.2329
-5.4397 -0.5535 2.2329
-5.4200 -0.7489 2.2329
-5.3932 -0.9435 2.2329
-5.3595 -1.1371 2.2329
-5.3187 -1.3295 2.2329
-5.2710 -1.5204 2.2329
-5.2165 -1.7096 2.2329
-5.1551 -1.8968 2.2329
-5.0869 -2.0817 2.2329
-5.0121 -2.2642 2.2329
-4.9307 -2.4439 2.2329
-4.8428 -2.6207 2.2329
-4.7486 -2.7942 2.2329
-4.6480 -2.9643 2.2329
-4.5413 -3.1308 2.2329
-4.4286 -3.2933 2.2329
-4.3100 -3.4517 2.2329
-4.1858 -3.6058 2.2329
-4.0559 -3.7553 2.2329
-3.9206 -3.9001 2.2329
-3.7802 -4.0400 2.2329
-3.6346 -4.1747 2.2329
-3.4843 -4.3040 2.2329
-3.3292 -4.4279 2.2329
-3.1697 -4.5461 2.2329
-3.0060 -4.6584 2.2329
-2.8382 -4.7647 2.2329
-2.6666 -4.8649 2.2329
-2.4915 -4.9588 2.2329
-2.3130 -5.0463 2.2329
-2.1313 -5.1272 2.2329
-1.9468 -5.2015 2.2329
-1.7597 -5.2690 2.2329
-1.5703 -5.3297 2.2329
-1.3787 -5.3834 2.2329
-1.1852 -5.4301 2.2329
-0.9902 -5.4697 2.2329
-0.7938 -5.5022 2.2329
-0.5963 -5.5275 2.2329
-0.3981 -5.5456 2.2329
-0.1993 -5.5564 2.2329
-0.0003 -5.2171 2.2329
0.1865 -5.2136 2.2329
0.3730 -5.2034 2.2329
0.5589 -5.1863 2.2329
0.7442 -5.1625 2.2329
0.9284 -5.1320 2.2329
1.1113 -5.0947 2.2329
1.2928 -5.0509 2.2329
1.4725 -5.0004 2.2329
1.6502 -4.9435 2.2329
1.8157 -4.8534 2.2207
1.9063 -4.5880 2.1297
2.0688 -4.5156 2.1297
2.2285 -4.4373 2.1297
2.3852 -4.3533 2.1297
2.5388 -4.2637 2.1297
2.6889 -4.1686 2.1297
2.8354 -4.0681 2.1297
2.9781 -3.9624 2.1297
3.1168 -3.8516 2.1297
3.2514 -3.7359 2.1297
3.3816 -3.6154 2.1297
3.5073 -3.4903 2.1297
3.6284 -3.3608 2.1297
3.7446 -3.2271 2.1297
3.8559 -3.0893 2.1297
3.9621 -2.9476 2.1297
4.0630 -2.8022 2.1297
4.1585 -2.6533 2.1297
4.2486 -2.5011 2.1297
4.3330 -2.3459 2.1297
4.4118 -2.1878 2.1297
4.4847 -2.0270 2.1297
4.5518 -1.8638 2.1297
4.6129 -1.6983 2.1297
4.6679 -1.5308 2.1297
4.7169 -1.3616 2.1297
4.7597 -1.1908 2.1297
4.7963 -1.0186 2.1297
4.8267 -0.8453 2.1297
4.8508 -0.6712 2.1297
4.8687 -0.4963 2.1297
4.8802 -0.3211 2.1297
4.8854 -0.1456 2.1297
4.8843 0.0298 2.1297
4.8770 0.2050 2.1297
4.8633 0.3797 2.1297
4.8435 0.5538 2.1297
4.8174 0.7269 2.1297
4.7851 0.8989 2.1297
4.7468 1.0695 2.1297
4.7024 1.2385 2.1297
4.6520 1.4058 2.1297
4.5957 1.5711 2.1297
4.5335 1.7342 2.1297
4.4656 1.8948 2.1297
4.3921 2.0529 2.1297
4.3130 2.2082 2.1297
4.2285 2.3605 2.1297
4.1386 2.5096 2.1297
4.0435 2.6553 2.1297
3.9434 2.7975 2.1297
3.8383 2.9360 2.1297
3.7284 3.0706 2.1297
3.6138 3.2012 2.1297
3.4947 3.3276 2.1297
3.3712 3.4496 2.1297
3.2436 3.5671 2.1297
2.2259 2.6322 1.5233
2.0694 2.6338 1.4808
2.0442 2.8038 1.5346
2.6942 3.9893 2.1297
2.5480 4.0823 2.1297
0.8725 1.5167 0.7746
0.8173 1.5471 0.7748
0.7610 1.5754 0.7750
0.7038 1.6017 0.7752
0.6457 1.6259 0.7753
0.5867 1.6481 0.7754
0.5270 1.6681 0.7756
0.4666 1.6859 0.7757
0.4056 1.7016 0.7758
0.3441 1.7150 0.7759
0.2821 1.7263 0.7759
0.2198 1.7353 0.7760
0.1572 1.7421 0.7760
0.0943 1.7466 0.7760
0.0314 1.7488 0.7760
-0.0316 1.7488 0.7760
-0.0945 1.7466 0.7760
-0.1573 1.7421 0.7760
-0.2199 1.7353 0.7759
-0.2823 1.7263 0.7759
-0.3442 1.7150 0.7758
-0.4058 1.7016 0.7757
-0.4668 1.6859 0.7756
-0.5272 1.6681 0.7755
-0.5869 1.6481 0.7753
-0.6458 1.6260 0.7752
-0.7040 1.6017 0.7750
-0.7612 1.5754 0.7748
-0.8175 1.5471 0.7746
-0.8726 1.5167 0.7744
-0.9267 1.4844 0.7742
-0.9796 1.4502 0.7740
-2.9759 4.0811 2.2329
-3.1221 3.9729 2.2329
-3.2643 3.8596 2.2329
-3.4025 3.7413 2.2329
-3.5365 3.6181 2.2329
-3.6660 3.4902 2.2329
-3.7910 3.3577 2.2329
-3.9112 3.2208 2.2329
-4.0265 3.0796 2.2329
-4.1368 2.9344 2.2329
-4.2419 2.7853 2.2329
-4.3417 2.6324 2.2329
-4.4360 2.4760 2.2329
-4.5247 2.3163 2.2329
-4.6077 2.1535 2.2329
-4.6849 1.9877 2.2329
-4.7561 1.8191 2.2329
-4.8214 1.6481 2.2329
-4.8805 1.4747 2.2329
-4.9334 1.2992 2.2329
-4.9800 1.1219 2.2329
-5.0202 0.9429 2.2329
-5.0541 0.7625 2.2329
-5.0814 0.5809 2.2329
-5.1023 0.3984 2.2329
-5.1166 0.2151 2.2329
-5.1243 0.0313 2.2329
-5.1255 -0.1528 2.2329
-5.1200 -0.3368 2.2329
-5.1079 -0.5207 2.2329
-5.0892 -0.7041 2.2329
-5.0639 -0.8868 2.2329
-5.0320 -1.0685 2.2329
-4.9935 -1.2491 2.2329
-4.9486 -1.4283 2.2329
-4.8972 -1.6059 2.2329
-4.8394 -1.7815 2.2329
-4.7753 -1.9551 2.2329
-4.7049 -2.1263 2.2329
-4.6284 -2.2949 2.2329
-4.5457 -2.4608 2.2329
-4.4571 -2.6236 2.2329
-4.3626 -2.7832 2.2329
-4.2623 -2.9393 2.2329
-4.1564 -3.0918 2.2329
-4.0450 -3.2404 2.2329
-3.9283 -3.3849 2.2329
-3.8063 -3.5251 2.2329
-3.6793 -3.6609 2.2329
-3.5473 -3.7921 2.2329
-3.4107 -3.9184 2.2329
-3.2695 -4.0397 2.2329
-3.1240 -4.1558 2.2329
-2.9742 -4.2666 2.2329
-2.8205 -4.3719 2.2329
-2.6631 -4.4716 2.2329
-2.5020 -4.5655 2.2329
-2.3376 -4.6535 2.2329
-2.1701 -4.7355 2.2329
-1.9997 -4.8114 2.2329
-1.8266 -4.8810 2.2329
-1.6510 -4.9443 2.2329
-1.4732 -5.0012 2.2329
-1.2935 -5.0515 2.2329
-1.1120 -5.0953 2.2329
-0.9290 -5.1325 2.2329
-0.7447 -5.1629 2.2329
-0.5595 -5.1866 2.2329
-0.3735 -5.2036 2.2329
-0.1870 -5.2137 2.2329
-0.0003 -4.9085 2.2329
0.1754 -4.9052 2.2329
0.3508 -4.8956 2.2329
0.5258 -4.8796 2.2329
0.7000 -4.8572 2.2329
0.8733 -4.8285 2.2329
1.0454 -4.7935 2.2329
1.2161 -4.7523 2.2329
1.3852 -4.7049 2.2329
1.5524 -4.6514 2.2329
1.7175 -4.5918 2.2329
1.8199 -4.3808 2.1611
1.9463 -4.2489 2.1297
2.0965 -4.1753 2.1297
2.2440 -4.0964 2.1297
2.3885 -4.0121 2.1297
2.5297 -3.9227 2.1297
2.6676 -3.8282 2.1297
2.8019 -3.7289 2.1297
2.9325 -3.6247 2.1297
3.0592 -3.5159 2.1297
3.1818 -3.4026 2.1297
3.3002 -3.2850 2.1297
3.4142 -3.1632 2.1297
3.5236 -3.0375 2.1297
3.6284 -2.9079 2.1297
3.7284 -2.7746 2.1297
3.8235 -2.6378 2.1297
3.9135 -2.4978 2.1297
3.9984 -2.3547 2.1297
4.0780 -2.2086 2.1297
4.1522 -2.0599 2.1297
4.2210 -1.9086 2.1297
4.2842 -1.7550 2.1297
4.3419 -1.5994 2.1297
4.3938 -1.4418 2.1297
4.4400 -1.2825 2.1297
4.4805 -1.1217 2.1297
4.5151 -0.9597 2.1297
4.5438 -0.7966 2.1297
4.5667 -0.6327 2.1297
4.5836 -0.4681 2.1297
4.5946 -0.3031 2.1297
4.5997 -0.1379 2.1297
4.5988 0.0273 2.1297
4.5920 0.1922 2.1297
4.5793 0.3567 2.1297
4.5608 0.5206 2.1297
4.5363 0.6837 2.1297
4.5061 0.8456 2.1297
4.4701 1.0063 2.1297
4.4285 1.1656 2.1297
4.3811 1.3231 2.1297
4.3282 1.4788 2.1297
4.2698 1.6325 2.1297
4.2060 1.7838 2.1297
4.1369 1.9328 2.1297
4.0625 2.0791 2.1297
3.9830 2.2226 2.1297
3.8984 2.3631 2.1297
3.8090 2.5005 2.1297
3.7147 2.6345 2.1297
3.6158 2.7650 2.1297
3.5123 2.8919 2.1297
3.4045 3.0150 2.1297
3.2923 3.1341 2.1297
3.1761 3.2491 2.1297
3.0559 3.3599 2.1297
2.2231 2.6283 1.6148
2.0669 2.6300 1.5697
2.0404 2.7979 1.6256
2.5385 3.7580 2.1297
0.8723 1.3973 0.7738
0.8214 1.4277 0.7740
0.7695 1.4563 0.7742
0.7165 1.4830 0.7744
0.6626 1.5078 0.7745
0.6079 1.5306 0.7747
0.5524 1.5514 0.7748
0.4962 1.5702 0.7749
0.4393 1.5870 0.7750
0.3819 1.6018 0.7751
0.3239 1.6145 0.7752
0.2656 1.6250 0.7753
0.2069 1.6335 0.7753
0.1480 1.6399 0.7753
0.0888 1.6442 0.7754
0.0296 1.6463 0.7754
-0.0297 1.6463 0.7754
-0.0890 1.6442 0.7753
-0.1481 1.6399 0.7753
-0.2071 1.6335 0.7753
-0.2658 1.6250 0.7752
-0.3241 1.6145 0.7751
-0.3820 1.6018 0.7750
-0.4395 1.5870 0.7749
-0.4963 1.5702 0.7748
-0.5526 1.5514 0.7747
-0.6081 1.5306 0.7745
-0.6628 1.5078 0.7744
-0.7167 1.4830 0.7742
-0.7697 1.4563 0.7740
-0.8216 1.4278 0.7738
-0.8725 1.3973 0.7736
-0.9223 1.3651 0.7734
-0.9709 1.3311 0.7732
-2.9415 3.7423 2.2329
-3.0755 3.6355 2.2329
-3.2056 3.5239 2.2329
-3.3317 3.4078 2.2329
-3.4537 3.2872 2.2329
-3.5713 3.1623 2.2329
-3.6845 3.0332 2.2329
-3.7931 2.9002 2.2329
-3.8969 2.7633 2.2329
-3.9958 2.6228 2.2329
-4.0896 2.4787 2.2329
-4.1783 2.3314 2.2329
-4.2618 2.1808 2.2329
-4.3398 2.0274 2.2329
-4.4124 1.8712 2.2329
-4.4794 1.7124 2.2329
-4.5407 1.5513 2.2329
-4.5962 1.3879 2.2329
-4.6459 1.2227 2.2329
-4.6896 1.0556 2.2329
-4.7274 0.8871 2.2329
-4.7591 0.7172 2.2329
-4.7847 0.5461 2.2329
-4.8042 0.3742 2.2329
-4.8175 0.2016 2.2329
-4.8247 0.0286 2.2329
-4.8256 -0.1447 2.2329
-4.8203 -0.3180 2.2329
-4.8087 -0.4910 2.2329
-4.7909 -0.6637 2.2329
-4.7670 -0.8356 2.2329
-4.7368 -1.0067 2.2329
-4.7005 -1.1767 2.2329
-4.6580 -1.3453 2.2329
-4.6095 -1.5124 2.2329
-4.5550 -1.6777 2.2329
-4.4945 -1.8410 2.2329
-4.4281 -2.0021 2.2329
-4.3559 -2.1607 2.2329
-4.2780 -2.3167 2.2329
-4.1945 -2.4699 2.2329
-4.1055 -2.6200 2.2329
-4.0110 -2.7669 2.2329
-3.9113 -2.9103 2.2329
-3.8063 -3.0500 2.2329
-3.6964 -3.1859 2.2329
-3.5815 -3.3178 2.2329
-3.4619 -3.4455 2.2329
-3.3377 -3.5688 2.2329
-3.2091 -3.6876 2.2329
-3.0762 -3.8016 2.2329
-2.9392 -3.9108 2.2329
-2.7983 -4.0150 2.2329
-2.6536 -4.1140 2.2329
-2.5054 -4.2077 2.2329
-2.3539 -4.2960 2.2329
-2.1992 -4.3788 2.2329
-2.0416 -4.4558 2.2329
-1.8812 -4.5272 2.2329
-1.7183 -4.5926 2.2329
-1.5532 -4.6521 2.2329
-1.3859 -4.7055 2.2329
-1.2168 -4.7529 2.2329
-1.0460 -4.7940 2.2329
-0.8739 -4.8289 2.2329
-0.7006 -4.8575 2.2329
-0.5263 -4.8798 2.2329
-0.3514 -4.8958 2.2329
-0.1759 -4.9053 2.2329
-0.0003 -4.6290 2.2329
0.1654 -4.6259 2.2329
0.3308 -4.6168 2.2329
0.4957 -4.6018 2.2329
0.6600 -4.5807 2.2329
0.8234 -4.5536 2.2329
0.9857 -4.5207 2.2329
1.1467 -4.4818 2.2329
