ply
format ascii 1.0
element vertex 2164
property float32 x
property float32 y
property float32 z
end_header
5.9336 -11.7800 2.1497
6.3511 -11.5570 2.1497
6.7602 -11.3191 2.1497
7.1603 -11.0665 2.1497
7.5509 -10.7997 2.1497
7.9315 -10.5189 2.1497
8.3016 -10.2246 2.1497
8.6606 -9.9172 2.1497
9.0082 -9.5971 2.1497
9.3439 -9.2647 2.1497
2.5426 -2.3462 0.5654
9.9778 -8.5649 2.1497
10.2752 -8.1985 2.1497
10.5591 -7.8217 2.1497
10.8291 -7.4349 2.1497
11.0848 -7.0389 2.1497
11.3260 -6.6340 2.1497
11.5523 -6.2208 2.1497
11.7635 -5.7999 2.1497
11.9593 -5.3718 2.1497
12.1394 -4.9371 2.1497
12.3037 -4.4963 2.1497
12.4520 -4.0501 2.1497
12.5840 -3.5991 2.1497
12.6997 -3.1437 2.1497
12.7989 -2.6847 2.1497
12.8814 -2.2226 2.1497
12.9473 -1.7580 2.1497
12.9964 -1.2916 2.1497
13.0287 -0.8239 2.1497
13.0442 -0.3555 2.1497
13.0429 0.1129 2.1497
13.0247 0.5808 2.1497
12.9899 1.0475 2.1497
12.9383 1.5125 2.1497
12.8701 1.9751 2.1497
12.7855 2.4348 2.1497
12.6845 2.8910 2.1497
12.5672 3.3431 2.1497
12.4339 3.7905 2.1497
12.2848 4.2327 2.1497
12.1200 4.6691 2.1497
11.9399 5.0992 2.1497
11.7445 5.5224 2.1497
11.5343 5.9382 2.1497
11.3094 6.3461 2.1497
11.0701 6.7456 2.1497
10.8169 7.1361 2.1497
10.5501 7.5172 2.1497
2.3625 1.8146 0.4945
2.1204 1.7533 0.4569
2.0796 1.8492 0.4622
1.8923 1.8084 0.4349
9.0234 9.2657 2.1497
2.7007 2.9802 0.6687
8.3305 9.8838 2.1497
7.9682 10.1738 2.1497
7.5958 10.4508 2.1497
7.2140 10.7142 2.1497
6.8231 10.9638 2.1497
6.4237 11.1994 2.1497
6.0162 11.4206 2.1497
5.5557 11.5326 2.1322
5.1371 11.7227 2.1322
4.7122 11.8977 2.1322
4.2813 12.0576 2.1322
3.8451 12.2020 2.1322
3.4041 12.3308 2.1322
2.9589 12.4439 2.1322
2.5099 12.5411 2.1322
2.0578 12.6223 2.1322
1.6807 13.3008 2.2353
1.2020 13.3521 2.2353
0.7218 13.3864 2.2353
0.2406 13.4036 2.2353
-0.2408 13.4038 2.2353
-0.7220 13.3869 2.2353
-1.2023 13.3529 2.2353
-1.6811 13.3018 2.2353
-2.1578 13.2339 2.2353
-2.6318 13.1490 2.2353
-3.1026 13.0474 2.2353
-3.5695 12.9291 2.2353
-4.0320 12.7943 2.2353
-4.4895 12.6431 2.2353
-4.9413 12.4758 2.2353
-5.3871 12.2925 2.2353
-5.8261 12.0934 2.2353
-6.2578 11.8789 2.2353
-6.3736 11.1118 2.1322
-6.7701 10.8783 2.1322
-7.1581 10.6308 2.1322
-7.5371 10.3696 2.1322
-7.9067 10.0950 2.1322
-8.2664 9.8074 2.1322
-8.6157 9.5070 2.1322
-8.9542 9.1944 2.1322
-9.2815 8.8697 2.1322
-9.5971 8.5336 2.1322
-9.9006 8.1862 2.1322
-10.1916 7.8282 2.1322
-10.3773 7.3940 2.1134
-10.3772 6.8458 2.0612
-10.3770 6.3231 2.0140
-10.3769 5.8227 1.9713
-10.3767 5.3422 1.9328
-10.3766 4.8791 1.8982
-10.3765 4.4315 1.8671
-10.3763 3.9973 1.8393
-10.3762 3.5751 1.8146
-10.3761 3.1631 1.7928
-10.3760 2.7601 1.7738
-10.3759 2.3648 1.7573
-10.3758 1.9759 1.7434
-10.3658 1.5907 1.7303
-10.3657 1.2117 1.7211
-10.3656 0.8358 1.7143
-10.3654 0.4622 1.7097
-10.3668 0.0897 1.7075
-10.3678 -0.2826 1.7075
-10.3651 -0.6554 1.7091
-10.3650 -1.0301 1.7133
-10.3649 -1.4074 1.7198
-10.3648 -1.7883 1.7286
-10.3647 -2.1741 1.7397
-10.3745 -2.5681 1.7550
-10.3744 -2.9670 1.7711
-10.3743 -3.3743 1.7899
-6.6202 -2.4193 1.1560
-10.3740 -4.2190 1.8360
-10.3739 -4.6596 1.8636
-10.3738 -5.1146 1.8946
-10.3736 -5.5860 1.9292
-10.3735 -6.0760 1.9678
-6.6708 -4.2359 1.2930
-10.3732 -7.1218 2.0581
-10.2383 -7.5839 2.0833
-10.1969 -8.1359 2.1322
-9.9017 -8.4994 2.1322
-9.5933 -8.8521 2.1322
-9.2724 -9.1935 2.1322
-8.9391 -9.5232 2.1322
-8.5940 -9.8407 2.1322
-8.2376 -10.1456 2.1322
-7.8703 -10.4374 2.1322
-7.4925 -10.7158 2.1322
-7.1048 -10.9804 2.1322
-6.7077 -11.2308 2.1322
-6.3017 -11.4666 2.1322
-6.1719 -12.2527 2.2353
-5.7292 -12.4686 2.2353
-5.2790 -12.6683 2.2353
-4.8217 -12.8515 2.2353
-4.3580 -13.0180 2.2353
-3.8885 -13.1676 2.2353
-3.4139 -13.3001 2.2353
-2.9347 -13.4152 2.2353
-2.4516 -13.5129 2.2353
-1.9652 -13.5930 2.2353
-1.4762 -13.6554 2.2353
-0.9853 -13.6999 2.2353
-0.4930 -13.7266 2.2353
-0.0001 -12.0212 2.2353
0.4312 -12.0133 2.2353
0.8620 -11.9897 2.2353
1.2916 -11.9505 2.2353
1.7195 -11.8958 2.2353
2.0460 -11.2793 2.1320
2.4492 -11.1977 2.1320
2.8492 -11.1015 2.1320
3.2454 -10.9908 2.1320
3.6372 -10.8659 2.1320
4.0242 -10.7269 2.1320
4.4059 -10.5740 2.1320
4.7817 -10.4074 2.1320
5.1511 -10.2272 2.1320
5.5138 -10.0339 2.1320
5.9176 -9.9088 2.1497
6.2681 -9.6880 2.1497
6.6102 -9.4547 2.1497
6.9436 -9.2093 2.1497
7.2678 -8.9519 2.1497
7.5824 -8.6831 2.1497
7.8870 -8.4031 2.1497
8.1812 -8.1124 2.1497
2.5415 -2.3454 0.6454
8.7370 -7.5003 2.1497
8.9978 -7.1798 2.1497
9.2467 -6.8501 2.1497
9.4836 -6.5117 2.1497
9.7080 -6.1651 2.1497
9.9197 -5.8108 2.1497
10.1184 -5.4492 2.1497
10.3038 -5.0807 2.1497
10.4758 -4.7060 2.1497
10.6342 -4.3254 2.1497
10.7786 -3.9395 2.1497
10.9091 -3.5488 2.1497
11.0253 -3.1538 2.1497
11.1272 -2.7550 2.1497
11.2147 -2.3529 2.1497
11.2876 -1.9481 2.1497
11.3459 -1.5411 2.1497
11.3895 -1.1324 2.1497
11.4185 -0.7226 2.1497
11.4326 -0.3121 2.1497
11.4321 0.0984 2.1497
11.4168 0.5085 2.1497
11.3868 0.9177 2.1497
11.3422 1.3254 2.1497
11.2830 1.7310 2.1497
11.2094 2.1342 2.1497
11.1214 2.5342 2.1497
11.0191 2.9308 2.1497
10.9028 3.3232 2.1497
10.7726 3.7112 2.1497
10.6286 4.0941 2.1497
10.4711 4.4714 2.1497
10.3002 4.8428 2.1497
10.1163 5.2077 2.1497
9.9195 5.5657 2.1497
9.7101 5.9163 2.1497
9.4884 6.2592 2.1497
9.2547 6.5938 2.1497
9.0093 6.9197 2.1497
2.1202 1.7530 0.5207
2.0797 1.8492 0.5269
8.2060 7.8417 2.1497
7.9170 8.1291 2.1497
2.7003 2.9796 0.7620
7.3096 8.6720 2.1497
6.9919 8.9268 2.1497
6.6653 9.1700 2.1497
6.3304 9.4015 2.1497
5.9876 9.6208 2.1497
5.5914 9.7479 2.1322
5.2368 9.9407 2.1322
4.8757 10.1206 2.1322
4.5085 10.2877 2.1322
4.1356 10.4415 2.1322
3.7575 10.5819 2.1322
3.3747 10.7088 2.1322
2.9877 10.8221 2.1322
2.5970 10.9214 2.1322
2.2030 11.0068 2.1322
1.8062 11.0782 2.1322
1.4752 11.6738 2.2353
1.0550 11.7189 2.2353
0.6335 11.7490 2.2353
0.2112 11.7641 2.2353
-0.2114 11.7643 2.2353
-0.6337 11.7494 2.2353
-1.0553 11.7195 2.2353
-1.4755 11.6746 2.2353
-1.8939 11.6148 2.2353
-2.3099 11.5402 2.2353
-2.7231 11.4509 2.2353
-3.1329 11.3469 2.2353
-3.5387 11.2284 2.2353
-3.9401 11.0956 2.2353
-4.3366 10.9485 2.2353
-4.7277 10.7874 2.2353
-5.1129 10.6125 2.2353
-5.4917 10.4239 2.2353
-5.8636 10.2220 2.2353
-6.2281 10.0069 2.2353
-6.3154 9.3788 2.1438
-6.6135 9.0984 2.1322
-6.9376 8.8572 2.1322
-7.2530 8.6045 2.1322
-7.5592 8.3407 2.1322
-7.8559 8.0661 2.1322
-8.1427 7.7810 2.1322
-8.4193 7.4858 2.1322
-8.6852 7.1808 2.1322
-8.9402 6.8664 2.1322
-9.1838 6.5431 2.1322
-9.4158 6.2111 2.1322
-9.6359 5.8710 2.1322
-9.8438 5.5231 2.1322
-10.0392 5.1679 2.1322
-10.2218 4.8058 2.1322
-10.3765 4.4309 2.1291
-10.3763 3.9968 2.0975
-10.3762 3.5746 2.0695
-10.3761 3.1626 2.0447
-10.3760 2.7597 2.0231
-10.3759 2.3643 2.0045
-10.3758 1.9754 1.9887
-10.3757 1.5918 1.9757
-10.3756 1.2124 1.9654
-10.3755 0.8362 1.9576
-10.3754 0.4622 1.9525
-10.3752 0.0893 1.9498
-10.3751 -0.2833 1.9497
-10.3750 -0.6565 1.9521
-10.3749 -1.0315 1.9571
-10.3748 -1.4092 1.9646
-10.3747 -1.7905 1.9747
-10.3746 -2.1766 1.9875
-10.3745 -2.5686 2.0031
-10.3744 -2.9675 2.0217
-10.3743 -3.3748 2.0432
-6.6194 -2.4193 1.3195
-10.3740 -4.2195 2.0960
-10.3739 -4.6601 2.1276
-10.2254 -5.0419 2.1322
-10.0412 -5.4075 2.1322
-9.8440 -5.7663 2.1322
-6.6709 -4.2363 1.4765
-9.4110 -6.4617 2.1322
-9.1759 -6.7974 2.1322
-8.9287 -7.1245 2.1322
-8.6698 -7.4425 2.1322
-8.3995 -7.7510 2.1322
-8.1182 -8.0497 2.1322
-7.8261 -8.3380 2.1322
-7.5238 -8.6157 2.1322
-7.2115 -8.8823 2.1322
-6.8897 -9.1375 2.1322
-6.5588 -9.3809 2.1322
-6.2868 -9.7167 2.1554
-6.1553 -10.3064 2.2353
-5.7826 -10.5226 2.2353
-5.4022 -10.7252 2.2353
-5.0146 -10.9139 2.2353
-4.6204 -11.0884 2.2353
-4.2201 -11.2486 2.2353
-3.8142 -11.3941 2.2353
-3.4033 -11.5249 2.2353
-2.9878 -11.6407 2.2353
-2.5684 -11.7414 2.2353
-2.1456 -11.8267 2.2353
-1.7199 -11.8967 2.2353
-1.2919 -11.9512 2.2353
-0.8623 -11.9902 2.2353
-0.4315 -12.0135 2.2353
-0.0001 -10.6775 2.2353
0.3830 -10.6705 2.2353
0.7656 -10.6496 2.2353
1.1472 -10.6148 2.2353
1.5273 -10.5662 2.2353
1.8173 -10.0188 2.1320
2.1754 -9.9463 2.1320
2.5307 -9.8610 2.1320
2.8826 -9.7628 2.1320
3.2307 -9.6520 2.1320
3.5745 -9.5287 2.1320
3.9136 -9.3930 2.1320
4.2475 -9.2452 2.1320
4.5758 -9.0853 2.1320
4.8980 -8.9138 2.1320
5.2138 -8.7307 2.1320
5.5226 -8.5364 2.1320
5.8724 -8.3999 2.1497
6.1687 -8.1820 2.1497
6.4569 -7.9536 2.1497
6.7366 -7.7150 2.1497
7.0074 -7.4665 2.1497
7.2691 -7.2084 2.1497
2.5404 -2.3445 0.7261
7.7633 -6.6650 2.1497
7.9953 -6.3803 2.1497
8.2168 -6.0876 2.1497
8.4276 -5.7871 2.1497
8.6273 -5.4793 2.1497
8.8157 -5.1646 2.1497
8.9926 -4.8434 2.1497
9.1578 -4.5161 2.1497
9.3110 -4.1832 2.1497
9.4521 -3.8451 2.1497
9.5809 -3.5022 2.1497
9.6972 -3.1550 2.1497
9.8010 -2.8040 2.1497
9.8919 -2.4496 2.1497
9.9701 -2.0923 2.1497
10.0354 -1.7325 2.1497
10.0876 -1.3707 2.1497
10.1268 -1.0073 2.1497
10.1530 -0.6430 2.1497
10.1660 -0.2780 2.1497
10.1659 0.0871 2.1497
10.1527 0.4518 2.1497
10.1265 0.8157 2.1497
10.0872 1.1783 2.1497
10.0350 1.5391 2.1497
9.9699 1.8977 2.1497
9.8920 2.2536 2.1497
9.8015 2.6065 2.1497
9.6984 2.9557 2.1497
9.5829 3.3009 2.1497
9.4552 3.6416 2.1497
9.3154 3.9775 2.1497
9.1638 4.3080 2.1497
9.0005 4.6328 2.1497
8.8257 4.9515 2.1497
8.6397 5.2637 2.1497
8.4427 5.5689 2.1497
8.2350 5.8668 2.1497
8.0169 6.1570 2.1497
2.1202 1.7529 0.5852
7.5504 6.7130 2.1497
7.3027 6.9781 2.1497
7.0458 7.2341 2.1497
2.6999 2.9790 0.8561
6.5055 7.7176 2.1497
6.2229 7.9446 2.1497
5.9324 8.1613 2.1497
5.5887 8.2995 2.1322
5.2861 8.4933 2.1322
4.9769 8.6762 2.1322
4.6614 8.8479 2.1322
4.3400 9.0083 2.1322
4.0132 9.1571 2.1322
3.6813 9.2941 2.1322
3.3448 9.4193 2.1322
3.0041 9.5323 2.1322
2.6596 9.6332 2.1322
2.3118 9.7218 2.1322
1.9967 9.9757 2.1709
1.6856 10.3383 2.2353
1.3132 10.3917 2.2353
0.9392 10.4319 2.2353
0.5639 10.4587 2.2353
0.1880 10.4722 2.2353
-0.1882 10.4723 2.2353
-0.5642 10.4590 2.2353
-0.9394 10.4324 2.2353
-1.3135 10.3924 2.2353
-1.6860 10.3391 2.2353
-2.0563 10.2726 2.2353
-2.4241 10.1930 2.2353
-2.7888 10.1003 2.2353
-3.1501 9.9947 2.2353
-3.5073 9.8763 2.2353
-3.8602 9.7452 2.2353
-4.2083 9.6017 2.2353
-4.5510 9.4458 2.2353
-4.8881 9.2778 2.2353
-5.2190 9.0978 2.2353
-5.5433 8.9062 2.2353
-5.8607 8.7031 2.2353
-6.1707 8.4888 2.2353
-6.3112 8.0570 2.1794
-6.4549 7.6573 2.1322
-6.7272 7.4223 2.1322
-6.9911 7.1777 2.1322
-7.2461 6.9238 2.1322
-7.4920 6.6609 2.1322
-7.7284 6.3893 2.1322
-7.9550 6.1093 2.1322
-8.1715 5.8214 2.1322
-8.3777 5.5259 2.1322
-8.5732 5.2231 2.1322
-8.7579 4.9134 2.1322
-8.9314 4.5972 2.1322
-9.0935 4.2749 2.1322
-9.2441 3.9469 2.1322
-9.3828 3.6136 2.1322
-9.5096 3.2756 2.1322
-9.6243 2.9330 2.1322
-9.7266 2.5865 2.1322
-9.8165 2.2364 2.1322
-9.8938 1.8832 2.1322
-9.9584 1.5273 2.1322
-10.0103 1.1692 2.1322
-10.0493 0.8094 2.1322
-10.0753 0.4483 2.1322
-10.0884 0.0864 2.1322
-10.0885 -0.2759 2.1322
-10.0756 -0.6381 2.1322
-10.0496 -0.9996 2.1322
-10.0107 -1.3602 2.1322
-9.9588 -1.7192 2.1322
-9.8941 -2.0763 2.1322
-9.8164 -2.4309 2.1322
-9.7261 -2.7825 2.1322
-9.6231 -3.1309 2.1322
-6.5535 -2.3955 1.4697
-9.3798 -3.8156 2.1322
-9.2397 -4.1511 2.1322
-9.0876 -4.4814 2.1322
-8.9236 -4.8061 2.1322
-8.7480 -5.1248 2.1322
-6.6710 -4.2368 1.6615
-8.3627 -5.7424 2.1322
-8.1535 -6.0405 2.1322
-7.9336 -6.3309 2.1322
-7.7033 -6.6133 2.1322
-7.4629 -6.8872 2.1322
-7.2127 -7.1523 2.1322
-6.9531 -7.4083 2.1322
-6.6842 -7.6548 2.1322
-6.4066 -7.8914 2.1322
-6.2810 -8.3307 2.1881
-6.1082 -8.7369 2.2353
-5.7919 -8.9521 2.2353
-5.4678 -9.1558 2.2353
-5.1366 -9.3477 2.2353
-4.7986 -9.5274 2.2353
-4.4543 -9.6949 2.2353
-4.1041 -9.8498 2.2353
-3.7485 -9.9919 2.2353
-3.3879 -10.1210 2.2353
-3.0229 -10.2371 2.2353
-2.6538 -10.3398 2.2353
-2.2813 -10.4291 2.2353
-1.9057 -10.5049 2.2353
-1.5276 -10.5670 2.2353
-1.1475 -10.6154 2.2353
-0.7659 -10.6499 2.2353
-0.3832 -10.6707 2.2353
-0.0001 -9.5948 2.2353
0.3441 -9.5885 2.2353
0.6880 -9.5697 2.2353
1.0308 -9.5386 2.2353
1.3723 -9.4950 2.2353
1.7120 -9.4391 2.2353
1.9733 -9.0228 2.1523
2.2741 -8.8614 2.1320
2.5903 -8.7733 2.1320
2.9031 -8.6738 2.1320
3.2121 -8.5631 2.1320
3.5169 -8.4413 2.1320
3.8170 -8.3086 2.1320
4.1120 -8.1651 2.1320
4.4017 -8.0110 2.1320
4.6856 -7.8466 2.1320
4.9632 -7.6721 2.1320
5.2344 -7.4877 2.1320
5.4986 -7.2937 2.1320
5.7556 -7.0902 2.1320
6.0547 -6.9345 2.1497
6.2983 -6.7113 2.1497
6.5336 -6.4795 2.1497
2.5393 -2.3436 0.8074
6.9782 -5.9914 2.1497
7.1869 -5.7357 2.1497
7.3863 -5.4727 2.1497
7.5759 -5.2027 2.1497
7.7557 -4.9262 2.1497
7.9253 -4.6434 2.1497
8.0846 -4.3547 2.1497
8.2333 -4.0606 2.1497
8.3713 -3.7614 2.1497
8.4985 -3.4576 2.1497
8.6145 -3.1494 2.1497
8.7194 -2.8373 2.1497
8.8129 -2.5218 2.1497
8.8951 -2.2032 2.1497
8.9656 -1.8819 2.1497
9.0246 -1.5584 2.1497
9.0719 -1.2331 2.1497
9.1075 -0.9064 2.1497
9.1313 -0.5787 2.1497
9.1433 -0.2505 2.1497
9.1435 0.0779 2.1497
9.1319 0.4059 2.1497
9.1086 0.7333 2.1497
9.0736 1.0595 2.1497
9.0269 1.3841 2.1497
8.9687 1.7067 2.1497
8.8989 2.0270 2.1497
8.8177 2.3444 2.1497
8.7253 2.6587 2.1497
8.6217 2.9693 2.1497
8.5070 3.2760 2.1497
8.3815 3.5783 2.1497
8.2453 3.8758 2.1497
8.0986 4.1682 2.1497
7.9416 4.4551 2.1497
7.7744 4.7361 2.1497
7.5974 5.0109 2.1497
7.4107 5.2791 2.1497
7.2146 5.5404 2.1497
2.1202 1.7528 0.6503
6.7951 6.0411 2.1497
6.5724 6.2798 2.1497
6.3413 6.5103 2.1497
2.6995 2.9784 0.9510
5.8553 6.9458 2.1497
5.5555 7.0921 2.1322
5.2963 7.2857 2.1322
5.0304 7.4699 2.1322
4.7581 7.6445 2.1322
4.4798 7.8092 2.1322
4.1959 7.9640 2.1322
3.9067 8.1084 2.1322
3.6125 8.2425 2.1322
3.3138 8.3660 2.1322
3.0110 8.4787 2.1322
2.7043 8.5806 2.1322
2.3942 8.6715 2.1322
2.0811 8.7512 2.1322
1.7654 8.8198 2.1322
1.5174 9.3063 2.2353
1.1822 9.3545 2.2353
0.8454 9.3906 2.2353
0.5077 9.4148 2.2353
0.1692 9.4269 2.2353
-0.1694 9.4270 2.2353
-0.5079 9.4150 2.2353
-0.8457 9.3910 2.2353
-1.1825 9.3550 2.2353
-1.5177 9.3070 2.2353
-1.8511 9.2470 2.2353
-2.1822 9.1753 2.2353
-2.5105 9.0918 2.2353
-2.8356 8.9966 2.2353
-3.1572 8.8899 2.2353
-3.4748 8.7718 2.2353
-3.7881 8.6425 2.2353
-4.0966 8.5021 2.2353
-4.3999 8.3507 2.2353
-4.6977 8.1886 2.2353
-4.9895 8.0160 2.2353
-5.2751 7.8330 2.2353
-5.5540 7.6399 2.2353
-5.8259 7.4370 2.2353
-6.0904 7.2245 2.2353
-6.3069 6.9581 2.2211
-6.3173 6.4854 2.1408
-6.5212 6.2307 2.1322
-6.7423 5.9939 2.1322
-6.9549 5.7494 2.1322
-7.1586 5.4973 2.1322
-7.3533 5.2381 2.1322
-7.5386 4.9720 2.1322
-7.7143 4.6994 2.1322
-7.8802 4.4206 2.1322
-8.0361 4.1359 2.1322
-8.1818 3.8458 2.1322
-8.3170 3.5506 2.1322
-8.4416 3.2507 2.1322
-8.5554 2.9464 2.1322
-8.6582 2.6382 2.1322
-8.7500 2.3264 2.1322
-8.8306 2.0114 2.1322
-8.8998 1.6936 2.1322
-8.9577 1.3734 2.1322
-9.0040 1.0513 2.1322
-9.0388 0.7276 2.1322
-9.0619 0.4028 2.1322
-9.0734 0.0773 2.1322
-9.0732 -0.2485 2.1322
-9.0612 -0.5742 2.1322
-9.0376 -0.8994 2.1322
-9.0023 -1.2236 2.1322
-8.9554 -1.5464 2.1322
-8.8968 -1.8674 2.1322
-8.8267 -2.1862 2.1322
-8.7452 -2.5023 2.1322
-8.6524 -2.8155 2.1322
-6.5465 -2.3933 1.6329
-8.4331 -3.4309 2.1322
-8.3069 -3.7324 2.1322
-8.1699 -4.0292 2.1322
-8.0222 -4.3210 2.1322
-7.8641 -4.6074 2.1322
-6.6712 -4.2372 1.8484
-7.5173 -5.1623 2.1322
-7.3291 -5.4301 2.1322
-7.1312 -5.6910 2.1322
-6.9240 -5.9447 2.1322
-6.7078 -6.1907 2.1322
-6.4828 -6.4289 2.1322
-6.2898 -6.7021 2.1461
-6.2813 -7.1938 2.2294
-6.0363 -7.4356 2.2353
-5.7667 -7.6489 2.2353
-5.4895 -7.8523 2.2353
-5.2051 -8.0456 2.2353
-4.9138 -8.2285 2.2353
-4.6161 -8.4008 2.2353
-4.3123 -8.5622 2.2353
-4.0028 -8.7125 2.2353
-3.6880 -8.8516 2.2353
-3.3684 -8.9792 2.2353
-3.0444 -9.0952 2.2353
-2.7163 -9.1993 2.2353
-2.3847 -9.2916 2.2353
-2.0499 -9.3718 2.2353
-1.7124 -9.4398 2.2353
-1.3726 -9.4956 2.2353
-1.0311 -9.5390 2.2353
-0.6882 -9.5700 2.2353
-0.3444 -9.5887 2.2353
-0.0001 -8.7030 2.2353
0.3121 -8.6973 2.2353
0.6240 -8.6803 2.2353
0.9350 -8.6521 2.2353
1.2447 -8.6126 2.2353
1.5529 -8.5619 2.2353
1.7766 -8.1236 2.1363
2.0626 -8.0381 2.1320
2.3495 -7.9582 2.1320
2.6333 -7.8680 2.1320
2.9136 -7.7677 2.1320
3.1900 -7.6573 2.1320
3.4623 -7.5370 2.1320
3.7300 -7.4069 2.1320
3.9928 -7.2673 2.1320
4.2504 -7.1182 2.1320
4.5023 -6.9600 2.1320
4.7483 -6.7929 2.1320
4.9881 -6.6169 2.1320
5.2214 -6.4325 2.1320
5.4478 -6.2398 2.1320
5.6671 -6.0391 2.1320
5.9275 -5.8788 2.1497
2.5381 -2.3427 0.8896
6.3311 -5.4362 2.1497
6.5206 -5.2043 2.1497
6.7016 -4.9658 2.1497
6.8739 -4.7210 2.1497
7.0371 -4.4702 2.1497
7.1912 -4.2137 2.1497
7.3359 -3.9519 2.1497
7.4711 -3.6851 2.1497
7.5965 -3.4137 2.1497
7.7121 -3.1380 2.1497
7.8176 -2.8584 2.1497
7.9130 -2.5753 2.1497
7.9981 -2.2890 2.1497
8.0728 -1.9999 2.1497
8.1371 -1.7084 2.1497
8.1908 -1.4148 2.1497
8.2340 -1.1196 2.1497
8.2665 -0.8230 2.1497
8.2883 -0.5256 2.1497
8.2994 -0.2277 2.1497
8.2999 0.0703 2.1497
8.2896 0.3681 2.1497
8.2687 0.6653 2.1497
8.2371 0.9614 2.1497
8.1950 1.2561 2.1497
8.1423 1.5491 2.1497
8.0792 1.8399 2.1497
8.0057 2.1281 2.1497
7.9220 2.4135 2.1497
7.8281 2.6957 2.1497
7.7242 2.9742 2.1497
7.6104 3.2487 2.1497
7.4869 3.5189 2.1497
7.3539 3.7846 2.1497
7.2115 4.0451 2.1497
7.0598 4.3004 2.1497
6.8992 4.5500 2.1497
6.7298 4.7937 2.1497
6.5519 5.0311 2.1497
2.1203 1.7527 0.7160
6.1712 5.4860 2.1497
5.9690 5.7029 2.1497
5.7120 5.8639 2.1320
2.6991 2.9777 1.0469
5.2745 6.2564 2.1320
5.0459 6.4411 2.1322
4.8105 6.6171 2.1322
4.5691 6.7845 2.1322
4.3218 6.9432 2.1322
4.0691 7.0929 2.1322
3.8113 7.2335 2.1322
3.5486 7.3648 2.1322
3.2814 7.4867 2.1322
3.0102 7.5989 2.1322
2.7351 7.7014 2.1322
2.4565 7.7940 2.1322
2.1748 7.8766 2.1322
1.8904 7.9491 2.1322
1.6812 8.3988 2.2353
1.3784 8.4534 2.2353
1.0739 8.4972 2.2353
0.7680 8.5301 2.2353
0.4611 8.5520 2.2353
0.1537 8.5630 2.2353
-0.1539 8.5631 2.2353
-0.4614 8.5522 2.2353
-0.7682 8.5303 2.2353
-1.0742 8.4976 2.2353
-1.3787 8.4539 2.2353
-1.6815 8.3995 2.2353
-1.9823 8.3342 2.2353
-2.2805 8.2583 2.2353
-2.5758 8.1718 2.2353
-2.8679 8.0748 2.2353
-3.1564 7.9675 2.2353
-3.4409 7.8499 2.2353
-3.7210 7.7222 2.2353
-3.9965 7.5847 2.2353
-4.2669 7.4373 2.2353
-4.5320 7.2804 2.2353
-4.7913 7.1141 2.2353
-5.0445 6.9387 2.2353
-5.2914 6.7542 2.2353
-5.5315 6.5611 2.2353
-5.7647 6.3594 2.2353
-5.9905 6.1496 2.2353
-6.2088 5.9318 2.2353
-6.2849 5.5869 2.1885
-6.3160 5.2208 2.1322
-6.5009 4.9918 2.1322
-6.6775 4.7563 2.1322
-6.8457 4.5146 2.1322
-7.0051 4.2669 2.1322
-7.1556 4.0136 2.1322
-7.2969 3.7551 2.1322
-7.4290 3.4916 2.1322
-7.5516 3.2235 2.1322
-7.6645 2.9511 2.1322
-7.7676 2.6747 2.1322
-7.8608 2.3948 2.1322
-7.9439 2.1117 2.1322
-8.0169 1.8256 2.1322
-8.0795 1.5371 2.1322
-8.1318 1.2464 2.1322
-8.1736 0.9539 2.1322
-8.2050 0.6601 2.1322
-8.2257 0.3653 2.1322
-8.2359 0.0698 2.1322
-8.2355 -0.2260 2.1322
-8.2245 -0.5216 2.1322
-8.2028 -0.8167 2.1322
-8.1705 -1.1109 2.1322
-8.1277 -1.4039 2.1322
-8.0743 -1.6952 2.1322
-8.0105 -1.9844 2.1322
-7.9363 -2.2713 2.1322
-7.8519 -2.5554 2.1322
-6.5395 -2.3911 1.7975
-7.6525 -3.1137 2.1322
-7.5378 -3.3872 2.1322
-7.4133 -3.6565 2.1322
-7.2791 -3.9212 2.1322
-7.1355 -4.1809 2.1322
-6.6713 -4.2376 2.0372
-6.8205 -4.6842 2.1322
-6.6495 -4.9270 2.1322
-6.4745 -5.1673 2.1337
-6.2925 -5.4029 2.1359
-6.2817 -5.7979 2.2010
-6.1656 -6.1147 2.2353
-5.9434 -6.3333 2.2353
-5.7134 -6.5437 2.2353
-5.4759 -6.7457 2.2353
-5.2312 -6.9391 2.2353
-4.9797 -7.1235 2.2353
-4.7216 -7.2987 2.2353
-4.4573 -7.4645 2.2353
-4.1872 -7.6207 2.2353
-3.9116 -7.7670 2.2353
-3.6308 -7.9033 2.2353
-3.3453 -8.0293 2.2353
-3.0553 -8.1450 2.2353
-2.7614 -8.2501 2.2353
-2.4638 -8.3446 2.2353
-2.1630 -8.4282 2.2353
-1.8593 -8.5009 2.2353
-1.5532 -8.5625 2.2353
-1.2450 -8.6131 2.2353
-0.9352 -8.6524 2.2353
-0.6242 -8.6806 2.2353
-0.3124 -8.6974 2.2353
-0.0001 -7.9551 2.2353
0.2853 -7.9498 2.2353
0.5703 -7.9343 2.2353
0.8546 -7.9085 2.2353
1.1377 -7.8724 2.2353
1.4193 -7.8262 2.2353
1.6991 -7.7697 2.2353
1.8853 -7.3474 2.1320
2.1475 -7.2745 2.1320
2.4069 -7.1921 2.1320
2.6632 -7.1005 2.1320
2.9159 -6.9996 2.1320
3.1648 -6.8897 2.1320
3.4095 -6.7709 2.1320
3.6498 -6.6433 2.1320
3.8853 -6.5072 2.1320
4.1156 -6.3626 2.1320
4.3406 -6.2099 2.1320
4.5599 -6.0492 2.1320
4.7732 -5.8807 2.1320
4.9802 -5.7046 2.1320
5.1807 -5.5212 2.1320
5.3745 -5.3307 2.1320
2.5370 -2.3418 0.9726
5.7406 -4.9296 2.1320
5.9615 -4.7584 2.1497
6.1271 -4.5404 2.1497
6.2847 -4.3167 2.1497
6.4341 -4.0874 2.1497
6.5751 -3.8530 2.1497
6.7075 -3.6137 2.1497
6.8312 -3.3699 2.1497
6.9461 -3.1217 2.1497
7.0519 -2.8697 2.1497
7.1485 -2.6141 2.1497
7.2359 -2.3553 2.1497
7.3139 -2.0936 2.1497
7.3824 -1.8292 2.1497
7.4413 -1.5627 2.1497
7.4907 -1.2942 2.1497
7.5303 -1.0242 2.1497
7.5602 -0.7531 2.1497
7.5803 -0.4811 2.1497
7.5907 -0.2086 2.1497
7.5913 0.0640 2.1497
7.5821 0.3363 2.1497
7.5631 0.6081 2.1497
7.5344 0.8790 2.1497
7.4960 1.1486 2.1497
7.4480 1.4166 2.1497
7.3904 1.6827 2.1497
7.3234 1.9464 2.1497
7.2469 2.2075 2.1497
7.1612 2.4657 2.1497
7.0663 2.7205 2.1497
6.9624 2.9717 2.1497
6.8495 3.2190 2.1497
6.7279 3.4621 2.1497
6.5978 3.7005 2.1497
6.4592 3.9342 2.1497
6.3124 4.1627 2.1497
6.1575 4.3857 2.1497
5.9948 4.6030 2.1497
2.1203 1.7526 0.7826
5.6004 4.9782 2.1320
5.4170 5.1751 2.1320
5.2267 5.3653 2.1320
2.6987 2.9771 1.1439
4.8264 5.7247 2.1320
4.6170 5.8934 2.1320
4.4017 6.0544 2.1320
4.1808 6.2077 2.1320
3.9548 6.3532 2.1321
3.7236 6.4903 2.1321
3.4877 6.6191 2.1321
3.2474 6.7393 2.1322
3.0029 6.8509 2.1322
2.7547 6.9536 2.1322
2.5029 7.0475 2.1322
2.2480 7.1323 2.1321
1.9942 7.2222 2.1364
1.7493 7.3555 2.1560
1.5386 7.6860 2.2353
1.2615 7.7360 2.2353
0.9828 7.7761 2.2353
0.7028 7.8062 2.2353
0.4220 7.8263 2.2353
0.1407 7.8364 2.2353
-0.1409 7.8365 2.2353
-0.4223 7.8265 2.2353
-0.7031 7.8065 2.2353
-0.9831 7.7765 2.2353
-1.2618 7.7365 2.2353
-1.5389 7.6866 2.2353
-1.8141 7.6269 2.2353
-2.0870 7.5573 2.2353
-2.3573 7.4781 2.2353
-2.6246 7.3893 2.2353
-2.8885 7.2910 2.2353
-3.1489 7.1833 2.2353
-3.4052 7.0664 2.2353
-3.6573 6.9405 2.2353
-3.9047 6.8055 2.2353
-4.1472 6.6619 2.2353
-4.3844 6.5096 2.2353
-4.6161 6.3490 2.2353
-4.8419 6.1801 2.2353
-5.0616 6.0033 2.2353
-5.2749 5.8187 2.2353
-5.4814 5.6266 2.2353
-5.6810 5.4272 2.2353
-5.8734 5.2207 2.2353
-6.0584 5.0075 2.2353
-6.2356 4.7877 2.2353
-6.2846 4.4761 2.1933
-6.2937 4.1502 2.1426
-6.4089 3.9034 2.1322
-6.5465 3.6716 2.1322
-6.6757 3.4350 2.1322
-6.7963 3.1939 2.1322
-6.9083 2.9486 2.1322
-7.0115 2.6993 2.1322
-7.1056 2.4465 2.1322
-7.1907 2.1903 2.1322
-7.2666 1.9313 2.1322
-7.3332 1.6696 2.1322
-7.3903 1.4056 2.1322
-7.4380 1.1397 2.1322
-7.4761 0.8722 2.1322
-7.5046 0.6034 2.1322
-7.5234 0.3337 2.1322
-7.5325 0.0635 2.1322
-7.5320 -0.2070 2.1322
-7.5217 -0.4774 2.1322
-7.5017 -0.7473 2.1322
-7.4720 -1.0163 2.1322
-7.4327 -1.2842 2.1322
-7.3837 -1.5505 2.1322
-7.3252 -1.8150 2.1322
-7.2572 -2.0773 2.1322
-7.1798 -2.3370 2.1322
-6.5325 -2.3888 1.9637
-6.9972 -2.8474 2.1322
-6.8921 -3.0974 2.1322
-6.7782 -3.3436 2.1322
-6.6554 -3.5855 2.1322
-6.5239 -3.8229 2.1322
-6.3840 -4.0555 2.1322
-6.2894 -4.3198 2.1506
-6.2820 -4.6551 2.2033
-6.2009 -4.9493 2.2353
-6.0206 -5.1697 2.2353
-5.8323 -5.3835 2.2353
-5.6364 -5.5903 2.2353
-5.4332 -5.7900 2.2353
-5.2229 -5.9823 2.2353
-5.0057 -6.1669 2.2353
-4.7820 -6.3435 2.2353
-4.5520 -6.5120 2.2353
-4.3160 -6.6721 2.2353
-4.0744 -6.8236 2.2353
-3.8275 -6.9663 2.2353
-3.5755 -7.0999 2.2353
-3.3188 -7.2244 2.2353
-3.0578 -7.3396 2.2353
-2.7927 -7.4453 2.2353
-2.5240 -7.5413 2.2353
-2.2520 -7.6276 2.2353
-1.9770 -7.7039 2.2353
-1.6995 -7.7703 2.2353
-1.4197 -7.8267 2.2353
-1.1380 -7.8728 2.2353
-0.8548 -7.9088 2.2353
-0.5705 -7.9345 2.2353
-0.2855 -7.9499 2.2353
-0.0001 -7.3181 2.2353
0.2624 -7.3133 2.2353
0.5246 -7.2990 2.2353
0.7861 -7.2753 2.2353
1.0466 -7.2421 2.2353
1.3056 -7.1996 2.2353
1.5630 -7.1477 2.2353
1.7670 -6.8867 2.1723
1.9775 -6.6988 2.1341
2.2142 -6.6165 2.1320
2.4499 -6.5322 2.1320
2.6824 -6.4395 2.1320
2.9114 -6.3384 2.1320
3.1366 -6.2292 2.1320
3.3576 -6.1119 2.1320
3.5743 -5.9867 2.1320
3.7863 -5.8538 2.1320
3.9933 -5.7134 2.1320
4.1950 -5.5656 2.1320
4.3913 -5.4106 2.1320
4.5819 -5.2487 2.1320
4.7664 -5.0800 2.1320
4.9448 -4.9048 2.1320
2.5358 -2.3409 1.0566
5.2818 -4.5359 2.1320
5.4401 -4.3426 2.1320
5.5913 -4.1437 2.1320
5.7352 -3.9396 2.1320
5.9202 -3.7613 2.1497
6.0500 -3.5457 2.1497
6.1720 -3.3255 2.1497
6.2860 -3.1012 2.1497
6.3917 -2.8730 2.1497
6.4892 -2.6411 2.1497
6.5783 -2.4060 2.1497
6.6588 -2.1678 2.1497
6.7307 -1.9270 2.1497
6.7939 -1.6837 2.1497
6.8483 -1.4385 2.1497
6.8938 -1.1914 2.1497
6.9304 -0.9430 2.1497
6.9581 -0.6934 2.1497
6.9767 -0.4431 2.1497
6.9864 -0.1923 2.1497
6.9871 0.0586 2.1497
6.9787 0.3093 2.1497
6.9614 0.5594 2.1497
6.9351 0.8088 2.1497
6.8999 1.0570 2.1497
6.8559 1.3037 2.1497
6.8030 1.5486 2.1497
6.7414 1.7914 2.1497
6.6712 2.0318 2.1497
6.5924 2.2695 2.1497
6.5051 2.5041 2.1497
6.4096 2.7354 2.1497
6.3058 2.9632 2.1497
6.1940 3.1870 2.1497
6.0742 3.4066 2.1497
5.9467 3.6217 2.1497
5.7640 3.8007 2.1320
5.6227 4.0044 2.1320
5.4742 4.2029 2.1320
2.1204 1.7525 0.8500
5.1565 4.5833 2.1320
4.9877 4.7647 2.1320
4.8125 4.9399 2.1320
2.6983 2.9764 1.2422
4.4441 5.2709 2.1320
4.2513 5.4262 2.1320
4.0531 5.5746 2.1320
3.8497 5.7158 2.1320
3.6415 5.8496 2.1320
3.4287 5.9759 2.1320
3.2114 6.0945 2.1320
2.9902 6.2053 2.1320
2.7652 6.3082 2.1321
2.5366 6.4028 2.1321
2.3048 6.4893 2.1321
2.0701 6.5674 2.1321
1.8327 6.6371 2.1321
1.6702 7.0225 2.2353
1.4168 7.0776 2.2353
1.1617 7.1237 2.2353
0.9050 7.1606 2.2353
0.6472 7.1883 2.2353
0.3886 7.2069 2.2353
0.1295 7.2162 2.2353
-0.1298 7.2162 2.2353
-0.3889 7.2070 2.2353
-0.6475 7.1886 2.2353
-0.9053 7.1609 2.2353
-1.1620 7.1241 2.2353
-1.4172 7.0781 2.2353
-1.6706 7.0230 2.2353
-1.9219 6.9590 2.2353
-2.1707 6.8860 2.2353
-2.4169 6.8042 2.2353
-2.6599 6.7136 2.2353
-2.8996 6.6144 2.2353
-3.1357 6.5067 2.2353
-3.3677 6.3906 2.2353
-3.5955 6.2663 2.2353
-3.8188 6.1340 2.2353
-4.0372 5.9937 2.2353
-4.2504 5.8457 2.2353
-4.4583 5.6902 2.2353
-4.6606 5.5273 2.2353
-4.8569 5.3573 2.2353
-5.0470 5.1803 2.2353
-5.2307 4.9966 2.2353
-5.4078 4.8064 2.2353
-5.5780 4.6100 2.2353
-5.7410 4.4076 2.2353
-5.8968 4.1995 2.2353
-6.0451 3.9859 2.2353
-6.1856 3.7671 2.2353
-6.2843 3.5243 2.2233
-6.2847 3.2335 2.1804
-6.2929 2.9570 2.1446
-6.3597 2.7140 2.1322
-6.4754 2.4926 2.1391
-6.5411 2.2517 2.1322
-6.6193 2.0159 2.1322
-6.6890 1.7774 2.1322
-6.7501 1.5365 2.1322
-6.8026 1.2935 2.1322
-6.8463 1.0487 2.1322
-6.8813 0.8025 2.1322
-6.9074 0.5551 2.1322
-6.9246 0.3068 2.1322
-6.9328 0.0581 2.1322
-6.9322 -0.1909 2.1322
-6.9226 -0.4397 2.1322
-6.9041 -0.6880 2.1322
-6.8766 -0.9356 2.1322
-6.8403 -1.1821 2.1322
-6.7951 -1.4272 2.1322
-6.7411 -1.6706 2.1322
-6.6784 -1.9119 2.1322
-6.6070 -2.1509 2.1322
-6.5253 -2.3865 2.1316
-6.4387 -2.6205 2.1322
-6.3420 -2.8505 2.1322
-6.2899 -3.1030 2.1503
-6.2824 -3.3849 2.1874
-6.2823 -3.6817 2.2315
-6.1580 -3.9122 2.2353
-6.0148 -4.1315 2.2353
-5.8639 -4.3456 2.2353
-5.7053 -4.5541 2.2353
-5.5392 -4.7568 2.2353
-5.3660 -4.9533 2.2353
-5.1857 -5.1436 2.2353
-4.9986 -5.3273 2.2353
-4.8051 -5.5041 2.2353
-4.6052 -5.6738 2.2353
-4.3993 -5.8363 2.2353
-4.1877 -5.9912 2.2353
-3.9706 -6.1384 2.2353
-3.7483 -6.2777 2.2353
-3.5210 -6.4089 2.2353
-3.2892 -6.5318 2.2353
-3.0531 -6.6463 2.2353
-2.8129 -6.7522 2.2353
-2.5691 -6.8493 2.2353
-2.3219 -6.9376 2.2353
-2.0716 -7.0170 2.2353
-1.8187 -7.0872 2.2353
-1.5633 -7.1482 2.2353
-1.3059 -7.2000 2.2353
-1.0468 -7.2425 2.2353
-0.7864 -7.2756 2.2353
-0.5248 -7.2992 2.2353
-0.2627 -7.3134 2.2353
-0.0001 -6.7686 2.2353
0.2427 -6.7642 2.2353
0.4852 -6.7510 2.2353
0.7270 -6.7291 2.2353
0.9679 -6.6984 2.2353
1.2075 -6.6591 2.2353
1.4456 -6.6111 2.2353
1.6817 -6.5546 2.2353
1.8272 -6.1899 2.1320
2.0479 -6.1199 2.1320
2.2659 -6.0420 2.1320
2.4810 -5.9562 2.1320
2.6928 -5.8628 2.1320
2.9011 -5.7618 2.1320
3.1056 -5.6534 2.1320
3.3060 -5.5376 2.1320
3.5021 -5.4148 2.1320
3.6936 -5.2849 2.1320
3.8803 -5.1483 2.1320
4.0619 -5.0050 2.1320
4.2382 -4.8553 2.1320
4.4089 -4.6993 2.1320
4.5739 -4.5373 2.1320
2.5346 -2.3400 1.1418
4.8858 -4.1962 2.1320
5.0323 -4.0174 2.1320
5.1723 -3.8335 2.1320
5.3055 -3.6447 2.1320
5.4318 -3.4513 2.1320
5.5510 -3.2535 2.1320
5.6630 -3.0516 2.1320
5.7676 -2.8458 2.1320
5.9133 -2.6582 2.1497
6.0035 -2.4438 2.1497
6.0860 -2.2262 2.1497
6.1606 -2.0059 2.1497
6.2273 -1.7831 2.1497
6.2858 -1.5581 2.1497
6.3362 -1.3312 2.1497
6.3785 -1.1027 2.1497
6.4125 -0.8728 2.1497
6.4381 -0.6419 2.1497
6.4555 -0.4103 2.1497
6.4646 -0.1783 2.1497
6.4653 0.0539 2.1497
6.4577 0.2858 2.1497
6.4418 0.5174 2.1497
6.4176 0.7481 2.1497
6.3851 0.9778 2.1497
6.3444 1.2061 2.1497
6.2956 1.4328 2.1497
6.2387 1.6575 2.1497
6.1738 1.8800 2.1497
6.1010 2.1000 2.1497
6.0203 2.3172 2.1497
5.9320 2.5313 2.1497
5.8361 2.7421 2.1497
5.6856 2.9251 2.1320
5.5758 3.1267 2.1320
5.4589 3.3243 2.1320
5.3349 3.5175 2.1320
5.2042 3.7061 2.1320
5.0668 3.8899 2.1320
2.1204 1.7524 0.9183
4.7729 4.2420 2.1320
4.6167 4.4100 2.1320
4.4546 4.5722 2.1320
2.6979 2.9758 1.3418
4.1137 4.8787 2.1320
3.9352 5.0226 2.1320
3.7518 5.1599 2.1320
3.5636 5.2907 2.1320
3.3709 5.4146 2.1320
3.1739 5.5316 2.1320
2.9728 5.6414 2.1320
2.7680 5.7439 2.1320
2.5597 5.8391 2.1320
2.3481 5.9268 2.1320
2.1336 6.0069 2.1320
1.9163 6.0792 2.1320
1.7373 6.2912 2.1832
1.5462 6.5007 2.2353
1.3116 6.5517 2.2353
1.0754 6.5944 2.2353
0.8378 6.6286 2.2353
0.5992 6.6542 2.2353
0.3598 6.6714 2.2353
0.1199 6.6800 2.2353
-0.1201 6.6800 2.2353
-0.3600 6.6715 2.2353
-0.5994 6.6544 2.2353
-0.8381 6.6288 2.2353
-1.0757 6.5947 2.2353
-1.3119 6.5521 2.2353
-1.5465 6.5011 2.2353
-1.7791 6.4418 2.2353
-2.0095 6.3742 2.2353
-2.2373 6.2984 2.2353
-2.4623 6.2145 2.2353
-2.6842 6.1227 2.2353
-2.9027 6.0229 2.2353
-3.1175 5.9154 2.2353
-3.3283 5.8003 2.2353
-3.5349 5.6778 2.2353
-3.7371 5.5479 2.2353
-3.9345 5.4108 2.2353
-4.1268 5.2668 2.2353
-4.3140 5.1160 2.2353
-4.4956 4.9585 2.2353
-4.6716 4.7946 2.2353
-4.8416 4.6246 2.2353
-5.0054 4.4485 2.2353
-5.1629 4.2667 2.2353
-5.3137 4.0792 2.2353
-5.4578 3.8865 2.2353
-5.5950 3.6888 2.2353
-5.7250 3.4862 2.2353
-5.8476 3.2791 2.2353
-5.9629 3.0676 2.2353
-6.0704 2.8521 2.2353
-6.1703 2.6329 2.2353
-6.2622 2.4102 2.2353
-6.2840 2.1629 2.2134
-6.2839 1.9135 2.1873
-6.2876 1.6705 2.1658
-6.2918 1.4318 2.1476
-6.2952 1.1967 2.1323
-6.3354 0.9701 2.1322
-6.3676 0.7422 2.1322
-6.3916 0.5133 2.1322
-6.4074 0.2836 2.1322
-6.4150 0.0534 2.1322
-6.4143 -0.1769 2.1322
-6.4053 -0.4071 2.1322
-6.3880 -0.6369 2.1322
-6.3625 -0.8660 2.1322
-6.3288 -1.0941 2.1322
-6.2940 -1.3223 2.1346
-6.2903 -1.5592 2.1505
-6.2859 -1.7999 2.1692
-6.2828 -2.0456 2.1916
-6.2827 -2.2981 2.2184
-6.2447 -2.5418 2.2353
-6.1508 -2.7649 2.2353
-6.0489 -2.9844 2.2353
-5.9391 -3.2003 2.2353
-5.8216 -3.4120 2.2353
-5.6965 -3.6194 2.2353
-5.5640 -3.8222 2.2353
-5.4243 -4.0202 2.2353
-5.2776 -4.2130 2.2353
-5.1239 -4.4004 2.2353
-4.9635 -4.5822 2.2353
-4.7967 -4.7581 2.2353
-4.6237 -4.9279 2.2353
-4.4446 -5.0914 2.2353
-4.2597 -5.2484 2.2353
-4.0692 -5.3986 2.2353
-3.8734 -5.5418 2.2353
-3.6725 -5.6779 2.2353
-3.4669 -5.8067 2.2353
-3.2567 -5.9280 2.2353
-3.0422 -6.0417 2.2353
-2.8238 -6.1475 2.2353
-2.6017 -6.2454 2.2353
-2.3761 -6.3353 2.2353
-2.1475 -6.4169 2.2353
-1.9160 -6.4902 2.2353
-1.6821 -6.5551 2.2353
-1.4459 -6.6116 2.2353
-1.2078 -6.6595 2.2353
-0.9682 -6.6987 2.2353
-0.7273 -6.7293 2.2353
-0.4854 -6.7512 2.2353
-0.2429 -6.7643 2.2353
-0.0001 -6.2893 2.2353
0.2255 -6.2852 2.2353
0.4508 -6.2730 2.2353
0.6755 -6.2526 2.2353
0.8993 -6.2241 2.2353
1.1220 -6.1876 2.2353
1.3432 -6.1431 2.2353
1.5626 -6.0906 2.2353
1.7643 -5.9771 2.2156
1.9028 -5.6867 2.1320
2.1054 -5.6143 2.1320
2.3053 -5.5347 2.1320
2.5021 -5.4479 2.1320
2.6956 -5.3541 2.1320
2.8857 -5.2534 2.1320
3.0719 -5.1459 2.1320
3.2542 -5.0317 2.1320
3.4321 -4.9111 2.1320
3.6056 -4.7842 2.1320
3.7744 -4.6511 2.1320
3.9383 -4.5120 2.1320
4.0970 -4.3672 2.1320
4.2504 -4.2167 2.1320
2.5334 -2.3391 1.2281
4.5403 -3.8997 2.1320
4.6765 -3.7336 2.1320
4.8066 -3.5628 2.1320
4.9305 -3.3874 2.1320
5.0479 -3.2077 2.1320
5.1587 -3.0239 2.1320
5.2629 -2.8363 2.1320
5.3602 -2.6451 2.1320
5.4506 -2.4505 2.1320
5.5339 -2.2529 2.1320
5.6100 -2.0524 2.1320
5.6789 -1.8494 2.1320
5.7403 -1.6440 2.1320
5.8423 -1.4485 2.1497
5.8893 -1.2376 2.1497
5.9286 -1.0252 2.1497
5.9603 -0.8116 2.1497
5.9842 -0.5970 2.1497
6.0005 -0.3817 2.1497
6.0090 -0.1660 2.1497
6.0098 0.0498 2.1497
6.0028 0.2654 2.1497
5.9881 0.4806 2.1497
5.9657 0.6951 2.1497
5.9356 0.9086 2.1497
5.8978 1.1209 2.1497
5.8525 1.3316 2.1497
5.7522 1.5279 2.1320
5.6924 1.7331 2.1320
5.6253 1.9360 2.1320
5.5511 2.1363 2.1320
5.4697 2.3337 2.1320
5.3813 2.5281 2.1320
5.2860 2.7192 2.1320
5.1840 2.9067 2.1320
5.0753 3.0904 2.1320
4.9601 3.2701 2.1320
4.8386 3.4455 2.1320
4.7110 3.6164 2.1320
2.1205 1.7523 0.9877
4.4378 3.9439 2.1320
4.2926 4.1001 2.1320
4.1419 4.2510 2.1320
2.6974 2.9751 1.4428
3.8250 4.5360 2.1320
3.6591 4.6698 2.1320
3.4886 4.7976 2.1320
3.3136 4.9193 2.1320
3.1344 5.0345 2.1320
2.9513 5.1433 2.1320
2.7643 5.2455 2.1320
2.5739 5.3409 2.1320
0.8578 1.9567 0.7684
2.1835 5.5109 2.1320
1.9840 5.5854 2.1320
1.7819 5.6527 2.1320
1.6541 5.9894 2.2353
1.4378 6.0447 2.2353
1.2197 6.0922 2.2353
1.0000 6.1318 2.2353
0.7791 6.1636 2.2353
0.5572 6.1875 2.2353
0.3345 6.2035 2.2353
0.1115 6.2115 2.2353
-0.1117 6.2115 2.2353
-0.3348 6.2036 2.2353
-0.5574 6.1877 2.2353
-0.7793 6.1639 2.2353
-1.0003 6.1321 2.2353
-1.2200 6.0925 2.2353
-1.4381 6.0451 2.2353
-1.6544 5.9899 2.2353
-1.8686 5.9270 2.2353
-2.0805 5.8565 2.2353
-2.2897 5.7784 2.2353
-0.8579 1.9567 0.7683
-0.9276 1.9246 0.7682
-2.8988 5.5002 2.2353
-3.0949 5.3932 2.2353
-3.2870 5.2791 2.2353
-3.4749 5.1583 2.2353
-3.6584 5.0308 2.2353
-3.8372 4.8969 2.2353
-4.0112 4.7566 2.2353
-4.1801 4.6101 2.2353
-4.3436 4.4577 2.2353
-4.5016 4.2995 2.2353
-4.6539 4.1358 2.2353
-4.8002 3.9667 2.2353
-4.9405 3.7924 2.2353
-5.0744 3.6132 2.2353
-5.2018 3.4293 2.2353
-5.3226 3.2409 2.2353
-5.4366 3.0482 2.2353
-5.5436 2.8516 2.2353
-5.6436 2.6513 2.2353
-5.7363 2.4474 2.2353
-5.8217 2.2403 2.2353
-5.8996 2.0303 2.2353
-5.9699 1.8176 2.2353
-6.0326 1.6024 2.2353
-6.0876 1.3851 2.2353
-6.1347 1.1659 2.2353
-6.1740 0.9451 2.2353
-6.2053 0.7230 2.2353
-6.2286 0.4999 2.2353
-6.2439 0.2761 2.2353
-6.2512 0.0518 2.2353
-6.2504 -0.1727 2.2353
-6.2415 -0.3970 2.2353
-6.2246 -0.6209 2.2353
-6.1997 -0.8441 2.2353
-6.1667 -1.0663 2.2353
-6.1258 -1.2873 2.2353
-6.0769 -1.5066 2.2353
-6.0202 -1.7241 2.2353
-5.9557 -1.9395 2.2353
-5.8835 -2.1524 2.2353
-5.8037 -2.3626 2.2353
-5.7163 -2.5699 2.2353
-5.6215 -2.7739 2.2353
-5.5194 -2.9744 2.2353
-5.4101 -3.1712 2.2353
-5.2939 -3.3639 2.2353
-5.1707 -3.5523 2.2353
-5.0408 -3.7362 2.2353
-4.9043 -3.9153 2.2353
-4.7615 -4.0895 2.2353
-4.6124 -4.2583 2.2353
-4.4574 -4.4218 2.2353
-4.2965 -4.5795 2.2353
-4.1300 -4.7314 2.2353
-3.9582 -4.8772 2.2353
-3.7811 -5.0167 2.2353
-3.5992 -5.1498 2.2353
-3.4125 -5.2763 2.2353
-3.2214 -5.3959 2.2353
-3.0261 -5.5085 2.2353
-2.8268 -5.6141 2.2353
-2.6238 -5.7124 2.2353
-2.4174 -5.8034 2.2353
-2.2078 -5.8868 2.2353
-1.9954 -5.9626 2.2353
-1.7803 -6.0307 2.2353
-1.5629 -6.0910 2.2353
-1.3435 -6.1434 2.2353
-1.1223 -6.1879 2.2353
-0.8996 -6.2244 2.2353
-0.6758 -6.2528 2.2353
-0.4510 -6.2731 2.2353
-0.2257 -6.2853 2.2353
-0.0001 -5.8671 2.2353
0.2103 -5.8633 2.2353
0.4205 -5.8519 2.2353
0.6301 -5.8329 2.2353
0.8389 -5.8064 2.2353
1.0466 -5.7723 2.2353
1.2529 -5.7308 2.2353
1.4576 -5.6818 2.2353
1.6604 -5.6255 2.2353
1.7764 -5.3093 2.1337
1.9746 -5.2658 2.1435
2.1505 -5.1633 2.1320
2.3341 -5.0824 2.1320
2.5147 -4.9949 2.1320
2.6920 -4.9010 2.1320
2.8657 -4.8008 2.1320
3.0358 -4.6943 2.1320
3.2018 -4.5819 2.1320
3.3637 -4.4635 2.1320
3.5212 -4.3393 2.1320
3.6741 -4.2096 2.1320
3.8222 -4.0745 2.1320
3.9653 -3.9342 2.1320
2.5322 -2.3381 1.3157
4.2359 -3.6385 2.1320
4.3630 -3.4836 2.1320
4.4844 -3.3243 2.1320
4.6000 -3.1607 2.1320
4.7096 -2.9930 2.1320
4.8131 -2.8216 2.1320
4.9104 -2.6466 2.1320
5.0012 -2.4682 2.1320
5.0856 -2.2867 2.1320
5.1634 -2.1023 2.1320
5.2345 -1.9153 2.1320
5.2988 -1.7259 2.1320
5.3562 -1.5343 2.1320
5.4067 -1.3408 2.1320
5.4503 -1.1456 2.1320
5.4867 -0.9491 2.1320
5.5161 -0.7514 2.1320
5.5384 -0.5528 2.1320
5.5535 -0.3536 2.1320
5.5614 -0.1539 2.1320
5.5622 0.0458 2.1320
5.5558 0.2454 2.1320
5.5423 0.4446 2.1320
5.5216 0.6431 2.1320
5.4938 0.8407 2.1320
5.4590 1.0372 2.1320
5.4171 1.2323 2.1320
5.3683 1.4257 2.1320
5.3126 1.6172 2.1320
5.2500 1.8066 2.1320
5.1808 1.9935 2.1320
5.1049 2.1778 2.1320
5.0225 2.3593 2.1320
4.9336 2.5377 2.1320
4.8384 2.7127 2.1320
4.7370 2.8842 2.1320
4.6296 3.0519 2.1320
4.5162 3.2156 2.1320
4.3971 3.3752 2.1320
2.1205 1.7522 1.0582
4.1422 3.6810 2.1320
4.0067 3.8268 2.1320
3.8661 3.9677 2.1320
2.6970 2.9745 1.5455
3.5704 4.2338 2.1320
3.4156 4.3588 2.1320
3.2564 4.4781 2.1320
3.0931 4.5916 2.1320
2.9259 4.6992 2.1320
2.7549 4.8008 2.1320
2.5804 4.8962 2.1320
0.8655 1.7959 0.7681
0.8005 1.8258 0.7681
0.7344 1.8534 0.7682
0.6673 1.8786 0.7682
0.5994 1.9013 0.7682
0.5307 1.9216 0.7683
0.4613 1.9394 0.7683
0.3914 1.9547 0.7683
0.9335 5.7238 2.2353
0.7273 5.7535 2.2353
0.5201 5.7758 2.2353
0.3123 5.7907 2.2353
0.1041 5.7982 2.2353
-0.1043 5.7982 2.2353
-0.3125 5.7908 2.2353
-0.5203 5.7760 2.2353
-0.7275 5.7537 2.2353
-0.9338 5.7241 2.2353
-0.3914 1.9547 0.7683
-0.4614 1.9394 0.7683
-0.5308 1.9216 0.7682
-0.5995 1.9013 0.7682
-0.6674 1.8786 0.7681
-0.7344 1.8534 0.7681
-0.8006 1.8258 0.7680
-0.8656 1.7959 0.7680
-0.9296 1.7637 0.7679
-2.8889 5.0340 2.2353
-3.0682 4.9275 2.2353
-3.2436 4.8147 2.2353
-3.4149 4.6957 2.2353
-3.5818 4.5706 2.2353
-3.7442 4.4396 2.2353
-3.9017 4.3029 2.2353
-4.0544 4.1606 2.2353
-4.2018 4.0129 2.2353
-4.3439 3.8600 2.2353
-4.4804 3.7021 2.2353
-4.6113 3.5394 2.2353
-4.7362 3.3721 2.2353
-4.8551 3.2004 2.2353
-4.9678 3.0245 2.2353
-5.0741 2.8447 2.2353
-5.1740 2.6612 2.2353
-5.2672 2.4741 2.2353
-5.3537 2.2839 2.2353
-5.4333 2.0906 2.2353
-5.5059 1.8945 2.2353
-5.5715 1.6960 2.2353
-5.6300 1.4951 2.2353
-5.6812 1.2923 2.2353
-5.7251 1.0877 2.2353
-5.7616 0.8817 2.2353
-5.7908 0.6744 2.2353
-5.8125 0.4662 2.2353
-5.8267 0.2573 2.2353
-5.8334 0.0480 2.2353
-5.8326 -0.1614 2.2353
-5.8242 -0.3708 2.2353
-5.8084 -0.5797 2.2353
-5.7850 -0.7880 2.2353
-5.7542 -0.9953 2.2353
-5.7159 -1.2014 2.2353
-5.6703 -1.4061 2.2353
-5.6173 -1.6090 2.2353
-5.5570 -1.8099 2.2353
-5.4896 -2.0086 2.2353
-5.4150 -2.2047 2.2353
-5.3334 -2.3980 2.2353
-5.2449 -2.5884 2.2353
-5.1496 -2.7754 2.2353
-5.0476 -2.9589 2.2353
-4.9391 -3.1387 2.2353
-4.8241 -3.3145 2.2353
-4.7029 -3.4860 2.2353
-4.5755 -3.6531 2.2353
-4.4422 -3.8155 2.2353
-4.3031 -3.9730 2.2353
-4.1584 -4.1255 2.2353
-4.0083 -4.2726 2.2353
-3.8529 -4.4143 2.2353
-3.6926 -4.5502 2.2353
-3.5274 -4.6804 2.2353
-3.3576 -4.8045 2.2353
-3.1835 -4.9224 2.2353
-3.0052 -5.0340 2.2353
-2.8229 -5.1390 2.2353
-2.6370 -5.2375 2.2353
-2.4476 -5.3292 2.2353
-2.2551 -5.4140 2.2353
-2.0596 -5.4918 2.2353
-1.8614 -5.5625 2.2353
-1.6607 -5.6260 2.2353
-1.4579 -5.6822 2.2353
-1.2532 -5.7311 2.2353
-1.0469 -5.7726 2.2353
-0.8392 -5.8066 2.2353
-0.6304 -5.8331 2.2353
-0.4207 -5.8520 2.2353
-0.2106 -5.8634 2.2353
-0.0001 -5.4921 2.2353
0.1969 -5.4885 2.2353
0.3936 -5.4778 2.2353
0.5898 -5.4601 2.2353
0.7853 -5.4352 2.2353
0.9797 -5.4034 2.2353
1.1728 -5.3645 2.2353
1.3644 -5.3187 2.2353
1.5542 -5.2660 2.2353
1.7420 -5.2066 2.2353
1.8384 -4.9029 2.1320
2.0130 -4.8334 2.1320
2.1848 -4.7577 2.1320
2.3539 -4.6759 2.1320
2.5199 -4.5880 2.1320
2.6825 -4.4942 2.1320
2.8417 -4.3946 2.1320
2.9972 -4.2893 2.1320
3.1487 -4.1785 2.1320
3.2962 -4.0623 2.1320
3.4394 -3.9409 2.1320
3.5780 -3.8145 2.1320
2.5321 -2.5124 1.4543
2.5310 -2.3371 1.4048
3.9654 -3.4064 2.1320
4.0844 -3.2615 2.1320
4.1981 -3.1123 2.1320
4.3064 -2.9592 2.1320
4.4091 -2.8023 2.1320
4.5060 -2.6418 2.1320
4.5971 -2.4780 2.1320
4.6822 -2.3110 2.1320
4.7612 -2.1411 2.1320
4.8341 -1.9685 2.1320
4.9007 -1.7934 2.1320
4.9610 -1.6161 2.1320
5.0148 -1.4367 2.1320
5.0622 -1.2556 2.1320
5.1029 -1.0729 2.1320
5.1372 -0.8889 2.1320
5.1647 -0.7038 2.1320
5.1856 -0.5178 2.1320
5.1998 -0.3313 2.1320
5.2073 -0.1444 2.1320
5.2081 0.0426 2.1320
5.2022 0.2295 2.1320
5.1896 0.4160 2.1320
5.1703 0.6019 2.1320
5.1443 0.7870 2.1320
5.1118 0.9710 2.1320
5.0726 1.1537 2.1320
5.0270 1.3348 2.1320
4.9748 1.5141 2.1320
4.9163 1.6915 2.1320
4.8515 1.8666 2.1320
4.7805 2.0392 2.1320
4.7034 2.2091 2.1320
4.6202 2.3762 2.1320
4.5311 2.5401 2.1320
4.4362 2.7008 2.1320
4.3356 2.8579 2.1320
4.2295 3.0112 2.1320
4.1180 3.1607 2.1320
2.1206 1.7521 1.1300
3.8793 3.4471 2.1320
3.7525 3.5837 2.1320
3.6208 3.7157 2.1320
2.6966 2.9738 1.6499
3.3439 3.9650 2.1320
3.1989 4.0820 2.1320
3.0499 4.1938 2.1320
2.8970 4.3002 2.1320
2.7403 4.4010 2.1320
2.5802 4.4962 2.1320
0.8703 1.6513 0.7678
0.8104 1.6815 0.7678
0.7495 1.7095 0.7679
0.6876 1.7353 0.7679
0.6248 1.7589 0.7680
0.5612 1.7802 0.7680
0.4969 1.7992 0.7680
0.4319 1.8158 0.7681
0.3664 1.8302 0.7681
0.3004 1.8422 0.7681
0.2341 1.8517 0.7681
0.1674 1.8590 0.7681
0.1005 1.8638 0.7681
0.0335 1.8662 0.7681
-0.0336 1.8662 0.7681
-0.1006 1.8638 0.7681
-0.1675 1.8590 0.7681
-0.2342 1.8518 0.7681
-0.3005 1.8421 0.7681
-0.3665 1.8302 0.7681
-0.4320 1.8158 0.7680
-0.4970 1.7992 0.7680
-0.5613 1.7802 0.7680
-0.6249 1.7589 0.7679
-0.6877 1.7353 0.7679
-0.7496 1.7095 0.7678
-0.8105 1.6815 0.7677
-0.8704 1.6513 0.7677
-0.9292 1.6190 0.7676
-2.8737 4.6148 2.2353
-3.0379 4.5091 2.2353
-3.1983 4.3976 2.2353
-3.3546 4.2804 2.2353
-3.5066 4.1577 2.2353
-3.6542 4.0296 2.2353
-3.7971 3.8963 2.2353
-3.9352 3.7579 2.2353
-4.0682 3.6147 2.2353
-4.1960 3.4668 2.2353
-4.3185 3.3144 2.2353
-4.4355 3.1577 2.2353
-4.5468 2.9969 2.2353
-4.6523 2.8322 2.2353
-4.7518 2.6637 2.2353
-4.8453 2.4918 2.2353
-4.9325 2.3166 2.2353
-5.0134 2.1384 2.2353
-5.0879 1.9574 2.2353
-5.1559 1.7738 2.2353
-5.2173 1.5878 2.2353
-5.2719 1.3998 2.2353
-5.3198 1.2098 2.2353
-5.3609 1.0183 2.2353
-5.3950 0.8253 2.2353
-5.4222 0.6312 2.2353
-5.4425 0.4363 2.2353
-5.4557 0.2407 2.2353
-5.4620 0.0447 2.2353
-5.4611 -0.1514 2.2353
-5.4533 -0.3474 2.2353
-5.4384 -0.5431 2.2353
-5.4164 -0.7380 2.2353
-5.3875 -0.9322 2.2353
-5.3516 -1.1251 2.2353
-5.3088 -1.3167 2.2353
-5.2592 -1.5067 2.2353
-5.2027 -1.6948 2.2353
-5.1395 -1.8807 2.2353
-5.0696 -2.0643 2.2353
-4.9932 -2.2453 2.2353
-4.9103 -2.4235 2.2353
-4.8210 -2.5986 2.2353
-4.7254 -2.7704 2.2353
-4.6238 -2.9386 2.2353
-4.5161 -3.1031 2.2353
-4.4026 -3.2637 2.2353
-4.2833 -3.4201 2.2353
-4.1585 -3.5721 2.2353
-4.0282 -3.7195 2.2353
-3.8927 -3.8622 2.2353
-3.7522 -3.9999 2.2353
-3.6067 -4.1325 2.2353
-3.4566 -4.2597 2.2353
-3.3020 -4.3815 2.2353
-3.1430 -4.4977 2.2353
-2.9800 -4.6080 2.2353
-2.8130 -4.7124 2.2353
-2.6424 -4.8107 2.2353
-2.4684 -4.9029 2.2353
-2.2911 -4.9887 2.2353
-2.1109 -5.0680 2.2353
-1.9279 -5.1408 2.2353
-1.7423 -5.2070 2.2353
-1.5545 -5.2664 2.2353
-1.3647 -5.3190 2.2353
-1.1731 -5.3648 2.2353
-0.9799 -5.4036 2.2353
-0.7855 -5.4354 2.2353
-0.5901 -5.4602 2.2353
-0.3938 -5.4779 2.2353
-0.1971 -5.4886 2.2353
-0.0001 -5.1564 2.2353
0.1848 -5.1530 2.2353
0.3695 -5.1430 2.2353
0.5537 -5.1263 2.2353
0.7372 -5.1030 2.2353
0.9197 -5.0731 2.2353
1.1010 -5.0366 2.2353
1.2809 -4.9937 2.2353
1.4591 -4.9442 2.2353
1.6354 -4.8884 2.2353
1.7645 -4.7061 2.1796
1.8899 -4.5381 2.1320
2.0512 -4.4671 2.1320
2.2100 -4.3902 2.1320
2.3658 -4.3077 2.1320
2.5185 -4.2197 2.1320
2.6680 -4.1262 2.1320
2.8140 -4.0274 2.1320
2.9563 -3.9234 2.1320
3.0948 -3.8143 2.1320
3.2292 -3.7004 2.1320
3.3594 -3.5817 2.1320
2.4040 -2.3854 1.4706
2.4661 -2.2775 1.4579
2.6480 -2.2749 1.5163
3.8350 -3.0626 2.1320
3.9418 -2.9225 2.1320
4.0435 -2.7788 2.1320
4.1399 -2.6315 2.1320
4.2310 -2.4808 2.1320
4.3165 -2.3270 2.1320
4.3965 -2.1703 2.1320
4.4708 -2.0108 2.1320
4.5392 -1.8487 2.1320
4.6018 -1.6843 2.1320
4.6584 -1.5178 2.1320
4.7090 -1.3494 2.1320
4.7536 -1.1793 2.1320
4.7919 -1.0078 2.1320
4.8241 -0.8350 2.1320
4.8500 -0.6612 2.1320
4.8697 -0.4865 2.1320
4.8831 -0.3114 2.1320
4.8902 -0.1359 2.1320
4.8910 0.0398 2.1320
4.8855 0.2153 2.1320
4.8737 0.3904 2.1320
4.8556 0.5650 2.1320
4.8313 0.7389 2.1320
4.8007 0.9117 2.1320
4.7640 1.0832 2.1320
4.7212 1.2534 2.1320
4.6723 1.4218 2.1320
4.6174 1.5884 2.1320
4.5566 1.7528 2.1320
4.4899 1.9150 2.1320
4.4175 2.0746 2.1320
4.3394 2.2315 2.1320
4.2558 2.3855 2.1320
4.1667 2.5364 2.1320
4.0723 2.6840 2.1320
3.9726 2.8281 2.1320
3.8679 2.9685 2.1320
2.1206 1.7520 1.2030
3.6438 3.2376 2.1320
3.5247 3.3659 2.1320
3.4010 3.4899 2.1320
2.6961 2.9731 1.7562
3.1410 3.7241 2.1320
3.0048 3.8341 2.1320
2.8648 3.9391 2.1320
2.7212 4.0390 2.1320
2.5741 4.1338 2.1320
0.8725 1.5203 0.7675
0.8173 1.5507 0.7676
0.7611 1.5790 0.7676
0.7039 1.6053 0.7677
0.6457 1.6295 0.7677
0.5868 1.6516 0.7678
0.5270 1.6717 0.7678
0.4666 1.6895 0.7678
0.4056 1.7052 0.7679
0.3441 1.7186 0.7679
0.2821 1.7299 0.7679
0.2198 1.7389 0.7679
0.1572 1.7456 0.7679
0.0944 1.7502 0.7679
0.0314 1.7524 0.7679
-0.0315 1.7524 0.7679
-0.0945 1.7502 0.7679
-0.1573 1.7457 0.7679
-0.2199 1.7389 0.7679
-0.2822 1.7299 0.7679
-0.3442 1.7186 0.7678
-0.4057 1.7052 0.7678
-0.4667 1.6895 0.7678
-0.5271 1.6716 0.7677
-0.5868 1.6517 0.7677
-0.6458 1.6295 0.7677
-0.7039 1.6053 0.7676
-0.7612 1.5790 0.7675
-0.8174 1.5506 0.7675
-0.8726 1.5203 0.7674
-0.9267 1.4880 0.7674
-0.9795 1.4538 0.7673
-3.0042 4.1304 2.2353
-3.1510 4.0203 2.2353
-3.2938 3.9050 2.2353
-3.4324 3.7847 2.2353
-3.5666 3.6595 2.2353
-3.6962 3.5295 2.2353
-3.8212 3.3950 2.2353
-3.9412 3.2560 2.2353
-4.0562 3.1128 2.2353
-4.1660 2.9656 2.2353
-4.2705 2.8145 2.2353
-4.3696 2.6598 2.2353
-4.4630 2.5016 2.2353
-4.5507 2.3401 2.2353
-4.6326 2.1755 2.2353
-4.7086 2.0081 2.2353
-4.7785 1.8381 2.2353
-4.8423 1.6657 2.2353
-4.8999 1.4910 2.2353
-4.9512 1.3143 2.2353
-4.9961 1.1360 2.2353
-5.0346 0.9560 2.2353
-5.0667 0.7748 2.2353
-5.0922 0.5925 2.2353
-5.1111 0.4094 2.2353
-5.1235 0.2257 2.2353
-5.1293 0.0417 2.2353
-5.1285 -0.1425 2.2353
-5.1210 -0.3265 2.2353
-5.1070 -0.5102 2.2353
-5.0863 -0.6933 2.2353
-5.0591 -0.8756 2.2353
-5.0254 -1.0568 2.2353
-4.9851 -1.2367 2.2353
-4.9384 -1.4151 2.2353
-4.8854 -1.5917 2.2353
-4.8260 -1.7663 2.2353
-4.7603 -1.9387 2.2353
-4.6885 -2.1086 2.2353
-4.6106 -2.2759 2.2353
-4.5267 -2.4402 2.2353
-4.4370 -2.6015 2.2353
-4.3415 -2.7595 2.2353
-4.2404 -2.9139 2.2353
-4.1337 -3.0647 2.2353
-4.0217 -3.2115 2.2353
-3.9045 -3.3542 2.2353
-3.7821 -3.4926 2.2353
-3.6549 -3.6265 2.2353
-3.5229 -3.7558 2.2353
-3.3863 -3.8802 2.2353
-3.2453 -3.9997 2.2353
-3.1001 -4.1140 2.2353
-2.9509 -4.2230 2.2353
-2.7978 -4.3266 2.2353
-2.6411 -4.4246 2.2353
-2.4809 -4.5169 2.2353
-2.3175 -4.6033 2.2353
-2.1510 -4.6839 2.2353
-1.9818 -4.7583 2.2353
-1.8100 -4.8267 2.2353
-1.6358 -4.8888 2.2353
-1.4594 -4.9446 2.2353
-1.2812 -4.9940 2.2353
-1.1013 -5.0369 2.2353
-0.9200 -5.0733 2.2353
-0.7375 -5.1032 2.2353
-0.5540 -5.1264 2.2353
-0.3698 -5.1431 2.2353
-0.1851 -5.1531 2.2353
-0.0001 -4.8538 2.2353
0.1740 -4.8507 2.2353
0.3478 -4.8412 2.2353
0.5212 -4.8255 2.2353
0.6939 -4.8036 2.2353
0.8657 -4.7755 2.2353
1.0364 -4.7412 2.2353
1.2057 -4.7007 2.2353
1.3734 -4.6542 2.2353
1.5394 -4.6017 2.2353
1.7033 -4.5432 2.2353
1.7789 -4.2720 2.1320
1.9308 -4.2051 2.1320
2.0802 -4.1328 2.1320
2.2269 -4.0551 2.1320
2.3707 -3.9723 2.1320
2.5114 -3.8843 2.1320
2.6489 -3.7913 2.1320
2.7828 -3.6934 2.1320
2.9132 -3.5908 2.1320
3.0398 -3.4836 2.1320
3.1624 -3.3719 2.1320
2.4002 -2.3819 1.5597
2.4619 -2.2737 1.5460
2.6433 -2.2711 1.6079
3.6102 -2.8832 2.1320
3.7107 -2.7515 2.1320
3.8065 -2.6162 2.1320
3.8973 -2.4775 2.1320
3.9830 -2.3357 2.1320
4.0636 -2.1909 2.1320
4.1389 -2.0434 2.1320
4.2089 -1.8932 2.1320
4.2734 -1.7407 2.1320
4.3323 -1.5859 2.1320
4.3857 -1.4292 2.1320
4.4334 -1.2707 2.1320
4.4753 -1.1105 2.1320
4.5115 -0.9490 2.1320
4.5418 -0.7864 2.1320
4.5663 -0.6227 2.1320
4.5849 -0.4583 2.1320
4.5975 -0.2934 2.1320
4.6042 -0.1282 2.1320
4.6050 0.0372 2.1320
4.5999 0.2024 2.1320
4.5888 0.3674 2.1320
4.5718 0.5318 2.1320
4.5490 0.6954 2.1320
4.5202 0.8581 2.1320
4.4857 1.0197 2.1320
4.4454 1.1799 2.1320
4.3994 1.3385 2.1320
4.3478 1.4954 2.1320
4.2906 1.6503 2.1320
4.2278 1.8029 2.1320
4.1597 1.9533 2.1320
4.0862 2.1011 2.1320
4.0074 2.2461 2.1320
3.9236 2.3882 2.1320
3.8347 2.5272 2.1320
3.7409 2.6629 2.1320
3.6423 2.7951 2.1320
2.1207 1.7519 1.2776
3.4313 3.0485 2.1320
3.3192 3.1694 2.1320
3.2028 3.2862 2.1320
2.6956 2.9723 1.8646
2.9579 3.5068 2.1320
2.8297 3.6104 2.1320
2.6979 3.7093 2.1320
2.5626 3.8034 2.1320
0.8724 1.4009 0.7673
0.8215 1.4313 0.7673
0.7695 1.4599 0.7674
0.7166 1.4866 0.7674
0.6627 1.5113 0.7675
