ply
format ascii 1.0
element vertex 2019
property float32 x
property float32 y
property float32 z
end_header
-31.9268 66.3904 -10.7435
-12.2725 23.3384 -3.8492
-10.9163 19.0666 -3.2104
-11.8534 19.0822 -3.2861
-13.0343 19.3951 -3.4222
-12.3920 17.0825 -3.0944
-13.3386 17.0646 -3.1798
-15.6688 18.6283 -3.5783
-18.6130 20.5824 -4.0849
-13.0900 13.4707 -2.7688
-13.2922 12.7315 -2.7172
-12.7186 11.3360 -2.5189
-13.5666 11.2452 -2.6093
-14.4740 11.1462 -2.7094
-16.0526 11.4686 -2.9308
-19.3846 12.8245 -3.4586
-24.8566 15.1916 -4.3423
-24.4737 13.7768 -4.1936
-21.3477 11.0279 -3.5941
-21.2547 10.0308 -3.5219
-15.3353 6.5753 -2.5049
-13.1237 5.0777 -2.1164
-13.4489 4.6560 -2.1445
-13.7820 4.2239 -2.1761
-14.1242 3.7800 -2.2115
-14.0148 3.2166 -2.1791
-17.3243 3.3266 -2.6785
-20.7248 3.2132 -3.1905
-20.9184 2.4782 -3.2108
-18.2037 1.4964 -2.7895
-20.2315 0.9337 -3.0991
-17.8069 0.1819 -2.7302
-20.6436 -0.5304 -3.1721
-16.8020 -1.0362 -2.5909
-16.0412 -1.5690 -2.4854
-16.1018 -2.1610 -2.5100
-16.1636 -2.7633 -2.5383
-16.5207 -3.4390 -2.6170
-19.8705 -4.8868 -3.1792
-25.3452 -11.3410 -4.3527
-24.6779 -12.1242 -4.3175
-24.6797 -13.2460 -4.4056
-19.5888 -11.4383 -3.5737
-18.9078 -11.9715 -3.5313
-17.9059 -12.2598 -3.4296
-18.2920 -13.5143 -3.5996
-6.6042 -5.2562 -1.3379
-18.4404 -15.7913 -3.8537
-18.0917 -16.6559 -3.9088
-17.1452 -16.9622 -3.8386
-20.8842 -22.2020 -4.8575
-20.2076 -23.0918 -4.8960
-23.0383 -28.3182 -5.8316
-16.5058 -21.8476 -4.3789
-14.7648 -21.0773 -4.1198
-13.3359 -20.5730 -3.9289
-12.3476 -20.6370 -3.8575
-12.2876 -22.3201 -4.0905
-18.6134 -36.8899 -6.6391
-11.1270 -24.1756 -4.2794
-19.4876 -46.6897 -8.1411
-17.2401 -45.8777 -7.8914
-15.3089 -45.6585 -7.7585
-13.8651 -46.8794 -7.8801
-14.6899 -57.1450 -9.5150
-12.0756 -55.1210 -9.1033
-10.0054 -55.0720 -9.0329
12.8549 -70.7480 -9.9432
2.8450 -12.9856 -1.8374
17.8068 -69.2683 -9.8798
17.4773 -59.0927 -8.5073
18.3160 -54.6286 -7.9487
15.6118 -41.5464 -6.1182
2.1701 -5.1995 -0.7760
18.4043 -39.9902 -6.0579
21.1366 -41.8941 -6.4509
16.1447 -29.3294 -4.5978
16.9152 -28.2743 -4.5197
17.5701 -27.1083 -4.4262
17.7542 -25.3481 -4.2350
20.5248 -27.1713 -4.6538
21.1999 -26.0625 -4.5851
20.8651 -23.8471 -4.3183
38.5744 -41.0155 -7.6619
26.3549 -26.0786 -5.0375
24.0391 -22.1357 -4.4327
23.8696 -20.4450 -4.2561
24.5430 -19.5381 -4.2409
22.2910 -16.4728 -3.7405
24.0311 -16.4580 -3.9235
23.1623 -14.6695 -3.6864
26.3537 -15.3933 -4.0958
26.6646 -14.3161 -4.0536
26.8337 -13.1882 -3.9967
17.8661 -7.9976 -2.6113
18.0941 -7.3315 -2.5991
15.5900 -5.6741 -2.2040
15.7118 -5.0874 -2.1894
15.8324 -4.5052 -2.1775
17.1267 -4.2151 -2.3281
17.8882 -3.7269 -2.4066
20.8747 -3.5725 -2.7832
20.7474 -2.7883 -2.7449
17.2908 -1.6944 -2.2730
20.1052 -1.2437 -2.6294
15.3307 -0.3968 -1.9973
19.3173 0.1937 -2.5103
18.7193 0.8603 -2.4295
19.4593 1.5958 -2.5256
23.2028 2.7442 -3.0155
21.7133 3.3621 -2.8294
21.7064 4.1637 -2.8397
57.0204 13.0752 -7.4995
9.9097 2.6500 -1.3121
9.9315 3.0417 -1.3257
10.5845 3.6620 -1.4263
8.5643 3.3117 -1.1669
8.3522 3.5792 -1.1523
46.1010 21.7457 -6.4501
46.9768 24.2561 -6.6764
45.9432 25.8510 -6.6436
9.3116 5.6886 -1.3724
6.8318 4.5179 -1.0281
6.0238 4.3019 -0.9274
6.0248 4.6378 -0.9508
6.0102 4.9799 -0.9743
5.6685 5.0505 -0.9461
5.5915 5.3538 -0.9630
5.3877 5.5425 -0.9600
5.2004 5.7487 -0.9612
5.0124 5.9571 -0.9639
4.8231 6.1684 -0.9681
4.6320 6.3833 -0.9737
4.5548 6.7754 -1.0066
47.2434 76.0298 -11.0229
47.3154 82.6150 -11.7101
43.6118 82.9084 -11.5098
40.5946 84.3864 -11.4935
34.3328 78.4540 -10.5010
31.0861 78.5955 -10.3549
28.0777 79.1805 -10.2845
25.4292 80.8009 -10.3624
25.3729 92.0252 -11.6703
21.7571 91.6152 -11.5056
18.9948 95.0229 -11.8350
-1.3890 77.5514 -9.4641
-4.1742 77.5469 -9.4771
-20.7771 66.0302 -8.4762
-31.9314 66.3855 -9.0542
-12.9781 22.6627 -3.2173
-11.8856 19.1296 -2.7781
-13.9443 20.7443 -3.0874
-13.2554 18.2685 -2.7919
-13.2924 17.0015 -2.6734
-17.2538 20.5075 -3.3250
-19.3771 21.4218 -3.5895
-13.9861 14.3891 -2.4977
-13.2778 12.7143 -2.2922
-12.9130 11.5060 -2.1603
-13.6606 11.3197 -2.2200
-15.3432 11.8119 -2.4276
-16.1159 11.5102 -2.4876
-17.5308 11.5941 -2.6453
-24.7005 15.0908 -3.6504
-24.1152 13.5698 -3.4968
-21.3521 11.0257 -3.0430
-21.2590 10.0284 -2.9828
-22.3100 9.5613 -3.0868
-21.6079 8.3560 -2.9526
-13.4495 4.6535 -1.8178
-13.7826 4.2214 -1.8452
-14.1249 3.7775 -1.8758
-14.5558 3.3380 -1.9202
-20.2030 3.8756 -2.6511
-21.0885 3.2656 -2.7563
-19.8618 2.3493 -2.5892
-20.0763 1.6466 -2.6137
-20.2937 0.9328 -2.6419
-21.2296 0.2129 -2.7672
-32.6370 -0.8446 -4.2650
-16.9650 -1.0494 -2.2255
-16.0105 -1.5690 -2.1110
-16.0707 -2.1598 -2.1326
-16.1321 -2.7610 -2.1572
-16.4562 -3.4287 -2.2205
-20.8956 -5.1429 -2.8487
-25.1523 -11.2597 -3.6862
-24.6676 -12.1242 -3.6839
-21.9390 -11.7796 -3.3440
-19.5632 -11.4276 -3.0482
-19.1536 -12.1313 -3.0560
-18.7295 -12.8279 -3.0654
-17.5741 -12.9879 -2.9560
-6.6030 -5.2568 -1.1436
-19.6984 -16.8733 -3.5203
-18.1062 -16.6737 -3.3460
-18.7521 -18.5568 -3.5918
-20.9512 -22.2787 -4.1699
-20.2728 -23.1719 -4.2039
-23.6886 -29.1243 -5.1330
-20.9012 -27.6717 -4.7476
-15.0948 -21.5531 -3.6068
-12.9540 -19.9880 -3.2687
-13.1881 -22.0465 -3.5293
-12.6697 -23.0189 -3.6135
-16.2788 -32.2692 -4.9752
-21.8294 -47.4380 -7.1946
-18.1865 -43.5806 -6.5115
-17.0542 -45.3915 -6.6911
-15.3062 -45.6591 -6.6496
-14.4229 -48.7740 -7.0274
-14.3527 -55.8431 -7.9705
-11.9052 -54.3527 -7.6951
-10.4822 -57.7058 -8.1142
12.6528 -69.6504 -8.1689
2.8437 -12.9826 -1.5328
17.3633 -67.5569 -8.0394
16.9716 -57.3948 -6.8931
19.2772 -57.5074 -6.9796
20.9060 -55.6471 -6.8344
2.1692 -5.1985 -0.6470
18.3034 -39.7794 -5.0239
20.7650 -41.1666 -5.2838
17.0925 -31.0581 -4.0575
16.8380 -28.1515 -3.7494
18.2629 -28.1835 -3.8332
17.8589 -25.5035 -3.5484
21.2984 -28.2021 -4.0215
21.3156 -26.2112 -3.8381
20.8891 -23.8805 -3.5982
22.7469 -24.1927 -3.7593
23.2835 -23.0457 -3.7018
24.0286 -22.1322 -3.6843
24.4253 -20.9270 -3.6202
25.1150 -19.9995 -3.6062
22.1832 -16.3984 -3.0921
23.5677 -16.1459 -3.1951
24.3603 -15.4336 -3.2181
26.2145 -15.3176 -3.3805
25.9830 -13.9557 -3.2762
28.3010 -13.9152 -3.4948
17.8709 -8.0034 -2.1646
18.0989 -7.3371 -2.1536
15.6352 -5.6937 -1.8303
15.7572 -5.1052 -1.8173
15.8779 -4.5212 -1.8067
18.9558 -4.6689 -2.1308
17.9083 -3.7345 -1.9915
21.2102 -3.6339 -2.3364
20.8174 -2.8016 -2.2744
17.2905 -1.6976 -1.8761
19.7728 -1.2268 -2.1335
20.9750 -0.5467 -2.2535
19.6586 0.1935 -2.1057
20.4621 0.9366 -2.1879
20.7321 1.6964 -2.2158
22.3891 2.6438 -2.3949
21.9857 3.4002 -2.3569
21.8719 4.1913 -2.3529
53.5892 12.2783 -5.7929
9.5982 2.5649 -1.0440
9.3494 2.8616 -1.0247
8.8425 3.0576 -0.9780
8.4794 3.2772 -0.9477
8.2408 3.5299 -0.9322
8.1059 3.8219 -0.9295
7.5835 3.9141 -0.8830
7.2711 4.0897 -0.8610
6.9720 4.2578 -0.8411
6.8068 4.5000 -0.8381
6.6578 4.7533 -0.8383
5.9489 4.5781 -0.7675
5.9484 4.9273 -0.7880
5.9302 5.2823 -0.8085
5.8423 5.5925 -0.8216
5.1264 5.2724 -0.7456
5.1113 5.6488 -0.7709
4.9261 5.8532 -0.7727
4.7396 6.0603 -0.7757
4.5513 6.2706 -0.7799
4.9400 7.3468 -0.8897
47.8048 76.9171 -9.0872
47.2768 82.5307 -9.5301
43.7143 83.0867 -9.3943
40.1017 83.3455 -9.2433
35.1267 80.2530 -8.7447
30.6750 77.5415 -8.3151
28.0998 79.2285 -8.3744
26.4398 83.9971 -8.7649
25.8411 93.7070 -9.6676
21.4726 90.4015 -9.2350
19.2810 96.4387 -9.7693
1.4632 81.4698 -8.0841
-1.4194 79.2170 -7.8612
-4.1635 77.3277 -7.6849
-6.9889 77.7359 -7.7476
-6.3472 50.2936 -5.0340
-23.1036 83.7933 -8.6538
-20.7487 65.9263 -6.8873
-27.5879 77.7950 -8.2336
-30.7331 77.6974 -8.3438
-34.6444 79.1596 -8.6391
-31.9609 66.4326 -7.3800
-41.8100 79.4747 -9.0022
-12.7605 22.2778 -2.5774
-12.7283 20.4813 -2.4247
-13.9450 20.7406 -2.5171
-15.8935 20.3234 -2.6076
-17.4720 20.7618 -2.7477
-19.2296 21.2533 -2.9079
-14.9527 15.3795 -2.1807
-13.2636 12.6972 -1.8706
-13.1123 11.6802 -1.7928
-15.0775 12.4901 -2.0034
-15.8335 12.1856 -2.0491
-22.1104 15.7864 -2.7928
-23.9500 15.8341 -2.9585
-24.5473 14.9918 -2.9711
-25.6334 14.4186 -3.0454
-26.7207 13.7922 -3.1216
-21.8238 10.2903 -2.5112
-20.4561 8.7626 -2.3222
-21.8639 8.4506 -2.4524
-21.4559 7.4195 -2.3815
-18.6393 5.7053 -2.0503
-14.1256 3.7750 -1.5420
-14.5250 3.3281 -1.5758
-20.3919 3.9079 -2.2017
-21.7038 3.3568 -2.3352
-19.9218 2.3526 -2.1389
-20.1374 1.6479 -2.1602
-20.3560 0.9319 -2.1846
-20.8938 0.2057 -2.2462
-26.8667 -0.7003 -2.8971
-17.1303 -1.0628 -1.8551
-15.9801 -1.5690 -1.7403
-16.0399 -2.1587 -1.7588
-16.1010 -2.7586 -1.7799
-16.1634 -3.3707 -1.8038
-44.6947 -11.0089 -5.0418
-44.4675 -12.6626 -5.0773
-44.9127 -14.5519 -5.1976
-45.0440 -16.4038 -5.2908
-45.1924 -18.3213 -5.3953
-24.9634 -11.1802 -3.0336
-24.1181 -11.8591 -2.9878
-22.6865 -12.1856 -2.8695
-22.5281 -13.1642 -2.9140
-19.2944 -12.2246 -2.5565
-19.0744 -13.0683 -2.5935
-19.4377 -14.3695 -2.7171
-6.6018 -5.2574 -0.9506
-22.0248 -18.8713 -3.2732
-19.4636 -17.9285 -2.9921
-18.8201 -18.6288 -2.9997
-19.9740 -21.2449 -3.3090
-20.3381 -23.2520 -3.5114
-24.3162 -29.9028 -4.3881
-20.8145 -27.5632 -3.9385
-14.2367 -20.3322 -2.8345
-13.0860 -20.1960 -2.7519
-12.6471 -21.1465 -2.8214
-12.8608 -23.3707 -3.0582
-11.9427 -23.6784 -3.0438
-10.8531 -23.5898 -2.9835
-19.4664 -46.6566 -5.8142
-17.0977 -45.5155 -5.5967
-18.2021 -54.3073 -6.5983
-14.5675 -49.2720 -5.9233
-12.2823 -47.7959 -5.6926
-12.2551 -55.9593 -6.6116
-10.0419 -55.2913 -6.4887
-8.1365 -56.2219 -6.5616
12.9335 -71.2110 -6.7042
2.8425 -12.9795 -1.2299
17.3037 -67.3390 -6.4307
16.9799 -57.4350 -5.5345
19.2453 -57.4241 -5.5907
15.4658 -41.1751 -4.0557
2.1683 -5.1974 -0.5186
18.5611 -40.3480 -4.0846
19.5245 -38.7156 -3.9820
18.5262 -33.6705 -3.5239
16.7618 -28.0305 -2.9897
18.0430 -27.8506 -3.0324
18.9751 -27.1038 -3.0178
18.0484 -23.9043 -2.7267
20.1600 -24.7963 -2.9033
20.9125 -23.9132 -2.8799
22.7011 -24.1502 -2.9980
23.2373 -23.0060 -2.9509
23.8623 -21.9851 -2.9210
24.9768 -21.4057 -2.9540
24.6943 -19.6704 -2.8279
21.9626 -16.2404 -2.4403
21.9767 -15.0609 -2.3737
24.1951 -15.3343 -2.5450
26.3330 -15.3925 -2.7023
25.6989 -13.8085 -2.5771
25.7941 -12.6880 -2.5317
17.8757 -8.0091 -1.7199
18.1037 -7.3427 -1.7101
15.6805 -5.7132 -1.4562
15.8026 -5.1230 -1.4449
15.8430 -4.5144 -1.4282
19.0992 -4.7079 -1.6998
17.9284 -3.7421 -1.5774
20.4051 -3.4998 -1.7771
20.6851 -2.7876 -1.7856
17.2902 -1.7008 -1.4812
19.4527 -1.2105 -1.6560
21.1825 -0.5560 -1.7942
19.6768 0.1900 -1.6604
20.5921 0.9388 -1.7334
23.7020 1.9351 -1.9928
22.6901 2.6752 -1.9079
21.9896 3.3967 -1.8517
10.3924 1.9896 -0.8775
9.9587 2.2799 -0.8444
9.4837 2.5325 -0.8085
9.2193 2.8200 -0.7914
8.7305 3.0172 -0.7557
8.3766 3.2358 -0.7322
8.1036 3.4695 -0.7164
7.9624 3.7526 -0.7131
7.5860 3.9139 -0.6893
7.2734 4.0895 -0.6717
6.9742 4.2577 -0.6557
6.7182 4.4399 -0.6443
6.6337 4.7346 -0.6501
6.4844 4.9887 -0.6507
6.0703 5.0269 -0.6251
5.9009 5.2547 -0.6250
5.4472 5.2129 -0.5948
5.1270 5.2717 -0.5786
5.0256 5.5528 -0.5878
4.8432 5.7533 -0.5889
4.6594 5.9563 -0.5908
4.4737 6.1624 -0.5936
4.6921 6.9767 -0.6541
4.4347 7.1339 -0.6522
4.4490 7.7651 -0.6936
44.1979 83.9894 -7.3425
39.6427 82.3755 -7.0611
37.2690 85.1313 -7.1672
30.6318 77.4181 -6.4124
16.3972 46.2241 -3.7727
14.5516 46.2211 -3.7233
12.7476 46.2182 -3.6802
10.9791 46.2153 -3.6431
9.2408 46.2125 -3.6118
8.4954 52.1521 -4.0472
1.4631 81.4698 -6.2349
-1.4200 79.2170 -6.0630
-4.1918 77.8329 -5.9661
-7.0015 77.8587 -5.9857
-9.9974 79.2003 -6.1155
-18.4149 66.7741 -5.3242
-20.8937 66.3731 -5.3548
-27.5936 77.7950 -6.3603
-30.7395 77.6974 -6.4475
-34.0094 77.6921 -6.5542
-32.0112 66.5230 -5.7147
-41.6492 79.1517 -6.9358
-12.7611 22.2741 -1.9944
-13.3614 21.4952 -1.9703
-13.7345 20.4229 -1.9200
-32.6157 44.9295 -4.3409
-16.1272 20.6174 -2.0513
-17.6857 21.0105 -2.1574
-19.0850 21.0882 -2.2399
-15.4861 15.9239 -1.7539
-14.5684 13.9425 -1.5965
-13.5412 12.0589 -1.4395
-15.0766 12.4857 -1.5585
-16.0184 12.3241 -1.6138
-16.6516 11.8851 -1.6384
-22.9504 15.1681 -2.2099
-24.3967 14.8945 -2.3034
-25.6239 14.4078 -2.3764
-26.7106 13.7814 -2.4375
-22.1163 10.4237 -1.9893
-20.3769 8.7246 -1.8095
-22.1247 8.5470 -1.9427
-20.8508 7.2062 -1.8130
-18.7483 5.7351 -1.6168
-18.0722 4.8262 -1.5478
-24.1803 5.5359 -2.0596
-20.5833 3.9408 -1.7461
-21.1126 3.2614 -1.7861
-20.6974 2.4404 -1.7485
-22.6319 1.8478 -1.9117
-23.0730 1.0520 -1.9512
-24.1062 0.2329 -2.0436
-24.4330 -0.6413 -2.0791
-17.2980 -1.0764 -1.4794
-15.9500 -1.5690 -1.3727
-16.0094 -2.1575 -1.3882
-42.8877 -8.9519 -3.7902
-42.9562 -10.5888 -3.8400
-42.5296 -12.1188 -3.8507
-43.1226 -13.9802 -3.9599
-43.2217 -15.7485 -4.0310
-41.3383 -16.7670 -3.9210
-36.9230 -16.5438 -3.5671
-43.5936 -21.4442 -4.2959
-22.6802 -12.1869 -2.2833
-22.6970 -13.2677 -2.3381
-22.1792 -14.0572 -2.3417
-20.1913 -13.8379 -2.1888
-19.5701 -14.4718 -2.1821
-6.6006 -5.2579 -0.7585
-22.0540 -18.9016 -2.6171
-21.4477 -19.7613 -2.6339
-20.9970 -20.7890 -2.6747
-20.1104 -21.3952 -2.6639
-20.1858 -23.0834 -2.7878
-24.3421 -29.9416 -3.5152
-20.9801 -27.7887 -3.1780
-14.3872 -20.5516 -2.2939
-13.2201 -20.4073 -2.2271
-12.9749 -21.6989 -2.3195
-13.0567 -23.7315 -2.4888
-11.7740 -23.3486 -2.4061
-10.7030 -23.2679 -2.3597
-18.5867 -44.5565 -4.4534
-18.0915 -48.1699 -4.7517
-20.8973 -62.3600 -6.0794
-14.5866 -49.3451 -4.7606
-12.1838 -47.4206 -4.5333
-11.2121 -51.2053 -4.8566
-16.2029 -89.2285 -8.4068
0.0009 -77.9300 -5.4649
2.2682 -63.0916 -4.4265
5.4089 -37.3798 -2.6444
6.5103 -35.8529 -2.5493
2.8412 -12.9765 -0.9285
8.9856 -34.9758 -2.5214
10.3738 -35.0969 -2.5523
19.2353 -57.4063 -4.2164
15.3768 -40.9467 -3.0416
2.1674 -5.1964 -0.3909
18.6887 -40.6339 -3.0996
20.8248 -41.3030 -3.1995
18.4846 -33.6022 -2.6472
16.6867 -27.9109 -2.2397
17.3788 -26.8313 -2.1967
18.9254 -27.0389 -2.2623
19.0520 -25.2396 -2.1621
20.2881 -24.9598 -2.1932
20.9369 -23.9471 -2.1628
22.6557 -24.1081 -2.2427
24.7226 -24.4830 -2.3515
26.5045 -24.4262 -2.4281
24.9732 -21.4087 -2.2086
21.0440 -16.7678 -1.8005
21.9847 -16.2618 -1.8234
22.1903 -15.2123 -1.7875
24.8728 -15.7693 -1.9494
26.4433 -15.4627 -2.0199
26.0183 -13.9856 -1.9402
25.9490 -12.7695 -1.8920
17.8804 -8.0149 -1.2766
18.1085 -7.3483 -1.2680
18.3357 -6.6843 -1.2609
19.6174 -6.3635 -1.3267
17.6570 -5.0346 -1.1760
20.3281 -5.0146 -1.3351
21.0455 -4.3967 -1.3648
19.7129 -3.3847 -1.2639
21.7635 -2.9370 -1.3814
17.2899 -1.7039 -1.0878
21.3111 -1.3301 -1.3307
21.3933 -0.5655 -1.3275
19.6949 0.1866 -1.2160
20.7233 0.9410 -1.2747
23.8606 1.9436 -1.4641
31.6896 3.7304 -1.9423
22.2911 3.4392 -1.3664
10.1976 1.9504 -0.6260
9.8798 2.2600 -0.6082
9.4355 2.5179 -0.5833
9.0643 2.7709 -0.5635
8.6277 2.9800 -0.5402
8.3493 3.2237 -0.5272
8.0940 3.4638 -0.5163
7.9796 3.7591 -0.5149
7.5884 3.9136 -0.4962
6.9268 3.8932 -0.4598
6.6791 4.0761 -0.4509
6.7987 4.4916 -0.4675
6.6013 4.7100 -0.4634
6.3491 4.8832 -0.4559
6.0529 5.0111 -0.4455
5.7986 5.1622 -0.4384
5.6569 5.4122 -0.4405
5.6107 5.7676 -0.4511
4.9430 5.4602 -0.4115
4.7633 5.6571 -0.4118
4.5821 5.8562 -0.4127
4.3990 6.0581 -0.4143
4.7771 7.1015 -0.4722
4.4551 7.1652 -0.4642
4.5349 7.9133 -0.5005
44.3558 84.2728 -5.2135
22.2539 46.2336 -2.8026
20.2845 46.3260 -2.7564
18.3318 46.3228 -2.7101
16.5298 46.5896 -2.6845
15.0613 47.8314 -2.7189
13.5299 49.0462 -2.7547
11.9351 50.2310 -2.7920
10.2764 51.3830 -2.8308
8.6864 53.3157 -2.9157
1.4226 79.2216 -4.2708
-1.4206 79.2170 -4.2711
-4.1657 77.3277 -4.1759
-6.9921 77.7359 -4.2110
-9.8142 77.7313 -4.2301
-22.4088 94.3212 -5.2513
-18.6301 67.5406 -3.8007
-20.9771 66.6244 -3.7953
-27.5994 77.7950 -4.4933
-30.7459 77.6974 -4.5576
-34.0165 77.6921 -4.6360
-31.8136 66.0982 -4.0191
-41.6582 79.1517 -4.9129
-25.8939 45.1868 -2.8682
-27.8557 44.8029 -2.9136
-29.3618 43.6504 -2.9140
-31.0810 42.8054 -2.9393
-16.3865 20.9438 -1.4824
-17.9038 21.2644 -1.5548
-18.9431 20.9261 -1.5844
-15.5543 15.9899 -1.2567
-18.4475 17.6501 -1.4437
-13.3059 11.8461 -1.0113
-14.9214 12.3536 -1.1040
-16.2070 12.4654 -1.1700
-16.8501 12.0229 -1.1894
-21.3771 14.1235 -1.4785
-24.1133 14.7162 -1.6372
-22.7355 12.7789 -1.5181
-26.7006 13.7707 -1.7565
-22.4156 10.5602 -1.4553
-20.2986 8.6870 -1.3027
-21.4865 8.2962 -1.3652
-22.4536 7.7557 -1.4146
-18.8583 5.7651 -1.1798
-19.7363 5.2669 -1.2279
-21.4903 4.9160 -1.3314
-20.7777 3.9741 -1.2837
-23.0396 3.5548 -1.4213
-23.1190 2.7217 -1.4260
-22.7768 1.8555 -1.4065
-22.6977 1.0308 -1.4051
-22.7875 0.2160 -1.4159
-22.9054 -0.6054 -1.4303
-23.1004 -1.4417 -1.4515
-23.4203 -2.3081 -1.4827
-23.7528 -3.2054 -1.5170
-24.0679 -4.1325 -1.5526
-25.4234 -5.3113 -1.6587
-41.3538 -10.2016 -2.7322
-41.4114 -11.8080 -2.7743
-41.4758 -13.4542 -2.8212
-41.5477 -15.1466 -2.8734
-38.7475 -15.7237 -2.7283
-37.5199 -16.8187 -2.6935
-41.8137 -20.5770 -3.0650
-22.6739 -12.1882 -1.6996
-22.8881 -13.3841 -1.7573
-21.9702 -13.9294 -1.7305
-22.7247 -15.5791 -1.8394
-19.5309 -14.4472 -1.6275
-6.5994 -5.2585 -0.5672
-21.9263 -18.7972 -1.9477
-21.9334 -20.2143 -2.0180
-21.1417 -20.9376 -2.0192
-20.2482 -21.5470 -2.0124
-20.2810 -23.1978 -2.1030
-23.6706 -29.1222 -2.5681
-23.1586 -30.6810 -2.6372
-14.5403 -20.7748 -1.7439
-13.3738 -20.6488 -1.6957
-12.5206 -20.9435 -1.6855
-12.3056 -22.3708 -1.7672
-11.6106 -23.0291 -1.7884
-19.3319 -42.0347 -3.2140
-19.4372 -46.6039 -3.5132
-17.6931 -47.1179 -3.5069
-15.8517 -47.3117 -3.4812
-14.1192 -47.7722 -3.4795
-12.0872 -47.0526 -3.3967
-11.6706 -53.3082 -3.8189
-10.0293 -55.2397 -3.9317
-13.2478 -91.5680 -6.4830
2.2674 -63.0878 -2.9995
4.2210 -39.0195 -1.8626
5.2796 -36.4942 -1.7484
6.2045 -34.1760 -1.6451
2.8400 -12.9734 -0.6281
8.5374 -33.2380 -1.6206
9.9046 -33.5164 -1.6475
19.2062 -57.3313 -2.8445
7.1222 -18.9694 -0.9512
2.1665 -5.1954 -0.2636
18.9008 -41.1038 -2.1130
8.1365 -16.1410 -0.8418
15.5635 -28.2982 -1.4995
16.6201 -27.8057 -1.4992
17.8592 -27.5793 -1.5154
19.3042 -27.5865 -1.5472
19.2245 -25.4740 -1.4609
7.8378 -9.6451 -0.5666
21.1779 -24.2288 -1.4609
22.6105 -24.0662 -1.4925
25.3146 -25.0759 -1.6031
26.4865 -24.4163 -1.6129
24.8004 -21.2667 -1.4556
9.0863 -7.2421 -0.5150
9.5708 -7.0817 -0.5249
22.4075 -15.3663 -1.1914
24.9658 -15.8337 -1.2890
25.0097 -14.6298 -1.2561
26.3449 -14.1667 -1.2890
26.1053 -12.8518 -1.2463
17.8852 -8.0206 -0.8344
18.1133 -7.3538 -0.8269
18.3406 -6.6897 -0.8204
19.6745 -6.3858 -0.8635
18.5807 -5.3015 -0.8012
20.2038 -4.9878 -0.8570
21.2228 -4.4377 -0.8867
19.0678 -3.2775 -0.7857
22.1222 -2.9894 -0.9001
17.2896 -1.7071 -0.6955
21.0306 -1.3164 -0.8375
21.6078 -0.5751 -0.8528
19.7131 0.1832 -0.7720
20.8557 0.9432 -0.8115
24.0208 1.9523 -0.9298
33.1565 3.8970 -1.2784
32.6925 5.0380 -1.2572
10.0217 1.9149 -0.3849
9.5754 2.1886 -0.3677
9.2507 2.4668 -0.3558
8.9109 2.7223 -0.3436
8.5748 2.9601 -0.3321
8.3282 3.2139 -0.3244
8.1126 3.4701 -0.3183
7.1854 3.3836 -0.2844
6.9238 3.5694 -0.2769
6.9017 3.8777 -0.2794
6.6663 4.0669 -0.2737
6.4560 4.2638 -0.2693
6.5031 4.6385 -0.2762
6.2045 4.7705 -0.2688
6.9983 5.7921 -0.3100
5.6938 5.0675 -0.2584
5.8633 5.6082 -0.2734
5.7813 5.9414 -0.2777
5.1836 5.7246 -0.2572
6.7514 8.0165 -0.3471
5.1029 6.5204 -0.2727
4.7465 6.5352 -0.2647
4.6361 6.8904 -0.2708
4.4756 7.1967 -0.2751
3.9951 6.9700 -0.2596
15.8228 30.0563 -1.0931
27.7594 57.6604 -2.0515
26.6277 60.8012 -2.1202
25.3831 64.1289 -2.1958
27.9116 78.6552 -2.6491
27.1189 86.1086 -2.8578
14.9613 54.2256 -1.7764
22.5694 94.9713 -3.0763
1.4629 81.4698 -2.5535
-1.4212 79.2170 -2.4835
-4.1940 77.8329 -2.4446
-7.0048 77.8587 -2.4539
-10.0018 79.2003 -2.5089
-23.1179 83.7933 -2.7541
-21.1338 67.1083 -2.2354
-27.6051 77.7950 -2.6309
-30.7523 77.6974 -2.6723
-34.6664 79.1596 -2.7738
-32.0622 66.6005 -2.3820
-42.2518 80.2623 -2.9354
-27.4046 47.8126 -1.7915
-29.0768 46.7565 -1.7985
-29.0185 43.1301 -1.7065
-31.0354 42.7326 -1.7428
-38.1656 48.7683 -2.0547
-39.4120 46.7982 -2.0416
-19.3813 21.4048 -0.9692
-17.6982 18.1891 -0.8570
-18.5295 17.7238 -0.8713
-13.0793 11.6411 -0.5988
-14.6455 12.1216 -0.6544
-16.3995 12.6096 -0.7169
-21.0431 15.0099 -0.9019
-21.5021 14.2013 -0.9054
-21.9586 13.3965 -0.9102
-24.8807 13.9793 -1.0171
-25.6394 13.2181 -1.0355
-22.7222 10.7000 -0.9082
-20.2212 8.6498 -0.8012
-21.4010 8.2590 -0.8419
-21.5983 7.4561 -0.8449
-18.9691 5.7953 -0.7389
-19.8565 5.2952 -0.7714
-23.4464 5.3590 -0.9096
-22.7972 4.3561 -0.8844
-22.6973 3.4978 -0.8817
-22.3391 2.6257 -0.8700
-22.0237 1.7901 -0.8611
-21.8885 0.9900 -0.8603
-21.8637 0.2033 -0.8648
-21.9161 -0.5833 -0.8735
-22.0100 -1.3777 -0.8850
-22.1493 -2.1869 -0.8997
-22.5729 -3.0503 -0.9273
-22.9768 -3.9494 -0.9558
-23.5424 -4.9227 -0.9928
-24.8598 -6.1373 -1.0642
-39.9104 -11.3876 -1.7365
-39.9543 -12.9683 -1.7692
-40.0027 -14.5911 -1.8050
-36.9256 -14.9916 -1.7000
-37.5199 -16.8261 -1.7650
-36.9691 -18.2004 -1.7794
-37.8676 -20.3633 -1.8676
-25.5784 -14.9627 -1.2946
-24.6802 -15.6529 -1.2839
-23.2290 -15.9299 -1.2441
-24.0602 -17.8030 -1.3290
-6.5982 -5.2590 -0.3766
-21.8721 -18.7561 -1.2922
-22.4707 -20.7149 -1.3772
-21.2880 -21.0878 -1.3564
-20.3874 -21.7005 -1.3537
-20.3770 -23.3130 -1.4136
-24.9268 -30.6748 -1.8117
-23.3339 -30.9200 -1.7823
-14.0011 -20.0087 -1.1277
-13.3534 -20.6217 -1.1383
-12.6966 -21.2423 -1.1503
-12.3936 -22.5352 -1.1990
-11.4940 -22.8022 -1.1937
-20.1899 -43.9088 -2.2650
-20.7601 -49.7851 -2.5340
-19.6553 -52.3530 -2.6327
-16.4093 -48.9848 -2.4368
-14.4655 -48.9525 -2.4119
-12.8164 -49.8998 -2.4379
-12.0237 -54.9301 -2.6643
-10.4363 -57.4908 -2.7714
2.2665 -63.0839 -1.5758
4.2140 -38.9640 -0.9762
5.1476 -35.5891 -0.8941
6.1470 -33.8665 -0.8540
2.8387 -12.9704 -0.3286
8.4173 -32.7769 -0.8350
9.6179 -32.5529 -0.8347
6.1050 -18.2275 -0.4709
6.6347 -17.6748 -0.4605
2.1657 -5.1944 -0.1366
7.0452 -15.3245 -0.4074
7.5820 -15.0442 -0.4047
8.3564 -15.1972 -0.4142
16.6309 -27.8300 -0.7694
16.8808 -26.0742 -0.7322
18.8780 -26.9838 -0.7707
19.3134 -25.5979 -0.7448
7.4436 -9.1622 -0.2720
7.7516 -8.8705 -0.2692
8.1902 -8.7198 -0.2710
8.7635 -8.6832 -0.2769
26.2703 -24.2237 -0.7943
8.4385 -7.2382 -0.2447
8.7163 -6.9493 -0.2428
9.0798 -6.7205 -0.2434
9.6058 -6.5895 -0.2482
23.3109 -14.7893 -0.5813
24.7010 -14.4545 -0.5955
24.7664 -13.3231 -0.5779
26.2633 -12.9350 -0.5940
34.7270 -15.5804 -0.7621
18.1181 -7.3593 -0.3863
19.3972 -7.0789 -0.4022
24.6189 -7.9954 -0.4971
21.9760 -6.2745 -0.4325
21.8978 -5.4101 -0.4205
20.9991 -4.3948 -0.3938
25.3940 -4.3696 -0.4656
22.1337 -2.9951 -0.3972
17.2893 -1.7102 -0.3039
22.0758 -1.3858 -0.3805
21.5475 -0.5774 -0.3646
19.7312 0.1798 -0.3280
20.9896 0.9455 -0.3432
32.9101 2.6688 -0.5298
31.7928 3.7309 -0.5044
10.2592 1.5791 -0.1606
9.6362 1.8395 -0.1490
9.1847 2.0976 -0.1404
9.0003 2.3984 -0.1362
8.7252 2.6639 -0.1309
8.5226 2.9404 -0.1269
8.2881 3.1968 -0.1226
8.1305 3.4762 -0.1197
6.9211 3.2577 -0.1015
6.8993 3.5554 -0.1010
6.8769 3.8623 -0.1007
6.6536 4.0578 -0.0976
6.5561 4.3285 -0.0964
6.5844 4.6950 -0.0974
6.4535 4.9605 -0.0961
6.9160 5.7224 -0.1040
5.5928 4.9763 -0.0851
5.8871 5.6295 -0.0909
5.4579 5.6078 -0.0858
5.2343 5.7793 -0.0840
4.9083 5.8267 -0.0806
5.0973 6.5117 -0.0861
4.8856 6.7254 -0.0851
4.8335 7.1823 -0.0872
4.4963 7.2284 -0.0845
4.1369 7.2160 -0.0814
15.8255 30.0554 -0.3278
23.1814 48.1420 -0.5090
23.3267 53.2536 -0.5471
30.9177 78.0974 -0.7816
27.9001 78.6086 -0.7683
25.3763 80.5615 -0.7707
14.9639 54.2256 -0.5091
21.9473 92.3376 -0.8527
1.4228 79.2411 -0.6981
-1.4222 79.2365 -0.6986
-4.1912 77.7600 -0.6878
-6.9971 77.7554 -0.6917
-9.8209 77.7508 -0.6973
-23.0897 97.1471 -0.9061
-23.0677 83.5938 -0.7937
-25.1014 79.6905 -0.7722
-27.6502 77.9061 -0.7722
-30.7664 77.7169 -0.7898
-34.0394 77.7115 -0.8117
-31.9141 66.2788 -0.7132
-41.6863 79.1712 -0.8797
-44.5417 77.6945 -0.8935
-48.3234 77.6884 -0.9270
-44.8495 66.6445 -0.8270
-58.4626 80.4784 -1.0412
-37.7554 48.2326 -0.6522
-40.1137 47.6197 -0.6747
-19.3280 21.3405 -0.3176
-17.7763 18.2646 -0.2864
-18.6122 17.7981 -0.2948
-20.3805 18.1343 -0.3182
-22.7367 18.8129 -0.3509
-18.8052 14.4550 -0.2875
-20.6152 14.7000 -0.3129
-21.6283 14.2799 -0.3266
-22.0873 13.4702 -0.3324
-25.0156 14.0498 -0.3760
-25.7798 13.2851 -0.3875
-23.3351 10.9838 -0.3514
-20.1444 8.6129 -0.3044
-21.3163 8.2221 -0.3236
-19.4515 6.7112 -0.2971
-21.3098 6.5063 -0.3279
-20.7972 5.5421 -0.3228
-20.3986 4.6586 -0.3198
-22.1472 4.2278 -0.3510
-21.9110 3.3726 -0.3515
-21.6251 2.5378 -0.3515
-20.7076 1.6793 -0.3414
-21.1648 0.9534 -0.3543
-21.1140 0.1924 -0.3592
-21.1161 -0.5658 -0.3655
-21.1720 -1.3291 -0.3732
-21.3447 -2.1114 -0.3835
-21.5837 -2.9206 -0.3957
-21.9474 -3.7765 -0.4110
-22.3876 -4.6854 -0.4286
-22.9553 -5.6714 -0.4497
-23.8662 -6.8142 -0.4790
-24.9104 -8.0900 -0.5127
-25.3974 -9.2686 -0.5366
-37.2150 -15.1163 -0.8080
-37.2125 -16.6956 -0.8312
-37.2098 -18.3264 -0.8560
-36.9177 -19.8600 -0.8759
-27.5990 -16.1505 -0.6761
-24.8957 -15.7949 -0.6306
-23.2086 -15.9210 -0.6086
-38.8911 -28.7855 -1.0576
-6.5970 -5.2596 -0.1863
-23.1000 -19.8145 -0.6788
-21.4205 -19.7520 -0.6560
-20.6977 -20.5083 -0.6620
-21.1604 -22.5288 -0.7083
-20.4736 -23.4291 -0.7190
-25.1493 -30.9557 -0.9289
-24.4336 -32.3844 -0.9518
-14.1978 -20.2941 -0.5852
-13.5421 -20.9175 -0.5927
-12.8774 -21.5491 -0.6008
-12.4826 -22.7017 -0.6236
-11.5760 -22.9694 -0.6224
-22.3161 -48.5420 -1.2992
-22.0261 -52.8311 -1.3982
-25.0565 -66.7513 -1.7489
-17.8558 -53.3124 -1.3842
-19.5362 -66.1238 -1.7030
-17.2041 -66.9947 -1.7133
-12.1885 -55.6924 -1.4156
-13.6885 -75.4184 -1.9071
2.2656 -63.0769 -0.1539
4.8475 -67.3921 -0.1632
4.1207 -38.1091 -0.0913
4.9250 -34.0578 -0.0805
5.7928 -31.9215 -0.0742
2.8375 -12.9674 -0.0295
6.2387 -24.2987 -0.0539
5.6609 -19.1639 -0.0412
6.0364 -18.0264 -0.0375
6.6490 -17.7166 -0.0353
2.1648 -5.1934 -0.0099
6.9913 -15.2106 -0.0273
7.5572 -14.9982 -0.0252
8.2735 -15.0497 -0.0233
13.8696 -23.2143 -0.0326
14.6239 -22.5932 -0.0282
4.9231 -7.0387 -0.0076
4.8787 -6.4679 -0.0057
5.2437 -6.4559 -0.0043
5.6494 -6.4666 -0.0028
6.0921 -6.4877 -0.0011
6.7405 -6.6805 0.0008
8.0397 -7.4155 0.0032
8.0914 -6.9425 0.0055
8.3755 -6.6796 0.0080
8.6036 -6.3700 0.0105
9.1350 -6.2686 0.0135
9.6405 -6.1184 0.0167
23.9325 -14.0099 0.0476
24.8105 -13.3520 0.0556
25.2315 -12.4320 0.0628
33.8795 -15.2070 0.0928
34.2025 -13.8994 0.1022
34.5579 -12.6184 0.1119
22.7111 -7.3802 0.0792
22.0729 -6.3064 0.0826
21.9930 -5.4378 0.0879
20.6086 -4.3170 0.0877
23.0839 -3.9764 0.1042
21.8299 -2.9580 0.1044
17.2890 -1.7134 0.0873
21.8743 -1.3772 0.1165
21.3558 -0.5762 0.1198
19.7494 0.1763 0.1165
21.1251 0.9477 0.1308
22.4547 1.8168 0.1459
33.6839 3.9467 0.2294
10.0672 1.5477 0.0718
9.2677 1.7674 0.0692
8.8779 2.0258 0.0694
8.7251 2.3234 0.0713
8.5635 2.6129 0.0732
8.4010 2.8969 0.0751
8.2388 3.1762 0.0770
8.0820 3.4539 0.0790
7.9242 3.7283 0.0810
6.8750 3.5415 0.0735
6.8523 3.8471 0.0767
6.6410 4.0487 0.0778
6.2386 4.1176 0.0766
6.4449 4.5942 0.0829
6.6911 5.1417 0.0904
6.3147 5.2234 0.0896
6.0586 5.3894 0.0904
5.7757 5.5216 0.0907
5.6063 5.7588 0.0929
5.2422 5.7866 0.0917
5.0110 5.9472 0.0928
4.7814 6.1068 0.0939
4.8802 6.7165 0.1020
4.6663 6.9324 0.1040
4.5171 7.2605 0.1077
4.8489 8.4562 0.1242
15.8281 30.0546 0.4372
23.2960 48.3707 0.6977
23.2882 53.1558 0.7608
31.2271 78.8644 1.1210
29.5560 83.2590 1.1760
25.9383 82.3311 1.1564
14.7268 53.3573 0.7457
21.9677 92.4079 1.2858
19.5764 97.8362 1.3562
2.0926 16.5634 0.2283
1.9232 35.6731 0.4898
1.4162 78.8782 1.0819
-1.3892 77.3658 1.0606
-4.1708 77.3612 1.0606
-6.9628 77.3567 1.0611
-9.7727 77.3521 1.0622
-13.9446 85.5484 1.1766
-17.0769 85.3433 1.1764
-7.0125 29.4982 0.4077
-22.7525 82.4348 1.1432
-24.8372 78.8356 1.0976
-27.4491 77.3235 1.0815
-30.6150 77.3183 1.0871
-33.8719 77.3130 1.0934
-40.1540 83.3738 1.1869
-6.6246 12.5788 0.1804
-7.2128 12.5787 0.1819
-48.0863 77.2900 1.1277
-25.8403 38.3889 0.5657
-58.1486 80.0275 1.1923
-25.9785 33.1797 0.5003
-39.7354 47.1590 0.7206
-19.2751 21.2767 0.3298
-17.8551 18.3407 0.2889
-18.6955 17.8729 0.2864
-15.1928 13.5146 0.2207
-21.7989 18.0317 0.3008
-19.9327 15.3170 0.2614
-20.4787 14.5980 0.2556
-21.7559 14.3593 0.2586
-22.2174 13.5447 0.2516
-25.1518 14.1210 0.2716
-40.3582 20.7894 0.4157
-32.8255 15.4444 0.3227
-21.8222 9.3259 0.2047
-20.3025 7.8270 0.1818
-19.4905 6.7208 0.1666
-20.6085 6.2883 0.1681
-21.2152 5.6494 0.1651
-20.7970 4.7457 0.1544
-21.4712 4.0948 0.1520
-21.2195 3.2622 0.1431
-20.9667 2.4567 0.1346
-20.7100 1.6757 0.1265
-20.5198 0.9206 0.1191
-20.4223 0.1824 0.1125
-20.3232 -0.5483 0.1061
-20.3006 -1.2781 0.1002
-20.4834 -2.0299 0.0955
-20.7079 -2.8059 0.0910
-20.9829 -3.6144 0.0866
-21.3429 -4.4707 0.0825
-21.8506 -5.4025 0.0788
-22.4340 -6.4095 0.0752
-22.9618 -7.4616 0.0712
-23.4108 -8.5481 0.0667
-23.7642 -9.6573 0.0618
-24.1537 -10.8414 0.0568
-24.6248 -12.1329 0.0517
-37.9062 -20.3995 0.0701
-27.7914 -16.2688 0.0444
-25.8802 -16.4250 0.0348
-23.1883 -15.9121 0.0252
-25.1678 -18.6336 0.0208
-6.5958 -5.2602 0.0037
-23.5391 -20.1966 0.0068
-21.7685 -20.0781 0.0003
-21.0339 -20.8466 -0.0058
-21.0679 -22.4358 -0.0121
-21.5645 -24.6832 -0.0191
-25.3757 -31.2415 -0.0308
-24.5101 -32.4929 -0.0382
-14.3999 -20.5874 -0.0277
-13.6419 -21.0760 -0.0316
-13.0730 -21.8808 -0.0358
-26.5515 -48.2977 -0.0851
-24.8266 -49.2710 -0.0923
-22.9727 -49.9797 -0.0986
-21.1380 -50.7103 -0.1046
-26.0206 -69.3325 -0.1484
-22.7410 -67.9102 -0.1500
-23.5915 -79.8637 -0.1811
-21.2353 -82.7067 -0.1917
-12.0627 -55.1269 -0.1301
-16.7954 -92.5510 -0.2216
2.2646 -63.0693 1.2676
4.9141 -68.3351 1.3776
3.9420 -36.4655 0.7387
4.5273 -31.3142 0.6386
5.4538 -30.0599 0.6183
2.8362 -12.9644 0.2694
6.0861 -23.7092 0.4987
5.5416 -18.7637 0.4003
6.0434 -18.0510 0.3912
6.3003 -16.7909 0.3705
2.1639 -5.1924 0.1168
7.0009 -15.2346 0.3503
7.5741 -15.0349 0.3540
8.3070 -15.1139 0.3650
8.9668 -15.0116 0.3727
9.7287 -15.0339 0.3846
4.7445 -6.7849 0.1792
4.6885 -6.2171 0.1699
4.9342 -6.0763 0.1722
5.2006 -5.9543 0.1755
5.4727 -5.8295 0.1791
5.8129 -5.7627 0.1850
6.2587 -5.7743 0.1943
6.7861 -5.8243 0.2060
7.3042 -5.8269 0.2174
7.7846 -5.7654 0.2277
8.2747 -5.6801 0.2383
8.9199 -5.6631 0.2535
9.5681 -5.6032 0.2688
25.2480 -13.5927 0.7024
25.6757 -12.6561 0.7087
32.9220 -14.7839 0.9031
33.2336 -13.5122 0.9074
22.9593 -8.3878 0.6249
23.1385 -7.5235 0.6288
22.4623 -6.4219 0.6103
22.5423 -5.5779 0.6132
9.7423 -2.0426 0.2657
36.2664 -6.2539 0.9928
23.3179 -3.1639 0.6416
17.2888 -1.7165 0.4787
21.6764 -1.3687 0.6048
21.1674 -0.5750 0.5957
22.0565 0.1929 0.6270
21.6971 0.9694 0.6236
22.4553 1.8128 0.6534
22.0601 2.5807 0.6506
9.8026 1.5052 0.2933
9.1072 1.7351 0.2769
8.8034 2.0072 0.2722
8.6526 2.3025 0.2724
8.4916 2.5894 0.2726
8.3180 2.8667 0.2725
8.1560 3.1427 0.2731
8.0180 3.4250 0.2748
7.8760 3.7041 0.2766
6.8509 3.5276 0.2468
6.8278 3.8319 0.2528
6.6284 4.0396 0.2525
6.7638 4.4628 0.2656
6.2861 4.4796 0.2548
6.8187 5.2382 0.2858
6.4156 5.3054 0.2786
5.7850 5.1446 0.2607
5.5475 5.3021 0.2600
6.4681 6.6424 0.3161
4.9910 5.5080 0.2548
4.8813 5.7919 0.2611
4.7628 6.0817 0.2676
4.4272 6.0917 0.2622
4.1521 6.1672 0.2600
4.5333 7.2850 0.3014
17.0202 29.6761 1.2067
15.8308 30.0537 1.2027
23.2024 48.1671 1.8996
22.9800 52.4425 2.0409
21.0092 53.0493 2.0398
20.0360 56.4311 2.1465
17.9540 56.9781 2.1465
14.7087 53.2825 1.9903
13.7648 57.8925 2.1465
11.6594 58.2599 2.1465
9.5481 58.5682 2.1465
7.4319 58.8166 2.1465
5.3009 58.8860 2.1422
3.1625 58.6552 2.1291
1.0345 57.6206 2.0890
-1.0804 60.1406 2.1800
-3.3187 61.5396 2.2325
-5.5329 61.4561 2.2335
-7.7469 61.3040 2.2343
-9.9582 61.0797 2.2347
-11.2306 56.1145 2.0631
-10.8198 45.5042 1.6830
-16.5444 59.9299 2.2322
-18.7319 59.4446 2.2322
-18.6629 52.5623 1.9921
-10.3219 26.0626 0.9981
-11.4200 26.0608 1.0097
-12.5530 26.0589 1.0228
-13.7258 26.0570 1.0374
-14.9437 26.0550 1.0536
-16.2126 26.0530 1.0716
-17.5393 26.0508 1.0916
-18.9315 26.0485 1.1137
-20.3980 26.0461 1.1383
-21.9493 26.0436 1.1654
-19.2224 21.2132 0.9739
-18.6976 19.2011 0.9063
-19.7891 18.9134 0.9199
-20.9270 18.6101 0.9350
-31.4750 26.0281 1.3545
-20.1143 15.4517 0.8353
-20.3439 14.4973 0.8167
-20.8713 13.7708 0.8114
-22.3490 13.6202 0.8428
-25.0469 14.0568 0.9176
-40.3022 20.7523 1.4365
-20.3646 9.5774 0.7072
-20.5503 8.7782 0.6962
-20.7466 7.9942 0.6867
-19.5296 6.7306 0.6323
-20.6518 6.2975 0.6549
-21.0257 5.5950 0.6538
-20.9444 4.7754 0.6394
-20.7193 3.9475 0.6218
-20.5072 3.1489 0.6057
-20.2774 2.3722 0.5901
-20.0587 1.6194 0.5759
-19.8947 0.8889 0.5641
-19.7316 0.1727 0.5532
-19.6197 -0.5329 0.5445
-19.5966 -1.2373 0.5391
-19.7100 -1.9568 0.5381
-19.8777 -2.6970 0.5392
-20.1181 -3.4692 0.5429
-20.4183 -4.2808 0.5489
-20.8091 -5.1489 0.5579
-21.2300 -6.0695 0.5685
-21.7306 -7.0656 0.5821
-22.0392 -8.0515 0.5913
-22.3231 -9.0760 0.6008
-22.5058 -10.1062 0.6086
-22.6059 -11.1427 0.6152
-22.7329 -12.2385 0.6236
-22.6662 -13.2732 0.6279
-22.0878 -14.0227 0.6190
-21.8390 -14.9909 0.6204
-21.7513 -16.1090 0.6277
-6.5946 -5.2607 0.1937
-22.2139 -19.0647 0.6658
-22.1280 -20.4150 0.6784
-22.9750 -22.7762 0.7223
-21.8440 -23.2678 0.7063
-21.3682 -24.4643 0.7127
-23.0026 -28.3262 0.7940
-25.6704 -34.0387 0.9203
-24.1351 -34.5132 0.9021
-13.4884 -20.8432 0.5279
-12.9237 -21.6353 0.5322
-26.1092 -47.5026 1.1371
-25.0047 -49.6342 1.1588
-23.2353 -50.5607 1.1535
-21.2557 -51.0022 1.1393
-25.5698 -68.1436 1.4935
-22.8920 -68.3734 1.4730
-21.8288 -73.9092 1.5682
-21.7447 -84.7052 1.7734
-21.0195 -96.0756 1.9884
-6.5941 -91.6828 1.8457
-0.0005 -52.3785 2.2322
1.8650 -51.9547 2.2162
3.5794 -49.7864 2.1289
4.0960 -37.8979 1.6271
4.4967 -31.1093 1.3430
5.3527 -29.5090 1.2830
2.8350 -12.9614 0.5685
6.0084 -23.4115 1.0374
5.4909 -18.5961 0.8338
6.0323 -18.0214 0.8190
6.1838 -16.4837 0.7606
2.1631 -5.1914 0.2436
5.9856 -13.0280 0.6228
6.5323 -12.9697 0.6327
7.1576 -13.0256 0.6497
8.1854 -13.7065 0.7002
8.6042 -13.2992 0.6973
4.5376 -6.4905 0.3499
4.6105 -6.1151 0.3398
4.8329 -5.9530 0.3416
5.0895 -5.8286 0.3462
5.3545 -5.7051 0.3516
5.7003 -5.6526 0.3625
5.9957 -5.5332 0.3701
6.3011 -5.4095 0.3786
6.6170 -5.2803 0.3879
6.8771 -5.0949 0.3941
7.1324 -4.8976 0.4005
7.3935 -4.6956 0.4076
7.6780 -4.4980 0.4164
7.9871 -4.3017 0.4268
8.3087 -4.0973 0.4383
26.6230 -11.9606 1.3885
32.0334 -13.0306 1.6546
22.5363 -8.2377 1.1546
22.8500 -7.4341 1.1629
7.8634 -2.2496 0.3981
6.9359 -1.7175 0.3498
9.4890 -1.9912 0.4774
9.4711 -1.6350 0.4760
35.1207 -4.7719 1.7657
17.2885 -1.7197 0.8706
21.4818 -1.3603 1.0848
22.3570 -0.6113 1.1337
21.9882 0.1883 1.1210
22.8630 1.0173 1.1734
22.4558 1.8087 1.1616
34.5146 4.0314 1.8017
9.5502 1.4647 0.5037
8.9520 1.7039 0.4777
8.7324 1.9894 0.4720
8.5811 2.2819 0.4705
8.4147 2.5644 0.4686
8.2336 2.8360 0.4662
8.0758 3.1103 0.4657
7.9698 3.4028 0.4686
7.7328 3.6352 0.4643
7.6567 3.9410 0.4702
6.8035 3.8169 0.4279
6.7793 4.1301 0.4374
6.6504 4.3865 0.4409
6.5592 4.6727 0.4476
6.2891 4.8299 0.4425
6.3866 5.2800 0.4643
7.0860 6.2999 0.5333
6.8223 6.5187 0.5327
6.5308 6.7051 0.5303
4.9824 5.4972 0.4218
4.8727 5.7804 0.4312
4.7443 6.0567 0.4402
4.3904 6.0397 0.4285
4.1180 6.1153 0.4243
3.8520 6.1889 0.4206
17.0231 29.6752 1.9788
15.8335 30.0529 1.9694
16.0360 33.2836 2.1465
14.8010 33.7710 2.1465
13.5542 34.2187 2.1465
12.2964 34.6265 2.1465
11.0288 34.9944 2.1465
9.7524 35.3221 2.1465
8.4681 35.6096 2.1465
7.1771 35.8569 2.1465
5.8802 36.0638 2.1465
4.5410 35.9328 2.1289
3.2463 36.0578 2.1289
1.9489 36.1426 2.1289
0.6811 37.9422 2.2322
-0.6820 37.9467 2.2322
-2.0449 37.9090 2.2322
-3.4066 37.8291 2.2322
-4.7660 37.7068 2.2322
-6.1221 37.5425 2.2322
-7.1287 35.6116 2.1291
-8.4129 35.3743 2.1291
-9.6909 35.0969 2.1291
-10.4107 33.0310 2.0221
-10.4047 29.2977 1.8121
-10.3240 26.0626 1.6309
-11.4224 26.0608 1.6520
-12.5557 26.0589 1.6757
-13.7288 26.0570 1.7022
-14.9469 26.0550 1.7316
-16.2162 26.0530 1.7643
-17.5433 26.0508 1.8005
-18.9359 26.0485 1.8406
-20.4029 26.0461 1.8850
-21.9546 26.0436 1.9343
-17.7607 19.5952 1.4966
-18.7241 19.2233 1.5131
-20.4504 19.5401 1.5888
-19.4668 17.3068 1.4575
-24.8051 20.5065 1.7935
-20.2993 15.5892 1.4204
-20.2107 14.3978 1.3712
-22.4673 14.8189 1.4807
-22.8756 13.9361 1.4669
-23.2812 13.0609 1.4551
-19.3331 9.9509 1.1796
-19.4368 9.1371 1.1595
-19.6260 8.3795 1.1463
-19.8347 7.6389 1.1360
-19.5690 6.7403 1.1005
-20.1446 6.1390 1.1138
-20.1543 5.3593 1.0971
-20.1112 4.5816 1.0793
-20.0088 3.8084 1.0599
-19.7743 3.0327 1.0353
-19.5647 2.2852 1.0137
-19.4111 1.5635 0.9965
-19.2588 0.8570 0.9809
-19.0796 0.1635 0.9653
-18.9837 -0.5191 0.9552
-18.9531 -1.2001 0.9497
-19.0040 -1.8902 0.9495
-19.1211 -2.5979 0.9539
-19.3207 -3.3352 0.9636
-19.5973 -4.1123 0.9784
-19.9051 -4.9289 0.9962
-20.2537 -5.7942 1.0175
-20.6715 -6.7252 1.0439
-21.0105 -7.6798 1.0682
-21.2033 -8.6249 1.0869
-21.2775 -9.5588 1.1014
-21.2860 -10.4964 1.1145
-21.2333 -11.4354 1.1263
-21.0634 -12.3390 1.1340
-20.7809 -13.1974 1.1375
-20.5772 -14.1292 1.1474
-20.5005 -15.1872 1.1669
-6.5934 -5.2613 0.3839
-20.8259 -17.8783 1.2431
-21.1648 -19.5314 1.2983
-21.9342 -21.7498 1.3861
-21.8790 -23.3108 1.4283
-21.1752 -24.2491 1.4322
-20.9918 -25.8560 1.4755
-20.8112 -27.6015 1.5255
-21.4275 -30.6479 1.6441
-22.0030 -34.0077 1.7745
-13.1123 -21.9556 1.1166
-20.4732 -37.2559 1.8502
-19.8134 -39.3372 1.9113
-19.7344 -42.9508 2.0455
-19.0114 -45.6256 2.1335
-17.5254 -46.7138 2.1486
-15.8978 -47.4915 2.1522
-14.2101 -48.1217 2.1522
-12.4947 -48.6805 2.1522
-10.7550 -49.1669 2.1522
-8.8979 -49.0474 2.1291
-7.1389 -49.3812 2.1291
-5.6259 -52.0434 2.2322
-3.7564 -52.2351 2.2322
-1.8801 -52.3468 2.2322
-0.0005 -34.2341 2.2322
1.2275 -34.2057 2.2322
2.3395 -32.5491 2.1289
3.5040 -32.4278 2.1289
4.4297 -30.6521 2.0228
5.2330 -28.8549 1.9170
2.8337 -12.9584 0.8679
5.1149 -19.9340 1.3481
5.4739 -18.5423 1.2681
6.0504 -18.0792 1.2523
6.1489 -16.3942 1.1519
2.1622 -5.1904 0.3706
5.6242 -12.2440 0.8896
6.0653 -12.0450 0.8922
6.5429 -11.9095 0.9009
7.1015 -11.8942 0.9205
4.5218 -6.9907 0.5546
4.3266 -6.1901 0.5043
4.5349 -6.0163 0.5044
4.7536 -5.8567 0.5064
4.9828 -5.7078 0.5102
5.2443 -5.5892 0.5176
5.5866 -5.5413 0.5330
5.9258 -5.4703 0.5481
6.2264 -5.3469 0.5596
6.5372 -5.2182 0.5722
6.8375 -5.0672 0.5842
7.0908 -4.8707 0.5926
7.3499 -4.6695 0.6020
7.6324 -4.4729 0.6138
7.9388 -4.2774 0.6280
8.2665 -4.0782 0.6444
8.6408 -3.8838 0.6648
29.8296 -12.1401 2.2687
22.1278 -8.0927 1.6662
22.5679 -7.3467 1.6850
7.2070 -2.0632 0.5343
6.8621 -1.7006 0.5059
7.0693 -1.4848 0.5190
9.1357 -1.5788 0.6688
9.3161 -1.2675 0.6809
17.2882 -1.7228 1.2633
22.6145 -1.4362 1.6543
22.2867 -0.6135 1.6342
21.9202 0.1837 1.6131
22.8636 1.0132 1.6908
22.4564 1.8047 1.6710
30.7100 3.5814 2.3022
9.3266 1.4287 0.7053
8.8190 1.6770 0.6736
8.6632 1.9720 0.6692
8.5101 2.2614 0.6657
8.3292 2.5367 0.6607
8.1506 2.8059 0.6565
8.0276 3.0901 0.6574
7.9222 3.3809 0.6606
7.9058 3.7149 0.6722
7.5187 3.8685 0.6529
6.7793 3.8019 0.6021
6.7547 4.1137 0.6147
6.4979 4.2845 0.6068
6.2725 4.4672 0.6022
5.9732 4.5859 0.5906
5.6796 4.6941 0.5795
7.1154 6.3243 0.7508
6.8806 6.5728 0.7525
5.6587 5.8083 0.6429
5.1810 5.7149 0.6131
4.8642 5.7689 0.6011
4.6310 5.9108 0.5995
4.3542 5.9886 0.5924
4.0845 6.0641 0.5862
3.8210 6.1377 0.5808
13.2751 23.1369 2.1465
12.4148 23.5594 2.1465
11.5427 23.9529 2.1465
10.6597 24.3172 2.1465
9.7666 24.6521 2.1465
8.8644 24.9573 2.1465
7.9538 25.2328 2.1465
7.0357 25.4783 2.1465
6.1111 25.6938 2.1465
5.1382 25.6665 2.1289
4.2107 25.8201 2.1289
3.2791 25.9436 2.1289
2.3445 26.0368 2.1289
1.4758 27.3656 2.2322
0.4918 27.3998 2.2322
-0.4927 27.4021 2.2322
-1.4769 27.3726 2.2322
-2.4600 27.3113 2.2322
-3.4410 27.2182 2.2322
-4.4191 27.0933 2.2322
-5.3933 26.9366 2.2322
-6.3083 26.5194 2.2131
-6.9882 25.3034 2.1291
-7.9012 25.0637 2.1291
-8.8071 24.7942 2.1291
-9.7051 24.4950 2.1291
-10.7091 24.4282 2.1522
-11.5980 24.0661 2.1522
-12.4762 23.6745 2.1522
-13.3428 23.2536 2.1522
-14.1969 22.8037 2.1522
-15.0376 22.3250 2.1522
-15.7435 21.6520 2.1358
-16.3415 20.8564 2.1091
-16.7473 19.8615 2.0631
-17.1978 18.9693 2.0282
-17.4500 17.9106 1.9757
-17.6587 16.8682 1.9242
-17.7292 15.7576 1.8638
-17.8064 14.7163 1.8099
-17.9805 13.8042 1.7708
-18.1889 12.9533 1.7390
-18.3153 12.0762 1.7031
-18.1614 11.0602 1.6455
-18.2335 10.2253 1.6124
-18.3780 9.4555 1.5887
-18.5665 8.7242 1.5714
-18.7639 8.0076 1.5573
-18.9736 7.3035 1.5464
-19.1606 6.5959 1.5357
-19.2748 5.8702 1.5213
-19.3088 5.1308 1.5028
-19.2830 4.3893 1.4820
-19.1999 3.6508 1.4590
-19.0355 2.9159 1.4320
-18.8424 2.1974 1.4051
-18.6693 1.5003 1.3819
-18.5293 0.8212 1.3630
-18.4088 0.1544 1.3475
-18.3635 -0.5054 1.3393
-18.3376 -1.1645 1.3343
-18.3721 -1.8307 1.3353
-18.4616 -2.5117 1.3421
-18.5606 -3.2074 1.3514
-18.8132 -3.9513 1.3738
-19.1203 -4.7382 1.4022
-19.4184 -5.5589 1.4321
-19.7090 -6.4158 1.4638
-20.0006 -7.3145 1.4982
-20.2391 -8.2366 1.5313
-20.2922 -9.1202 1.5532
-20.2880 -10.0084 1.5735
-20.1852 -10.8751 1.5889
-19.9407 -11.6855 1.5959
-19.6903 -12.5090 1.6050
-19.5118 -13.4020 1.6230
-19.3684 -14.3529 1.6473
-6.5922 -5.2618 0.5744
-19.4568 -16.7076 1.7410
-19.6740 -18.1604 1.8119
-20.0465 -19.8829 1.9049
-20.1816 -21.5075 1.9840
-19.9073 -22.8023 2.0304
-19.4149 -23.9192 2.0608
-19.1031 -25.3418 2.1174
-18.5186 -26.4929 2.1513
-17.5708 -27.1630 2.1480
-13.1028 -21.9442 1.6933
-15.5744 -28.3470 2.1383
-14.6412 -29.0740 2.1479
-13.6405 -29.6933 2.1522
-12.5875 -30.2142 2.1522
-11.5130 -30.6934 2.1522
-10.4188 -31.1298 2.1522
-9.2069 -31.1842 2.1291
-8.0909 -31.5285 2.1291
-6.9610 -31.8279 2.1291
-6.1009 -33.6353 2.2322
-4.8932 -33.8532 2.2322
-3.6773 -34.0223 2.2322
-2.4550 -34.1423 2.2322
-1.2287 -34.2129 2.2322
-0.0005 -25.4070 2.2322
0.9107 -25.3871 2.2322
1.8203 -25.3316 2.2322
2.3242 -21.5140 1.9026
3.4607 -23.9523 2.1289
4.3150 -23.7981 2.1289
2.8325 -12.9554 1.1681
5.1068 -19.9065 1.8118
5.4088 -18.3257 1.6861
5.9132 -17.6730 1.6463
6.1700 -16.4538 1.5542
2.1613 -5.1894 0.4978
5.5169 -12.0129 1.1723
5.9480 -11.8147 1.1748
6.4527 -11.7480 1.1923
6.9055 -11.5684 1.2005
4.4810 -6.9293 0.7366
4.2807 -6.1259 0.6684
4.4743 -5.9373 0.6662
4.6765 -5.7632 0.6665
4.8919 -5.6050 0.6695
5.1430 -5.4826 0.6780
5.4758 -5.4329 0.6974
5.8263 -5.3799 0.7186
6.1533 -5.2856 0.7369
6.4590 -5.1573 0.7528
6.7625 -5.0132 0.7686
7.0497 -4.8440 0.7831
7.3067 -4.6437 0.7948
7.5873 -4.4481 0.8096
7.8909 -4.2533 0.8275
8.2428 -4.0682 0.8510
8.6152 -3.8740 0.8770
9.0073 -3.6677 0.9056
21.7325 -7.9524 2.1612
7.7770 -2.5332 0.7661
6.8944 -1.9751 0.6738
6.8093 -1.6888 0.6611
6.9291 -1.4567 0.6693
7.2048 -1.2465 0.6932
7.4987 -1.0216 0.7197
9.1647 -0.9150 0.8786
9.3920 -0.5982 0.9005
8.0306 -0.2225 0.7711
8.1029 0.0664 0.7801
7.8920 0.3483 0.7628
7.5806 0.6078 0.7366
7.3401 0.8547 0.7179
7.4856 1.1453 0.7379
7.6383 1.4510 0.7598
7.7991 1.7739 0.7839
8.1224 2.1568 0.8260
8.3305 2.5356 0.8583
8.1232 2.7949 0.8492
7.9990 3.0776 0.8495
7.8925 3.3667 0.8528
7.7557 3.6429 0.8539
8.0104 4.1198 0.9000
6.7552 3.7870 0.7757
6.4264 3.9124 0.7555
6.2740 4.1356 0.7564
6.2661 4.4612 0.7761
5.8953 4.5248 0.7516
5.6673 4.6826 0.7451
7.1452 6.3491 0.9709
6.9094 6.5985 0.9725
5.5576 5.7031 0.8121
5.1607 5.6912 0.7850
4.8556 5.7574 0.7710
4.5924 5.8602 0.7635
4.3184 5.9381 0.7542
4.0513 6.0136 0.7460
3.7903 6.0872 0.7389
10.3547 18.0434 2.1465
9.6872 18.3797 2.1465
9.0098 18.6931 2.1465
8.3231 18.9834 2.1465
7.6279 19.2503 2.1465
6.9251 19.4937 2.1465
6.2151 19.7135 2.1465
5.4537 19.7459 2.1289
4.7378 19.9164 2.1289
4.0171 20.0630 2.1289
3.2923 20.1856 2.1289
2.5642 20.2840 2.1289
1.8334 20.3582 2.1289
1.1541 21.3980 2.2322
0.3846 21.4249 2.2322
-0.3854 21.4263 2.2322
-1.1551 21.4023 2.2322
-1.9237 21.3528 2.2322
-2.6906 21.2777 2.2322
-3.4549 21.1773 2.2322
-4.2158 21.0515 2.2322
-4.9727 20.9005 2.2322
-5.7247 20.7243 2.2322
-6.2991 19.9775 2.1728
-6.8781 19.3595 2.1291
-7.5771 19.1202 2.1291
-6.5509 14.9400 1.6868
-8.9518 18.5714 2.1291
-9.6261 18.2622 2.1291
-10.2906 17.9303 2.1291
-11.0633 17.7664 2.1522
-11.7132 17.3856 2.1522
-12.3511 16.9824 2.1522
-12.9761 16.5572 2.1522
-13.5878 16.1105 2.1522
-14.1835 15.6406 2.1519
-14.7095 15.0938 2.1437
-15.1972 14.5129 2.1329
-15.5910 13.8532 2.1123
-15.9927 13.2135 2.0963
-16.2928 12.5047 2.0706
-16.5273 11.7662 2.0405
-16.7560 11.0444 2.0135
-17.0147 10.3582 1.9936
-17.2537 9.6721 1.9745
-17.4525 8.9757 1.9540
-17.6784 8.3032 1.9394
-17.8760 7.6251 1.9245
-18.0657 6.9504 1.9115
-18.2167 6.2675 1.8971
-18.3166 5.5749 1.8801
-18.3339 4.8682 1.8573
-18.2926 4.1604 1.8314
-18.2303 3.4631 1.8062
-18.1725 2.7803 1.7841
-17.9909 2.0948 1.7525
-17.8470 1.4310 1.7271
-17.7867 0.7850 1.7122
-17.7199 0.1453 1.6990
-17.6875 -0.4901 1.6913
-17.6557 -1.1244 1.6859
-17.6833 -1.7653 1.6883
-17.7273 -2.4151 1.6945
-17.7991 -3.0791 1.7056
-17.9404 -3.7713 1.7258
-18.1220 -4.4942 1.7524
-18.3743 -5.2634 1.7885
-18.7028 -6.0918 1.8351
-19.0910 -6.9855 1.8910
-19.2407 -7.8341 1.9269
-19.2706 -8.6649 1.9541
-19.2010 -9.4760 1.9747
-18.9830 -10.2313 1.9832
-18.6952 -10.9595 1.9875
-18.4400 -11.7187 1.9985
-18.2359 -12.5296 2.0185
-18.0562 -13.3845 2.0452
-6.5910 -5.2624 0.7655
-17.6694 -15.1769 2.1091
-17.4109 -16.0757 2.1407
-16.9521 -16.8181 2.1522
-16.3739 -17.4539 2.1522
-15.7708 -18.0685 2.1522
-15.1432 -18.6607 2.1522
-14.4923 -19.2294 2.1522
-13.8188 -19.7737 2.1522
-13.1238 -20.2925 2.1522
-12.4080 -20.7848 2.1522
-11.6727 -21.2498 2.1522
-10.9189 -21.6866 2.1522
-10.0388 -21.8573 2.1291
-9.2599 -22.2312 2.1291
-8.4662 -22.5748 2.1291
-7.6589 -22.8876 2.1291
-6.8392 -23.1689 2.1291
-6.2259 -24.2650 2.2061
-5.4185 -24.7793 2.2322
-4.5288 -24.9720 2.2322
-3.6318 -25.1299 2.2322
-2.7290 -25.2524 2.2322
-1.8218 -25.3396 2.2322
-0.9118 -25.3912 2.2322
-0.0005 -20.1825 2.2322
0.7233 -20.1672 2.2322
1.4458 -20.1242 2.2322
2.0657 -19.1257 2.1289
2.7492 -19.0318 2.1289
3.4283 -18.9117 2.1289
2.8312 -12.9523 1.4694
4.7691 -18.5940 2.1289
5.3994 -18.2973 2.1174
5.8893 -17.6052 2.0622
6.0497 -16.1365 1.9162
2.1605 -5.1884 0.6256
5.4375 -11.8425 1.4520
5.8501 -11.6227 1.4516
6.3451 -11.5545 1.4725
6.8329 -11.4493 1.4914
4.4926 -6.9487 0.9269
4.2813 -6.1282 0.8387
4.4749 -5.9395 0.8356
4.6668 -5.7527 0.8337
4.8575 -5.5670 0.8330
5.0680 -5.4041 0.8368
5.3690 -5.3283 0.8560
5.7095 -5.2735 0.8812
6.0690 -5.2147 0.9090
6.3824 -5.0977 0.9298
6.6808 -4.9541 0.9487
6.9901 -4.8047 0.9696
7.2638 -4.6181 0.9861
7.5425 -4.4235 1.0039
7.8646 -4.2407 1.0282
8.2191 -4.0582 1.0572
8.5895 -3.8642 1.0889
8.9796 -3.6582 1.1236
9.3644 -3.4285 1.1584
7.2975 -2.3785 0.8937
6.8404 -1.9609 0.8306
6.7571 -1.6771 0.8146
6.7938 -1.4295 0.8143
7.0596 -1.2227 0.8425
7.3424 -1.0017 0.8735
7.5503 -0.7552 0.8967
7.6246 -0.4870 0.9051
7.6921 -0.2146 0.9139
7.6796 0.0616 0.9143
7.3874 0.3247 0.8825
7.2476 0.5798 0.8699
7.2747 0.8457 0.8783
7.4025 1.1312 0.9003
7.5513 1.4331 0.9263
7.6944 1.7486 0.9532
7.8983 2.0958 0.9894
8.3063 2.5266 1.0537
8.1021 2.7860 1.0422
7.9787 3.0682 1.0422
7.9074 3.3715 1.0503
7.9528 3.7338 1.0758
7.5863 3.9001 1.0468
7.0516 3.9517 0.9940
6.4040 3.8974 0.9238
6.2523 4.1199 0.9245
6.1748 4.3948 0.9376
5.8961 4.5241 0.9211
5.5430 4.5786 0.8927
6.1028 5.4214 1.0153
6.1240 5.8470 1.0549
5.4250 5.5656 0.9700
5.1406 5.6676 0.9564
4.8333 5.7297 0.9384
4.5543 5.8102 0.9255
4.2831 5.8882 0.9140
4.0186 5.9637 0.9039
4.2826 6.8764 1.0195
8.4809 14.7752 2.1465
7.9360 15.0542 2.1465
7.3826 15.3142 2.1465
6.8214 15.5552 2.1465
6.2528 15.7769 2.1465
5.6309 15.8479 2.1289
5.0544 16.0290 2.1289
4.4725 16.1904 2.1289
3.8858 16.3321 2.1289
3.2950 16.4539 2.1289
2.7007 16.5557 2.1289
2.1035 16.6374 2.1289
1.5770 17.5089 2.2322
0.9467 17.5523 2.2322
0.3154 17.5745 2.2322
-0.3163 17.5755 2.2322
-0.9477 17.5552 2.2322
-1.5782 17.5137 2.2322
-2.2072 17.4510 2.2322
-2.8339 17.3672 2.2322
-3.4577 17.2623 2.2322
-4.0780 17.1364 2.2322
-4.6941 16.9896 2.2322
-5.3052 16.8219 2.2322
-5.9109 16.6337 2.2322
-6.2958 15.8834 2.1586
-6.5353 14.9011 2.0537
-7.3332 15.2100 2.1291
-7.8836 14.9532 2.1291
-8.4257 14.6776 2.1291
-8.9587 14.3834 2.1291
-9.4822 14.0709 2.1291
-9.9955 13.7403 2.1291
-10.6119 13.5372 2.1522
-11.1083 13.1674 2.1522
-11.5926 12.7803 2.1522
-12.0642 12.3762 2.1522
-12.5226 11.9554 2.1522
-12.9670 11.5184 2.1522
-13.3970 11.0656 2.1522
-13.8120 10.5974 2.1522
-14.2088 10.1124 2.1518
-14.5835 9.6092 2.1505
-14.9571 9.1023 2.1515
-15.3108 8.5797 2.1522
-15.6426 8.0416 2.1522
-15.9561 7.4910 2.1522
-16.2363 6.9224 2.1502
-16.4543 6.3272 2.1427
-16.6497 5.7250 2.1351
-16.7839 5.1051 2.1225
-16.9232 4.4904 2.1133
-17.0358 3.8714 2.1036
-17.0758 3.2406 2.0878
-17.0828 2.6104 2.0708
-17.0340 1.9802 2.0500
-17.0012 1.3600 2.0338
-16.9684 0.7457 2.0204
-16.9061 0.1356 2.0061
-16.8803 -0.4708 1.9988
-16.8439 -1.0758 1.9928
-16.8636 -1.6866 1.9961
-16.8741 -2.3019 2.0008
