ply
format ascii 1.0
element vertex 2138
property float32 x
property float32 y
property float32 z
end_header
4.0364 -18.5457 1.5891
4.7346 -18.5240 1.6110
5.4365 -18.4761 1.6328
6.3448 -19.0121 1.7094
5.6905 -15.2087 1.3929
6.2681 -15.0783 1.4084
6.3137 -13.7699 1.3135
7.1079 -14.1379 1.3791
6.1260 -11.1660 1.1153
6.1992 -10.3952 1.0648
6.0418 -9.3500 0.9837
6.7674 -9.6903 1.0487
6.3206 -8.3912 0.9358
6.7623 -8.3363 0.9597
6.9291 -7.9406 0.9454
6.8131 -7.2634 0.8962
6.8568 -6.8024 0.8717
6.9572 -6.4226 0.8569
7.1260 -6.1190 0.8521
7.2434 -5.7807 0.8425
7.4213 -5.4979 0.8413
7.5651 -5.1938 0.8372
7.6709 -4.8703 0.8302
7.8127 -4.5748 0.8281
8.0066 -4.3095 0.8324
8.1286 -4.0052 0.8301
8.2193 -3.6889 0.8256
8.3090 -3.3757 0.8219
8.4043 -3.0673 0.8198
8.0899 -2.6270 0.7791
7.4754 -2.1337 0.7116
7.4474 -1.8389 0.7015
7.0801 -1.4804 0.6607
6.9078 -1.1869 0.6393
6.7975 -0.9178 0.6245
6.9195 -0.6820 0.6319
7.0446 -0.4394 0.6400
7.1672 -0.1888 0.6485
7.2210 0.0694 0.6514
7.2936 0.3326 0.6567
7.3253 0.5984 0.6589
7.4061 0.8740 0.6663
7.4046 1.1450 0.6669
6.4850 1.2429 0.5854
6.4112 1.4694 0.5807
6.3653 1.7018 0.5792
6.3851 1.9555 0.5843
6.3546 2.1989 0.5855
6.2397 2.4135 0.5795
6.0858 2.6091 0.5705
5.7966 2.7356 0.5492
5.5525 2.8688 0.5324
5.4368 3.0613 0.5284
5.3047 3.2432 0.5233
5.2007 3.4422 0.5215
2.4111 1.7235 0.2462
5.2713 4.0618 0.5491
7.6347 6.3328 0.8127
6.6124 5.8983 0.7208
6.3135 6.0526 0.7063
6.1148 6.2988 0.7036
5.9224 6.5561 0.7027
5.7086 6.7947 0.7003
6.2346 7.9863 0.7931
5.8375 8.0582 0.7726
6.0816 9.0631 0.8404
6.0828 9.8086 0.8813
6.1945 10.8389 0.9451
5.5801 10.6326 0.9012
5.4515 11.3608 0.9375
5.1169 11.7250 0.9434
4.3724 11.0885 0.8711
3.9969 11.3099 0.8688
3.6234 11.5572 0.8693
2.2516 8.2019 0.6049
5.0753 21.4800 1.5554
4.4511 22.4024 1.5948
3.6862 22.8064 1.5983
3.0484 24.3862 1.6846
2.7785 31.3233 2.1357
1.6683 31.6937 2.1357
0.3908 23.3906 1.5598
-0.6497 33.8813 2.2389
-1.8817 34.1449 2.2389
-3.1334 34.3636 2.2389
-4.4032 34.5359 2.2389
-5.6891 34.6601 2.2389
-6.9892 34.7347 2.2389
-8.3013 34.7582 2.2389
-8.9233 32.2030 2.0761
-10.4485 33.0517 2.1358
-11.7215 32.9206 2.1358
-13.1372 33.0901 2.1589
-14.4257 32.8490 2.1589
-15.7111 32.5522 2.1589
-16.9905 32.1993 2.1589
-18.2609 31.7898 2.1589
-19.5006 31.2935 2.1569
-20.5863 30.5385 2.1406
-21.4924 29.5391 2.1103
-22.2577 28.3923 2.0720
-19.4814 23.0948 1.7259
-23.1864 25.5675 1.9614
-22.8761 23.4758 1.8538
-18.6053 17.7711 1.4487
-22.4942 19.9934 1.6877
-22.7952 18.8422 1.6524
-23.3100 17.9006 1.6367
-23.8889 17.0190 1.6287
-24.6129 16.2368 1.6333
-25.4922 15.5346 1.6501
-26.7702 15.0245 1.6941
-28.3069 14.5778 1.7549
-23.9685 11.2753 1.4587
-22.3157 9.5362 1.3359
-24.0256 9.2629 1.4176
-23.1045 7.9686 1.3461
-20.9057 6.3813 1.2050
-21.9265 5.8422 1.2526
-22.3794 5.1111 1.2693
-21.5876 4.1220 1.2179
-7.0245 1.0818 0.3949
-13.1354 1.5432 0.7370
-24.7145 2.0083 1.3863
-13.0658 0.5912 0.7340
-38.3107 0.3584 2.1589
-38.1270 -1.0109 2.1589
-37.8820 -2.3659 2.1589
-37.1723 -3.6635 2.1357
-36.8127 -4.9665 2.1357
-36.3972 -6.2467 2.1357
-37.6646 -7.8641 2.2389
-37.1178 -9.1503 2.2389
-36.5188 -10.4051 2.2389
-35.8699 -11.6262 2.2389
-35.1737 -12.8117 2.2389
-12.9385 -5.2456 0.8413
-33.6490 -15.0689 2.2389
-31.3143 -15.3945 2.1358
-28.2905 -15.1913 1.9815
-29.6400 -17.3133 2.1358
-28.7560 -18.2107 2.1358
-27.8190 -19.0487 2.1339
-26.8823 -19.8602 2.1339
-25.9224 -20.6286 2.1339
-24.9418 -21.3534 2.1339
-23.0694 -21.2308 2.0561
-21.3514 -21.1136 1.9872
-19.7705 -21.0058 1.9266
-18.2835 -20.8785 1.8707
-16.9463 -20.8131 1.8259
-16.4810 -21.7942 1.8761
-13.6961 -19.5306 1.6531
-12.6285 -19.4578 1.6224
-11.6168 -19.3887 1.5955
-10.6544 -19.3231 1.5720
-9.7355 -19.2604 1.5515
-8.8549 -19.2003 1.5340
-8.0081 -19.1426 1.5190
-7.1913 -19.0868 1.5065
-6.3748 -18.9557 1.4903
-5.6256 -18.9542 1.4863
-4.8863 -18.9296 1.4824
-4.1567 -18.8798 1.4784
-3.4887 -19.0849 1.4962
-2.7777 -19.0364 1.4960
-2.0776 -18.9886 1.4975
-1.3865 -18.9415 1.5008
-0.7023 -18.8948 1.5059
-0.0305 -18.8490 1.9408
0.6453 -18.8029 1.9486
1.3195 -18.7569 1.9587
1.9939 -18.7109 1.9712
2.6702 -18.6648 1.9860
3.3498 -18.6167 2.0031
4.0299 -18.5462 2.0202
4.7282 -18.5244 2.0453
5.4301 -18.4765 2.0703
6.2466 -18.7372 2.1334
6.6881 -17.8913 2.0726
6.1358 -14.7720 1.7433
6.6239 -14.4572 1.7404
6.1806 -12.3016 1.5128
6.0558 -11.0447 1.3895
6.0880 -10.2144 1.3166
6.3239 -9.7917 1.2951
6.6783 -9.5673 1.3006
6.4480 -8.5641 1.1988
6.5216 -8.0428 1.1613
6.8394 -7.8409 1.1701
7.2175 -7.6971 1.1896
6.6688 -6.6180 1.0618
6.7817 -6.2624 1.0454
6.9171 -5.9411 1.0347
7.0731 -5.6461 1.0287
7.2102 -5.3426 1.0216
7.3639 -5.0567 1.0183
7.4474 -4.7291 1.0068
7.6484 -4.4792 1.0124
7.8771 -4.2403 1.0226
7.9418 -3.9135 1.0126
7.9633 -3.5741 0.9985
7.9466 -3.2285 0.9813
7.6704 -2.7993 0.9340
7.4085 -2.4055 0.8907
7.1882 -2.0513 0.8544
6.9091 -1.7055 0.8128
6.8084 -1.4230 0.7936
6.7610 -1.1611 0.7818
6.7504 -0.9107 0.7752
6.7983 -0.6693 0.7762
6.9193 -0.4307 0.7864
6.9949 -0.1833 0.7921
7.0416 0.0688 0.7955
7.1155 0.3257 0.8027
7.1724 0.5873 0.8089
7.2432 0.8562 0.8176
6.4894 1.0049 0.7339
6.3070 1.2102 0.7155
6.2265 1.4287 0.7093
6.1696 1.6512 0.7067
6.2263 1.9087 0.7179
6.2135 2.1520 0.7221
6.0686 2.3493 0.7117
5.9036 2.5330 0.6996
5.6714 2.6787 0.6800
5.4354 2.8104 0.6604
5.3356 3.0066 0.6578
5.2668 3.2224 0.6600
5.1752 3.4279 0.6601
2.4104 1.7243 0.3135
5.2273 4.0310 0.6946
5.5367 4.5959 0.7530
6.5574 5.8536 0.9147
6.2861 6.0308 0.9013
6.1108 6.2995 0.9027
5.9253 6.5644 0.9041
5.7452 6.8437 0.9080
6.2487 8.0110 1.0259
5.8276 8.0514 0.9973
6.1002 9.0987 1.0921
6.2330 10.0599 1.1722
6.4636 11.3206 1.2827
6.0756 11.5882 1.2789
6.0109 12.5399 1.3500
5.0798 11.6529 1.2257
4.5863 11.6450 1.1985
4.0636 11.5136 1.1612
3.5881 11.4613 1.1343
2.2478 8.2016 0.7976
5.1512 21.8409 2.0901
4.4272 22.3295 2.1055
3.6819 22.8379 2.1246
2.8952 23.2361 2.1357
2.0742 23.4879 2.1357
0.9216 17.6399 1.5889
0.3902 23.9042 2.1357
-0.4934 25.2304 2.2389
-1.4075 25.3678 2.2389
-2.3320 25.4713 2.2389
-3.2655 25.5400 2.2389
-4.2068 25.5731 2.2389
-5.1542 25.5698 2.2389
-6.1062 25.5294 2.2389
-7.0613 25.4513 2.2389
-7.9022 24.9696 2.2066
-8.5608 24.0204 2.1358
-9.4710 23.8351 2.1358
-10.3774 23.6121 2.1358
-11.2783 23.3513 2.1358
-12.3034 23.3017 2.1589
-13.1973 22.9613 2.1589
-14.0799 22.5825 2.1589
-14.9494 22.1656 2.1589
-15.8039 21.7109 2.1589
-16.6413 21.2189 2.1589
-17.4597 20.6900 2.1589
-17.9981 19.8393 2.1283
-18.4760 18.9541 2.0959
-18.4439 17.6116 2.0129
-19.4990 17.3264 2.0529
-19.9268 16.4671 2.0291
-20.3948 15.6584 2.0136
-20.9041 14.8897 2.0057
-21.5077 14.1859 2.0100
-22.1640 13.5045 2.0217
-22.8889 12.8446 2.0421
-23.6489 12.1779 2.0678
-24.3267 11.4432 2.0886
-22.2274 9.4983 1.8774
-23.4758 9.0512 1.9543
-22.5675 7.7840 1.8548
-21.0241 6.4183 1.7091
-21.8685 5.8280 1.7612
-22.6188 5.1674 1.8078
-21.8088 4.1661 1.7326
-7.0235 1.0824 0.5556
-12.9722 1.5255 1.0233
-24.8712 2.0242 1.9596
-13.0592 0.5927 1.0294
-27.3358 0.2599 2.1589
-27.2397 -0.7177 2.1589
-27.1020 -1.6877 2.1589
-26.9234 -2.6482 2.1589
-26.4172 -3.5585 2.1357
-26.1621 -4.4842 2.1357
-25.8692 -5.3950 2.1357
-25.5396 -6.2895 2.1357
-26.3917 -7.5124 2.2389
-25.9731 -8.4108 2.2389
-25.5198 -9.2874 2.2389
-12.9422 -5.2428 1.1575
-24.5153 -10.9698 2.2389
-23.9669 -11.7733 2.2389
-23.3898 -12.5501 2.2389
-22.7856 -13.2995 2.2389
-22.1558 -14.0205 2.2389
-21.0561 -14.4072 2.1925
-19.8668 -14.6665 2.1358
-19.2018 -15.2691 2.1358
-18.5184 -15.8423 2.1358
-17.8182 -16.3858 2.1358
-17.1024 -16.8992 2.1358
-16.3728 -17.3823 2.1358
-15.6166 -17.8190 2.1339
-14.8639 -18.2408 2.1339
-14.1014 -18.6321 2.1339
-13.3305 -18.9929 2.1339
-12.5524 -19.3234 2.1339
-11.6280 -19.3895 2.1085
-10.6652 -19.3238 2.0728
-9.7458 -19.2611 2.0414
-8.8648 -19.2010 2.0139
-8.0177 -19.1432 1.9900
-7.2005 -19.0875 1.9695
-6.3837 -18.9563 1.9443
-5.6342 -18.9548 1.9351
-4.8947 -18.9302 1.9262
-4.1649 -18.8804 1.9173
-3.4967 -19.0854 1.9367
-2.7855 -19.0369 1.9328
-2.0853 -18.9891 1.9313
-1.3940 -18.9420 1.9321
-0.7097 -18.8953 1.9353
-0.0340 -16.9658 2.1339
0.5728 -16.8743 2.1339
1.1730 -16.7632 2.1339
1.7663 -16.6329 2.1339
2.3522 -16.4840 2.1339
2.9300 -16.3167 2.1339
3.5156 -16.2059 2.1438
4.0885 -16.0407 2.1489
4.6436 -15.8192 2.1489
5.1889 -15.5810 2.1489
5.7239 -15.3263 2.1489
6.2484 -15.0557 2.1489
7.2653 -15.8690 2.3089
6.0821 -12.1139 1.7993
5.9777 -10.9091 1.6565
6.0434 -10.1453 1.5774
6.2738 -9.7193 1.5497
6.6725 -9.5636 1.5665
7.1248 -9.4671 1.5958
6.9013 -8.5145 1.4798
8.3314 -9.5548 1.7155
7.4544 -7.9525 1.4782
7.5087 -7.4540 1.4376
6.6806 -6.1709 1.2380
6.7731 -5.8190 1.2175
6.9390 -5.5404 1.2124
7.0700 -5.2399 1.2031
7.1922 -4.9397 1.1942
7.2656 -4.6144 1.1792
7.4573 -4.3679 1.1849
7.6418 -4.1140 1.1906
7.6912 -3.7903 1.1768
7.6482 -3.4328 1.1508
7.5710 -3.0759 1.1219
7.3996 -2.7003 1.0813
7.1518 -2.3219 1.0319
6.9241 -1.9756 0.9877
6.7809 -1.6734 0.9574
6.7316 -1.4064 0.9420
6.7109 -1.1518 0.9318
6.7041 -0.9037 0.9246
6.6971 -0.6585 0.9186
6.7846 -0.4214 0.9265
6.8574 -0.1787 0.9335
6.9825 0.0694 0.9485
7.0299 0.3230 0.9540
7.0573 0.5792 0.9578
7.0886 0.8394 0.9633
6.3775 0.9889 0.8688
6.1815 1.1876 0.8452
6.1019 1.4016 0.8383
6.0722 1.6267 0.8392
6.1334 1.8819 0.8538
6.0548 2.0989 0.8501
5.8655 2.2726 0.8317
5.7080 2.4511 0.8184
5.4965 2.5981 0.7980
5.3659 2.7766 0.7900
5.2920 2.9843 0.7913
5.2253 3.1994 0.7948
5.1497 3.4135 0.7981
2.4097 1.7251 0.3812
5.2146 4.0242 0.8435
5.2705 4.3783 0.8734
5.2979 4.7328 0.9014
6.2833 6.0328 1.1000
6.1224 6.3163 1.1054
5.9837 6.6343 1.1172
5.8344 6.9556 1.1295
6.2575 8.0288 1.2600
5.8124 8.0371 1.2214
6.2123 9.2741 1.3673
6.3731 10.2953 1.4753
6.5133 11.4184 1.5930
6.6020 12.6049 1.7150
5.8885 12.2976 1.6343
5.9954 13.7689 1.7901
4.7308 12.0264 1.5319
4.0792 11.5731 1.4465
4.4298 14.1703 1.7403
2.2441 8.2012 0.9911
4.2225 17.9362 2.1357
3.5965 18.1784 2.1357
2.9587 18.3991 2.1357
2.3097 18.5975 2.1357
1.6503 18.7730 2.1357
0.9138 17.6223 1.9887
0.3183 19.9740 2.2389
-0.4004 20.0822 2.2389
-1.1263 20.1638 2.2389
-1.8586 20.2183 2.2389
-2.5960 20.2453 2.2389
-3.3375 20.2442 2.2389
-4.0820 20.2146 2.2389
-4.8282 20.1561 2.2389
-5.5750 20.0684 2.2389
-6.3210 19.9512 2.2389
-7.0651 19.8043 2.2389
-7.4926 18.8399 2.1491
-8.1486 18.5264 2.1358
-8.8451 18.3005 2.1358
-9.5345 18.0460 2.1358
-10.2155 17.7630 2.1358
-10.8868 17.4517 2.1358
-11.6718 17.2973 2.1589
-12.3266 16.9263 2.1589
-12.9675 16.5276 2.1589
-13.5931 16.1018 2.1589
-14.2021 15.6494 2.1589
-14.7933 15.1711 2.1589
-15.3653 14.6675 2.1589
-15.9169 14.1395 2.1589
-16.4468 13.5879 2.1589
-16.9540 13.0137 2.1589
-17.4373 12.4178 2.1589
-17.8956 11.8014 2.1589
-18.3278 11.1654 2.1589
-18.7332 10.5113 2.1589
-19.1108 9.8402 2.1589
-19.4598 9.1533 2.1589
-19.7795 8.4521 2.1589
-20.0691 7.7379 2.1589
-20.3282 7.0122 2.1589
-20.5563 6.2763 2.1589
-20.7528 5.5318 2.1589
-20.9177 4.7802 2.1589
-21.0504 4.0230 2.1589
-7.0226 1.0829 0.7168
-21.2194 2.4977 2.1589
-21.2555 1.7326 2.1589
-13.0527 0.5943 1.3255
-21.2317 0.2052 2.1589
-21.1723 -0.5543 2.1589
-21.0815 -1.3090 2.1589
-20.9598 -2.0575 2.1589
-20.5854 -2.7686 2.1358
-20.4055 -3.4929 2.1358
-20.1967 -4.2072 2.1358
-19.9598 -4.9102 2.1358
-19.6954 -5.6008 2.1358
-20.3410 -6.5810 2.2389
-20.0089 -7.2755 2.2389
-12.8564 -5.2037 1.4648
-19.2671 -8.6145 2.2389
-18.8595 -9.2571 2.2389
-18.4287 -9.8806 2.2389
-17.9758 -10.4842 2.2389
-17.5019 -11.0672 2.2389
-17.0081 -11.6288 2.2389
-16.4954 -12.1686 2.2389
-15.9650 -12.6858 2.2389
-15.4180 -13.1802 2.2389
-14.8556 -13.6511 2.2389
-14.1049 -13.9267 2.2117
-13.0909 -13.8873 2.1411
-12.4841 -14.2335 2.1358
-11.8991 -14.5907 2.1358
-11.3047 -14.9244 2.1358
-10.7017 -15.2345 2.1358
-10.0913 -15.5209 2.1358
-9.4744 -15.7837 2.1358
-8.8519 -16.0228 2.1358
-8.2248 -16.2384 2.1358
-7.5940 -16.4305 2.1358
-6.9603 -16.5993 2.1358
-6.3248 -16.7449 2.1358
-5.6830 -16.8525 2.1339
-5.0466 -16.9523 2.1339
-4.4107 -17.0296 2.1339
-3.7761 -17.0847 2.1339
-3.1434 -17.1179 2.1339
-2.5135 -17.1294 2.1339
-1.8869 -17.1197 2.1339
-1.2644 -17.0889 2.1339
-0.6465 -17.0375 2.1339
-0.0345 -14.4494 2.1489
0.4827 -14.3820 2.1489
0.9951 -14.2975 2.1489
1.5023 -14.1963 2.1489
2.0038 -14.0787 2.1489
2.4991 -13.9450 2.1489
2.9877 -13.7954 2.1489
3.4693 -13.6304 2.1489
3.9434 -13.4502 2.1489
4.4097 -13.2552 2.1489
4.8677 -13.0458 2.1489
5.3170 -12.8222 2.1489
5.7574 -12.5848 2.1489
6.0586 -12.0754 2.1039
5.9356 -10.8391 1.9298
6.0552 -10.1710 1.8533
6.2571 -9.6984 1.8116
6.6731 -9.5690 1.8355
7.0955 -9.4324 1.8612
7.4612 -9.2091 1.8729
8.3680 -9.6004 2.0164
7.3052 -7.7961 1.6947
7.6255 -7.5723 1.7075
6.5752 -6.0753 1.4246
6.7208 -5.7756 1.4122
6.8457 -5.4672 1.3979
6.9545 -5.1554 1.3828
7.0511 -4.8437 1.3677
7.1238 -4.5251 1.3505
7.2193 -4.2290 1.3397
7.3309 -3.9471 1.3339
7.4779 -3.6854 1.3361
7.4894 -3.3617 1.3159
7.3776 -2.9973 1.2765
7.2291 -2.6380 1.2335
6.9806 -2.2661 1.1761
6.8399 -1.9512 1.1394
6.7228 -1.6587 1.1086
6.6707 -1.3932 1.0903
6.6646 -1.1433 1.0809
6.6577 -0.8968 1.0728
6.6503 -0.6531 1.0660
6.7218 -0.4166 1.0729
6.8424 -0.1773 1.0889
6.9189 0.0699 1.0990
6.9458 0.3204 1.1026
6.9826 0.5744 1.1089
6.9745 0.8273 1.1094
6.4174 0.9965 1.0237
6.1154 1.1764 0.9794
6.0106 1.3822 0.9676
5.9961 1.6080 0.9715
6.0630 1.8621 0.9899
5.9393 2.0607 0.9785
5.7444 2.2276 0.9562
5.5839 2.3998 0.9404
5.4509 2.5787 0.9301
5.3175 2.7537 0.9206
5.2488 2.9622 0.9235
5.1836 3.1763 0.9282
5.1244 3.3993 0.9356
2.4089 1.7258 0.4492
5.2011 4.0167 0.9924
5.2000 4.3229 1.0172
5.1948 4.6443 1.0440
6.3137 6.0665 1.3066
6.1809 6.3816 1.3203
6.0785 6.7447 1.3436
5.9406 7.0879 1.3627
6.2437 8.0178 1.4909
6.2037 8.5856 1.5472
6.2531 9.3433 1.6348
6.3473 10.2632 1.7468
6.2327 10.9371 1.8140
5.9264 11.3265 1.8336
6.0077 12.5600 1.9878
5.7428 13.2039 2.0461
5.3978 13.7390 2.0878
4.7994 13.6343 2.0348
4.3323 13.8786 2.0370
2.2404 8.2009 1.1855
3.5202 14.9804 2.1357
2.9946 15.1687 2.1357
2.4602 15.3386 2.1357
1.9174 15.4897 2.1357
1.3670 15.6214 2.1357
0.8097 15.7333 2.1357
0.2580 16.5901 2.2389
-0.3386 16.6646 2.2389
-0.9401 16.7171 2.2389
-1.5457 16.7472 2.2389
-2.1545 16.7545 2.2389
-2.7657 16.7387 2.2389
-3.3782 16.6996 2.2389
-3.9911 16.6369 2.2389
-4.6035 16.5504 2.2389
-5.2144 16.4401 2.2389
-5.8227 16.3057 2.2389
-6.4274 16.1472 2.2389
-7.0274 15.9648 2.2389
-7.2708 15.0327 2.1358
-7.8313 14.8128 2.1358
-8.3843 14.5703 2.1358
-8.9288 14.3053 2.1358
-9.4638 14.0181 2.1358
-9.9882 13.7090 2.1358
-10.5010 13.3783 2.1358
-11.0012 13.0265 2.1358
-11.6121 12.7908 2.1589
-12.0893 12.3939 2.1589
-12.5509 11.9773 2.1589
-12.9958 11.5414 2.1589
-13.4233 11.0872 2.1589
-13.8325 10.6152 2.1589
-14.2224 10.1263 2.1589
-14.5923 9.6214 2.1589
-14.9416 9.1012 2.1589
-15.2694 8.5667 2.1589
-15.5750 8.0189 2.1589
-15.8580 7.4587 2.1589
-16.1178 6.8873 2.1589
-16.3538 6.3056 2.1589
-16.5656 5.7147 2.1589
-16.7529 5.1158 2.1589
-16.9153 4.5099 2.1589
-17.0525 3.8982 2.1589
-17.1644 3.2818 2.1589
-7.0216 1.0835 0.8787
-17.3118 2.0397 2.1589
-17.3472 1.4162 2.1589
-13.0461 0.5958 1.6227
-17.3416 0.1702 2.1589
-17.3009 -0.4501 2.1589
-17.2352 -1.0670 2.1589
-17.1448 -1.6796 2.1589
-16.8480 -2.2624 2.1358
-16.7107 -2.8566 2.1358
-16.5501 -3.4435 2.1358
-16.3667 -4.0220 2.1358
-16.1610 -4.5912 2.1358
-15.9336 -5.1503 2.1358
-15.6850 -5.6983 2.1358
-12.8436 -5.1942 1.7795
-15.8571 -7.0841 2.2389
-15.5342 -7.6189 2.2389
-15.1919 -8.1389 2.2389
-14.8311 -8.6435 2.2389
-14.4526 -9.1321 2.2389
-14.0571 -9.6040 2.2389
-13.6455 -10.0587 2.2389
-13.2187 -10.4958 2.2389
-12.7776 -10.9147 2.2389
-12.3228 -11.3151 2.2389
-11.8554 -11.6966 2.2389
-11.3765 -12.0592 2.2390
-10.8882 -12.4040 2.2394
-10.3872 -12.7264 2.2392
-9.8772 -13.0289 2.2391
-9.3590 -13.3116 2.2390
-8.7972 -13.5184 2.2298
-8.0784 -13.4455 2.1788
-7.4058 -13.3922 2.1358
-6.8878 -13.5848 2.1358
-6.3657 -13.7580 2.1358
-5.8402 -13.9118 2.1358
-5.3122 -14.0463 2.1358
-4.7821 -14.1616 2.1358
-4.2509 -14.2578 2.1358
-3.7192 -14.3351 2.1358
-3.1875 -14.3936 2.1358
-2.6566 -14.4335 2.1358
-2.1270 -14.4550 2.1358
-1.5994 -14.4583 2.1358
-1.0744 -14.4437 2.1358
-0.5525 -14.4113 2.1358
-0.0346 -12.4439 2.1381
0.4113 -12.3968 2.1388
0.8538 -12.3348 2.1396
1.2926 -12.2582 2.1403
1.7272 -12.1673 2.1411
2.1565 -12.0579 2.1412
2.5896 -11.9773 2.1489
3.0092 -11.8395 2.1489
3.4227 -11.6881 2.1489
3.8295 -11.5236 2.1489
4.2295 -11.3462 2.1489
4.6222 -11.1561 2.1489
5.0073 -10.9537 2.1489
5.3845 -10.7392 2.1489
5.7535 -10.5131 2.1489
6.0798 -10.2181 2.1369
6.2906 -9.7555 2.0908
6.6622 -9.5581 2.1029
7.0329 -9.3534 2.1164
7.3962 -9.1327 2.1293
8.3569 -9.5914 2.3089
7.1608 -7.6446 1.9042
8.9975 -8.9376 2.3089
6.6331 -6.1306 1.6467
6.6806 -5.7426 1.6081
6.7673 -5.4059 1.5828
6.8945 -5.1120 1.5699
6.9438 -4.7709 1.5423
6.9975 -4.4456 1.5188
7.0513 -4.1312 1.4981
7.2068 -3.8806 1.5011
7.2677 -3.5821 1.4864
7.3692 -3.3078 1.4821
7.2653 -2.9517 1.4389
7.1169 -2.5969 1.3900
6.8551 -2.2251 1.3221
6.7397 -1.9223 1.2852
6.6572 -1.6420 1.2568
6.6213 -1.3823 1.2390
6.6150 -1.1341 1.2285
6.6135 -0.8901 1.2204
6.6444 -0.6517 1.2198
6.7073 -0.4148 1.2264
6.8101 -0.1754 1.2417
6.8369 0.0701 1.2445
6.8827 0.3187 1.2522
6.9294 0.5714 1.2616
6.9766 0.8290 1.2725
6.2669 0.9746 1.1466
5.9918 1.1540 1.1010
5.9199 1.3628 1.0938
5.9246 1.5904 1.1020
5.9993 1.8443 1.1249
5.8331 2.0256 1.1040
5.6649 2.1986 1.0837
5.5056 2.3681 1.0660
5.4047 2.5588 1.0607
5.2735 2.7331 1.0506
5.2025 2.9383 1.0537
5.1422 3.1534 1.0605
5.0991 3.3851 1.0727
2.4082 1.7266 0.5177
5.1339 3.9678 1.1298
5.1307 4.2686 1.1582
5.1251 4.5853 1.1892
5.2511 5.0494 1.2554
6.2214 6.4284 1.5360
6.0898 6.7626 1.5568
5.9972 7.1613 1.5920
6.2350 8.0133 1.7239
6.3014 8.7283 1.8209
6.3305 9.4674 1.9189
6.4679 10.4677 2.0650
6.0580 10.6407 2.0468
5.6852 10.8765 2.0433
5.3028 11.0981 2.0396
5.2886 12.1735 2.1920
4.7430 12.0871 2.1357
4.3238 12.2996 2.1357
3.8955 12.4979 2.1357
2.2366 8.2006 1.3811
3.0139 12.8499 2.1357
2.5615 13.0028 2.1357
2.1020 13.1397 2.1357
1.6360 13.2603 2.1357
1.1659 13.3845 2.1389
0.7201 14.1013 2.2389
0.2149 14.1742 2.2389
-0.2946 14.2285 2.2389
-0.8076 14.2641 2.2389
-1.3234 14.2805 2.2389
-1.8413 14.2776 2.2389
-2.3605 14.2552 2.2389
-2.8803 14.2131 2.2389
-3.3999 14.1511 2.2389
-3.9184 14.0691 2.2389
-4.4350 13.9671 2.2389
-4.9488 13.8450 2.2389
-5.4592 13.7029 2.2389
-5.9650 13.5406 2.2389
-6.4656 13.3585 2.2389
-6.9601 13.1564 2.2389
-7.1046 12.3391 2.1358
-7.5621 12.1090 2.1358
-8.0112 11.8606 2.1358
-8.4512 11.5941 2.1358
-8.8812 11.3099 2.1358
-9.3004 11.0083 2.1358
-9.7081 10.6897 2.1358
-10.1035 10.3546 2.1358
-10.4857 10.0035 2.1358
-10.8542 9.6368 2.1358
-11.3294 9.3553 2.1589
-11.6718 8.9551 2.1589
-11.9983 8.5410 2.1589
-12.3081 8.1138 2.1589
-12.6007 7.6742 2.1589
-12.8755 7.2228 2.1589
-13.1320 6.7605 2.1589
-13.3698 6.2880 2.1589
-13.5883 5.8063 2.1589
-13.7872 5.3161 2.1589
-13.9662 4.8183 2.1589
-14.1248 4.3139 2.1589
-14.2630 3.8036 2.1589
-14.3805 3.2884 2.1589
-14.4770 2.7692 2.1589
-7.0206 1.0840 1.0415
-14.6069 1.7226 2.1589
-14.6402 1.1971 2.1589
-13.0394 0.5973 1.9213
-14.6436 0.1460 2.1589
-14.6138 -0.3777 2.1589
-14.5633 -0.8990 2.1589
-14.4922 -1.4169 2.1589
-14.2468 -1.9100 2.1358
-14.1366 -2.4134 2.1358
-14.0069 -2.9109 2.1358
-13.8581 -3.4019 2.1358
-13.6905 -3.8856 2.1358
-13.5046 -4.3611 2.1358
-13.3008 -4.8279 2.1358
-12.8308 -5.1846 2.0952
-12.8416 -5.7323 2.1358
-13.1948 -6.4664 2.2389
-12.9116 -6.9119 2.2389
-12.6125 -7.3449 2.2389
-12.2981 -7.7649 2.2389
-11.9691 -8.1713 2.2389
-11.6263 -8.5638 2.2390
-11.2718 -8.9432 2.2394
-10.9047 -9.3079 2.2398
-10.5255 -9.6574 2.2402
-10.1339 -9.9905 2.2404
-9.7320 -10.3079 2.2406
-9.3202 -10.6093 2.2409
-8.8978 -10.8927 2.2408
-8.4663 -11.1585 2.2406
-8.0271 -11.4073 2.2404
-7.5810 -11.6390 2.2401
-7.1285 -11.8535 2.2398
-6.6706 -12.0507 2.2396
-6.2077 -12.2307 2.2393
-5.7406 -12.3934 2.2391
-5.2673 -12.5324 2.2377
-4.6338 -12.2370 2.1626
-4.1605 -12.3038 2.1553
-3.6677 -12.2831 2.1358
-3.2115 -12.3574 2.1358
-2.7548 -12.4155 2.1358
-2.2982 -12.4574 2.1358
-1.8421 -12.4834 2.1358
-1.3872 -12.4936 2.1358
-0.9341 -12.4902 2.1362
-0.4832 -12.4749 2.1372
-0.0348 -10.9719 2.1406
0.3585 -10.9344 2.1412
0.7491 -10.8809 2.1413
1.1359 -10.8102 2.1406
1.5187 -10.7266 2.1399
1.8972 -10.6303 2.1392
2.2710 -10.5215 2.1385
2.6397 -10.4005 2.1377
3.0029 -10.2674 2.1370
3.3603 -10.1225 2.1362
3.7351 -10.0293 2.1489
4.0835 -9.8643 2.1489
4.4254 -9.6882 2.1489
4.7605 -9.5012 2.1489
5.0883 -9.3035 2.1489
5.4087 -9.0956 2.1489
5.7214 -8.8775 2.1489
6.0261 -8.6497 2.1489
6.7932 -9.0386 2.3089
7.1025 -8.7736 2.3089
7.4023 -8.4991 2.3089
7.6925 -8.2152 2.3089
7.9728 -7.9223 2.3089
8.2430 -7.6208 2.3089
6.6635 -5.7294 1.8095
6.7667 -5.4067 1.7852
6.8456 -5.0768 1.7581
6.9008 -4.7422 1.7286
6.9312 -4.4042 1.6964
6.9789 -4.0893 1.6718
7.0486 -3.7959 1.6553
7.1180 -3.5086 1.6413
7.2002 -3.2321 1.6326
7.2003 -2.9253 1.6078
6.9829 -2.5479 1.5376
6.7373 -2.1866 1.4649
6.6825 -1.9057 1.4367
6.6125 -1.6306 1.4075
6.5716 -1.3714 1.3866
6.5775 -1.1271 1.3775
6.6085 -0.8887 1.3753
6.6395 -0.6504 1.3748
6.6927 -0.4129 1.3804
6.7394 -0.1726 1.3863
6.7850 0.0707 1.3936
6.8346 0.3177 1.4033
6.8979 0.5701 1.4175
6.9548 0.8279 1.4322
6.1665 0.9603 1.2740
5.9228 1.1422 1.2292
5.8816 1.3555 1.2277
5.9190 1.5906 1.2442
5.9267 1.8237 1.2561
5.7369 1.9940 1.2277
5.5927 2.1725 1.2100
5.4319 2.3383 1.1898
5.3295 2.5253 1.1836
5.2298 2.7125 1.1794
5.1660 2.9199 1.1848
5.1292 3.1478 1.1984
5.0939 3.3842 1.2144
2.4075 1.7274 0.5867
5.0679 3.9197 1.2648
5.0628 4.2152 1.2966
5.0575 4.5283 1.3320
5.1515 4.9575 1.3984
6.2135 6.4254 1.7428
6.0709 6.7470 1.7639
6.0556 7.2370 1.8278
6.2271 8.0098 1.9586
6.7069 9.2980 2.2057
6.5593 9.8184 2.2640
6.2833 10.1786 2.2855
5.8913 10.3580 2.2688
5.5220 10.5751 2.2634
4.8664 10.1960 2.1358
4.5135 10.4013 2.1358
4.1521 10.5946 2.1358
3.7829 10.7756 2.1358
3.4061 10.9438 2.1358
2.2329 8.2003 1.5780
2.6315 11.2406 2.1358
2.2346 11.3684 2.1358
1.8320 11.4822 2.1357
1.4241 11.5817 2.1357
1.0441 12.0432 2.2047
0.6234 12.3038 2.2389
0.1825 12.3613 2.2389
-0.2616 12.4025 2.2389
-0.7083 12.4275 2.2389
-1.1571 12.4358 2.2389
-1.6073 12.4274 2.2389
-2.0583 12.4020 2.2389
-2.5092 12.3597 2.2389
-2.9596 12.3002 2.2389
-3.4087 12.2235 2.2389
-3.8558 12.1296 2.2389
-4.3002 12.0185 2.2389
-4.7411 11.8901 2.2389
-5.1780 11.7447 2.2389
-5.6099 11.5821 2.2389
-6.0363 11.4027 2.2389
-6.4563 11.2065 2.2389
-6.8693 10.9937 2.2389
-6.9397 10.2690 2.1358
-7.3182 10.0351 2.1358
-7.6880 9.7862 2.1358
-8.0484 9.5226 2.1358
-8.3988 9.2446 2.1358
-8.7384 8.9527 2.1358
-9.0668 8.6472 2.1358
-9.3833 8.3286 2.1358
-9.6873 7.9973 2.1358
-9.9783 7.6540 2.1358
-10.2557 7.2991 2.1358
-10.5191 6.9333 2.1358
-10.8843 6.6278 2.1589
-11.1206 6.2376 2.1589
-11.3414 5.8381 2.1589
-11.5461 5.4300 2.1589
-11.7345 5.0141 2.1589
-11.9063 4.5910 2.1589
-12.0610 4.1614 2.1589
-12.1986 3.7261 2.1589
-12.3187 3.2858 2.1589
-12.4212 2.8412 2.1589
-12.5059 2.3933 2.1589
-7.0196 1.0846 1.2054
-12.6216 1.4900 2.1589
-12.6526 1.0362 2.1589
-12.6655 0.5820 2.1589
-12.6606 0.1282 2.1589
-12.6378 -0.3245 2.1589
-12.5973 -0.7753 2.1589
-12.5392 -1.2235 2.1589
-12.4638 -1.6683 2.1589
-12.2388 -2.0866 2.1358
-12.1305 -2.5180 2.1358
-12.0057 -2.9440 2.1358
-11.8647 -3.3640 2.1358
-11.7079 -3.7774 2.1358
-11.5357 -4.1835 2.1358
-11.3484 -4.5817 2.1358
-11.1465 -4.9715 2.1358
-10.9304 -5.3524 2.1358
-11.2175 -6.0003 2.2391
-10.9633 -6.3796 2.2392
-10.6957 -6.7480 2.2394
-10.4151 -7.1050 2.2395
-10.1230 -7.4509 2.2399
-9.8197 -7.7852 2.2404
-9.5050 -8.1070 2.2409
-9.1792 -8.4157 2.2413
-8.8425 -8.7106 2.2416
-8.4961 -8.9918 2.2418
-8.1402 -9.2586 2.2419
-7.7747 -9.5099 2.2417
-7.4015 -9.7468 2.2414
-7.0213 -9.9691 2.2412
-6.6346 -10.1768 2.2409
-6.2421 -10.3696 2.2407
-5.8442 -10.5475 2.2404
-5.4417 -10.7104 2.2402
-5.0351 -10.8582 2.2399
-4.6250 -10.9910 2.2397
-4.2118 -11.1086 2.2394
-3.7963 -11.2112 2.2392
-3.3790 -11.2988 2.2389
-2.8975 -11.1298 2.1911
-2.4246 -10.9057 2.1360
-2.0250 -10.9515 2.1367
-1.6254 -10.9834 2.1375
-1.2260 -11.0014 2.1383
-0.8276 -11.0057 2.1391
-0.4303 -10.9961 2.1399
-0.0349 -9.7936 2.1406
0.3162 -9.7577 2.1400
0.6647 -9.7096 2.1394
1.0103 -9.6497 2.1387
1.3525 -9.5780 2.1380
1.6911 -9.4949 2.1373
2.0256 -9.4004 2.1366
2.3557 -9.2949 2.1358
2.6821 -9.1817 2.1358
3.0036 -9.0578 2.1358
3.3200 -8.9234 2.1358
3.6310 -8.7787 2.1358
3.9363 -8.6240 2.1358
4.2355 -8.4594 2.1358
4.5562 -8.3360 2.1489
4.8444 -8.1513 2.1489
5.1256 -7.9574 2.1489
5.3998 -7.7546 2.1489
5.6665 -7.5430 2.1489
5.9257 -7.3231 2.1489
6.1770 -7.0949 2.1489
6.8982 -7.3695 2.3089
7.1506 -7.1076 2.3089
7.3939 -6.8379 2.3089
6.7664 -5.8195 2.0482
6.7660 -5.4075 1.9895
6.8277 -5.0647 1.9542
6.8698 -4.7219 1.9176
6.8675 -4.3645 1.8729
6.9289 -4.0605 1.8494
6.9460 -3.7410 1.8174
7.0208 -3.4609 1.8036
7.0994 -3.1869 1.7934
7.0969 -2.8832 1.7654
6.8333 -2.4932 1.6763
6.6081 -2.1445 1.6008
6.5726 -1.8740 1.5743
6.5371 -1.6116 1.5503
6.5485 -1.3661 1.5396
6.5833 -1.1274 1.5363
6.6185 -0.8893 1.5349
6.6541 -0.6510 1.5355
6.6973 -0.4123 1.5396
6.7566 -0.1720 1.5492
6.8174 0.0722 1.5610
6.8795 0.3210 1.5750
6.9179 0.5731 1.5853
6.8360 0.8152 1.5701
6.1065 0.9524 1.4073
5.8874 1.1368 1.3632
5.8577 1.3515 1.3644
5.9128 1.5905 1.3872
5.8195 1.7925 1.3770
5.6277 1.9578 1.3447
5.4970 2.1372 1.3283
5.3638 2.3110 1.3126
5.2633 2.4960 1.3062
5.1902 2.6942 1.3083
5.1584 2.9180 1.3228
5.1301 3.1508 1.3404
5.0964 3.3885 1.3592
2.4067 1.7281 0.6563
5.0340 3.8965 1.4064
5.0029 4.1685 1.4347
4.9910 4.4723 1.4724
5.0855 4.8978 1.5469
6.2810 6.5002 1.9746
6.1530 6.8438 2.0046
6.5904 7.8826 2.2313
6.4871 8.3513 2.2896
6.4043 8.8862 2.3643
6.2470 9.3593 2.4214
5.2266 8.4747 2.1358
4.9344 8.6843 2.1358
4.6342 8.8841 2.1358
4.3261 9.0737 2.1358
4.0104 9.2529 2.1358
3.6877 9.4212 2.1358
3.3580 9.5784 2.1358
3.0220 9.7242 2.1358
2.2290 8.1999 1.7766
2.3320 9.9802 2.1358
1.9789 10.0899 2.1358
1.6210 10.1870 2.1358
1.2587 10.2713 2.1358
0.9355 10.8419 2.2389
0.5480 10.9027 2.2389
0.1573 10.9493 2.2389
-0.2359 10.9817 2.2389
-0.6312 10.9996 2.2389
-1.0280 11.0029 2.2389
-1.4257 10.9913 2.2389
-1.8238 10.9649 2.2389
-2.2217 10.9236 2.2389
-2.6188 10.8672 2.2389
-3.0145 10.7957 2.2389
-3.4081 10.7092 2.2389
-3.7992 10.6076 2.2389
-4.1870 10.4910 2.2389
-4.5709 10.3594 2.2389
-4.9503 10.2130 2.2389
-5.3247 10.0519 2.2389
-5.6933 9.8762 2.2389
-6.0556 9.6861 2.2389
-6.4110 9.4819 2.2389
-6.7588 9.2637 2.2389
-6.7959 8.6469 2.1435
-7.0873 8.3822 2.1358
-7.3942 8.1359 2.1358
-7.6916 7.8775 2.1358
-7.9791 7.6074 2.1358
-8.2561 7.3260 2.1358
-8.5223 7.0337 2.1358
-8.7770 6.7310 2.1358
-9.0199 6.4182 2.1358
-9.2505 6.0960 2.1358
-9.4684 5.7648 2.1358
-9.6733 5.4251 2.1358
-9.8647 5.0775 2.1358
-10.0424 4.7226 2.1358
-10.2061 4.3609 2.1358
-10.3554 3.9931 2.1358
-10.6035 3.6588 2.1589
-10.7247 3.2764 2.1589
-10.8308 2.8896 2.1589
-10.9217 2.4990 2.1589
-10.9971 2.1055 2.1589
-7.0186 1.0851 1.3704
-11.1012 1.3118 2.1589
-11.1299 0.9129 2.1589
-11.1429 0.5136 2.1589
-11.1404 0.1146 2.1589
-11.1223 -0.2837 2.1589
-11.0888 -0.6804 2.1589
-11.0400 -1.0750 2.1589
-10.8586 -1.4511 2.1358
-10.7805 -1.8354 2.1358
-10.6877 -2.2158 2.1358
-10.5805 -2.5917 2.1358
-10.4591 -2.9625 2.1358
-10.3239 -3.3277 2.1358
-10.1750 -3.6868 2.1358
-10.0130 -4.0391 2.1358
-9.8379 -4.3843 2.1358
-9.6504 -4.7218 2.1358
-9.9068 -5.2950 2.2389
-9.6863 -5.6321 2.2392
-9.4538 -5.9599 2.2395
-9.2096 -6.2778 2.2398
-8.9543 -6.5857 2.2401
-8.6883 -6.8830 2.2403
-8.4122 -7.1695 2.2406
-8.1265 -7.4448 2.2409
-7.8314 -7.7085 2.2411
-7.5276 -7.9605 2.2413
-7.2157 -8.2004 2.2416
-6.8960 -8.4281 2.2418
-6.5691 -8.6433 2.2420
-6.2343 -8.8440 2.2418
-5.8935 -9.0317 2.2415
-5.5472 -9.2064 2.2413
-5.1959 -9.3680 2.2410
-4.8402 -9.5165 2.2407
-4.4806 -9.6516 2.2405
-4.1175 -9.7735 2.2402
-3.7516 -9.8820 2.2400
-3.3832 -9.9771 2.2398
-3.0128 -10.0589 2.2395
-2.6410 -10.1273 2.2393
-2.2683 -10.1824 2.2391
-1.8950 -10.2247 2.2389
-1.4719 -9.9178 2.1654
-1.1090 -9.9137 2.1610
-0.7429 -9.8272 2.1414
-0.3881 -9.8172 2.1412
-0.0350 -8.8258 2.1384
0.2815 -8.7960 2.1378
0.5959 -8.7552 2.1373
0.9079 -8.7037 2.1367
1.2170 -8.6415 2.1360
1.5232 -8.5706 2.1358
1.8263 -8.4902 2.1358
2.1258 -8.3998 2.1358
2.4213 -8.2993 2.1358
2.7126 -8.1891 2.1358
2.9993 -8.0692 2.1358
3.2812 -7.9400 2.1358
3.5581 -7.8015 2.1358
3.8295 -7.6540 2.1358
4.0954 -7.4977 2.1358
4.3553 -7.3328 2.1358
4.6092 -7.1595 2.1358
4.8566 -6.9780 2.1358
5.1287 -6.8302 2.1489
5.3641 -6.6319 2.1489
5.5924 -6.4260 2.1489
5.8134 -6.2129 2.1489
6.0270 -5.9927 2.1489
6.6968 -6.1951 2.3089
6.9095 -5.9442 2.3089
6.8141 -5.4473 2.2118
6.8530 -5.0846 2.1650
6.8652 -4.7196 2.1151
6.8323 -4.3428 2.0564
6.8535 -4.0169 2.0187
6.8522 -3.6909 1.9785
6.9287 -3.4157 1.9642
7.0068 -3.1455 1.9532
6.8654 -2.7892 1.8845
6.6541 -2.4276 1.8012
6.4834 -2.1038 1.7331
6.4490 -1.8384 1.7046
6.4145 -1.5809 1.6787
6.4128 -1.3372 1.6638
6.5646 -1.1236 1.6907
6.6570 -0.8938 1.7039
6.6929 -0.6540 1.7047
6.7411 -0.4141 1.7106
6.8012 -0.1721 1.7216
6.8437 0.0736 1.7301
6.8815 0.3223 1.7395
6.9199 0.5747 1.7512
6.5728 0.7852 1.6673
6.0581 0.9462 1.5423
5.8794 1.1367 1.5040
5.8604 1.3537 1.5083
5.8730 1.5815 1.5227
5.7032 1.7584 1.4916
5.5214 1.9227 1.4586
5.3942 2.0991 1.4413
5.2888 2.2806 1.4314
5.2321 2.4832 1.4363
5.1592 2.6802 1.4389
5.1409 2.9103 1.4589
5.1246 3.1498 1.4821
5.0989 3.3928 1.5056
2.4059 1.7289 0.7266
5.0131 3.8833 1.5514
4.9732 4.1471 1.5803
4.9601 4.4480 1.6219
5.0785 4.8949 1.7126
6.4588 6.6897 2.2519
6.4302 7.1580 2.3239
6.2537 7.4861 2.3496
6.0817 7.8362 2.3827
5.2103 7.2359 2.1358
4.9610 7.4394 2.1358
4.7039 7.6345 2.1358
4.4395 7.8209 2.1358
4.1678 7.9984 2.1358
3.8893 8.1666 2.1358
3.6041 8.3252 2.1358
3.3127 8.4740 2.1358
3.0153 8.6127 2.1358
2.7123 8.7410 2.1358
2.2252 8.1996 1.9769
2.0909 8.9655 2.1358
1.7732 9.0612 2.1358
1.4514 9.1455 2.1358
1.1801 9.6633 2.2389
0.8353 9.7273 2.2389
0.4875 9.7788 2.2389
0.1372 9.8176 2.2389
-0.2153 9.8436 2.2389
-0.5694 9.8567 2.2389
-0.9247 9.8566 2.2389
-1.2805 9.8434 2.2389
-1.6365 9.8169 2.2389
-1.9922 9.7771 2.2389
-2.3469 9.7239 2.2389
-2.7001 9.6573 2.2389
-3.0514 9.5773 2.2389
-3.4002 9.4840 2.2389
-3.7459 9.3773 2.2389
-4.0880 9.2575 2.2389
-4.4260 9.1245 2.2389
-4.7593 8.9785 2.2389
-5.0873 8.8196 2.2389
-5.4097 8.6481 2.2389
-5.7257 8.4640 2.2389
-6.0350 8.2677 2.2389
-6.3369 8.0594 2.2389
-6.6310 7.8393 2.2389
-6.7032 7.3728 2.1698
-6.8690 7.0326 2.1378
-7.1179 6.7842 2.1358
-7.3640 6.5325 2.1358
-7.6004 6.2712 2.1358
-7.8266 6.0008 2.1358
-8.0424 5.7215 2.1358
-8.2473 5.4339 2.1358
-8.4409 5.1384 2.1358
-8.6230 4.8355 2.1358
-8.7933 4.5256 2.1358
-8.9514 4.2093 2.1358
-9.0971 3.8870 2.1358
-9.2301 3.5593 2.1358
-9.3503 3.2266 2.1358
-9.4574 2.8896 2.1358
-9.5514 2.5488 2.1358
-9.6319 2.2047 2.1358
-9.6990 1.8578 2.1358
-6.9526 1.0757 1.5226
-9.7925 1.1583 2.1358
-9.8189 0.8067 2.1358
-9.8315 0.4546 2.1358
-9.8305 0.1027 2.1358
-9.8160 -0.2486 2.1358
-9.7879 -0.5987 2.1358
-9.7464 -0.9470 2.1358
-9.6916 -1.2931 2.1358
-9.6237 -1.6363 2.1358
-9.5427 -1.9761 2.1358
-9.4490 -2.3120 2.1358
-9.3426 -2.6436 2.1358
-9.2240 -2.9704 2.1358
-9.0932 -3.2918 2.1358
-8.9505 -3.6074 2.1358
-8.7963 -3.9168 2.1358
-8.6309 -4.2195 2.1358
-8.8626 -4.7331 2.2389
-8.6675 -5.0358 2.2392
-8.4616 -5.3303 2.2394
-8.2454 -5.6163 2.2396
-8.0192 -5.8934 2.2399
-7.7833 -6.1613 2.2401
-7.5382 -6.4196 2.2404
-7.2843 -6.6681 2.2406
-7.0221 -6.9065 2.2408
-6.7519 -7.1344 2.2411
-6.4742 -7.3518 2.2413
-6.1895 -7.5583 2.2415
-5.8981 -7.7537 2.2417
-5.6006 -7.9380 2.2420
-5.2967 -8.1096 2.2419
-4.9873 -8.2692 2.2416
-4.6732 -8.4172 2.2414
-4.3549 -8.5533 2.2411
-4.0329 -8.6775 2.2409
-3.7076 -8.7898 2.2406
-3.3794 -8.8902 2.2404
-3.0489 -8.9786 2.2402
-2.7164 -9.0550 2.2399
-2.3824 -9.1195 2.2397
-2.0473 -9.1720 2.2395
-1.7115 -9.2125 2.2393
-1.3754 -9.2412 2.2391
-1.0395 -9.2580 2.2389
-0.6848 -9.0087 2.1772
-0.3582 -8.9681 2.1688
-0.0353 -8.0873 2.1533
0.2562 -8.1050 2.1644
0.5390 -7.9651 2.1358
0.8233 -7.9221 2.1358
1.1052 -7.8694 2.1358
1.3846 -7.8072 2.1358
1.6610 -7.7355 2.1358
1.9343 -7.6545 2.1358
2.2041 -7.5644 2.1358
2.4700 -7.4652 2.1358
2.7320 -7.3572 2.1358
2.9896 -7.2406 2.1358
3.2426 -7.1154 2.1358
3.4908 -6.9820 2.1358
3.7339 -6.8403 2.1358
3.9717 -6.6908 2.1358
4.2039 -6.5335 2.1358
4.4303 -6.3687 2.1358
4.6507 -6.1965 2.1358
4.8649 -6.0172 2.1358
5.0726 -5.8310 2.1358
5.2737 -5.6381 2.1358
5.4680 -5.4388 2.1358
5.6900 -5.2653 2.1489
5.8712 -5.0524 2.1489
6.4951 -5.1936 2.3089
6.6712 -4.9508 2.3081
6.8303 -4.6966 2.3043
6.8219 -4.3370 2.2483
6.8604 -4.0215 2.2126
6.8766 -3.7045 2.1740
6.9414 -3.4223 2.1545
6.9362 -3.1140 2.1169
6.6034 -2.6827 1.9845
6.4802 -2.3641 1.9205
6.3719 -2.0674 1.8648
6.3277 -1.8035 1.8312
6.2946 -1.5509 1.8037
6.2660 -1.3061 1.7800
6.4119 -1.0968 1.8082
6.5608 -0.8801 1.8389
6.7128 -0.6551 1.8724
6.7713 -0.4150 1.8818
6.8084 -0.1712 1.8875
6.8457 0.0748 1.8956
6.8836 0.3237 1.9061
6.8746 0.5723 1.9060
6.2888 0.7526 1.7479
6.0052 0.9393 1.6752
5.8781 1.1379 1.6479
5.8831 1.3605 1.6596
5.7317 1.5450 1.6291
5.5684 1.7185 1.5967
5.4203 1.8892 1.5701
5.3286 2.0754 1.5615
5.2266 2.2557 1.5516
5.1630 2.4524 1.5550
5.1283 2.6663 1.5694
5.1037 2.8916 1.5896
5.1203 3.1497 1.6257
5.1016 3.3972 1.6540
2.4052 1.7297 0.7977
4.9786 3.8596 1.6924
4.9436 4.1256 1.7259
4.9453 4.4383 1.7770
5.1115 4.9306 1.8947
6.1920 6.4185 2.3736
5.3738 5.9870 2.1358
5.1681 6.1917 2.1358
4.9547 6.3896 2.1358
4.7341 6.5804 2.1358
4.5063 6.7638 2.1358
4.2716 6.9394 2.1358
4.0302 7.1071 2.1358
3.7824 7.2665 2.1358
3.5285 7.4174 2.1358
3.2687 7.5595 2.1358
3.0034 7.6927 2.1358
2.7328 7.8165 2.1358
2.4572 7.9309 2.1358
2.1770 8.0356 2.1358
1.8924 8.1303 2.1358
1.6040 8.2150 2.1358
1.3163 8.3171 2.1430
1.0656 8.7563 2.2389
0.7531 8.8120 2.2389
0.4379 8.8564 2.2389
0.1206 8.8893 2.2389
-0.1985 8.9106 2.2389
-0.5188 8.9202 2.2389
-0.8401 8.9180 2.2389
-1.1617 8.9039 2.2389
-1.4834 8.8778 2.2389
-1.8045 8.8397 2.2389
-2.1246 8.7896 2.2389
-2.4434 8.7275 2.2389
-2.7602 8.6533 2.2389
-3.0746 8.5672 2.2389
-3.3861 8.4691 2.2389
-3.6943 8.3592 2.2389
-3.9986 8.2375 2.2389
-4.2987 8.1042 2.2389
-4.5939 7.9594 2.2389
-4.8839 7.8032 2.2389
-5.1682 7.6359 2.2389
-5.4463 7.4577 2.2389
-5.7178 7.2687 2.2389
-5.9821 7.0693 2.2389
-6.2390 6.8597 2.2389
-6.4879 6.6401 2.2389
-6.6277 6.3150 2.2054
-6.6397 5.8883 2.1358
-6.8521 5.6523 2.1358
-7.0553 5.4081 2.1358
-7.2492 5.1562 2.1358
-7.4333 4.8968 2.1358
-7.6074 4.6303 2.1358
-7.7711 4.3573 2.1358
-7.9242 4.0780 2.1358
-8.0665 3.7930 2.1358
-8.1976 3.5026 2.1358
-8.3175 3.2074 2.1358
-8.4258 2.9078 2.1358
-8.5225 2.6043 2.1358
-8.6074 2.2974 2.1358
-8.6804 1.9875 2.1358
-8.7413 1.6751 2.1358
-6.9456 1.0753 1.6877
-8.8267 1.0451 2.1358
-8.8512 0.7283 2.1358
-8.8635 0.4111 2.1358
-8.8635 0.0940 2.1358
-8.8514 -0.2227 2.1358
-8.8272 -0.5383 2.1358
-8.7909 -0.8524 2.1358
-8.7428 -1.1645 2.1358
-8.6828 -1.4742 2.1358
-8.6112 -1.7810 2.1358
-8.5280 -2.0844 2.1358
-8.4336 -2.3840 2.1358
-8.3280 -2.6793 2.1358
-8.2115 -2.9699 2.1358
-8.0843 -3.2555 2.1358
-7.9930 -3.5561 2.1483
-8.1512 -3.9817 2.2323
-8.0106 -4.2747 2.2391
-7.8360 -4.5491 2.2393
-7.6516 -4.8162 2.2395
-7.4578 -5.0758 2.2397
-7.2548 -5.3275 2.2399
-7.0432 -5.5710 2.2401
-6.8231 -5.8060 2.2403
-6.5949 -6.0323 2.2405
-6.3591 -6.2494 2.2408
-6.1161 -6.4573 2.2410
-5.8661 -6.6557 2.2412
-5.6097 -6.8444 2.2414
-5.3471 -7.0232 2.2416
-5.0789 -7.1920 2.2418
-4.8053 -7.3505 2.2420
-4.5260 -7.4972 2.2418
-4.2424 -7.6334 2.2416
-3.9547 -7.7589 2.2413
-3.6635 -7.8737 2.2411
-3.3692 -7.9778 2.2409
-3.0721 -8.0711 2.2407
-2.7727 -8.1536 2.2405
-2.4713 -8.2251 2.2403
-2.1684 -8.2857 2.2401
-1.8643 -8.3355 2.2399
-1.5595 -8.3743 2.2396
-1.2542 -8.4024 2.2394
-0.9489 -8.4197 2.2392
-0.6440 -8.4263 2.2390
-0.3399 -8.4226 2.2389
-0.0368 -7.7066 2.2390
0.2369 -7.5925 2.2118
0.4913 -7.3026 2.1358
0.7521 -7.2645 2.1358
1.0109 -7.2175 2.1358
1.2673 -7.1616 2.1358
1.5212 -7.0970 2.1358
1.7723 -7.0238 2.1358
2.0202 -6.9422 2.1358
2.2647 -6.8522 2.1358
2.5055 -6.7541 2.1358
2.7424 -6.6479 2.1358
2.9752 -6.5339 2.1358
3.2036 -6.4121 2.1358
3.4273 -6.2828 2.1358
3.6462 -6.1462 2.1358
3.8600 -6.0024 2.1358
4.0685 -5.8515 2.1358
4.2714 -5.6939 2.1358
4.4687 -5.5296 2.1358
4.6601 -5.3590 2.1358
4.8454 -5.1821 2.1358
5.0244 -4.9992 2.1358
5.1969 -4.8105 2.1358
5.3629 -4.6163 2.1358
5.5220 -4.4167 2.1358
5.6743 -4.2119 2.1358
5.8551 -4.0268 2.1489
6.4239 -4.0847 2.3032
6.5549 -3.8430 2.2997
6.6474 -3.5814 2.2860
6.7361 -3.3213 2.2742
6.4184 -2.8816 2.1307
6.4481 -2.6196 2.1078
6.3691 -2.3234 2.0531
6.2628 -2.0317 1.9937
6.2117 -1.7701 1.9553
6.1795 -1.5221 1.9261
6.1471 -1.2808 1.8996
6.2644 -1.0710 1.9217
6.4451 -0.8638 1.9652
6.6394 -0.6470 2.0147
6.7733 -0.4141 2.0480
6.7753 -0.1693 2.0438
6.7316 0.0747 2.0283
6.6689 0.3149 2.0096
6.5858 0.5496 1.9872
6.2713 0.7519 1.8971
6.0101 0.9415 1.8250
5.9019 1.1440 1.8012
5.9198 1.3706 1.8181
5.6008 1.5114 1.7333
5.4628 1.6876 1.7058
5.3271 1.8585 1.6807
5.2470 2.0454 1.6749
5.1650 2.2310 1.6705
5.0921 2.4208 1.6711
5.0725 2.6395 1.6918
5.0815 2.8813 1.7250
5.1186 3.1512 1.7716
5.1000 3.3989 1.8028
2.4044 1.7305 0.8697
4.9441 3.8359 1.8332
4.9246 4.1129 1.8757
4.9396 4.4367 1.9368
5.1779 4.9987 2.0947
5.1042 5.2952 2.1358
4.9217 5.4879 2.1358
4.7322 5.6744 2.1358
4.5359 5.8546 2.1358
4.3328 6.0281 2.1358
4.1233 6.1948 2.1358
3.9076 6.3543 2.1358
3.6859 6.5065 2.1358
3.4583 6.6510 2.1358
3.2253 6.7876 2.1358
2.9870 6.9162 2.1358
2.7436 7.0365 2.1358
2.4956 7.1482 2.1358
2.2431 7.2512 2.1358
1.9865 7.3453 2.1358
1.7261 7.4303 2.1358
1.4622 7.5060 2.1358
1.2528 7.9377 2.2389
0.9698 7.9971 2.2389
0.6842 8.0463 2.2389
0.3964 8.0851 2.2389
0.1068 8.1134 2.2389
-0.1844 8.1312 2.2389
-0.4766 8.1382 2.2389
-0.7695 8.1345 2.2389
-1.0626 8.1200 2.2389
-1.3556 8.0946 2.2389
-1.6480 8.0583 2.2389
-1.9395 8.0111 2.2389
-2.2295 7.9530 2.2389
-2.5177 7.8840 2.2389
-2.8036 7.8041 2.2389
-3.0868 7.7135 2.2389
-3.3669 7.6121 2.2389
-3.6434 7.5001 2.2389
-3.9159 7.3776 2.2389
-4.1840 7.2447 2.2389
-4.4473 7.1016 2.2389
-4.7053 6.9484 2.2389
-4.9577 6.7854 2.2389
-5.2040 6.6127 2.2389
-5.4438 6.4305 2.2389
-5.6768 6.2392 2.2389
-5.9025 6.0389 2.2389
-6.1207 5.8300 2.2389
-6.3308 5.6128 2.2389
-6.5327 5.3874 2.2389
-6.5429 5.0142 2.1780
-6.5921 4.6878 2.1358
-6.7591 4.4518 2.1358
-6.9170 4.2094 2.1358
-7.0655 3.9611 2.1358
-7.2045 3.7073 2.1358
-7.3336 3.4482 2.1358
-7.4528 3.1843 2.1358
-7.5617 2.9161 2.1358
-7.6602 2.6438 2.1358
-7.7482 2.3681 2.1358
-7.8256 2.0892 2.1358
-7.8922 1.8076 2.1358
-7.9479 1.5238 2.1358
-6.9385 1.0749 1.8541
-8.0265 0.9513 2.1358
-8.0493 0.6634 2.1358
-8.0611 0.3751 2.1358
-8.0618 0.0868 2.1358
-8.0516 -0.2011 2.1358
-8.0304 -0.4882 2.1358
-7.9983 -0.7739 2.1358
-7.9554 -1.0579 2.1358
-7.9018 -1.3398 2.1358
-7.8377 -1.6190 2.1358
-7.7632 -1.8953 2.1358
-7.6783 -2.1682 2.1358
-7.5834 -2.4374 2.1358
-7.4785 -2.7023 2.1358
-7.3640 -2.9628 2.1358
-7.5795 -3.3693 2.2360
-7.4498 -3.6361 2.2390
-7.3012 -3.8930 2.2392
-7.1434 -4.1437 2.2394
-6.9766 -4.3879 2.2396
-6.8012 -4.6253 2.2398
-6.6175 -4.8557 2.2400
-6.4257 -5.0787 2.2402
-6.2262 -5.2940 2.2404
-6.0194 -5.5014 2.2406
-5.8054 -5.7007 2.2408
-5.5848 -5.8916 2.2409
-5.3578 -6.0739 2.2411
-5.1247 -6.2474 2.2413
-4.8860 -6.4120 2.2415
-4.6420 -6.5674 2.2417
-4.3931 -6.7136 2.2419
-4.1393 -6.8499 2.2420
-3.8810 -6.9759 2.2417
-3.6188 -7.0922 2.2415
-3.3533 -7.1988 2.2413
-3.0848 -7.2956 2.2411
-2.8137 -7.3825 2.2409
-2.5403 -7.4595 2.2407
-2.2650 -7.5266 2.2405
-1.9882 -7.5837 2.2403
-1.7102 -7.6309 2.2401
-1.4314 -7.6681 2.2399
-1.1520 -7.6955 2.2397
-0.8726 -7.7129 2.2395
-0.5933 -7.7206 2.2393
-0.3146 -7.7184 2.2391
-0.0369 -7.1060 2.2392
0.2183 -7.0873 2.2390
0.4721 -7.0601 2.2389
0.6966 -6.7544 2.1529
0.9300 -6.6585 2.1358
1.1668 -6.6079 2.1358
1.4013 -6.5493 2.1358
1.6332 -6.4826 2.1358
1.8623 -6.4081 2.1358
2.0883 -6.3259 2.1358
2.3110 -6.2361 2.1358
2.5301 -6.1388 2.1358
2.7454 -6.0342 2.1358
2.9567 -5.9224 2.1358
3.1637 -5.8036 2.1358
3.3663 -5.6779 2.1358
3.5642 -5.5456 2.1358
3.7572 -5.4067 2.1358
3.9451 -5.2614 2.1358
4.1278 -5.1101 2.1358
4.3050 -4.9527 2.1358
4.4766 -4.7895 2.1358
4.6424 -4.6208 2.1358
4.8023 -4.4466 2.1358
4.9560 -4.2672 2.1358
5.1034 -4.0829 2.1358
5.2443 -3.8937 2.1358
5.3788 -3.7000 2.1358
5.5065 -3.5019 2.1358
5.6273 -3.2997 2.1358
5.7412 -3.0935 2.1358
6.2563 -3.0850 2.2849
6.3053 -2.8309 2.2643
6.3517 -2.5804 2.2461
6.2782 -2.2901 2.1893
6.1600 -1.9981 2.1212
6.0984 -1.7375 2.0766
6.0859 -1.4987 2.0520
6.0795 -1.2662 2.0324
6.2078 -1.0607 2.0602
6.3855 -0.8551 2.1064
6.4741 -0.6301 2.1255
6.4438 -0.3930 2.1081
6.4100 -0.1591 2.0922
6.3710 0.0718 2.0773
6.3141 0.2993 2.0590
6.2725 0.5247 2.0483
6.2266 0.7479 2.0387
6.0293 0.9459 1.9817
5.9441 1.1537 1.9638
5.7712 1.3378 1.9190
5.4917 1.4835 1.8402
5.3680 1.6600 1.8151
5.2359 1.8284 1.7890
5.1500 2.0095 1.7805
5.0782 2.1955 1.7791
5.0424 2.3992 1.7928
5.0515 2.6308 1.8255
5.0595 2.8712 1.8613
5.1105 3.1488 1.9172
5.0697 3.3814 1.9427
2.4036 1.7313 0.9426
4.8917 3.7983 1.9668
4.8932 4.0901 2.0213
4.9716 4.4691 2.1145
4.8662 4.7017 2.1358
4.7038 4.8840 2.1358
4.5348 5.0608 2.1358
4.3594 5.2319 2.1358
4.1777 5.3970 2.1358
3.9898 5.5560 2.1358
3.7961 5.7086 2.1358
3.5967 5.8546 2.1358
3.3918 5.9936 2.1358
3.1817 6.1257 2.1358
2.9666 6.2504 2.1358
2.7467 6.3676 2.1358
2.5222 6.4771 2.1358
2.2935 6.5787 2.1358
2.0608 6.6723 2.1358
1.8244 6.7576 2.1358
1.5845 6.8345 2.1358
1.3789 7.0951 2.1953
1.1486 7.2985 2.2389
0.8883 7.3518 2.2389
0.6257 7.3956 2.2389
0.3612 7.4299 2.2389
0.0950 7.4546 2.2389
-0.1724 7.4696 2.2389
-0.4407 7.4748 2.2389
-0.7096 7.4701 2.2389
-0.9786 7.4555 2.2389
-1.2473 7.4309 2.2389
-1.5155 7.3964 2.2389
-1.7827 7.3519 2.2389
-2.0485 7.2974 2.2389
-2.3125 7.2330 2.2389
-2.5744 7.1586 2.2389
-2.8337 7.0745 2.2389
-3.0901 6.9805 2.2389
-3.3432 6.8769 2.2389
-3.5925 6.7637 2.2389
-3.8378 6.6410 2.2389
-4.0786 6.5091 2.2389
-4.3145 6.3680 2.2389
-4.5453 6.2179 2.2389
-4.7704 6.0590 2.2389
-4.9896 5.8916 2.2389
-5.2025 5.7158 2.2389
-5.4088 5.5319 2.2389
-5.6082 5.3402 2.2389
-5.8002 5.1408 2.2389
-5.9847 4.9342 2.2389
-6.1613 4.7206 2.2389
-6.3297 4.5002 2.2389
-6.4897 4.2736 2.2389
-6.4715 3.9377 2.1818
-6.4710 3.6274 2.1358
-6.5981 3.3949 2.1358
-6.7162 3.1577 2.1358
-6.8252 2.9161 2.1358
-6.9249 2.6706 2.1358
-7.0152 2.4214 2.1358
-7.0958 2.1690 2.1358
-7.1668 1.9138 2.1358
-7.2280 1.6560 2.1358
-7.2793 1.3963 2.1358
-6.9313 1.0745 2.0222
-7.3520 0.8722 2.1358
-7.3733 0.6087 2.1358
-7.3845 0.3447 2.1358
-7.3857 0.0807 2.1358
-7.3769 -0.1830 2.1358
-7.3582 -0.4459 2.1358
-7.3295 -0.7077 2.1358
-7.2909 -0.9679 2.1358
-7.2426 -1.2262 2.1358
-7.1846 -1.4823 2.1358
-7.1172 -1.7356 2.1358
-7.0403 -1.9860 2.1358
-6.9541 -2.2329 2.1358
-7.0397 -2.5414 2.1921
-7.0809 -2.8463 2.2389
-6.9631 -3.0926 2.2391
-6.8364 -3.3339 2.2392
-6.7010 -3.5700 2.2394
-6.5572 -3.8006 2.2396
-6.4051 -4.0252 2.2397
-6.2451 -4.2438 2.2399
-6.0775 -4.4559 2.2401
-5.9024 -4.6613 2.2403
-5.7201 -4.8598 2.2404
-5.5311 -5.0511 2.2406
-5.3355 -5.2350 2.2408
-5.1337 -5.4112 2.2410
-4.9260 -5.5797 2.2412
-4.7127 -5.7401 2.2413
-4.4941 -5.8924 2.2415
-4.2706 -6.0364 2.2417
-4.0425 -6.1719 2.2419
-3.8100 -6.2987 2.2420
-3.5730 -6.4158 2.2418
-3.3325 -6.5240 2.2416
-3.0889 -6.6234 2.2414
-2.8423 -6.7137 2.2412
-2.5933 -6.7950 2.2410
-2.3420 -6.8672 2.2408
-2.0889 -6.9303 2.2406
-1.8343 -6.9842 2.2404
-1.5785 -7.0289 2.2403
-1.3219 -7.0646 2.2401
-1.0647 -7.0910 2.2399
-0.8073 -7.1084 2.2397
-0.5500 -7.1166 2.2395
-0.2931 -7.1158 2.2394
-0.0369 -6.5855 2.2394
0.1996 -6.5691 2.2392
0.4350 -6.5445 2.2390
0.6690 -6.5119 2.2389
0.8846 -6.3523 2.1977
1.0795 -6.1275 2.1358
1.3026 -6.0990 2.1447
1.5125 -6.0127 2.1358
1.7253 -5.9443 2.1358
1.9352 -5.8687 2.1358
2.1420 -5.7860 2.1358
2.3456 -5.6963 2.1358
2.5457 -5.5998 2.1358
2.7421 -5.4966 2.1358
2.9345 -5.3868 2.1358
3.1229 -5.2706 2.1358
3.3069 -5.1481 2.1358
3.4864 -5.0196 2.1358
3.6612 -4.8851 2.1358
3.8311 -4.7448 2.1358
3.9960 -4.5990 2.1358
4.1556 -4.4477 2.1358
4.3098 -4.2912 2.1358
4.4585 -4.1296 2.1358
4.6015 -3.9632 2.1358
4.7387 -3.7921 2.1358
4.8698 -3.6165 2.1358
4.9949 -3.4366 2.1358
5.1137 -3.2527 2.1358
5.2261 -3.0649 2.1358
5.3320 -2.8734 2.1358
5.4313 -2.6784 2.1358
5.5239 -2.4802 2.1358
5.6097 -2.2790 2.1358
5.6887 -2.0750 2.1358
5.7606 -1.8684 2.1358
5.8254 -1.6594 2.1358
6.0395 -1.4868 2.1926
6.0575 -1.2611 2.1804
6.1294 -1.0467 2.1903
6.1326 -0.8205 2.1784
6.1126 -0.5941 2.1610
6.0864 -0.3703 2.1443
6.0544 -0.1493 2.1282
6.0244 0.0690 2.1155
5.9911 0.2852 2.1043
5.9480 0.4988 2.0922
5.8998 0.7100 2.0808
5.8479 0.9189 2.0707
5.7937 1.1260 2.0622
5.6590 1.3133 2.0274
5.3819 1.4555 1.9433
5.2646 1.6297 1.9184
5.1464 1.7989 1.8951
5.0552 1.9743 1.8839
5.0181 2.1714 1.8952
4.9873 2.3750 1.9117
5.0118 2.6123 1.9529
5.0485 2.8674 2.0029
5.0811 3.1332 2.0558
5.0355 3.3613 2.0814
2.4028 1.7322 1.0165
4.8201 3.7457 2.0910
4.7915 4.0083 2.1358
4.6530 4.1861 2.1358
4.5081 4.3593 2.1358
4.3569 4.5276 2.1358
4.1997 4.6908 2.1358
4.0365 4.8486 2.1358
3.8676 5.0009 2.1358
3.6930 5.1475 2.1358
3.5130 5.2880 2.1358
3.3279 5.4223 2.1358
3.1377 5.5503 2.1358
2.9426 5.6716 2.1358
2.7430 5.7861 2.1358
2.5391 5.8937 2.1358
2.3310 5.9941 2.1358
2.1190 6.0872 2.1358
1.9035 6.1727 2.1358
1.7037 6.3217 2.1601
1.4625 6.3208 2.1358
1.2973 6.6910 2.2389
1.0589 6.7478 2.2389
0.8182 6.7959 2.2389
0.5754 6.8353 2.2389
0.3308 6.8660 2.2389
0.0849 6.8877 2.2389
-0.1621 6.9005 2.2389
-0.4099 6.9042 2.2389
-0.6581 6.8989 2.2389
-0.9064 6.8844 2.2389
-1.1543 6.8607 2.2389
-1.4017 6.8279 2.2389
-1.6480 6.7858 2.2389
-1.8931 6.7347 2.2389
-2.1364 6.6743 2.2389
-2.3777 6.6049 2.2389
-2.6166 6.5264 2.2389
-2.8528 6.4390 2.2389
-3.0858 6.3427 2.2389
-3.3154 6.2376 2.2389
-3.5411 6.1238 2.2389
-3.7628 6.0015 2.2389
-3.9799 5.8709 2.2389
-4.1922 5.7320 2.2389
-4.3993 5.5851 2.2389
-4.6009 5.4303 2.2389
-4.7967 5.2679 2.2389
-4.9865 5.0981 2.2389
-5.1698 4.9211 2.2389
-5.3464 4.7372 2.2389
-5.5160 4.5466 2.2389
-5.6784 4.3495 2.2389
-5.8333 4.1464 2.2389
-5.9804 3.9375 2.2389
-6.1196 3.7230 2.2389
-6.2506 3.5034 2.2389
-6.3731 3.2788 2.2389
-6.4086 3.0129 2.2118
-6.3948 2.7322 2.1718
-6.3821 2.4613 2.1363
-6.4638 2.2313 2.1358
-6.5424 2.0001 2.1372
-6.6036 1.7638 2.1358
-6.6602 1.5265 2.1358
-6.7076 1.2873 2.1358
-6.7459 1.0465 2.1358
-6.7751 0.8046 2.1358
-6.7951 0.5619 2.1358
-6.8058 0.3187 2.1358
-6.8074 0.0755 2.1358
-6.7997 -0.1674 2.1358
-6.7829 -0.4097 2.1358
-6.7570 -0.6510 2.1358
-6.7221 -0.8908 2.1358
-6.6946 -1.1318 2.1411
-6.6254 -1.3651 2.1358
-6.6674 -1.6241 2.1695
-6.7527 -1.9028 2.2211
-6.7245 -2.1571 2.2389
-6.6336 -2.3925 2.2390
-6.5340 -2.6241 2.2392
-6.4262 -2.8516 2.2393
-6.3101 -3.0746 2.2394
-6.1859 -3.2928 2.2396
-6.0540 -3.5060 2.2397
-5.9144 -3.7138 2.2399
-5.7675 -3.9161 2.2401
-5.6135 -4.1124 2.2402
-5.4526 -4.3026 2.2404
-5.2851 -4.4865 2.2405
-5.1113 -4.6638 2.2407
-4.9313 -4.8344 2.2409
-4.7456 -4.9979 2.2410
-4.5544 -5.1543 2.2412
-4.3580 -5.3034 2.2413
-4.1566 -5.4450 2.2415
-3.9506 -5.5789 2.2417
-3.7403 -5.7050 2.2418
-3.5260 -5.8232 2.2420
-3.3074 -5.9326 2.2419
-3.0855 -6.0337 2.2417
-2.8606 -6.1266 2.2415
-2.6329 -6.2112 2.2413
-2.4028 -6.2875 2.2411
-2.1707 -6.3554 2.2409
-1.9367 -6.4148 2.2408
-1.7013 -6.4657 2.2406
-1.4646 -6.5081 2.2404
-1.2271 -6.5421 2.2402
-0.9891 -6.5676 2.2400
-0.7507 -6.5847 2.2399
-0.5124 -6.5933 2.2397
-0.2744 -6.5936 2.2395
-0.0370 -6.1296 2.2395
0.1832 -6.1151 2.2394
0.4024 -6.0930 2.2392
0.6204 -6.0632 2.2391
0.8368 -6.0259 2.2389
1.0421 -5.9286 2.2191
1.2059 -5.6568 2.1358
1.4287 -5.6884 2.1694
1.6050 -5.5373 2.1358
1.8007 -5.4674 2.1358
1.9937 -5.3909 2.1358
2.1836 -5.3078 2.1358
2.3703 -5.2183 2.1358
2.5535 -5.1225 2.1358
2.7332 -5.0206 2.1358
2.9090 -4.9127 2.1358
3.0807 -4.7989 2.1358
3.2483 -4.6794 2.1358
3.4116 -4.5543 2.1358
3.5702 -4.4238 2.1358
3.7242 -4.2880 2.1358
3.8733 -4.1472 2.1358
4.0173 -4.0014 2.1358
4.1562 -3.8509 2.1358
4.2898 -3.6958 2.1358
4.4179 -3.5363 2.1358
4.5404 -3.3726 2.1358
4.6571 -3.2049 2.1358
4.7681 -3.0334 2.1358
4.8730 -2.8582 2.1358
4.9719 -2.6796 2.1358
5.0646 -2.4978 2.1358
5.1511 -2.3129 2.1358
5.2311 -2.1252 2.1358
5.3048 -1.9348 2.1358
5.3718 -1.7421 2.1358
5.4323 -1.5471 2.1358
5.4860 -1.3501 2.1358
5.5330 -1.1514 2.1358
5.5732 -0.9511 2.1358
5.6066 -0.7495 2.1358
5.6330 -0.5467 2.1358
5.6525 -0.3431 2.1358
5.6650 -0.1388 2.1358
