ply
format ascii 1.0
element vertex 2115
property float32 x
property float32 y
property float32 z
end_header
-20.2667 -5.7891 -0.1681
-20.0649 -6.5191 -0.1674
-19.8625 -7.2514 -0.1665
-20.0605 -8.1512 -0.1689
-21.3437 -9.5790 -0.1803
-21.6957 -10.6886 -0.1837
-17.2168 -9.2644 -0.1460
-17.7345 -10.3807 -0.1505
-17.1810 -10.9031 -0.1457
-16.6376 -11.4160 -0.1409
-18.1057 -13.4040 -0.1529
-17.8055 -14.1990 -0.1498
-18.2284 -15.6389 -0.1525
-17.9576 -16.5619 -0.1493
-24.5816 -24.3611 -0.2026
-23.1312 -24.6313 -0.1886
-21.7461 -24.8893 -0.1750
-20.4185 -25.1366 -0.1618
-20.6362 -27.3554 -0.1604
-21.1871 -30.2888 -0.1610
-21.8329 -33.7282 -0.1613
-15.5116 -25.9604 -0.1108
-14.3883 -26.1703 -0.0985
-8.9177 -61.6402 0.0556
-8.6952 -80.3659 0.1094
-4.4988 -62.4849 0.1141
-1.7110 -47.5401 0.1091
-0.0175 -46.6851 1.1809
1.3866 -39.0169 1.0063
2.4789 -34.6488 0.9122
3.2638 -30.2947 0.8149
3.8985 -27.0340 0.7439
4.4037 -24.3219 0.6852
4.8217 -22.0779 0.6376
5.1298 -20.0131 0.5930
5.4753 -18.5633 0.5650
5.7374 -17.1565 0.5369
5.9676 -15.9206 0.5129
6.1720 -14.8236 0.4921
6.3550 -13.8410 0.4741
6.5204 -12.9535 0.4583
6.6708 -12.1460 0.4445
6.8086 -11.4063 0.4323
6.9356 -10.7245 0.4215
7.0533 -10.0926 0.4120
7.1107 -9.4343 0.4006
7.7542 -9.5542 0.4227
8.4545 -9.6847 0.4472
9.2215 -9.8275 0.4745
10.0674 -9.9851 0.5051
6.7041 -6.1879 0.3287
6.7734 -5.8157 0.3252
6.8399 -5.4587 0.3221
6.9039 -5.1151 0.3195
6.9657 -4.7833 0.3172
7.0256 -4.4619 0.3154
7.0838 -4.1496 0.3139
7.1404 -3.8453 0.3127
7.1958 -3.5480 0.3118
7.2501 -3.2565 0.3113
7.3035 -2.9701 0.3110
7.3560 -2.6879 0.3110
7.4080 -2.4091 0.3114
7.4594 -2.1328 0.3119
7.5105 -1.8585 0.3128
7.5614 -1.5853 0.3140
7.6122 -1.3125 0.3154
7.6631 -1.0394 0.3171
7.7142 -0.7654 0.3191
7.7655 -0.4897 0.3214
7.8173 -0.2116 0.3240
7.8697 0.0697 0.3269
7.9229 0.3550 0.3301
7.9769 0.6452 0.3337
8.0320 0.9410 0.3376
8.0884 1.2435 0.3420
8.1461 1.5537 0.3467
8.2056 1.8728 0.3519
8.2669 2.2019 0.3576
8.3303 2.5425 0.3637
8.3962 2.8961 0.3705
8.7388 3.3701 0.3900
8.8129 3.7676 0.3983
8.8905 4.1845 0.4074
8.9723 4.6237 0.4172
9.0588 5.0880 0.4281
9.1507 5.5811 0.4399
9.2487 6.1070 0.4530
9.3537 6.6708 0.4675
9.4668 7.2781 0.4835
9.5894 7.9362 0.5012
9.7231 8.6536 0.5211
9.8697 9.4406 0.5434
10.0317 10.3104 0.5685
10.1792 11.2430 0.5951
10.4151 12.3687 0.6298
11.3442 14.4984 0.7113
10.9623 15.0974 0.7150
16.4527 24.4603 1.1197
8.2385 13.2520 0.5873
7.6212 13.3016 0.5715
7.0892 13.4726 0.5619
6.6927 13.9093 0.5638
6.1256 13.9958 0.5520
5.9334 15.0010 0.5764
5.2966 14.9381 0.5598
4.9160 15.6244 0.5716
4.1333 14.9977 0.5362
3.5528 14.9705 0.5235
3.0591 15.3189 0.5246
2.6336 16.1959 0.5436
1.9441 15.4353 0.5082
1.3364 14.9116 0.4821
0.8483 15.8471 0.5036
0.2907 16.5370 0.5170
-0.3050 16.6396 0.5122
-0.9528 17.5514 0.5325
-1.5826 17.5111 0.5241
-2.3738 18.7345 0.5537
-3.1215 19.1074 0.5582
-4.6958 23.4254 0.6771
-5.4836 23.0317 0.6594
-5.4335 19.6602 0.5581
-6.0870 19.2984 0.5438
-6.7247 18.9239 0.5300
-7.6161 19.2168 0.5354
-9.4707 21.5989 0.5995
-8.9128 18.4920 0.5120
-9.7147 18.4333 0.5099
-10.2605 17.8819 0.4948
-10.9865 17.6481 0.4893
-9.8379 14.6071 0.4064
-13.8887 19.1042 0.5344
-15.6575 19.9876 0.5632
-16.9303 20.0837 0.5712
-17.8718 19.7188 0.5673
-19.1517 19.6641 0.5737
-18.4963 17.6753 0.5242
-22.4904 19.9982 0.6046
-26.0889 21.5722 0.6669
-28.5833 21.9564 0.6964
-29.8209 21.2500 0.6940
-31.2504 20.6188 0.6963
-37.9383 23.1213 0.8110
-42.0183 23.5829 0.8636
-47.8339 24.6328 0.9473
-53.8206 25.3150 1.0292
-63.9913 27.3392 1.1839
-78.5851 30.2875 1.4097
-90.7667 31.2901 1.5820
-29.0699 8.8677 0.4933
-42.3205 11.2666 0.7008
-43.4329 1.9482 0.6504
-11.1696 0.0998 0.1658
-54.9474 -1.4819 0.8105
-12.4484 -0.7835 0.1829
-50.2506 -4.9784 0.7373
-52.0139 -7.0459 0.7639
-65.0068 -11.1948 0.9582
-65.3112 -13.6770 0.9685
-65.4524 -16.1786 0.9790
-20.3496 -5.8123 0.3078
-20.1471 -6.5451 0.3090
-19.9441 -7.2803 0.3109
-19.9492 -8.1047 0.3170
-21.6029 -9.6937 0.3508
-16.9776 -8.3626 0.2825
-17.3551 -9.3369 0.2967
-17.8417 -10.4411 0.3142
-17.2841 -10.9659 0.3144
-16.7367 -11.4811 0.3154
-17.6401 -13.0559 0.3453
-17.6334 -14.0577 0.3595
-17.4670 -14.9812 0.3721
-26.1129 -24.0759 0.5829
-24.5885 -24.3598 0.5769
-23.4587 -24.9713 0.5804
-21.7530 -24.8880 0.5694
-20.4254 -25.1353 0.5676
-21.1673 -28.0477 0.6268
-21.1836 -30.2704 0.6712
-21.8287 -33.7056 0.7431
-22.8459 -38.2157 0.8396
-10.1656 -18.4796 0.4054
-24.7437 -49.0725 1.0771
-26.2211 -57.0039 1.2540
-32.4220 -77.7158 1.7164
-29.4012 -78.2677 1.7382
-26.4323 -78.8515 1.7636
-26.1347 -88.3691 1.9935
-24.0459 -93.5261 2.1310
-21.2498 -96.9567 2.2342
-17.4089 -95.7448 2.2342
-8.9849 -61.9789 1.4664
-8.7286 -80.4549 1.9323
-3.7610 -52.0220 1.2698
-1.7255 -47.5501 1.1809
-0.0308 -45.5483 2.1792
1.3751 -39.0260 1.8871
2.4712 -34.6900 1.6975
3.2578 -30.3266 1.5036
3.8937 -27.0597 1.3611
4.3998 -24.3429 1.2437
4.8184 -22.0955 1.1481
5.1562 -20.1416 1.0657
5.4729 -18.5762 1.0021
5.7353 -17.1677 0.9455
5.9658 -15.9305 0.8969
6.1704 -14.8324 0.8548
6.3536 -13.8488 0.8180
6.5191 -12.9605 0.7858
6.6696 -12.1523 0.7574
6.7875 -11.3785 0.7301
6.9142 -10.6983 0.7078
7.0524 -10.0974 0.6900
7.1059 -9.4334 0.6670
7.7491 -9.5532 0.7001
8.4490 -9.6836 0.7370
9.2156 -9.8264 0.7783
10.0610 -9.9839 0.8248
6.7036 -6.1906 0.5347
6.7729 -5.8182 0.5268
6.8395 -5.4610 0.5197
6.9035 -5.1172 0.5135
6.9654 -4.7853 0.5080
7.0252 -4.4638 0.5033
7.0834 -4.1514 0.4992
7.1401 -3.8470 0.4958
7.1955 -3.5495 0.4930
7.2498 -3.2580 0.4907
7.3032 -2.9715 0.4890
7.3558 -2.6892 0.4879
7.4078 -2.4103 0.4873
7.4592 -2.1339 0.4871
7.5104 -1.8595 0.4875
7.5613 -1.5862 0.4884
7.6121 -1.3133 0.4898
7.6630 -1.0402 0.4917
7.7140 -0.7661 0.4941
7.7654 -0.4904 0.4971
7.8172 -0.2121 0.5006
7.8696 0.0693 0.5046
7.9228 0.3546 0.5092
7.9768 0.6448 0.5144
8.0051 0.9376 0.5185
8.0613 1.2392 0.5250
8.1189 1.5485 0.5322
8.1782 1.8665 0.5402
8.2669 2.2020 0.5508
8.3304 2.5427 0.5605
8.3963 2.8965 0.5711
8.7389 3.3706 0.6016
8.8130 3.7682 0.6148
8.8907 4.1854 0.6293
8.9725 4.6247 0.6452
9.0591 5.0892 0.6627
9.1510 5.5825 0.6821
9.2490 6.1087 0.7034
9.3541 6.6728 0.7270
9.4673 7.2805 0.7532
9.5899 7.9390 0.7824
9.7236 8.6567 0.8152
9.8704 9.4443 0.8519
10.0325 10.3148 0.8935
10.1801 11.2481 0.9378
10.4162 12.3747 0.9952
11.1605 14.2693 1.1090
10.5602 14.5499 1.0948
10.1013 15.0246 1.0964
8.1372 13.0956 0.9283
7.5624 13.2060 0.9108
7.2641 13.8130 0.9283
6.6288 13.7851 0.9040
6.1279 14.0104 0.8977
5.7559 14.5632 0.9129
5.4560 15.4005 0.9458
4.6978 14.9450 0.9002
4.0904 14.8579 0.8789
3.5432 14.9486 0.8694
3.0315 15.2029 0.8704
2.5114 15.4728 0.8730
1.9265 15.3315 0.8534
1.4266 15.9702 0.8781
0.8366 15.7153 0.8544
0.2836 16.4155 0.8835
-0.3100 16.6391 0.8876
-0.9209 16.8691 0.8929
-1.5735 17.3509 0.9124
-2.2660 17.8399 0.9330
-3.0366 18.5515 0.9660
-3.7457 18.6560 0.9685
-4.3802 18.3722 0.9520
-5.0196 18.1411 0.9396
-5.6625 17.9333 0.9295
-6.4245 18.0617 0.9382
-7.3975 18.6487 0.9721
-8.0588 18.3638 0.9620
-8.6557 17.9447 0.9462
-9.4662 17.9489 0.9541
-10.1138 17.6144 0.9455
-10.9763 17.6203 0.9567
-9.8323 14.5898 0.8027
-13.9345 19.1559 1.0701
-15.1756 19.3614 1.1003
-17.2005 20.3930 1.1816
-18.3932 20.2832 1.2010
-19.0412 19.5404 1.1853
-18.9773 18.1256 1.1293
-22.2156 19.7440 1.2671
-24.7962 20.4932 1.3588
-28.5508 21.9208 1.5068
-29.8648 21.2710 1.5214
-31.4861 20.7645 1.5516
-36.5844 22.2856 1.7476
-32.3505 18.1482 1.5009
-36.8727 18.9791 1.6649
-43.3478 20.3791 1.9084
-49.9556 21.3322 2.1485
-53.0813 20.4478 2.2342
-54.1402 18.6542 2.2342
-55.1218 16.8057 2.2342
-42.1401 11.2123 1.6806
-54.2151 12.3607 2.1311
-54.9084 10.4620 2.1311
-56.1157 8.6186 2.1542
-56.6366 6.6289 2.1542
-56.1791 4.5395 2.1208
-43.4432 1.9452 1.6306
-55.0507 0.4880 2.0579
-54.6070 -1.4758 2.0366
-12.4513 -0.7842 0.4641
-45.3393 -4.4934 1.6920
-43.5025 -5.8940 1.6283
-41.8718 -7.2113 1.5747
-34.7543 -7.2780 1.3156
-33.5975 -8.3043 1.2825
-23.7359 -6.7790 0.9153
-20.2301 -6.5714 0.7896
-20.0265 -7.3094 0.7927
-19.8391 -8.0587 0.7978
-20.6566 -9.2675 0.8457
-16.8957 -8.3207 0.7056
-17.2679 -9.2881 0.7371
-17.9503 -10.5023 0.7848
-17.3884 -11.0295 0.7804
-16.8371 -11.5471 0.7774
-17.1978 -12.7251 0.8188
-17.9912 -14.3390 0.8853
-17.5588 -15.0554 0.8953
-26.1197 -24.0746 1.3836
-24.5954 -24.3585 1.3572
-23.1450 -24.6287 1.3343
-21.7599 -24.8867 1.3145
-20.4324 -25.1340 1.2977
-20.6305 -27.3250 1.3825
-21.1801 -30.2520 1.5032
-21.8245 -33.6830 1.6474
-22.5924 -37.7723 1.8221
-20.3775 -37.0230 1.7649
-22.7597 -45.1110 2.1292
-20.9341 -45.4804 2.1292
-15.9473 -38.1987 1.7768
-17.2666 -45.9286 2.1262
-15.4930 -46.1774 2.1310
-14.3561 -48.4939 2.2342
-12.4839 -48.5005 2.2342
-10.6299 -48.4365 2.2342
-8.7971 -48.3041 2.2342
-6.9879 -48.1058 2.2342
-3.7463 -34.4374 1.6082
-3.2904 -45.3274 2.1311
-1.6822 -45.9769 2.1792
-0.0296 -30.2534 2.1311
1.0726 -30.7068 2.1792
2.1591 -30.4400 2.1792
3.1540 -29.4453 2.1292
3.8889 -27.0854 1.9808
4.3959 -24.3640 1.8043
4.8151 -22.1131 1.6605
5.1534 -20.1566 1.5368
5.4705 -18.5891 1.4408
5.7332 -17.1790 1.3555
5.9640 -15.9404 1.2822
6.1687 -14.8411 1.2186
6.3521 -13.8566 1.1631
6.5177 -12.9675 1.1144
6.6684 -12.1587 1.0713
6.7864 -11.3843 1.0301
6.9133 -10.7035 0.9963
7.0515 -10.1022 0.9689
7.1613 -9.5126 0.9418
7.7440 -9.5523 0.9781
8.4435 -9.6826 1.0274
9.2097 -9.8253 1.0828
10.0546 -9.9827 1.1451
6.7031 -6.1933 0.7413
6.7725 -5.8207 0.7289
6.8390 -5.4633 0.7179
6.9031 -5.1194 0.7081
6.9650 -4.7873 0.6994
7.0249 -4.4657 0.6918
7.0831 -4.1532 0.6852
7.1398 -3.8487 0.6795
7.1953 -3.5511 0.6747
7.2496 -3.2595 0.6707
7.3030 -2.9729 0.6676
7.3556 -2.6905 0.6652
7.4075 -2.4115 0.6637
7.4590 -2.1351 0.6628
7.5102 -1.8605 0.6627
7.5611 -1.5872 0.6634
7.6119 -1.3142 0.6648
7.6628 -1.0410 0.6669
7.7139 -0.7669 0.6697
7.7653 -0.4910 0.6733
7.8171 -0.2127 0.6777
7.8695 0.0688 0.6828
7.9227 0.3542 0.6888
7.9768 0.6445 0.6957
8.0051 0.9374 0.7011
8.0613 1.2390 0.7098
8.1189 1.5484 0.7194
8.1782 1.8666 0.7302
8.2669 2.2022 0.7446
8.3304 2.5430 0.7577
8.3963 2.8968 0.7723
8.7390 3.3711 0.8138
8.8131 3.7689 0.8319
8.8909 4.1862 0.8519
8.9727 4.6257 0.8739
9.0593 5.0904 0.8981
9.1512 5.5840 0.9249
9.2493 6.1104 0.9545
9.3544 6.6748 0.9873
9.4677 7.2828 1.0238
9.5904 7.9417 1.0645
9.7242 8.6599 1.1102
9.8710 9.4480 1.1615
10.0333 10.3192 1.2196
10.1811 11.2532 1.2817
10.4174 12.3809 1.3618
10.7925 13.8044 1.4694
10.3530 14.2706 1.4727
9.8806 14.7030 1.4738
9.5072 15.3080 1.4929
7.4657 13.0441 1.2397
7.3410 13.9672 1.2957
6.8473 14.2482 1.2920
6.4425 14.7398 1.3084
6.2944 15.9376 1.3868
5.3071 14.9928 1.2805
4.6331 14.7529 1.2384
4.0670 14.7887 1.2217
3.5239 14.8854 1.2117
2.9954 15.0441 1.2082
2.4671 15.2270 1.2080
2.1062 16.8012 1.3182
1.4099 15.8357 1.2302
0.8250 15.5853 1.2003
0.2771 16.3221 1.2477
-0.3201 16.9035 1.2841
-0.9080 16.5412 1.2502
-1.5347 16.8661 1.2698
-2.2087 17.3465 1.3026
-2.9042 17.7088 1.3279
-3.6485 18.1427 1.3603
-4.3162 18.0792 1.3571
-4.9426 17.8414 1.3426
-5.6199 17.7796 1.3431
-6.4022 17.9816 1.3655
-7.3080 18.4066 1.4072
-8.1347 18.5216 1.4276
-8.5735 17.7607 1.3823
-9.3177 17.6547 1.3897
-10.0288 17.4543 1.3919
-10.9454 17.5594 1.4210
-9.8292 14.5762 1.1993
-14.0826 19.3480 1.6216
-15.6782 19.9913 1.7103
-17.3718 20.5847 1.8014
-18.8699 20.7978 1.8661
-20.3730 20.8963 1.9270
-20.8563 19.9101 1.8920
-21.8759 19.4323 1.9083
-24.5987 20.3200 2.0683
-26.2318 20.1305 2.1310
-27.0921 19.2869 2.1310
-25.8858 17.0630 1.9756
-28.7194 17.4862 2.1310
-30.9108 17.3323 2.2342
-31.6725 16.2946 2.2342
-32.3938 15.2220 2.2342
-33.0730 14.1160 2.2342
-33.7078 12.9783 2.2342
-34.2965 11.8109 2.2342
-34.8374 10.6156 2.2342
-33.6985 8.9612 2.1311
-34.1184 7.7741 2.1311
-34.4880 6.5669 2.1311
-35.1834 5.3997 2.1542
-35.4519 4.1458 2.1542
-35.6662 2.8788 2.1542
-35.8256 1.6013 2.1542
-35.9291 0.3161 2.1542
-35.7114 -0.9671 2.1383
-12.4543 -0.7850 0.7459
-32.2542 -3.1977 1.9354
-31.0198 -4.2035 1.8677
-30.1694 -5.1962 1.8257
-29.5806 -6.1946 1.8020
-29.1952 -7.2159 1.7933
-23.6709 -6.7599 1.4686
-20.3138 -6.5979 1.2750
-20.1097 -7.3388 1.2792
-19.7300 -8.0132 1.2742
-20.5057 -9.1982 1.3468
-18.6634 -9.1895 1.2490
-17.1814 -9.2397 1.1737
-18.0604 -10.5644 1.2619
-17.4942 -11.0939 1.2527
-16.9388 -11.6140 1.2457
-18.5161 -13.6970 1.4014
-18.0857 -14.4103 1.4119
-17.6517 -15.1306 1.4248
-25.7485 -23.7249 2.1542
-23.8080 -23.5709 2.0699
-22.8789 -24.3370 2.0729
-21.7669 -24.8854 2.0612
-20.4394 -25.1327 2.0294
-20.3831 -26.9860 2.1292
-19.3014 -27.5562 2.1292
-18.2025 -28.0796 2.1292
-17.0886 -28.5558 2.1292
-9.8788 -17.9386 1.3178
-14.8373 -29.3909 2.1310
-13.6913 -29.7259 2.1310
-12.5393 -30.0142 2.1310
-11.9065 -31.6459 2.2289
-10.7212 -31.9270 2.2342
-9.5076 -32.0843 2.2342
-8.2962 -32.1946 2.2342
-7.0890 -32.2585 2.2342
-5.8877 -32.2767 2.2342
-4.6942 -32.2503 2.2342
-3.3483 -30.6953 2.1311
-2.2295 -30.5875 2.1311
-1.1228 -30.4399 2.1311
-0.0293 -22.8877 2.1311
0.7879 -22.7556 2.1311
1.5943 -22.5746 2.1292
2.3909 -22.3862 2.1292
3.1763 -22.1706 2.1292
3.9495 -21.9286 2.1292
4.7096 -21.6607 2.1292
5.1506 -20.1716 2.0100
5.4681 -18.6021 1.8815
5.7311 -17.1903 1.7673
5.9621 -15.9503 1.6692
6.1671 -14.8500 1.5840
6.3507 -13.8645 1.5097
6.5164 -12.9746 1.4443
6.6672 -12.1651 1.3866
6.7854 -11.3901 1.3314
6.9123 -10.7088 1.2859
7.0506 -10.1071 1.2490
7.1605 -9.5171 1.2124
7.7388 -9.5513 1.2569
8.4380 -9.6816 1.3187
9.2037 -9.8242 1.3881
10.0482 -9.9815 1.4663
6.7026 -6.1959 0.9487
6.7720 -5.8232 0.9319
6.8386 -5.4657 0.9168
6.9027 -5.1216 0.9034
6.9646 -4.7894 0.8915
7.0245 -4.4676 0.8810
7.0828 -4.1550 0.8718
7.1395 -3.8504 0.8638
7.1950 -3.5527 0.8571
7.2493 -3.2609 0.8514
7.3027 -2.9742 0.8468
7.3553 -2.6918 0.8433
7.4073 -2.4127 0.8408
7.4588 -2.1362 0.8392
7.5100 -1.8616 0.8386
7.5609 -1.5881 0.8390
7.6118 -1.3151 0.8404
7.6627 -1.0418 0.8427
7.7137 -0.7676 0.8459
7.7651 -0.4916 0.8502
7.8170 -0.2133 0.8555
7.8694 0.0683 0.8618
7.9226 0.3538 0.8692
7.9767 0.6442 0.8776
8.0051 0.9371 0.8844
8.0613 1.2389 0.8952
8.1189 1.5483 0.9074
8.1782 1.8666 0.9209
8.2670 2.2023 0.9391
8.3305 2.5433 0.9558
8.3964 2.8972 0.9742
8.7391 3.3717 1.0268
8.8132 3.7696 1.0499
8.8910 4.1870 1.0754
8.9729 4.6267 1.1035
9.0595 5.0916 1.1345
9.1515 5.5854 1.1688
9.2496 6.1121 1.2067
9.3548 6.6768 1.2487
9.4681 7.2852 1.2956
9.5910 7.9444 1.3478
9.7248 8.6631 1.4064
9.8717 9.4518 1.4724
10.0341 10.3235 1.5472
10.1821 11.2584 1.6271
10.4185 12.3870 1.7301
10.5055 13.4428 1.8184
10.1232 13.9600 1.8323
9.7732 14.5501 1.8565
9.3748 15.1023 1.8765
8.9394 15.6273 1.8941
7.2676 13.8355 1.6383
6.9374 14.4448 1.6737
8.7633 20.0635 2.2780
6.1896 15.6842 1.7475
5.1915 14.6786 1.6072
4.5969 14.6514 1.5785
4.0623 14.7874 1.5698
3.5116 14.8520 1.5554
2.9662 14.9197 1.5435
2.4480 15.1372 1.5489
2.0700 16.5514 1.6772
1.6698 18.8179 1.8907
0.8668 16.4682 1.6426
0.3175 19.0406 1.8876
-0.3295 17.1267 1.6897
-0.9248 16.7536 1.6470
-1.5277 16.7316 1.6409
-2.1893 17.1519 1.6802
-2.8570 17.3874 1.7036
-3.5584 17.6665 1.7334
-4.2836 17.9179 1.7629
-4.8897 17.6292 1.7416
-5.5443 17.5217 1.7405
-6.4439 18.0811 1.8084
-7.3447 18.4828 1.8641
-7.9449 18.0747 1.8409
-8.6143 17.8317 1.8369
-9.1596 17.3426 1.8099
-9.9150 17.2446 1.8262
-10.9291 17.5219 1.8863
-9.7772 14.4901 1.5886
-14.6494 20.1149 2.2501
-14.6215 18.6331 2.1311
-15.3555 18.1854 2.1311
-16.0754 17.7082 2.1311
-16.7797 17.2017 2.1311
-17.4672 16.6663 2.1311
-18.1366 16.1026 2.1311
-18.8244 15.5424 2.1354
-20.3543 15.6125 2.2342
-20.9903 14.9358 2.2342
-21.6016 14.2322 2.2342
-22.1868 13.5023 2.2342
-22.7447 12.7473 2.2342
-23.2739 11.9680 2.2342
-23.7732 11.1657 2.2342
-24.2414 10.3414 2.2342
-24.6772 9.4965 2.2342
-23.9225 8.2340 2.1311
-24.2735 7.3926 2.1311
-24.5907 6.5355 2.1311
-24.8734 5.6642 2.1311
-25.1206 4.7801 2.1311
-25.6060 3.9270 2.1542
-25.7821 3.0124 2.1542
-25.9205 2.0899 2.1542
-26.0205 1.1610 2.1542
-26.0821 0.2277 2.1542
-26.1047 -0.7085 2.1542
-12.4573 -0.7858 1.0286
-26.0328 -2.5819 2.1542
-25.9381 -3.5155 2.1542
-25.7799 -4.4405 2.1522
-25.5632 -5.3534 2.1484
-25.3364 -6.2619 2.1470
-23.6062 -6.7409 2.0202
-20.3985 -6.6246 1.7658
-20.1938 -7.3685 1.7711
-19.6232 -7.9686 1.7466
-21.6850 -9.7255 1.9622
-18.9859 -9.3465 1.7495
-17.0956 -9.1916 1.6072
-17.4879 -10.2273 1.6804
-17.6015 -11.1594 1.7321
-17.0421 -11.6818 1.7209
-18.4601 -13.6519 1.9168
-18.1815 -14.4825 1.9455
-17.7458 -15.2067 1.9613
-18.8251 -17.3402 2.1542
-18.1356 -17.9490 2.1542
-17.4240 -18.5279 2.1542
-16.6917 -19.0760 2.1542
-15.9402 -19.5927 2.1542
-15.1713 -20.0774 2.1542
-14.3862 -20.5296 2.1542
-13.4400 -20.7229 2.1310
-12.6362 -21.1048 2.1310
-9.8177 -17.8176 1.7698
-10.9962 -21.7691 2.1310
-10.1631 -22.0512 2.1310
-9.7749 -23.3804 2.2342
-8.8886 -23.6062 2.2342
-7.9982 -23.7970 2.2342
-7.1052 -23.9532 2.2342
-6.2110 -24.0749 2.2342
-5.3170 -24.1624 2.2342
-4.4245 -24.2163 2.2342
-3.5350 -24.2367 2.2342
-2.6496 -24.2242 2.2342
-1.6880 -23.0637 2.1311
-0.8550 -22.9906 2.1311
-0.0291 -18.3912 2.1311
0.6282 -18.3035 2.1311
1.2792 -18.1925 2.1311
1.9231 -18.0588 2.1311
2.5569 -17.8866 2.1292
3.1838 -17.7089 2.1292
3.8014 -17.5097 2.1292
4.4090 -17.2898 2.1292
5.0060 -17.0495 2.1292
5.5918 -16.7895 2.1292
5.9602 -15.9603 2.0583
6.1654 -14.8588 1.9514
6.3492 -13.8724 1.8581
6.5151 -12.9817 1.7760
6.6660 -12.1715 1.7035
6.7843 -11.3959 1.6343
6.9113 -10.7141 1.5771
7.0497 -10.1119 1.5304
7.1597 -9.5215 1.4845
7.7337 -9.5504 1.5368
8.4325 -9.6806 1.6111
9.1978 -9.8231 1.6946
10.0418 -9.9803 1.7888
6.7021 -6.1986 1.1572
6.7715 -5.8257 1.1359
6.8382 -5.4680 1.1168
6.9023 -5.1238 1.0997
6.9642 -4.7914 1.0846
7.0242 -4.4695 1.0711
7.0824 -4.1568 1.0594
7.1392 -3.8520 1.0491
7.1947 -3.5543 1.0404
7.2490 -3.2624 1.0330
7.3024 -2.9756 1.0270
7.3551 -2.6931 1.0222
7.4071 -2.4139 1.0187
7.4586 -2.1373 1.0165
7.5098 -1.8626 1.0154
7.5607 -1.5891 1.0155
7.6116 -1.3160 1.0168
7.6625 -1.0426 1.0193
7.7136 -0.7683 1.0231
7.7650 -0.4923 1.0280
7.8169 -0.2139 1.0341
7.8694 0.0678 1.0416
7.9226 0.3534 1.0504
7.9767 0.6439 1.0605
8.0050 0.9369 1.0685
8.0612 1.2387 1.0816
8.1189 1.5483 1.0963
8.1782 1.8666 1.1126
8.2670 2.2025 1.1346
8.3305 2.5435 1.1549
8.3965 2.8976 1.1772
8.7392 3.3722 1.2409
8.8134 3.7702 1.2690
8.8912 4.1879 1.3000
8.9731 4.6277 1.3343
9.0598 5.0929 1.3721
9.1518 5.5868 1.4138
9.2499 6.1138 1.4601
9.3552 6.6788 1.5115
9.4686 7.2875 1.5687
9.5915 7.9472 1.6326
9.7254 8.6663 1.7043
9.8724 9.4555 1.7850
10.0350 10.3279 1.8765
10.1830 11.2635 1.9743
10.4197 12.3931 2.1004
10.1284 12.9656 2.1292
9.6803 13.3550 2.1292
9.2183 13.7304 2.1292
8.7429 14.0913 2.1292
8.9257 15.6118 2.3024
8.3901 15.9818 2.3042
7.8343 16.3226 2.3042
7.2655 16.6457 2.3042
5.7284 14.5265 1.9747
5.0924 14.4104 1.9263
4.5650 14.5638 1.9171
4.0553 14.7781 1.9182
3.4866 14.7648 1.8922
2.9527 14.8740 1.8845
2.4475 15.1617 1.9016
2.0272 16.2479 2.0197
1.6519 18.6791 2.3042
0.9839 18.7995 2.3042
0.2903 17.7310 2.1620
-0.3392 17.3574 2.1082
-0.9426 16.9818 2.0570
-1.5455 16.8693 2.0405
-2.1894 17.1100 2.0692
-2.8462 17.2879 2.0931
-3.5298 17.4961 2.1234
-4.1997 17.5431 2.1370
-4.8201 17.3574 2.1252
-5.4511 17.2085 2.1206
-6.2019 17.3853 2.1593
-6.7610 16.9987 2.1311
-7.3976 16.8155 2.1311
-8.0297 16.6086 2.1311
-8.6563 16.3778 2.1311
-9.2766 16.1233 2.1311
-9.8896 15.8450 2.1311
-9.7651 14.4632 1.9830
-11.0896 15.2179 2.1311
-11.6747 14.8693 2.1311
-12.2485 14.4978 2.1311
-13.1378 14.4645 2.1857
-14.0044 14.3490 2.2342
-14.5642 13.8892 2.2342
-15.1080 13.4069 2.2342
-15.6347 12.9024 2.2342
-16.1434 12.3765 2.2342
-16.6330 11.8297 2.2342
-17.1026 11.2626 2.2342
-17.5513 10.6761 2.2342
-17.9779 10.0709 2.2342
-18.3818 9.4478 2.2342
-18.7619 8.8077 2.2342
-19.1176 8.1516 2.2342
-18.5505 7.1352 2.1311
-18.8406 6.4815 2.1311
-19.1051 5.8154 2.1311
-19.3434 5.1380 2.1311
-19.5550 4.4504 2.1311
-19.7392 3.7536 2.1311
-20.1111 3.0820 2.1542
-20.2407 2.3629 2.1542
-20.3414 1.6382 2.1542
-20.4129 0.9092 2.1542
-20.4550 0.1772 2.1542
-20.4675 -0.5566 2.1542
-12.4603 -0.7865 1.3125
-20.4034 -2.0243 2.1542
-20.3267 -2.7555 2.1542
-20.2205 -3.4832 2.1542
-20.0848 -4.2061 2.1542
-19.9199 -4.9230 2.1542
-19.7261 -5.6325 2.1542
-19.5038 -6.3334 2.1542
-19.2533 -7.0244 2.1542
-18.9752 -7.7043 2.1542
-18.6701 -8.3719 2.1542
-18.3385 -9.0261 2.1542
-17.0103 -9.1439 2.0379
-17.3967 -10.1717 2.1295
-17.1920 -10.8972 2.1542
-16.7619 -11.4869 2.1542
-16.3092 -12.0580 2.1542
-15.8348 -12.6097 2.1542
-15.3397 -13.1410 2.1542
-14.8249 -13.6512 2.1542
-14.2913 -14.1396 2.1542
-13.7401 -14.6055 2.1542
-13.1722 -15.0482 2.1542
-12.4530 -15.3004 2.1310
-11.8617 -15.6909 2.1310
-11.2571 -16.0572 2.1310
-10.6405 -16.3986 2.1310
-10.0130 -16.7150 2.1310
-9.4046 -17.0585 2.1375
-9.1526 -18.1084 2.2342
-8.4673 -18.3597 2.2342
-7.7751 -18.5840 2.2342
-7.0774 -18.7811 2.2342
-6.3751 -18.9511 2.2342
-5.6694 -19.0939 2.2342
-4.9615 -19.2097 2.2342
-4.2524 -19.2987 2.2342
-3.5432 -19.3609 2.2342
-2.8348 -19.3966 2.2342
-2.1284 -19.4062 2.2342
-1.4157 -19.2646 2.2198
-0.6919 -18.4552 2.1311
-0.0290 -15.3581 2.1311
0.5202 -15.2953 2.1311
1.0650 -15.2129 2.1311
1.6045 -15.1114 2.1311
2.1382 -14.9909 2.1311
2.6653 -14.8519 2.1311
3.1826 -14.6815 2.1292
3.6945 -14.5067 2.1292
4.1981 -14.3145 2.1292
4.6930 -14.1054 2.1292
5.1784 -13.8798 2.1292
5.6540 -13.6382 2.1292
6.1193 -13.3809 2.1292
6.5138 -12.9889 2.1098
6.6648 -12.1779 2.0223
6.7832 -11.4017 1.9390
6.9103 -10.7194 1.8700
7.0488 -10.1168 1.8136
7.1588 -9.5260 1.7582
7.7285 -9.5494 1.8181
8.4269 -9.6795 1.9050
9.1918 -9.8220 2.0026
10.0353 -9.9791 2.1129
6.7016 -6.2014 1.3670
6.7711 -5.8282 1.3411
6.8377 -5.4704 1.3180
6.9019 -5.1260 1.2972
6.9638 -4.7935 1.2788
7.0238 -4.4715 1.2624
7.0821 -4.1586 1.2480
7.1389 -3.8537 1.2355
7.1944 -3.5558 1.2247
7.2487 -3.2639 1.2156
7.3022 -2.9770 1.2081
7.3548 -2.6943 1.2022
7.4069 -2.4151 1.1977
7.4584 -2.1384 1.1948
7.5096 -1.8636 1.1932
7.5605 -1.5900 1.1931
7.6114 -1.3169 1.1944
7.6624 -1.0434 1.1971
7.7135 -0.7690 1.2012
7.7649 -0.4929 1.2068
7.8168 -0.2144 1.2139
7.8693 0.0673 1.2225
7.9225 0.3530 1.2327
7.9766 0.6435 1.2445
8.0050 0.9366 1.2538
8.0612 1.2386 1.2691
8.1189 1.5482 1.2863
8.1782 1.8667 1.3055
8.2670 2.2026 1.3313
8.3306 2.5438 1.3551
8.3965 2.8980 1.3815
8.7393 3.3727 1.4562
8.8135 3.7709 1.4894
8.8913 4.1887 1.5260
8.9733 4.6288 1.5664
9.0600 5.0941 1.6111
9.1520 5.5883 1.6604
9.2503 6.1156 1.7151
9.3556 6.6808 1.7759
9.4690 7.2899 1.8436
9.5920 7.9499 1.9192
9.7260 8.6696 2.0040
9.8732 9.4593 2.0996
9.6783 9.9643 2.1292
9.3311 10.3251 2.1292
8.9715 10.6748 2.1292
8.5996 11.0132 2.1292
8.2159 11.3396 2.1292
7.8546 11.7046 2.1385
7.4661 12.0395 2.1442
7.0456 12.3300 2.1442
6.6145 12.6069 2.1442
6.1732 12.8698 2.1442
5.7220 13.1184 2.1442
5.2613 13.3523 2.1442
4.7917 13.5710 2.1442
4.3135 13.7743 2.1442
3.8272 13.9617 2.1442
3.3332 14.1329 2.1442
2.8321 14.2877 2.1442
2.3243 14.4255 2.1442
1.8105 14.5462 2.1442
1.2911 14.6494 2.1442
0.7667 14.7349 2.1442
0.2379 14.8023 2.1442
-0.2948 14.8514 2.1442
-0.8256 14.7912 2.1311
-1.3608 14.8029 2.1311
-1.8979 14.7958 2.1311
-2.4363 14.7697 2.1311
-2.9754 14.7243 2.1311
-3.5143 14.6597 2.1311
-4.0525 14.5755 2.1311
-4.5892 14.4719 2.1311
-5.1236 14.3485 2.1311
-5.6552 14.2056 2.1311
-6.1830 14.0430 2.1311
-6.7063 13.8607 2.1311
-7.2244 13.6588 2.1311
-7.7565 13.4720 2.1366
-8.4937 13.5996 2.1962
-9.1625 13.5622 2.2342
-9.6757 13.2696 2.2342
-10.1790 12.9569 2.2342
-10.6721 12.6248 2.2342
-11.1539 12.2735 2.2342
-11.6236 11.9034 2.2342
-12.0804 11.5147 2.2342
-12.5236 11.1079 2.2342
-12.9522 10.6834 2.2342
-13.3656 10.2418 2.2342
-13.7629 9.7836 2.2342
-14.1434 9.3093 2.2342
-14.5063 8.8197 2.2342
-14.8510 8.3152 2.2342
-15.1768 7.7967 2.2342
-15.4829 7.2648 2.2342
-15.0413 6.4103 2.1311
-15.2942 5.8797 2.1311
-15.5266 5.3386 2.1311
-15.7382 4.7880 2.1311
-15.9284 4.2285 2.1311
-16.0968 3.6611 2.1311
-16.2430 3.0868 2.1311
-16.5440 2.5335 2.1542
-16.6460 1.9416 2.1542
-16.7246 1.3454 2.1542
-16.7796 0.7460 2.1542
-16.8109 0.1445 2.1542
-16.8184 -0.4584 2.1542
-12.4633 -0.7873 1.5979
-16.7616 -1.6636 2.1542
-16.6974 -2.2639 2.1542
-16.6093 -2.8614 2.1542
-16.4975 -3.4549 2.1542
-16.3623 -4.0436 2.1542
-16.2038 -4.6264 2.1542
-16.0224 -5.2023 2.1542
-15.8183 -5.7704 2.1542
-15.5919 -6.3296 2.1542
-15.3437 -6.8791 2.1542
-15.0741 -7.4179 2.1542
-14.7836 -7.9453 2.1542
-14.4729 -8.4602 2.1542
-14.1424 -8.9620 2.1542
-13.7928 -9.4497 2.1542
-13.4247 -9.9227 2.1542
-13.0390 -10.3803 2.1542
-12.6362 -10.8217 2.1542
-12.0853 -11.1249 2.1310
-11.6554 -11.5278 2.1310
-11.2110 -11.9128 2.1310
-10.7529 -12.2796 2.1310
-10.2818 -12.6277 2.1310
-9.7987 -12.9565 2.1310
-9.3044 -13.2659 2.1310
-8.7998 -13.5553 2.1310
-8.6872 -14.4944 2.2342
-8.1392 -14.7551 2.2342
-7.5832 -14.9943 2.2342
-7.0200 -15.2115 2.2342
-6.4505 -15.4068 2.2342
-5.8757 -15.5799 2.2342
-5.2965 -15.7309 2.2342
-4.7138 -15.8597 2.2342
-4.1286 -15.9663 2.2342
-3.5415 -16.0508 2.2342
-2.9536 -16.1133 2.2342
-2.3657 -16.1539 2.2342
-1.7786 -16.1728 2.2342
-1.1932 -16.1701 2.2342
-0.5820 -15.4011 2.1311
-0.0289 -13.1721 2.1311
0.4423 -13.1247 2.1311
0.9101 -13.0598 2.1310
1.3740 -12.9792 2.1310
1.8333 -12.8822 2.1311
2.2875 -12.7692 2.1311
2.7359 -12.6402 2.1311
3.1782 -12.4957 2.1311
3.6105 -12.3250 2.1292
4.0384 -12.1508 2.1292
4.4587 -11.9620 2.1292
4.8708 -11.7592 2.1292
5.2744 -11.5427 2.1292
5.6690 -11.3128 2.1292
6.0541 -11.0700 2.1292
6.4296 -10.8147 2.1292
6.7948 -10.5472 2.1292
7.0479 -10.1218 2.0989
7.1580 -9.5306 2.0338
7.7232 -9.5484 2.1011
8.1479 -9.3642 2.1292
8.4576 -9.0423 2.1292
8.7553 -8.7109 2.1292
6.7011 -6.2041 1.5782
6.7706 -5.8308 1.5478
6.8373 -5.4728 1.5205
6.9015 -5.1282 1.4961
6.9634 -4.7956 1.4744
7.0234 -4.4734 1.4551
7.0817 -4.1604 1.4381
7.1386 -3.8555 1.4232
7.1941 -3.5575 1.4104
7.2485 -3.2654 1.3996
7.3019 -2.9784 1.3906
7.3546 -2.6957 1.3834
7.4066 -2.4163 1.3780
7.4582 -2.1396 1.3743
7.5094 -1.8647 1.3723
7.5604 -1.5910 1.3719
7.6113 -1.3178 1.3731
7.6622 -1.0443 1.3760
7.7133 -0.7698 1.3806
7.7648 -0.4936 1.3869
7.8167 -0.2150 1.3949
7.8692 0.0668 1.4046
7.9224 0.3526 1.4162
7.9765 0.6432 1.4297
8.0049 0.9364 1.4404
8.0612 1.2384 1.4579
8.1189 1.5482 1.4776
8.1782 1.8667 1.4997
8.2670 2.2028 1.5294
8.3306 2.5440 1.5568
8.3966 2.8983 1.5871
8.7394 3.3733 1.6731
8.8136 3.7716 1.7114
8.8915 4.1896 1.7536
8.9735 4.6298 1.8003
9.0602 5.0954 1.8518
9.1523 5.5898 1.9088
9.2506 6.1173 1.9720
9.3559 6.6828 2.0422
9.4695 7.2923 2.1204
9.2510 7.6696 2.1292
8.9814 8.0083 2.1292
8.7002 8.3383 2.1292
8.4077 8.6592 2.1292
8.1040 8.9706 2.1292
7.7896 9.2722 2.1292
7.4646 9.5635 2.1292
7.1795 9.9136 2.1442
6.8318 10.1854 2.1442
6.4745 10.4457 2.1442
6.1077 10.6944 2.1442
5.7319 10.9311 2.1442
5.3473 11.1553 2.1442
4.9545 11.3668 2.1442
4.5537 11.5653 2.1442
4.1453 11.7504 2.1442
3.7298 11.9219 2.1442
3.3075 12.0794 2.1442
2.8790 12.2226 2.1442
2.4446 12.3514 2.1442
1.9932 12.3937 2.1319
1.5505 12.4876 2.1311
1.1041 12.5707 2.1311
0.6538 12.6385 2.1311
0.2000 12.6906 2.1311
-0.2566 12.7270 2.1311
-0.7155 12.7473 2.1311
-1.1762 12.7514 2.1311
-1.6382 12.7393 2.1311
-2.1008 12.7107 2.1311
-2.5635 12.6656 2.1311
-3.0257 12.6039 2.1311
-3.4867 12.5255 2.1311
-3.9480 12.4364 2.1322
-4.4114 12.3419 2.1352
-5.0161 12.5889 2.2009
-5.5641 12.6269 2.2342
-6.0326 12.4584 2.2345
-6.4958 12.2722 2.2347
-6.9533 12.0685 2.2350
-7.4044 11.8478 2.2352
-7.8485 11.6099 2.2355
-8.2829 11.3526 2.2352
-8.7089 11.0792 2.2351
-9.1269 10.7908 2.2352
-9.5334 10.4847 2.2350
-9.9285 10.1621 2.2346
-10.3123 9.8242 2.2342
-10.6855 9.4728 2.2342
-11.0464 9.1068 2.2342
-11.3940 8.7267 2.2342
-11.7278 8.3328 2.2342
-12.0471 7.9257 2.2342
-12.3513 7.5058 2.2342
-12.6400 7.0738 2.2342
-12.9125 6.6303 2.2342
-12.5607 5.8908 2.1311
-12.7884 5.4474 2.1311
-12.9992 4.9949 2.1311
-13.1928 4.5338 2.1311
-13.3687 4.0649 2.1311
-13.5266 3.5888 2.1311
-13.6661 3.1064 2.1311
-13.7870 2.6183 2.1311
-14.0395 2.1483 2.1542
-14.1232 1.6459 2.1542
-14.1874 1.1400 2.1542
-14.2318 0.6316 2.1542
-14.2564 0.1215 2.1542
-14.2611 -0.3895 2.1542
-12.4663 -0.7880 1.8851
-14.2105 -1.4109 2.1542
-14.1553 -1.9196 2.1542
-14.0802 -2.4258 2.1542
-13.9853 -2.9288 2.1542
-13.8708 -3.4278 2.1542
-13.7369 -3.9217 2.1542
-13.5838 -4.4100 2.1542
-13.4117 -4.8918 2.1542
-13.2211 -5.3663 2.1542
-13.0121 -5.8327 2.1542
-12.7852 -6.2904 2.1542
-12.5409 -6.7385 2.1542
-12.2794 -7.1764 2.1542
-12.0014 -7.6034 2.1542
-11.5818 -7.9329 2.1311
-11.2755 -8.3319 2.1311
-10.9543 -8.7182 2.1311
-10.6188 -9.0912 2.1311
-10.2696 -9.4506 2.1311
-9.9074 -9.7956 2.1311
-9.5328 -10.1260 2.1311
-9.1464 -10.4411 2.1311
-8.7489 -10.7407 2.1311
-8.3410 -11.0244 2.1311
-8.1840 -11.6631 2.2012
-7.8594 -12.1008 2.2342
-7.4035 -12.3460 2.2342
-6.9396 -12.5733 2.2342
-6.4684 -12.7824 2.2342
-5.9909 -12.9731 2.2342
-5.5077 -13.1453 2.2342
-5.0195 -13.2990 2.2342
-4.5272 -13.4339 2.2342
-4.0315 -13.5501 2.2342
-3.5331 -13.6476 2.2342
-3.0327 -13.7263 2.2342
-2.5312 -13.7863 2.2342
-2.0292 -13.8277 2.2342
-1.5274 -13.8505 2.2342
-1.0266 -13.8550 2.2342
-0.5273 -13.8412 2.2342
-0.0294 -11.7303 2.1699
0.3834 -11.4832 2.1311
0.7930 -11.4312 2.1311
1.1995 -11.3647 2.1311
1.6022 -11.2838 2.1311
2.0007 -11.1888 2.1311
2.3945 -11.0798 2.1311
2.7832 -10.9572 2.1311
3.1662 -10.8211 2.1311
3.5432 -10.6720 2.1311
3.9102 -10.5006 2.1292
4.2735 -10.3262 2.1292
4.6294 -10.1396 2.1292
4.9778 -9.9411 2.1292
5.3180 -9.7310 2.1292
5.6499 -9.5098 2.1292
5.9731 -9.2776 2.1292
6.2872 -9.0349 2.1292
6.5919 -8.7821 2.1292
6.8870 -8.5194 2.1292
7.1721 -8.2474 2.1292
7.4471 -7.9663 2.1292
7.7115 -7.6765 2.1292
6.7006 -6.2068 1.7911
6.7701 -5.8334 1.7562
6.8368 -5.4752 1.7248
6.9011 -5.1305 1.6966
6.9630 -4.7977 1.6715
7.0231 -4.4754 1.6492
7.0814 -4.1623 1.6296
7.1382 -3.8572 1.6124
7.1938 -3.5591 1.5976
7.2482 -3.2669 1.5850
7.3017 -2.9798 1.5745
7.3543 -2.6970 1.5661
7.4064 -2.4175 1.5597
7.4580 -2.1407 1.5553
7.5092 -1.8658 1.5528
7.5602 -1.5920 1.5521
7.6111 -1.3187 1.5533
7.6621 -1.0451 1.5565
7.7132 -0.7705 1.5615
7.7647 -0.4943 1.5684
7.8166 -0.2156 1.5773
7.8691 0.0663 1.5882
7.9223 0.3521 1.6013
7.9765 0.6428 1.6164
8.0049 0.9361 1.6284
8.0612 1.2383 1.6482
8.1189 1.5481 1.6705
8.1782 1.8668 1.6955
8.2671 2.2029 1.7291
8.3307 2.5443 1.7601
8.3967 2.8987 1.7945
8.7395 3.3738 1.8918
8.8137 3.7723 1.9352
8.8916 4.1904 1.9831
8.9737 4.6308 2.0360
9.0604 5.0966 2.0945
9.0254 5.5136 2.1292
8.8289 5.8399 2.1292
8.6214 6.1598 2.1292
8.4030 6.4728 2.1292
8.1739 6.7787 2.1292
7.9344 7.0770 2.1292
7.6846 7.3674 2.1292
7.4248 7.6496 2.1292
7.1552 7.9232 2.1292
6.9245 8.2457 2.1442
6.6341 8.5031 2.1442
6.3346 8.7509 2.1442
6.0263 8.9888 2.1442
5.7096 9.2164 2.1442
5.3846 9.4336 2.1442
5.0518 9.6399 2.1442
4.7115 9.8351 2.1442
4.3639 10.0189 2.1442
4.0095 10.1910 2.1442
3.6345 10.3113 2.1359
3.2700 10.4623 2.1367
2.8980 10.5956 2.1363
2.5205 10.7145 2.1356
2.1383 10.8206 2.1350
1.7519 10.9136 2.1343
1.3616 10.9933 2.1337
0.9679 11.0588 2.1329
0.5713 11.1102 2.1320
0.1723 11.1478 2.1312
-0.2288 11.1755 2.1311
-0.6316 11.1894 2.1311
-1.0357 11.1891 2.1311
-1.4405 11.1744 2.1311
-1.8457 11.1453 2.1311
-2.2506 11.1017 2.1311
-2.7016 11.2384 2.1687
-3.2056 11.5014 2.2342
-3.6263 11.4105 2.2344
-4.0447 11.3048 2.2346
-4.4603 11.1838 2.2349
-4.8722 11.0474 2.2351
-5.2800 10.8957 2.2354
-5.6832 10.7290 2.2356
-6.0810 10.5472 2.2359
-6.4730 10.3505 2.2361
-6.8584 10.1390 2.2364
-7.2369 9.9129 2.2366
-7.6076 9.6725 2.2369
-7.9694 9.4170 2.2369
-8.3210 9.1463 2.2366
-8.6623 8.8613 2.2361
-8.9934 8.5633 2.2356
-9.3142 8.2528 2.2352
-9.6248 7.9309 2.2350
-9.9238 7.5969 2.2349
-10.2106 7.2513 2.2347
-10.4847 6.8944 2.2346
-10.7455 6.5268 2.2344
-10.9926 6.1489 2.2342
-10.7083 5.4957 2.1311
-10.9176 5.1176 2.1311
-11.1127 4.7312 2.1311
-11.2931 4.3371 2.1311
-11.4587 3.9358 2.1311
-11.6090 3.5279 2.1311
-11.7437 3.1140 2.1311
-11.8626 2.6948 2.1311
-11.9655 2.2708 2.1311
-12.1826 1.8628 2.1542
-12.2535 1.4267 2.1542
-12.3075 0.9879 2.1542
-12.3446 0.5469 2.1542
-12.3647 0.1046 2.1542
-12.3677 -0.3385 2.1542
-12.3536 -0.7815 2.1542
-12.3223 -1.2238 2.1542
-12.2739 -1.6647 2.1542
-12.2085 -2.1035 2.1542
-12.1262 -2.5395 2.1542
-12.0270 -2.9720 2.1542
-11.9112 -3.4002 2.1542
-11.7789 -3.8236 2.1542
-11.6303 -4.2415 2.1542
-11.4658 -4.6531 2.1542
-11.2856 -5.0579 2.1542
-10.9711 -5.3968 2.1311
-10.7627 -5.7818 2.1311
-10.5397 -6.1583 2.1311
-10.3026 -6.5256 2.1311
-10.0518 -6.8832 2.1311
-9.7877 -7.2305 2.1311
-9.5107 -7.5671 2.1311
-9.2213 -7.8924 2.1311
-8.9201 -8.2060 2.1311
-8.6075 -8.5075 2.1311
-8.2841 -8.7964 2.1311
-7.9504 -9.0724 2.1311
-7.8246 -9.6021 2.1921
-7.6054 -10.0477 2.2342
-7.2268 -10.2942 2.2342
-6.8398 -10.5258 2.2342
-6.4451 -10.7422 2.2342
-6.0433 -10.9433 2.2342
-5.6351 -11.1287 2.2342
-5.2210 -11.2983 2.2342
-4.8017 -11.4521 2.2342
-4.3779 -11.5898 2.2342
-3.9502 -11.7114 2.2342
-3.5193 -11.8167 2.2342
-3.0858 -11.9059 2.2342
-2.6503 -11.9788 2.2342
-2.2134 -12.0355 2.2342
-1.7758 -12.0760 2.2342
-1.3381 -12.1003 2.2342
-0.9009 -12.1087 2.2342
-0.4647 -12.1011 2.2342
-0.0302 -10.7220 2.2342
0.3373 -10.1972 2.1311
0.7012 -10.1540 2.1311
1.0625 -10.0978 2.1311
1.4207 -10.0289 2.1311
1.7754 -9.9473 2.1311
2.1261 -9.8533 2.1311
2.4725 -9.7470 2.1311
2.8140 -9.6288 2.1311
3.1503 -9.4987 2.1311
3.4811 -9.3572 2.1311
3.8058 -9.2044 2.1311
4.1206 -9.0324 2.1292
4.4320 -8.8580 2.1292
4.7365 -8.6732 2.1292
5.0336 -8.4782 2.1292
5.3231 -8.2734 2.1292
5.6046 -8.0591 2.1292
5.8778 -7.8355 2.1292
6.1426 -7.6031 2.1292
6.3986 -7.3620 2.1292
6.6455 -7.1128 2.1292
6.8833 -6.8556 2.1292
6.7000 -6.2096 2.0060
6.7696 -5.8360 1.9664
6.8364 -5.4776 1.9309
6.9006 -5.1327 1.8990
6.9626 -4.7998 1.8705
7.0227 -4.4774 1.8452
7.0811 -4.1641 1.8229
7.1379 -3.8589 1.8034
7.1935 -3.5607 1.7865
7.2479 -3.2684 1.7721
7.3014 -2.9813 1.7602
7.3541 -2.6983 1.7505
7.4062 -2.4188 1.7431
7.4578 -2.1419 1.7379
7.5090 -1.8668 1.7349
7.5600 -1.5930 1.7340
7.6109 -1.3196 1.7352
7.6619 -1.0459 1.7385
7.7131 -0.7713 1.7440
7.7645 -0.4949 1.7516
7.8165 -0.2162 1.7614
7.8690 0.0658 1.7735
7.9222 0.3517 1.7880
7.9764 0.6425 1.8049
8.0048 0.9359 1.8182
8.0611 1.2381 1.8403
8.1189 1.5480 1.8651
8.1782 1.8668 1.8930
8.2671 2.2030 1.9306
8.3307 2.5445 1.9653
8.3968 2.8991 2.0037
8.7396 3.3743 2.1125
8.6840 3.7174 2.1292
8.5487 4.0296 2.1292
8.4028 4.3371 2.1292
8.2465 4.6398 2.1292
8.0799 4.9372 2.1292
7.9032 5.2290 2.1292
7.7166 5.5149 2.1292
7.5203 5.7945 2.1292
7.3143 6.0677 2.1292
7.0990 6.3339 2.1292
6.9084 6.6255 2.1397
6.6879 6.8928 2.1442
6.4440 7.1384 2.1442
6.1915 7.3758 2.1442
5.9308 7.6048 2.1442
5.6619 7.8251 2.1442
5.3853 8.0364 2.1442
5.1011 8.2385 2.1442
4.8097 8.4310 2.1442
4.4849 8.5632 2.1316
4.1830 8.7376 2.1323
3.8746 8.9019 2.1330
3.5600 9.0558 2.1337
3.2396 9.1989 2.1344
2.9136 9.3311 2.1350
2.5824 9.4522 2.1357
2.2464 9.5618 2.1363
1.9059 9.6594 2.1368
1.5606 9.7403 2.1362
1.2120 9.8093 2.1357
0.8605 9.8662 2.1351
0.5065 9.9100 2.1344
0.1505 9.9414 2.1336
-0.2070 9.9603 2.1329
-0.5657 9.9667 2.1322
-0.9319 10.0335 2.1472
-1.2961 10.0290 2.1497
-1.7218 10.3768 2.2306
-2.1017 10.3501 2.2343
-2.4781 10.2939 2.2345
-2.8531 10.2242 2.2348
-3.2263 10.1409 2.2350
-3.5972 10.0439 2.2352
-3.9652 9.9334 2.2355
-4.3299 9.8094 2.2357
-4.6907 9.6719 2.2360
-5.0471 9.5211 2.2362
-5.3986 9.3570 2.2365
-5.7447 9.1798 2.2367
-6.0848 8.9896 2.2369
-6.4186 8.7867 2.2372
-6.7446 8.5701 2.2372
-7.0623 8.3404 2.2369
-7.3720 8.0986 2.2367
-7.6730 7.8451 2.2364
-7.9650 7.5800 2.2362
-8.2474 7.3038 2.2359
-8.5197 7.0167 2.2356
-8.7815 6.7191 2.2353
-9.0325 6.4114 2.2350
-9.2719 6.0939 2.2347
-9.4995 5.7671 2.2343
-9.7161 5.4321 2.2342
-9.4630 4.8542 2.1311
-9.6459 4.5193 2.1311
-9.8163 4.1772 2.1311
-9.9739 3.8284 2.1311
-10.1183 3.4735 2.1311
-10.2493 3.1129 2.1311
-10.3666 2.7473 2.1311
-10.4700 2.3770 2.1311
-10.5594 2.0026 2.1311
-10.6345 1.6248 2.1311
-10.8110 1.2576 2.1542
-10.8575 0.8705 2.1542
-10.8893 0.4816 2.1542
-10.9062 0.0915 2.1542
-10.9081 -0.2992 2.1542
-10.8950 -0.6897 2.1542
-10.8670 -1.0797 2.1542
-10.8240 -1.4683 2.1542
-10.7661 -1.8551 2.1542
-10.6934 -2.2395 2.1542
-10.4924 -2.5926 2.1311
-10.3915 -2.9662 2.1311
-10.2765 -3.3356 2.1311
-10.1473 -3.7001 2.1311
-10.0043 -4.0594 2.1311
-9.8478 -4.4128 2.1311
-9.6778 -4.7597 2.1311
-9.4949 -5.0997 2.1311
-9.2992 -5.4322 2.1311
-9.0910 -5.7568 2.1311
-8.8708 -6.0729 2.1311
-8.6389 -6.3801 2.1311
-8.3957 -6.6780 2.1311
-8.1416 -6.9661 2.1311
-7.8770 -7.2441 2.1311
-7.6024 -7.5115 2.1311
-7.5237 -7.9860 2.1910
-7.3647 -8.4008 2.2342
-7.0481 -8.6457 2.2342
-6.7230 -8.8782 2.2342
-6.3899 -9.0979 2.2342
-6.0492 -9.3046 2.2342
-5.7017 -9.4981 2.2342
-5.3477 -9.6781 2.2342
-4.9878 -9.8445 2.2342
-4.6227 -9.9970 2.2342
-4.2529 -10.1356 2.2342
-3.8788 -10.2601 2.2342
-3.5011 -10.3705 2.2342
-3.1204 -10.4666 2.2342
-2.7372 -10.5484 2.2342
-2.3520 -10.6160 2.2342
-1.9654 -10.6692 2.2342
-1.5779 -10.7081 2.2342
-1.1901 -10.7328 2.2342
-0.8026 -10.7432 2.2342
-0.4158 -10.7396 2.2342
-0.0302 -9.6307 2.2342
0.3146 -9.6047 2.2342
0.6272 -9.1248 2.1311
0.9521 -9.0765 2.1311
1.2744 -9.0166 2.1311
1.5936 -8.9454 2.1311
1.9094 -8.8629 2.1311
2.2215 -8.7694 2.1311
2.5293 -8.6650 2.1311
2.8326 -8.5499 2.1311
3.1310 -8.4245 2.1311
3.4241 -8.2887 2.1311
3.7117 -8.1430 2.1311
3.9934 -7.9876 2.1311
4.2650 -7.8156 2.1292
4.5337 -7.6415 2.1292
4.7956 -7.4585 2.1292
5.0504 -7.2668 2.1292
5.2979 -7.0667 2.1292
5.5377 -6.8584 2.1292
5.7697 -6.6423 2.1292
5.9937 -6.4187 2.1292
6.2093 -6.1878 2.1292
6.4165 -5.9500 2.1292
6.6149 -5.7055 2.1292
6.8045 -5.4548 2.1292
6.9002 -5.1350 2.1034
6.9622 -4.8020 2.0715
7.0223 -4.4794 2.0432
7.0807 -4.1660 2.0182
7.1376 -3.8607 1.9963
7.1932 -3.5623 1.9773
7.2476 -3.2700 1.9611
7.3011 -2.9827 1.9476
7.3538 -2.6997 1.9368
7.4059 -2.4200 1.9284
7.4575 -2.1430 1.9224
7.5088 -1.8679 1.9189
7.5598 -1.5940 1.9177
7.6108 -1.3205 1.9189
7.6617 -1.0467 1.9224
7.7129 -0.7720 1.9283
7.7644 -0.4956 1.9366
7.8163 -0.2168 1.9474
7.8689 0.0653 1.9607
7.9222 0.3513 1.9766
7.9763 0.6422 1.9952
8.0048 0.9356 2.0100
8.0611 1.2379 2.0343
8.1188 1.5480 2.0618
8.1782 1.8668 2.0926
8.2480 2.1981 2.1292
8.1646 2.4941 2.1292
8.0712 2.7871 2.1292
7.9679 3.0768 2.1292
7.8548 3.3630 2.1292
7.7320 3.6453 2.1292
7.5996 3.9234 2.1292
7.4577 4.1969 2.1292
7.3066 4.4657 2.1292
7.1462 4.7293 2.1292
6.9769 4.9875 2.1292
6.7987 5.2401 2.1292
6.6584 5.5252 2.1442
6.4617 5.7671 2.1442
6.2566 6.0024 2.1442
6.0433 6.2308 2.1442
5.8222 6.4520 2.1442
5.5932 6.6658 2.1442
5.3241 6.8299 2.1311
5.0820 7.0268 2.1311
4.8328 7.2155 2.1311
4.5769 7.3958 2.1311
4.3146 7.5674 2.1311
4.0461 7.7301 2.1311
3.7717 7.8837 2.1311
3.4926 8.0299 2.1316
3.2082 8.1672 2.1323
2.9186 8.2949 2.1330
2.6242 8.4125 2.1337
2.3251 8.5200 2.1343
2.0218 8.6168 2.1348
1.7146 8.7032 2.1354
1.4038 8.7789 2.1359
1.0899 8.8436 2.1364
0.7732 8.8968 2.1368
0.4539 8.9354 2.1363
0.1329 8.9620 2.1356
-0.1894 8.9776 2.1350
-0.5221 9.1465 2.1736
-0.8758 9.3965 2.2342
-1.2153 9.3800 2.2344
-1.5548 9.3517 2.2346
-1.8938 9.3112 2.2348
-2.2319 9.2584 2.2350
-2.5687 9.1934 2.2352
-2.9036 9.1162 2.2354
-3.2362 9.0269 2.2357
-3.5662 8.9255 2.2359
-3.8929 8.8119 2.2361
-4.2161 8.6864 2.2364
-4.5352 8.5490 2.2366
-4.8497 8.3997 2.2369
-5.1593 8.2387 2.2371
-5.4630 8.0658 2.2372
-5.7600 7.8803 2.2370
-6.0505 7.6836 2.2368
-6.3341 7.4761 2.2366
-6.6103 7.2578 2.2364
-6.8788 7.0292 2.2361
-7.1390 6.7903 2.2359
-7.3906 6.5416 2.2357
-7.6331 6.2833 2.2354
-7.8662 6.0157 2.2352
-8.0896 5.7392 2.2349
-8.3027 5.4542 2.2347
-8.5053 5.1610 2.2344
-8.6973 4.8601 2.2342
-8.4693 4.3423 2.1311
-8.6316 4.0420 2.1311
-8.7827 3.7354 2.1311
-8.9223 3.4230 2.1311
-9.0502 3.1052 2.1311
-9.1661 2.7824 2.1311
-9.2699 2.4552 2.1311
-9.3613 2.1239 2.1311
-9.4402 1.7892 2.1311
-9.5063 1.4514 2.1311
-9.5597 1.1111 2.1311
-9.6001 0.7688 2.1311
-9.6275 0.4250 2.1311
-9.6418 0.0802 2.1311
-9.6430 -0.2650 2.1311
-9.6310 -0.6102 2.1311
-9.6059 -0.9547 2.1311
-9.5677 -1.2982 2.1311
-9.5164 -1.6399 2.1311
-9.4521 -1.9795 2.1311
-9.3749 -2.3164 2.1311
-6.9473 -1.9829 1.5946
-6.8195 -2.2133 1.5827
-9.0673 -3.3059 2.1311
-8.9399 -3.6269 2.1311
-8.8005 -3.9428 2.1311
-8.6492 -4.2530 2.1311
-8.4864 -4.5570 2.1311
-8.3121 -4.8545 2.1311
-8.1269 -5.1450 2.1311
-7.9308 -5.4280 2.1311
-7.7244 -5.7031 2.1311
-7.5079 -5.9701 2.1311
-7.2816 -6.2283 2.1311
-7.2829 -6.6955 2.2028
-7.1303 -7.0426 2.2342
-6.8649 -7.2841 2.2342
-6.5908 -7.5151 2.2342
-6.3086 -7.7354 2.2342
-6.0188 -7.9447 2.2342
-5.7216 -8.1427 2.2342
-5.4178 -8.3292 2.2342
-5.1076 -8.5039 2.2342
-4.7916 -8.6667 2.2342
-4.4702 -8.8174 2.2342
-4.1440 -8.9558 2.2342
-3.8135 -9.0818 2.2342
-3.4791 -9.1953 2.2342
-3.1413 -9.2961 2.2342
-2.8006 -9.3843 2.2342
-2.4576 -9.4597 2.2342
-2.1126 -9.5224 2.2342
-1.7663 -9.5723 2.2342
-1.4190 -9.6094 2.2342
-1.0713 -9.6337 2.2342
-0.7236 -9.6453 2.2342
-0.3764 -9.6443 2.2342
-0.0301 -8.7326 2.2342
0.2826 -8.7106 2.2342
0.5784 -8.4549 2.1769
0.8713 -8.3319 2.1562
1.1537 -8.1821 2.1311
1.4437 -8.1190 2.1311
1.7306 -8.0457 2.1311
2.0143 -7.9623 2.1311
2.2942 -7.8691 2.1311
2.5701 -7.7661 2.1311
2.8417 -7.6535 2.1311
3.1086 -7.5316 2.1311
3.3705 -7.4006 2.1311
3.6271 -7.2607 2.1311
3.8781 -7.1120 2.1311
4.1234 -6.9549 2.1311
4.3625 -6.7895 2.1311
4.5911 -6.6102 2.1292
4.8170 -6.4292 2.1292
5.0360 -6.2408 2.1292
5.2480 -6.0451 2.1292
5.4526 -5.8425 2.1292
5.6498 -5.6333 2.1292
5.8392 -5.4176 2.1292
6.0208 -5.1958 2.1292
6.1942 -4.9682 2.1292
6.3595 -4.7350 2.1292
6.5163 -4.4967 2.1292
6.6646 -4.2533 2.1292
6.8042 -4.0053 2.1292
6.9350 -3.7530 2.1292
7.0568 -3.4966 2.1292
7.1697 -3.2365 2.1292
7.2734 -2.9729 2.1292
7.3536 -2.7010 2.1251
7.4057 -2.4213 2.1157
7.4573 -2.1442 2.1090
7.5086 -1.8690 2.1049
7.5596 -1.5950 2.1035
7.6106 -1.3214 2.1046
7.6616 -1.0476 2.1084
7.7128 -0.7728 2.1147
7.7643 -0.4963 2.1238
7.7932 -0.2167 2.1292
7.7927 0.0641 2.1292
7.7826 0.3447 2.1292
7.7629 0.6246 2.1292
7.7337 0.9037 2.1292
7.6950 1.1816 2.1292
7.6468 1.4579 2.1292
7.5892 1.7324 2.1292
7.5224 2.0048 2.1292
7.4462 2.2748 2.1292
7.3609 2.5421 2.1292
7.2665 2.8064 2.1292
7.1631 3.0674 2.1292
7.0508 3.3248 2.1292
6.9297 3.5783 2.1292
6.8000 3.8276 2.1292
6.6617 4.0726 2.1292
6.5151 4.3127 2.1292
6.4050 4.5800 2.1442
6.2409 4.8115 2.1442
6.0688 5.0375 2.1442
5.8889 5.2576 2.1442
5.6666 5.4383 2.1311
5.4729 5.6447 2.1311
5.2720 5.8445 2.1311
5.0641 6.0376 2.1311
4.8494 6.2235 2.1311
4.6281 6.4022 2.1311
4.4006 6.5734 2.1311
4.1669 6.7368 2.1311
3.9274 6.8922 2.1311
3.6824 7.0395 2.1311
3.4320 7.1784 2.1311
3.1766 7.3087 2.1311
2.9163 7.4302 2.1311
2.6521 7.5440 2.1315
2.3838 7.6495 2.1321
2.1114 7.7458 2.1326
1.8353 7.8326 2.1332
1.5558 7.9098 2.1337
1.2731 7.9771 2.1342
0.9877 8.0345 2.1347
0.6998 8.0819 2.1352
0.4099 8.1192 2.1357
0.1217 8.3860 2.1990
-0.1828 8.5357 2.2342
-0.4903 8.5410 2.2344
-0.7983 8.5355 2.2345
-1.1066 8.5191 2.2347
-1.4147 8.4916 2.2349
-1.7222 8.4531 2.2351
-2.0288 8.4036 2.2353
-2.3340 8.3430 2.2356
-2.6374 8.2714 2.2358
-2.9387 8.1887 2.2360
-3.2374 8.0951 2.2362
-3.5331 7.9905 2.2364
-3.8254 7.8751 2.2367
-4.1138 7.7489 2.2369
-4.3981 7.6121 2.2371
-4.6775 7.4644 2.2373
-4.9512 7.3053 2.2371
-5.2192 7.1360 2.2368
-5.4813 6.9566 2.2366
-5.7371 6.7675 2.2364
-5.9861 6.5688 2.2362
-6.2280 6.3607 2.2360
-6.4625 6.1436 2.2358
-6.6891 5.9176 2.2356
-6.9075 5.6830 2.2353
-7.1173 5.4402 2.2351
-7.3183 5.1894 2.2349
-7.5100 4.9310 2.2347
-7.6923 4.6653 2.2345
-7.8648 4.3927 2.2343
-7.8631 4.0294 2.1884
-7.8029 3.6521 2.1311
-7.9385 3.3746 2.1311
-8.0637 3.0919 2.1311
-8.1783 2.8045 2.1311
-8.2821 2.5126 2.1311
-8.3750 2.2168 2.1311
-8.4568 1.9175 2.1311
-8.5273 1.6150 2.1311
-8.5863 1.3099 2.1311
-8.6339 1.0026 2.1311
-8.6698 0.6935 2.1311
-8.6940 0.3830 2.1311
-8.7065 0.0718 2.1311
-8.7072 -0.2398 2.1311
-8.6961 -0.5514 2.1311
-8.6732 -0.8624 2.1311
-8.6385 -1.1723 2.1311
-8.5921 -1.4808 2.1311
-8.5340 -1.7873 2.1311
-8.4644 -2.0914 2.1311
-6.9322 -1.9784 1.7622
-6.8117 -2.2105 1.7509
-8.1872 -2.9846 2.1311
-8.0725 -3.2745 2.1311
-7.9470 -3.5597 2.1311
-7.8108 -3.8399 2.1311
-7.6642 -4.1146 2.1311
-7.5074 -4.3835 2.1311
-7.3406 -4.6461 2.1311
-7.1642 -4.9020 2.1311
-7.0079 -5.1727 2.1401
-7.0834 -5.6309 2.2253
-6.8980 -5.8984 2.2342
-6.6756 -6.1351 2.2342
-6.4446 -6.3631 2.2342
-6.2055 -6.5820 2.2342
-5.9586 -6.7916 2.2342
-5.7044 -6.9916 2.2342
-5.4431 -7.1817 2.2342
-5.1753 -7.3617 2.2342
-4.9013 -7.5314 2.2342
-4.6215 -7.6905 2.2342
-4.3364 -7.8389 2.2342
-4.0464 -7.9765 2.2342
-3.7520 -8.1030 2.2342
-3.4535 -8.2183 2.2342
-3.1514 -8.3224 2.2342
-2.8462 -8.4152 2.2342
-2.5383 -8.4965 2.2342
-2.2281 -8.5663 2.2342
-1.9161 -8.6246 2.2342
-1.6027 -8.6714 2.2342
-1.2884 -8.7066 2.2342
-0.9735 -8.7303 2.2342
-0.6586 -8.7425 2.2342
-0.3440 -8.7432 2.2342
-0.0301 -7.9798 2.2342
0.2557 -7.9610 2.2342
0.5401 -7.9320 2.2342
0.7848 -7.5286 2.1311
1.0524 -7.4816 2.1311
1.3178 -7.4251 2.1311
1.5805 -7.3593 2.1311
1.8402 -7.2842 2.1311
2.0966 -7.2000 2.1311
2.3494 -7.1069 2.1311
2.5983 -7.0051 2.1311
2.8430 -6.8946 2.1311
3.0832 -6.7757 2.1311
3.3187 -6.6486 2.1311
3.5491 -6.5135 2.1311
3.7742 -6.3705 2.1311
3.9938 -6.2200 2.1311
4.2076 -6.0620 2.1311
4.4154 -5.8969 2.1311
4.6128 -5.7198 2.1292
4.8077 -5.5412 2.1292
4.9960 -5.3562 2.1292
5.1773 -5.1651 2.1292
5.3517 -4.9680 2.1292
5.5188 -4.7652 2.1292
5.6786 -4.5570 2.1292
5.8308 -4.3437 2.1292
5.9753 -4.1255 2.1292
6.1120 -3.9027 2.1292
6.2407 -3.6755 2.1292
6.3614 -3.4443 2.1292
6.4738 -3.2094 2.1292
6.5780 -2.9709 2.1292
6.6737 -2.7293 2.1292
6.7610 -2.4847 2.1292
6.8397 -2.2375 2.1292
6.9098 -1.9879 2.1292
6.9712 -1.7363 2.1292
7.0239 -1.4829 2.1292
7.0678 -1.2281 2.1292
7.1029 -0.9720 2.1292
7.1292 -0.7150 2.1292
7.1466 -0.4575 2.1292
7.1552 -0.1995 2.1292
7.1549 0.0584 2.1292
7.1458 0.3161 2.1292
7.1279 0.5732 2.1292
7.1012 0.8296 2.1292
7.0657 1.0848 2.1292
7.0215 1.3386 2.1292
6.9686 1.5908 2.1292
6.9071 1.8410 2.1292
6.8371 2.0890 2.1292
6.7587 2.3344 2.1292
6.6718 2.5771 2.1292
6.5767 2.8168 2.1292
6.4733 3.0531 2.1292
6.3619 3.2858 2.1292
6.2865 3.5394 2.1442
6.1207 3.7428 2.1311
5.9856 3.9633 2.1311
5.8430 4.1793 2.1311
5.6929 4.3903 2.1311
5.5355 4.5962 2.1311
5.3709 4.7968 2.1311
5.1995 4.9917 2.1311
5.0212 5.1807 2.1311
4.8364 5.3637 2.1311
4.6451 5.5404 2.1311
4.4477 5.7105 2.1311
4.2442 5.8739 2.1311
4.0350 6.0303 2.1311
2.7404 4.4329 1.5287
2.5819 4.5335 1.5283
3.3750 6.4558 2.1311
3.1450 6.5824 2.1311
2.9104 6.7011 2.1311
2.6714 6.8117 2.1311
2.4284 6.9140 2.1311
2.1816 7.0079 2.1311
1.9314 7.0936 2.1312
1.6783 7.1719 2.1317
1.4220 7.2414 2.1322
1.1631 7.3019 2.1327
0.9135 7.4500 2.1612
0.6425 7.4474 2.1486
0.3901 7.7768 2.2342
0.1107 7.8001 2.2343
-0.1699 7.8139 2.2345
-0.4513 7.8177 2.2347
-0.7332 7.8115 2.2349
-1.0152 7.7951 2.2350
-1.2969 7.7687 2.2352
-1.5780 7.7322 2.2354
-1.8581 7.6855 2.2356
-2.1369 7.6288 2.2358
-2.4140 7.5620 2.2360
-2.6890 7.4852 2.2362
-2.9615 7.3983 2.2364
-3.2313 7.3015 2.2366
-3.4978 7.1949 2.2368
-3.7608 7.0784 2.2370
-4.0198 6.9523 2.2373
-4.2738 6.8155 2.2371
-4.5230 6.6692 2.2369
-4.7670 6.5136 2.2368
-5.0056 6.3490 2.2366
-5.2383 6.1755 2.2364
-5.4648 5.9933 2.2362
-5.6848 5.8027 2.2360
-5.8979 5.6038 2.2358
-6.1038 5.3969 2.2356
-6.3022 5.1823 2.2354
-6.4928 4.9603 2.2352
-6.6753 4.7310 2.2350
-6.8494 4.4949 2.2348
-7.0147 4.2522 2.2346
-7.1712 4.0032 2.2344
-7.3184 3.7484 2.2343
-7.3179 3.4233 2.1927
-7.2353 3.0741 2.1311
-7.3487 2.8163 2.1311
-7.4524 2.5541 2.1311
-7.5463 2.2881 2.1311
-7.6303 2.0185 2.1311
-7.7042 1.7457 2.1311
-7.7678 1.4702 2.1311
-7.8211 1.1922 2.1311
-7.8639 0.9123 2.1311
-7.8962 0.6308 2.1311
-7.9179 0.3482 2.1311
-7.9289 0.0648 2.1311
-7.9292 -0.2189 2.1311
-7.9189 -0.5025 2.1311
-7.8978 -0.7856 2.1311
-7.8661 -1.0677 2.1311
-7.8238 -1.3485 2.1311
-7.7709 -1.6275 2.1311
-7.7076 -1.9043 2.1311
-6.9171 -1.9740 1.9310
-6.8039 -2.2077 1.9206
-7.4556 -2.7175 2.1311
-7.3514 -2.9815 2.1311
-7.2374 -3.2413 2.1311
-7.1137 -3.4965 2.1311
-6.9805 -3.7468 2.1311
-6.8381 -3.9917 2.1311
-6.8478 -4.3331 2.1825
-6.8421 -4.6803 2.2342
-6.6652 -4.9183 2.2342
-6.4796 -5.1493 2.2342
-6.2856 -5.3730 2.2342
-6.0835 -5.5891 2.2342
-5.8737 -5.7973 2.2342
-5.6564 -5.9973 2.2342
-5.4320 -6.1889 2.2342
-5.2009 -6.3718 2.2342
-4.9634 -6.5458 2.2342
-4.7198 -6.7106 2.2342
-4.4706 -6.8661 2.2342
-4.2161 -7.0120 2.2342
-3.9567 -7.1483 2.2342
-3.6927 -7.2746 2.2342
-3.4247 -7.3910 2.2342
-3.1529 -7.4973 2.2342
-2.8777 -7.5933 2.2342
-2.5997 -7.6790 2.2342
-2.3190 -7.7544 2.2342
