ply
format ascii 1.0
element vertex 2053
property float32 x
property float32 y
property float32 z
end_header
-22.8915 31.5068 -5.0743
-27.2231 34.7718 -5.7538
-26.6664 31.6507 -5.3923
-26.3309 29.0674 -5.1099
-28.6276 29.4085 -5.3471
-17.7369 16.9579 -3.1970
-17.6122 15.6680 -3.0710
-17.5014 14.4781 -2.9591
-17.4026 13.3739 -2.8592
-17.3142 12.3433 -2.7700
-17.2351 11.3765 -2.6902
-17.1643 10.4651 -2.6187
-17.1009 9.6019 -2.5547
-17.0441 8.7807 -2.4974
-17.2953 8.1383 -2.4897
-20.3932 8.7162 -2.8887
-24.7153 9.5294 -3.4501
-25.1813 8.6843 -3.4693
-25.1333 7.6700 -3.4224
-25.0917 6.6828 -3.3818
-25.0561 5.7186 -3.3470
-25.0262 4.7737 -3.3179
-25.0019 3.8447 -3.2942
-24.9829 2.9282 -3.2756
-29.7290 -17.4025 -4.4838
-38.2868 -30.5333 -6.3737
-35.5054 -30.4631 -6.0888
-34.0785 -31.4316 -6.0337
-34.4987 -34.1910 -6.3213
-35.0478 -37.3227 -6.6631
-38.8268 -44.4415 -7.6800
-36.0807 -44.4206 -7.4475
-33.9265 -44.9759 -7.3315
-29.4647 -42.1253 -6.6899
-27.8155 -42.9732 -6.6615
-24.9616 -41.7793 -6.3332
-20.4066 -37.1199 -5.5122
-18.2374 -36.1939 -5.2740
-15.3337 -33.3601 -4.7777
-13.8277 -33.1727 -4.6766
-12.5258 -33.3753 -4.6387
-13.6832 -40.8615 -5.6073
-10.5796 -35.8149 -4.8594
-11.1993 -43.6188 -5.8599
-8.5278 -38.9722 -5.1911
-9.1328 -50.3262 -6.6555
-9.2590 -64.0279 -8.4181
5.9320 -54.8605 -5.9200
5.9996 -41.4884 -4.4974
6.7969 -37.4547 -4.0840
6.2766 -28.6844 -3.1503
6.6888 -26.0515 -2.8857
5.5848 -18.9062 -2.1151
5.9142 -17.6614 -1.9983
6.1424 -16.3665 -1.8756
6.3443 -15.2201 -1.7692
6.5248 -14.1956 -1.6763
6.6875 -13.2721 -1.5946
6.6857 -12.1615 -1.4891
6.9704 -11.6666 -1.4583
7.0947 -10.9609 -1.4010
7.2098 -10.3078 -1.3498
7.3169 -9.6999 -1.3038
7.4171 -9.1315 -1.2624
7.5112 -8.5973 -1.2251
7.6000 -8.0933 -1.1915
6.7326 -6.6725 -1.0173
6.5851 -6.0737 -0.9614
6.5851 -5.6499 -0.9312
6.5715 -5.2407 -0.9021
6.7103 -4.9680 -0.8961
6.9896 -4.7963 -0.9099
7.2544 -4.6039 -0.9222
7.4181 -4.3423 -0.9227
2.4478 -1.3173 -0.2984
7.9347 -3.9094 -0.9495
7.9346 -3.5613 -0.9337
7.9374 -3.2255 -0.9198
8.0049 -2.9227 -0.9149
8.0049 -2.6010 -0.9036
7.9908 -2.2828 -0.8923
7.9344 -1.9616 -0.8775
7.8992 -1.6544 -0.8666
7.9907 -1.3762 -0.8706
7.9946 -1.0830 -0.8663
8.0046 -0.7930 -0.8638
7.8920 -0.4966 -0.8492
7.9342 -0.2138 -0.8524
7.9341 0.0711 -0.8521
7.9341 0.3562 -0.8530
7.4199 0.6006 -0.7995
7.2693 0.8521 -0.7861
6.9673 1.0714 -0.7571
6.6851 1.2752 -0.7310
6.5707 1.4997 -0.7239
6.5840 1.7536 -0.7319
6.5840 2.0093 -0.7395
6.5840 2.2707 -0.7482
6.4738 2.4961 -0.7454
6.7124 2.8689 -0.7842
7.4592 3.5100 -0.8857
8.2915 4.2716 -1.0021
8.2914 4.6555 -1.0216
8.3954 5.1188 -1.0565
8.3954 5.5416 -1.0808
8.3422 5.9472 -1.1008
8.2911 6.3718 -1.1236
8.2911 6.8589 -1.1562
8.2910 7.3758 -1.1924
8.4076 8.0384 -1.2499
8.3949 8.6240 -1.2933
8.2907 9.1525 -1.3271
8.2906 9.8404 -1.3828
8.4072 10.7385 -1.4656
8.3342 11.4710 -1.5238
8.2903 12.3172 -1.5956
7.9972 12.8551 -1.6271
8.6566 15.0976 -1.8704
8.5398 16.2165 -1.9697
8.6436 17.9485 -2.1410
8.5393 19.4925 -2.2872
8.5390 21.5669 -2.4930
8.5397 24.0581 -2.7438
8.5393 27.1066 -3.0545
8.5546 30.9967 -3.4560
8.5370 35.9138 -3.9676
8.3301 41.6336 -4.5635
7.3253 44.9437 -4.8943
6.7222 53.2113 -5.7646
6.2756 69.7277 -7.5246
4.1597 77.1650 -8.3057
1.3248 73.7920 -7.9324
-1.3189 73.4572 -7.8964
-3.9267 72.8386 -7.8400
-6.8388 75.9841 -8.1997
-9.0952 71.9944 -7.7993
-11.6727 71.6157 -7.7986
-9.1606 45.7842 -5.0182
-18.2806 76.9028 -8.4954
-12.2091 44.2378 -4.9322
-13.0638 41.4685 -4.6726
-13.9378 39.2652 -4.4778
-14.6353 36.9640 -4.2725
-6.7349 15.3735 -1.8037
-15.3593 31.8936 -3.8042
-16.3498 31.0473 -3.7708
-17.5546 30.6162 -3.7925
-18.1214 29.1290 -3.6865
-21.2975 31.6424 -4.0987
-22.7926 31.3708 -4.1668
-27.3668 34.9555 -4.7703
-26.9087 31.9384 -4.4874
-26.8201 29.6076 -4.2925
-17.1952 17.6643 -2.6487
-17.0876 16.3372 -2.5400
-16.9920 15.1163 -2.4435
-16.9068 13.9863 -2.3574
-16.8306 12.9343 -2.2805
-16.7623 11.9499 -2.2115
-16.7010 11.0241 -2.1498
-16.6461 10.1492 -2.0944
-16.5968 9.3190 -2.0447
-16.5527 8.5276 -2.0001
-16.5131 7.7703 -1.9603
-17.5495 7.5008 -2.0500
-20.7077 7.9843 -2.3838
-24.4787 8.4421 -2.7811
-24.4412 7.4589 -2.7445
-24.4087 6.5009 -2.7128
-24.3809 5.5645 -2.6857
-24.3575 4.6462 -2.6629
-24.3385 3.7427 -2.6444
-24.3238 2.8510 -2.6299
-75.1448 -37.0232 -8.9910
-75.4767 -40.6166 -9.1991
-29.8185 -17.4548 -3.7082
-79.5847 -50.5070 -10.1159
-38.8821 -31.0079 -5.3369
-37.2581 -31.9668 -5.2681
-36.8133 -33.9539 -5.3741
-32.5901 -32.2993 -4.9236
-31.3792 -33.4159 -4.9188
-32.1335 -36.7802 -5.2406
-35.9228 -44.2261 -6.1136
-34.1865 -45.3205 -6.0911
-30.2995 -43.3187 -5.6720
-27.8424 -43.0148 -5.4977
-24.8199 -41.5419 -5.1921
-20.7034 -37.6597 -4.6109
-18.1961 -36.1119 -4.3385
-14.9823 -32.5956 -3.8489
-14.2517 -34.1897 -3.9740
-12.7254 -33.9070 -3.8855
-12.3907 -37.0016 -4.1864
-11.6385 -39.3993 -4.4075
-9.7592 -38.0097 -4.2101
-8.3859 -38.3236 -4.2088
-9.5696 -52.7332 -5.7498
-9.2373 -63.8773 -6.9243
-10.4396 -96.5466 -10.4182
6.7942 -94.4563 -8.0075
5.9320 -54.8605 -4.6659
6.0087 -41.5516 -3.5500
6.8035 -37.4907 -3.2219
6.2766 -28.6844 -2.4829
6.6888 -26.0515 -2.2744
6.9872 -23.6537 -2.0856
5.9142 -17.6613 -1.5750
6.1424 -16.3665 -1.4783
6.3443 -15.2201 -1.3944
6.3821 -13.8849 -1.2923
6.6125 -13.1231 -1.2427
6.7004 -12.1880 -1.1763
6.9704 -11.6666 -1.1494
7.0947 -10.9609 -1.1043
7.2098 -10.3077 -1.0639
7.2326 -9.5882 -1.0158
7.3319 -9.0267 -0.9836
7.4247 -8.4983 -0.9545
7.6000 -8.0933 -0.9391
6.7326 -6.6725 -0.8018
6.5851 -6.0736 -0.7578
6.5851 -5.6499 -0.7340
6.5715 -5.2406 -0.7111
6.7103 -4.9680 -0.7064
6.9897 -4.7963 -0.7172
7.2544 -4.6039 -0.7270
7.4181 -4.3423 -0.7273
2.4474 -1.3170 -0.2352
7.9347 -3.9093 -0.7485
7.9346 -3.5613 -0.7360
7.9384 -3.2258 -0.7251
7.9909 -2.9176 -0.7199
7.9909 -2.5965 -0.7111
7.9908 -2.2828 -0.7034
7.9344 -1.9615 -0.6918
7.8992 -1.6544 -0.6831
7.9907 -1.3762 -0.6863
7.9907 -1.0825 -0.6826
7.9906 -0.7916 -0.6797
7.8920 -0.4966 -0.6694
7.9342 -0.2138 -0.6720
7.9341 0.0712 -0.6718
7.9341 0.3563 -0.6724
7.4199 0.6007 -0.6303
7.2693 0.8521 -0.6197
6.9673 1.0714 -0.5969
6.6851 1.2752 -0.5763
6.5707 1.4997 -0.5707
6.5840 1.7536 -0.5770
6.5840 2.0093 -0.5830
6.5840 2.2707 -0.5899
6.4738 2.4961 -0.5877
6.7124 2.8690 -0.6183
7.4596 3.5102 -0.6983
8.2396 4.2449 -0.7851
8.2325 4.6225 -0.7998
8.2572 5.0345 -0.8192
8.2849 5.4687 -0.8410
8.2978 5.9156 -0.8633
8.2911 6.3718 -0.8859
8.2911 6.8589 -0.9116
8.2910 7.3758 -0.9402
8.3413 7.9750 -0.9778
8.3949 8.6240 -1.0197
8.2907 9.1525 -1.0464
8.2906 9.8404 -1.0903
8.4072 10.7385 -1.1556
8.3342 11.4710 -1.2015
8.2903 12.3172 -1.2581
7.9972 12.8551 -1.2829
8.6566 15.0977 -1.4748
8.5398 16.2166 -1.5532
8.6562 17.9747 -1.6907
8.5393 19.4926 -1.8035
8.5390 21.5670 -1.9658
8.5397 24.0581 -2.1635
8.5393 27.1066 -2.4085
8.5387 30.9393 -2.7201
8.5370 35.9138 -3.1285
8.3300 41.6336 -3.5984
7.3253 44.9437 -3.8593
7.3418 58.1165 -4.9646
6.2767 69.7401 -5.9344
4.1273 76.5625 -6.4982
1.3551 75.4798 -6.3980
-1.3441 74.8632 -6.3457
-3.9152 72.6253 -6.1639
-6.8024 75.5793 -6.4312
-8.9458 70.8123 -6.0489
-12.8293 78.7115 -6.7586
-9.7736 48.8479 -4.2217
-11.1108 46.7410 -4.0715
-12.8621 46.6042 -4.0971
-12.9054 40.9659 -3.6398
-13.9744 39.3683 -3.5401
-16.0461 40.5274 -3.6937
-6.7343 15.3723 -1.4221
-15.2872 31.7438 -2.9855
-16.3565 31.0600 -2.9745
-17.5478 30.6044 -2.9892
-18.1146 29.1181 -2.9057
-20.0000 29.7147 -3.0348
-21.1649 29.1306 -3.0508
-23.6255 30.1768 -3.2470
-25.9908 30.8491 -3.4175
-16.6547 18.3858 -2.1017
-16.5659 17.0179 -2.0120
-16.4870 15.7630 -1.9323
-16.4167 14.6046 -1.8613
-16.3539 13.5289 -1.7979
-16.2975 12.5247 -1.7410
-16.2469 11.5825 -1.6900
-16.2014 10.6943 -1.6442
-16.1606 9.8533 -1.6031
-16.1239 9.0534 -1.5661
-16.0909 8.2898 -1.5329
-16.0614 7.5578 -1.5032
-16.0351 6.8536 -1.4767
-17.8304 6.8749 -1.6182
-21.0610 7.2634 -1.8864
-23.7893 7.2600 -2.1060
-23.7650 6.3295 -2.0823
-23.7442 5.4193 -2.0620
-23.7266 4.5259 -2.0450
-23.7123 3.6465 -2.0310
-23.8223 2.7923 -2.0305
-80.4632 -36.1140 -7.4617
-73.2978 -36.1130 -6.9128
-72.7457 -39.1468 -6.9886
-29.8133 -17.4517 -2.9224
-77.9264 -49.4543 -7.8074
-69.2083 -47.4900 -7.1000
-39.8665 -29.5154 -4.1958
-37.5978 -29.9836 -4.0676
-37.5219 -32.1930 -4.1817
-35.5478 -32.7865 -4.0902
-32.3980 -32.1088 -3.8579
-31.2881 -33.3187 -3.8656
-32.3391 -37.0154 -4.1570
-37.3512 -45.9845 -5.0102
-39.0212 -51.7297 -5.4798
-30.5279 -43.6450 -4.5042
-27.7417 -42.8590 -4.3174
-24.2774 -40.6339 -4.0028
-23.2541 -42.2993 -4.0818
-18.1122 -35.9455 -3.4037
-15.3325 -33.3574 -3.1044
-14.6236 -35.0820 -3.2139
-13.0940 -34.8890 -3.1511
-12.1014 -36.1375 -3.2225
-10.8128 -36.6042 -3.2273
-9.6830 -37.7129 -3.2923
-8.3967 -38.3732 -3.3214
-9.4726 -52.1986 -4.4857
-9.3270 -64.4974 -5.5103
6.7990 -94.5222 -5.8674
5.9320 -54.8605 -3.4165
6.0500 -41.8368 -2.6173
2.2682 -12.4992 -0.7865
6.2647 -28.6297 -1.8146
6.7067 -26.1210 -1.6698
7.0838 -23.9806 -1.5483
5.9142 -17.6613 -1.1533
6.1424 -16.3664 -1.0825
6.2713 -15.0448 -1.0093
6.4238 -13.9756 -0.9525
6.6479 -13.1935 -0.9149
6.7395 -12.2593 -0.8664
6.8910 -11.5336 -0.8321
7.1037 -10.9747 -0.8097
7.2098 -10.3077 -0.7791
7.2330 -9.5887 -0.7439
7.4264 -9.1430 -0.7296
7.4243 -8.4978 -0.6990
7.6000 -8.0932 -0.6877
6.7326 -6.6725 -0.5872
6.5851 -6.0736 -0.5550
6.5582 -5.6268 -0.5354
6.5715 -5.2406 -0.5208
6.7103 -4.9680 -0.5173
6.9565 -4.7735 -0.5228
7.2172 -4.5802 -0.5297
7.4181 -4.3423 -0.5327
2.4470 -1.3168 -0.1722
7.9347 -3.9093 -0.5482
7.9346 -3.5613 -0.5390
7.9393 -3.2262 -0.5312
7.9909 -2.9175 -0.5273
7.9909 -2.5965 -0.5208
7.9908 -2.2828 -0.5152
7.9344 -1.9615 -0.5067
7.8992 -1.6544 -0.5004
7.9907 -1.3762 -0.5027
7.9975 -1.0834 -0.5004
7.9906 -0.7916 -0.4979
7.8920 -0.4966 -0.4904
7.9342 -0.2138 -0.4922
7.9341 0.0712 -0.4921
7.9341 0.3563 -0.4926
7.4199 0.6007 -0.4617
7.2693 0.8521 -0.4540
6.9672 1.0714 -0.4373
6.6851 1.2752 -0.4222
6.5707 1.4997 -0.4181
6.5840 1.7536 -0.4227
6.5840 2.0093 -0.4271
6.5840 2.2707 -0.4322
6.4738 2.4961 -0.4306
6.7124 2.8690 -0.4530
7.4601 3.5104 -0.5117
8.2915 4.2716 -0.5789
8.2914 4.6556 -0.5902
8.2913 5.0553 -0.6028
8.2913 5.4730 -0.6167
8.2912 5.9109 -0.6321
8.2911 6.3718 -0.6491
8.2911 6.8589 -0.6680
8.2910 7.3758 -0.6889
8.2909 7.9269 -0.7121
8.2740 8.4998 -0.7365
8.2411 9.0978 -0.7622
8.2240 9.7613 -0.7925
8.2746 10.5692 -0.8335
8.3023 11.4270 -0.8771
8.2903 12.3172 -0.9220
7.9972 12.8551 -0.9401
8.6566 15.0977 -1.0807
8.5398 16.2166 -1.1382
8.6562 17.9747 -1.2390
8.5393 19.4926 -1.3216
8.5390 21.5670 -1.4406
8.5397 24.0582 -1.5855
8.6559 27.4768 -1.7892
8.5546 30.9968 -1.9971
8.5370 35.9138 -2.2927
8.3300 41.6336 -2.6370
7.3253 44.9437 -2.8282
7.7251 61.1502 -3.8281
6.5468 72.7410 -4.5361
4.1896 77.7179 -4.8339
1.3197 73.5093 -4.5662
-1.3316 74.1672 -4.6071
-4.0360 74.8664 -4.6565
-6.8675 76.3031 -4.7581
-9.0257 71.4452 -4.4724
-13.3104 81.6640 -5.1387
-16.1888 80.9110 -5.1245
-10.9295 45.9787 -2.9350
-12.5148 45.3458 -2.9213
-14.5852 46.2981 -3.0144
-13.9612 39.3315 -2.5917
-14.3167 36.1594 -2.4150
-6.7334 15.3702 -1.0420
-10.3326 21.4558 -1.4787
-11.2974 21.4532 -1.5055
-18.6733 32.5675 -2.3309
-18.1078 29.1073 -2.1284
-20.0870 29.8441 -2.2335
-21.2575 29.2582 -2.2453
-24.7741 31.6441 -2.4949
-16.1120 19.1238 -1.5524
-16.0438 17.7114 -1.4835
-15.9832 16.4194 -1.4224
-15.9293 15.2298 -1.3679
-15.8810 14.1281 -1.3193
-15.8378 13.1020 -1.2757
-15.7989 12.1416 -1.2366
-15.7640 11.2383 -1.2015
-15.7326 10.3849 -1.1698
-15.7043 9.5751 -1.1413
-15.6788 8.8036 -1.1157
-15.6559 8.0657 -1.0927
-15.6354 7.3573 -1.0721
-15.6170 6.6749 -1.0537
-15.6624 6.0390 -1.0414
-18.1353 6.2545 -1.1900
-21.4511 6.5464 -1.3912
-23.1566 6.1676 -1.4864
-23.1421 5.2819 -1.4722
-23.1298 4.4121 -1.4604
-23.1198 3.5554 -1.4506
-27.0524 3.1709 -1.6891
-40.6892 3.2940 -2.5313
-40.7230 1.8286 -2.5276
-40.9243 0.3671 -2.5375
-41.1335 -1.1081 -2.5511
-41.3512 -2.6018 -2.5686
-41.4642 -4.1076 -2.5830
-41.4955 -5.6212 -2.5957
-41.5539 -7.1565 -2.6136
-41.6382 -8.7206 -2.6368
-91.5115 -33.4114 -6.0369
-88.2589 -35.8644 -5.9032
-80.4636 -36.1140 -5.4648
-73.2982 -36.1130 -5.0627
-66.9250 -36.0143 -4.7086
-29.8080 -17.4485 -2.1398
-60.1487 -38.1720 -4.4132
-60.1482 -41.2730 -4.5189
-60.1478 -44.5306 -4.6358
-38.6062 -30.7876 -3.0587
-36.6891 -31.4784 -2.9943
-35.4095 -32.6589 -2.9836
-32.4446 -32.1549 -2.8291
-32.2137 -34.3044 -2.9145
-33.1231 -37.9127 -3.1178
-37.1432 -45.7283 -3.6484
-35.5741 -47.1598 -3.6582
-31.5744 -45.1411 -3.4113
-29.5342 -45.6282 -3.3657
-25.8412 -43.2512 -3.1198
-23.5078 -42.7608 -3.0215
-21.7499 -43.1646 -2.9928
-16.6806 -36.2903 -2.4730
-15.0468 -36.0972 -2.4214
-18.1481 -48.3556 -3.1979
-12.3033 -36.7404 -2.3989
-11.1069 -37.5996 -2.4274
-10.1308 -39.4568 -2.5221
-8.3331 -38.0824 -2.4136
-9.5543 -52.6485 -3.3129
-7.6687 -53.0302 -3.3174
-8.8774 -82.0997 -5.1126
6.7963 -94.4834 -3.7261
5.9320 -54.8605 -2.1705
6.0387 -41.7583 -1.6597
2.2095 -12.1754 -0.4868
6.2647 -28.6297 -1.1529
6.6578 -25.9306 -1.0532
7.0189 -23.7608 -0.9747
5.8837 -17.5701 -0.7290
6.1424 -16.3664 -0.6878
6.3524 -15.2392 -0.6496
6.4516 -14.0361 -0.6078
6.6479 -13.1934 -0.5813
6.7586 -12.2939 -0.5521
6.8901 -11.5322 -0.5287
7.1037 -10.9747 -0.5145
7.2098 -10.3077 -0.4951
7.2328 -9.5883 -0.4727
7.4264 -9.1429 -0.4636
7.4248 -8.4985 -0.4442
7.6000 -8.0932 -0.4371
6.7326 -6.6725 -0.3732
6.5851 -6.0736 -0.3527
6.5851 -5.6498 -0.3416
6.5715 -5.2406 -0.3310
6.7103 -4.9680 -0.3288
6.9897 -4.7962 -0.3339
7.2544 -4.6038 -0.3384
7.4181 -4.3423 -0.3386
2.4466 -1.3166 -0.1094
7.9347 -3.9093 -0.3485
7.9346 -3.5613 -0.3427
7.9401 -3.2265 -0.3377
7.9909 -2.9175 -0.3352
7.9909 -2.5964 -0.3311
7.9908 -2.2828 -0.3275
7.9344 -1.9615 -0.3222
7.8992 -1.6544 -0.3182
7.9907 -1.3762 -0.3197
7.9975 -1.0834 -0.3182
7.9906 -0.7916 -0.3166
7.8920 -0.4966 -0.3118
7.9342 -0.2137 -0.3130
7.9341 0.0712 -0.3129
7.9341 0.3563 -0.3133
7.4198 0.6007 -0.2937
7.2693 0.8521 -0.2888
6.9672 1.0714 -0.2781
6.6851 1.2752 -0.2685
6.5707 1.4997 -0.2660
6.5840 1.7536 -0.2689
6.5840 2.0093 -0.2717
6.5840 2.2707 -0.2749
6.4738 2.4961 -0.2739
6.7124 2.8690 -0.2882
7.4606 3.5107 -0.3255
7.9985 4.1207 -0.3553
7.9984 4.4911 -0.3622
8.2913 5.0553 -0.3835
8.2913 5.4730 -0.3924
8.2912 5.9109 -0.4022
8.2911 6.3718 -0.4130
8.2911 6.8589 -0.4250
8.2910 7.3759 -0.4384
8.2909 7.9269 -0.4531
8.2908 8.5171 -0.4696
8.2907 9.1525 -0.4879
8.2906 9.8404 -0.5084
8.2905 10.5896 -0.5314
8.2904 11.4107 -0.5573
8.2903 12.3173 -0.5867
7.9972 12.8552 -0.5983
8.5339 14.8837 -0.6780
8.4810 16.1051 -0.7194
8.5134 17.6783 -0.7755
8.5393 19.4927 -0.8411
8.5390 21.5671 -0.9168
8.5397 24.0582 -1.0090
8.6559 27.4769 -1.1387
8.5546 30.9968 -1.2710
8.5370 35.9139 -1.4592
8.3300 41.6336 -1.6783
7.3253 44.9437 -1.8000
7.7251 61.1502 -2.4364
5.8848 65.3855 -2.5950
3.4490 63.9807 -2.5327
1.3023 72.5355 -2.8677
-1.1993 66.7968 -2.6408
-3.5411 65.6872 -2.6002
-6.6318 73.6847 -2.9243
-10.1082 80.0139 -3.1878
-12.6225 77.4435 -3.1014
-15.1920 75.9296 -3.0606
-11.4964 48.3635 -1.9648
-13.2954 48.1745 -1.9751
-14.9453 47.4415 -1.9658
-22.6867 63.9130 -2.6802
-14.7856 37.3439 -1.5872
-6.7323 15.3679 -0.6630
-10.3362 21.4632 -0.9413
-11.3026 21.4630 -0.9585
-18.8703 32.9111 -1.4989
-18.5977 29.8950 -1.3910
-20.1746 29.9743 -1.4274
-21.3507 29.3866 -1.4349
-15.5637 19.8796 -0.9973
-15.5180 18.4188 -0.9513
-15.4776 17.0864 -0.9106
-15.4416 15.8630 -0.8743
-15.4270 14.7497 -0.8429
-15.4410 13.7367 -0.8161
-15.4542 12.7847 -0.7920
-15.4788 11.8956 -0.7708
-15.4797 11.0357 -0.7505
-15.4806 10.2186 -0.7323
-15.4814 9.4393 -0.7157
-15.4822 8.6932 -0.7008
-15.4828 7.9765 -0.6874
-15.4834 7.2858 -0.6753
-15.4839 6.6181 -0.6645
-15.4843 5.9704 -0.6548
-16.7264 5.7686 -0.6981
-18.8965 5.7669 -0.7794
-21.8696 5.8248 -0.8928
-22.5713 5.1517 -0.9132
-22.5638 4.3042 -0.9060
-22.5578 3.4690 -0.9001
-27.6142 3.2368 -1.0964
-38.9513 3.1534 -1.5408
-39.1341 1.7574 -1.5444
-39.3214 0.3528 -1.5502
-39.5140 -1.0644 -1.5582
-39.7123 -2.4986 -1.5684
-39.8286 -3.9455 -1.5774
-39.8709 -5.4010 -1.5856
-39.9334 -6.8774 -1.5967
-40.0005 -8.3775 -1.6103
-40.0723 -9.9065 -1.6263
-88.3824 -35.9144 -3.7574
-80.4640 -36.1140 -3.4734
-73.2985 -36.1130 -3.2178
-66.9253 -36.0143 -2.9926
-29.8028 -17.4454 -1.3597
-60.2667 -38.2467 -2.8102
-60.1745 -41.2908 -2.8730
-60.2658 -44.6178 -2.9518
-61.3109 -48.8941 -3.0868
-65.5602 -56.2489 -3.4001
-36.1130 -33.3076 -1.9336
-34.1965 -33.8910 -1.8948
-33.0632 -35.2089 -1.9008
-41.0551 -46.9915 -2.4555
-36.0641 -47.8092 -2.3564
-34.0039 -48.6144 -2.3342
-29.6973 -45.8800 -2.1503
-25.9425 -43.4206 -1.9900
-27.5908 -50.1876 -2.2531
-22.3172 -44.2904 -1.9511
-26.1758 -56.9478 -2.4656
-16.5822 -39.7806 -1.6954
-14.4585 -38.5246 -1.6186
-12.4615 -37.2129 -1.5437
-14.8995 -50.4385 -2.0688
-10.3443 -40.2887 -1.6361
-11.4663 -52.4008 -2.1099
-9.7559 -53.7597 -2.1491
-9.8531 -68.1355 -2.7079
-8.8879 -82.1967 -3.2519
-6.7815 -94.2782 -3.7179
6.7963 -94.4833 -1.5910
5.9198 -54.7466 -0.9249
6.0105 -41.5636 -0.7054
2.2095 -12.1754 -0.2079
6.2647 -28.6297 -0.4923
6.6750 -25.9974 -0.4509
7.0189 -23.7605 -0.4163
5.8837 -17.5701 -0.3113
6.1424 -16.3663 -0.2938
6.3524 -15.2392 -0.2775
6.4516 -14.0361 -0.2596
6.6480 -13.1934 -0.2483
6.7586 -12.2938 -0.2359
6.8908 -11.5332 -0.2259
7.1037 -10.9747 -0.2198
7.2098 -10.3077 -0.2116
7.2334 -9.5891 -0.2020
7.4264 -9.1429 -0.1982
7.4254 -8.4991 -0.1899
7.6000 -8.0932 -0.1868
6.7326 -6.6725 -0.1595
6.5851 -6.0736 -0.1508
6.5851 -5.6498 -0.1461
6.5715 -5.2406 -0.1415
6.7103 -4.9680 -0.1406
6.9897 -4.7962 -0.1428
7.2544 -4.6038 -0.1448
7.4181 -4.3423 -0.1449
2.4461 -1.3163 -0.0468
7.9347 -3.9093 -0.1491
7.9346 -3.5612 -0.1466
7.9410 -3.2268 -0.1446
7.9909 -2.9175 -0.1435
7.9909 -2.5964 -0.1418
7.9908 -2.2827 -0.1402
7.9344 -1.9615 -0.1379
7.8992 -1.6544 -0.1362
7.9907 -1.3761 -0.1369
7.9975 -1.0834 -0.1363
7.9906 -0.7915 -0.1356
7.8920 -0.4965 -0.1336
7.9342 -0.2137 -0.1341
7.9341 0.0712 -0.1341
7.9341 0.3563 -0.1343
7.4198 0.6007 -0.1259
7.2693 0.8521 -0.1238
6.9672 1.0715 -0.1192
6.6851 1.2753 -0.1151
6.5707 1.4997 -0.1141
6.5840 1.7536 -0.1153
6.5840 2.0093 -0.1165
6.5840 2.2707 -0.1179
6.4738 2.4962 -0.1175
6.7124 2.8690 -0.1237
7.4609 3.5108 -0.1397
7.9985 4.1207 -0.1525
7.9984 4.4911 -0.1555
7.9984 4.8768 -0.1588
7.9983 5.2796 -0.1625
7.9983 5.7021 -0.1666
7.9982 6.1467 -0.1711
7.9981 6.6166 -0.1761
7.9981 7.1153 -0.1816
7.9980 7.6468 -0.1877
7.9979 8.2162 -0.1946
7.9978 8.8292 -0.2022
7.9977 9.4928 -0.2107
7.9976 10.2154 -0.2202
7.9975 11.0076 -0.2310
7.9974 11.8821 -0.2432
7.9972 12.8552 -0.2571
8.2470 14.3835 -0.2815
8.2469 15.6605 -0.3006
8.5395 17.7326 -0.3343
8.5393 19.4927 -0.3615
8.5390 21.5671 -0.3940
8.5397 24.0583 -0.4336
8.5393 27.1068 -0.4828
8.5387 30.9394 -0.5452
8.5370 35.9139 -0.6271
8.3300 41.6336 -0.7213
7.3253 44.9437 -0.7736
7.7251 61.1503 -1.0472
5.9223 65.8020 -1.1224
3.4737 64.4384 -1.0963
1.3036 72.6102 -1.2338
-1.2120 67.5048 -1.1470
-3.5636 66.1054 -1.1246
-6.6253 73.6127 -1.2556
-9.6014 76.0028 -1.3013
-12.0949 74.2069 -1.2771
-14.5641 72.7913 -1.2609
-11.4948 48.3570 -0.8442
-12.5684 45.5405 -0.8023
-14.5464 46.1753 -0.8221
-22.4662 63.2919 -1.1404
-26.6859 67.4009 -1.2308
-6.7313 15.3655 -0.2848
-10.3361 21.4632 -0.4044
-11.3025 21.4630 -0.4117
-18.3593 32.0200 -0.6264
-19.0474 30.6179 -0.6119
-20.2628 30.1054 -0.6157
-15.4979 21.3310 -0.4473
-15.4989 19.7969 -0.4265
-15.4997 18.3971 -0.4080
-15.5004 17.1117 -0.3915
-15.5251 15.9489 -0.3774
-15.5266 14.8449 -0.3642
-15.5279 13.8140 -0.3523
-15.5292 12.8468 -0.3415
-15.5304 11.9353 -0.3319
-15.5315 11.0727 -0.3231
-15.5326 10.2530 -0.3152
-15.5336 9.4711 -0.3081
-15.5346 8.7227 -0.3016
-15.5356 8.0038 -0.2958
-15.5365 7.3109 -0.2906
-15.5374 6.6410 -0.2859
-15.8259 6.1021 -0.2870
-17.8738 6.1644 -0.3198
-20.4561 6.2429 -0.3617
-21.6365 5.7628 -0.3786
-21.6364 4.9384 -0.3751
-21.6363 4.1273 -0.3723
-21.6358 3.3273 -0.3699
-28.1987 3.3054 -0.4796
-36.1764 2.9288 -0.6130
-36.5455 1.6412 -0.6178
-36.9209 0.3314 -0.6234
-37.3039 -1.0048 -0.6299
-37.6956 -2.3717 -0.6374
-38.6138 -3.8251 -0.6547
-38.6561 -5.2364 -0.6581
-38.6990 -6.6647 -0.6623
-38.7424 -8.1139 -0.6675
-38.7866 -9.5885 -0.6736
-88.2554 -35.8626 -1.6049
-76.5806 -34.3709 -1.4138
-73.2989 -36.1130 -1.3761
-66.9256 -36.0143 -1.2796
-29.7976 -17.4423 -0.5813
-58.7023 -37.2537 -1.1702
-58.7018 -40.2802 -1.1981
-46.5277 -34.4467 -0.9741
-61.3106 -48.8937 -1.3193
-65.4576 -56.1608 -1.4508
-63.6681 -58.7220 -1.4568
-63.6675 -63.0987 -1.5074
-36.4737 -61.0469 -1.1950
-25.2924 -46.0068 -0.8821
-35.2284 -76.6424 -1.4171
-25.1769 -60.3990 -1.0992
-24.1831 -72.2159 -1.2792
-23.8456 -92.8724 -1.6104
-18.6293 -85.1360 -1.4637
-12.1768 -67.0997 -1.1453
-13.5915 -93.9867 -1.5949
-10.4054 -96.2308 -1.6256
-6.7811 -94.2727 -1.5873
6.7808 -94.2676 0.5412
5.9198 -54.7466 0.3153
6.0438 -41.7937 0.2417
2.2095 -12.1754 0.0708
6.2647 -28.6296 0.1677
6.6339 -25.8375 0.1526
7.0198 -23.7637 0.1417
5.8838 -17.5701 0.1060
6.1424 -16.3663 0.0999
6.3524 -15.2392 0.0944
6.4517 -14.0362 0.0883
6.6480 -13.1934 0.0844
6.7586 -12.2938 0.0801
6.8914 -11.5342 0.0767
7.1037 -10.9747 0.0746
7.2098 -10.3076 0.0718
7.2339 -9.5898 0.0685
7.4264 -9.1429 0.0671
7.4260 -8.4997 0.0643
7.6000 -8.0932 0.0632
6.7326 -6.6725 0.0539
6.5851 -6.0735 0.0510
6.5851 -5.6498 0.0493
6.5715 -5.2406 0.0478
6.7103 -4.9680 0.0474
6.9897 -4.7962 0.0481
7.2545 -4.6038 0.0487
7.4182 -4.3423 0.0487
2.4457 -1.3161 0.0157
7.0449 -3.4709 0.0445
7.7332 -3.4708 0.0480
7.9419 -3.2272 0.0485
7.9909 -2.9175 0.0481
7.9909 -2.5964 0.0475
6.9169 -1.9759 0.0406
7.0451 -1.7416 0.0410
7.8992 -1.6543 0.0455
7.9907 -1.3761 0.0457
7.9907 -1.0824 0.0454
7.9906 -0.7915 0.0452
7.8920 -0.4965 0.0445
7.9342 -0.2137 0.0446
7.9341 0.0712 0.0446
7.9341 0.3563 0.0446
7.4198 0.6007 0.0418
7.2692 0.8521 0.0411
6.9672 1.0715 0.0395
6.6851 1.2753 0.0381
6.5707 1.4997 0.0377
6.5840 1.7536 0.0381
6.5840 2.0093 0.0385
6.5840 2.2707 0.0389
6.4738 2.4962 0.0388
6.7124 2.8690 0.0408
7.4614 3.5111 0.0460
7.9985 4.1208 0.0502
7.9984 4.4911 0.0511
7.9984 4.8768 0.0522
7.9983 5.2797 0.0534
7.9983 5.7021 0.0547
7.9982 6.1467 0.0561
7.9981 6.6166 0.0577
7.9981 7.1153 0.0595
7.9980 7.6468 0.0615
7.9979 8.2162 0.0637
7.9978 8.8292 0.0661
7.9977 9.4928 0.0689
7.9976 10.2155 0.0720
7.9975 11.0076 0.0755
7.9974 11.8821 0.0794
7.9972 12.8552 0.0839
8.2470 14.3835 0.0919
8.2468 15.6605 0.0981
8.2466 17.1244 0.1053
8.2464 18.8241 0.1138
8.2461 20.8274 0.1240
8.5397 24.0583 0.1413
8.5393 27.1068 0.1573
8.5387 30.9394 0.1776
8.5370 35.9140 0.2043
8.9923 44.9440 0.2536
7.4772 45.8759 0.2572
7.7251 61.1503 0.3410
5.8284 64.7593 0.3597
3.4920 64.7775 0.3589
1.1817 65.8201 0.3642
-1.1776 65.5928 0.3630
-3.5835 66.4742 0.3684
-6.7641 75.1552 0.4176
-9.2029 72.8484 0.4064
-11.1245 68.2535 0.3828
-13.2885 66.4160 0.3750
-12.6004 53.0080 0.3017
-12.9913 47.0728 0.2705
-20.8482 66.1795 0.3844
-22.8288 64.3137 0.3782
-15.3904 38.8719 0.2318
-6.7302 15.3632 0.0930
-10.3361 21.4632 0.1321
-11.3018 21.4618 0.1346
-17.8326 31.1016 0.1990
-19.9283 32.0339 0.2095
-21.9853 32.6647 0.2187
-15.5180 21.3587 0.1467
-15.5200 19.8239 0.1400
-15.9154 18.8906 0.1374
-15.5235 17.1372 0.1287
-15.5251 15.9489 0.1239
-15.7354 15.0446 0.1213
-15.9217 14.1644 0.1188
-15.5292 12.8469 0.1124
-15.5304 11.9354 0.1093
-15.5315 11.0727 0.1065
-15.5326 10.2530 0.1039
-15.9275 9.7113 0.1042
-15.9285 8.9439 0.1021
-15.5356 8.0038 0.0978
-15.5365 7.3109 0.0961
-15.5374 6.6410 0.0946
-15.8258 6.1021 0.0951
-18.3329 6.3228 0.1087
-21.2268 6.4781 0.1245
-22.4273 5.9735 0.1303
-22.4214 5.1176 0.1292
-26.1463 4.9877 0.1496
-21.6363 3.3274 0.1231
-28.3292 3.3208 0.1605
-36.4820 2.9536 0.2061
-36.8552 1.6552 0.2079
-37.2348 0.3343 0.2100
-37.6220 -1.0133 0.2123
-37.7606 -2.3757 0.2136
-39.1078 -3.8739 0.2220
-39.1288 -5.3003 0.2232
-39.1500 -6.7423 0.2247
-39.1715 -8.2037 0.2265
-39.1933 -9.6890 0.2286
-88.2552 -35.8623 0.5407
-76.5827 -34.3717 0.4767
-64.9803 -32.0145 0.4116
-66.9259 -36.0143 0.4320
-29.7924 -17.4392 0.1963
-58.7023 -37.2536 0.3956
-58.7018 -40.2800 0.4053
-46.5180 -34.4394 0.3297
-61.3109 -48.8938 0.4468
-43.4784 -37.3031 0.3266
-63.6681 -58.7219 0.4940
-43.1606 -42.7749 0.3467
-43.1273 -53.0952 0.3907
-43.1267 -57.1717 0.4092
-43.2132 -66.7608 0.4546
-25.2350 -45.9022 0.2996
-25.1259 -60.2764 0.3738
-24.9901 -74.6256 0.4506
-9.7021 -67.0913 0.3883
-9.7958 -90.5926 0.5219
-6.7804 -94.2622 0.5413
0.0000 -79.1481 2.2363
2.7102 -75.4519 2.1332
5.4170 -75.3072 2.1332
5.9198 -54.7465 1.5558
6.0387 -41.7581 1.1921
2.2683 -12.4991 0.3589
6.2647 -28.6296 0.8279
6.6750 -25.9973 0.7582
5.5625 -18.8304 0.5547
5.8838 -17.5701 0.5234
6.1424 -16.3663 0.4938
6.3524 -15.2392 0.4663
6.4518 -14.0363 0.4363
6.6480 -13.1934 0.4172
6.7586 -12.2938 0.3962
6.8920 -11.5352 0.3794
7.1037 -10.9746 0.3691
7.2098 -10.3076 0.3551
7.2345 -9.5905 0.3391
7.4265 -9.1429 0.3325
7.4266 -8.5004 0.3186
7.6000 -8.0931 0.3133
6.7326 -6.6724 0.2675
6.4258 -5.9266 0.2467
6.4441 -5.5288 0.2396
6.5715 -5.2406 0.2371
6.7103 -4.9680 0.2355
6.8649 -4.7105 0.2348
7.0988 -4.5050 0.2371
7.4182 -4.3423 0.2424
2.4453 -1.3159 0.0783
7.0004 -3.4489 0.2200
7.4496 -3.3435 0.2302
7.9427 -3.2275 0.2416
7.9909 -2.9175 0.2397
7.9909 -2.5964 0.2368
6.9169 -1.9759 0.2027
7.0001 -1.7305 0.2031
7.7295 -1.6188 0.2224
7.9907 -1.3761 0.2284
7.9975 -1.0833 0.2273
7.9906 -0.7915 0.2261
7.8920 -0.4965 0.2226
6.9994 -0.1885 0.1971
7.9341 0.0712 0.2233
7.9341 0.3563 0.2235
7.4198 0.6007 0.2095
7.0121 0.8220 0.1986
6.7898 1.0442 0.1933
6.6851 1.2753 0.1914
6.5707 1.4997 0.1896
6.4541 1.7190 0.1878
6.4162 1.9581 0.1886
6.4297 2.2175 0.1912
6.4738 2.4962 0.1951
6.7125 2.8691 0.2052
7.4619 3.5113 0.2318
8.2915 4.2717 0.2621
8.2914 4.6557 0.2672
8.2913 5.0554 0.2729
8.2913 5.4731 0.2791
8.2912 5.9110 0.2861
8.2911 6.3719 0.2937
8.2911 6.8590 0.3022
8.2910 7.3759 0.3117
8.2909 7.9270 0.3221
8.2908 8.5172 0.3338
8.2907 9.1526 0.3468
8.2906 9.8405 0.3613
8.2905 10.5896 0.3776
8.2904 11.4108 0.3960
8.2903 12.3173 0.4168
8.5401 13.7279 0.4538
8.5399 14.8944 0.4819
8.5398 16.2167 0.5144
8.5395 17.7326 0.5524
8.5393 19.4928 0.5973
8.5132 21.5021 0.6490
8.5397 24.0583 0.7164
8.5393 27.1068 0.7975
8.5130 30.8461 0.8980
8.5370 35.9141 1.0359
8.9923 44.9440 1.2862
7.4772 45.8760 1.3043
7.7251 61.1503 1.7296
6.0116 66.7942 1.8819
3.9879 73.9757 2.0788
1.1732 65.3446 1.8339
-1.1937 66.4859 1.8660
-3.6167 67.0904 1.8854
-5.9920 66.5772 1.8759
-8.3796 66.3317 1.8763
-10.9078 66.9241 1.9029
-12.5060 62.5053 1.7890
-12.5793 52.9197 1.5266
-18.5430 67.1890 1.9563
-21.1882 67.2589 1.9793
-23.7410 66.8838 1.9922
-15.2976 38.6376 1.1665
-6.7292 15.3608 0.4708
-15.4387 32.0589 0.9990
-17.3895 33.0221 1.0478
-18.6117 32.4604 1.0506
-20.1394 32.3734 1.0706
-22.1616 32.9269 1.1146
-15.5180 21.3587 0.7415
-15.5200 19.8240 0.7071
-15.9154 18.8907 0.6939
-15.5235 17.1373 0.6496
-15.5251 15.9490 0.6253
-15.7353 15.0446 0.6117
-15.9217 14.1644 0.5988
-15.5292 12.8469 0.5664
-15.5304 11.9354 0.5505
-15.5315 11.0728 0.5362
-15.5326 10.2530 0.5232
-15.9275 9.7114 0.5245
-15.9285 8.9440 0.5137
-15.5356 8.0039 0.4915
-15.5365 7.3110 0.4829
-15.5374 6.6410 0.4753
-15.8257 6.1021 0.4772
-18.3329 6.3228 0.5456
-21.2268 6.4782 0.6245
-22.4273 5.9735 0.6532
-22.4214 5.1176 0.6473
-26.1466 4.9878 0.7493
-21.6367 3.3275 0.6163
-28.3306 3.3210 0.8031
-36.4795 2.9535 1.0306
-36.8533 1.6552 1.0389
-37.2336 0.3343 1.0488
-37.6216 -1.0132 1.0602
-37.7602 -2.3755 1.0659
-39.1078 -3.8738 1.1073
-39.1288 -5.3003 1.1127
-39.1500 -6.7422 1.1196
-39.1715 -8.2036 1.1281
-39.1933 -9.6889 1.1381
-76.2687 -21.7872 2.2363
-75.4288 -24.5082 2.2363
-74.4920 -27.1968 2.2363
-70.0680 -28.4718 2.1331
-68.9935 -30.9653 2.1331
-68.2514 -33.6260 2.1463
-66.9262 -36.0143 2.1442
-29.7872 -17.4360 0.9739
-58.7023 -37.2534 1.9619
-58.7018 -40.2799 2.0091
-46.4343 -34.3773 1.6306
-40.3232 -32.1566 1.4558
-43.1678 -37.0365 1.6056
-34.8123 -32.1077 1.3369
-32.3962 -32.1066 1.2877
-30.1493 -32.1056 1.2436
-43.1660 -49.4073 1.8526
-43.1654 -53.1420 1.9334
-37.3928 -49.5703 1.7536
-22.6855 -32.4326 1.1178
-42.6385 -65.8727 2.2163
-40.2443 -67.3575 2.2163
-17.7961 -32.3710 1.0435
-16.2489 -32.2473 1.0201
-29.2645 -63.6673 1.9795
-13.4809 -32.3403 0.9899
-12.1996 -32.5056 0.9809
-10.8607 -32.4323 0.9663
-18.9217 -64.0544 1.8871
-9.9400 -38.7137 1.1293
-9.7999 -44.7852 1.2953
-9.7423 -53.6846 1.5416
-9.7403 -67.3549 1.9229
-8.1157 -75.0548 2.1331
-5.6784 -78.9425 2.2363
-2.8411 -79.0961 2.2363
0.0000 -44.0120 2.2363
1.5799 -43.9841 2.2363
3.0122 -41.8758 2.1332
4.5135 -41.7412 2.1332
6.0452 -41.8027 2.1461
2.2683 -12.4991 0.6454
6.2647 -28.6295 1.4890
6.6431 -25.8729 1.3571
7.0862 -23.9884 1.2708
5.9143 -17.6611 0.9462
6.1424 -16.3663 0.8881
6.3444 -15.2199 0.8377
6.4689 -14.0735 0.7868
6.6480 -13.1933 0.7505
6.7646 -12.3046 0.7132
6.9704 -11.6664 0.6903
6.9635 -10.7580 0.6509
7.0933 -10.1410 0.6285
7.1702 -9.5052 0.6047
7.2611 -8.9393 0.5849
7.3866 -8.4546 0.5701
7.4773 -7.9625 0.5547
6.7326 -6.6724 0.4813
6.4258 -5.9265 0.4438
6.4441 -5.5288 0.4311
6.5715 -5.2406 0.4267
6.7104 -4.9679 0.4238
6.8649 -4.7105 0.4226
7.0988 -4.5050 0.4268
7.4182 -4.3422 0.4363
2.4449 -1.3157 0.1409
7.0001 -3.4488 0.3960
7.5357 -3.3821 0.4191
7.9436 -3.2278 0.4351
7.9909 -2.9174 0.4316
7.9909 -2.5964 0.4263
6.9169 -1.9759 0.3649
6.9998 -1.7304 0.3658
7.8992 -1.6543 0.4094
7.9907 -1.3761 0.4113
7.9975 -1.0833 0.4093
7.9906 -0.7915 0.4072
7.8919 -0.4965 0.4010
6.9992 -0.1885 0.3550
7.9330 0.0712 0.4022
7.9336 0.3563 0.4026
7.4197 0.6007 0.3774
7.0121 0.8220 0.3579
6.7898 1.0442 0.3482
6.6851 1.2753 0.3450
6.5707 1.4997 0.3416
6.4541 1.7191 0.3385
6.4162 1.9582 0.3400
6.4297 2.2175 0.3446
6.4738 2.4962 0.3516
6.7125 2.8691 0.3699
7.4618 3.5113 0.4178
8.2915 4.2717 0.4725
8.2914 4.6557 0.4817
8.2913 5.0554 0.4919
8.2913 5.4731 0.5032
8.2912 5.9110 0.5157
8.2911 6.3719 0.5296
8.2911 6.8590 0.5450
8.2910 7.3759 0.5620
8.2909 7.9270 0.5809
8.2908 8.5172 0.6019
8.2907 9.1526 0.6253
8.2906 9.8405 0.6515
8.2905 10.5897 0.6809
8.2646 11.3753 0.7119
8.2903 12.3174 0.7517
8.5401 13.7279 0.8185
8.5399 14.8944 0.8692
8.5398 16.2168 0.9278
8.5395 17.7326 0.9963
8.5393 19.4928 1.0773
8.5132 21.5021 1.1706
8.5397 24.0584 1.2923
8.5393 27.1069 1.4386
8.5130 30.8461 1.6197
8.5370 35.9141 1.8686
8.2609 41.2885 2.1313
6.7736 41.5587 2.1313
5.2821 41.8126 2.1332
3.7778 41.9753 2.1332
2.2687 42.0838 2.1332
0.7931 44.1743 2.2363
-0.7931 44.1740 2.2363
-2.3782 44.1166 2.2363
-3.9602 44.0023 2.2363
-5.5371 43.8312 2.2363
-6.7792 41.5935 2.1332
-8.2677 41.3225 2.1332
-9.7455 40.9982 2.1332
-11.3319 41.0604 2.1563
-12.7982 40.6262 2.1563
-14.2477 40.1392 2.1563
-15.2058 38.4058 2.0912
-6.7281 15.3585 0.8489
-15.4966 32.1792 1.8083
-17.6983 33.6086 1.9232
-19.6206 34.2202 1.9973
-21.0401 33.8214 2.0170
-22.3062 33.1418 2.0230
-15.5180 21.3588 1.3370
-15.5200 19.8240 1.2750
-15.5218 18.4236 1.2201
-15.5235 17.1374 1.1711
-15.5251 15.9490 1.1274
-15.7353 15.0446 1.1027
-15.9217 14.1645 1.0795
-15.5292 12.8470 1.0210
-15.5304 11.9355 0.9923
-15.5315 11.0728 0.9664
-15.5326 10.2531 0.9430
-15.9275 9.7114 0.9453
-15.9285 8.9440 0.9257
-15.5356 8.0039 0.8857
-15.5365 7.3110 0.8702
-15.5374 6.6411 0.8564
-15.8256 6.1021 0.8597
-15.5682 5.3693 0.8348
-15.5681 4.7513 0.8252
-15.6252 4.1618 0.8198
-15.7634 3.5980 0.8198
-26.1469 4.9879 1.3497
-21.6371 3.3276 1.1101
-28.3319 3.3212 1.4466
-36.2287 2.9333 1.8434
-36.6005 1.6439 1.8582
-36.9787 0.3321 1.8757
-37.3648 -1.0062 1.8961
-37.7598 -2.3755 1.9193
-39.1078 -3.8738 1.9938
-39.1288 -5.3002 2.0034
-30.0926 -5.1823 1.5494
-15.8125 -3.3116 0.8198
-15.6824 -3.8768 0.8198
-15.5668 -4.4468 0.8216
-15.5920 -5.0661 0.8321
-15.5780 -5.6874 0.8417
-15.5779 -6.3299 0.8535
-15.5778 -6.9915 0.8668
-15.5777 -7.6747 0.8816
-15.5776 -8.3825 0.8981
-15.5775 -9.1183 0.9164
-15.5773 -9.8856 0.9368
-15.5772 -10.6887 0.9593
-15.5771 -11.5324 0.9842
-15.5770 -12.4221 1.0118
-15.5768 -13.3643 1.0423
-15.5767 -14.3665 1.0762
-15.5765 -15.4372 1.1138
-28.7508 -30.6163 2.1332
-27.6321 -31.6273 2.1332
-27.1239 -33.3928 2.1853
-25.9255 -34.3684 2.1869
-22.5718 -32.2700 2.0005
-20.8840 -32.2640 1.9524
-19.2734 -32.2582 1.9090
-17.7311 -32.2526 1.8699
-16.2490 -32.2473 1.8346
-14.8201 -32.2421 1.8029
-13.4379 -32.2372 1.7745
-12.1119 -32.2719 1.7514
-10.8070 -32.2717 1.7292
-9.7389 -32.9683 1.7467
-9.7445 -37.9520 1.9909
-8.9740 -41.0109 2.1331
-7.4962 -41.3075 2.1332
-6.1434 -42.4823 2.1811
-4.7314 -43.7567 2.2363
-3.1576 -43.8983 2.2363
-1.5798 -43.9835 2.2363
0.0000 -30.4593 2.2363
1.0934 -30.4399 2.2363
2.0946 -29.1196 2.1435
3.1237 -28.8875 2.1332
4.1586 -28.7571 2.1332
2.2683 -12.4991 0.9326
6.2738 -28.6709 2.1547
6.2090 -24.1822 1.8329
7.0862 -23.9883 1.8363
5.9143 -17.6611 1.3673
6.1424 -16.3662 1.2833
6.3444 -15.2199 1.2105
6.5366 -14.2208 1.1489
6.6480 -13.1933 1.0845
6.8106 -12.3883 1.0377
6.9704 -11.6664 0.9975
7.0948 -10.9607 0.9583
7.2099 -10.3076 0.9232
7.3169 -9.6998 0.8917
7.4171 -9.1313 0.8634
7.5112 -8.5972 0.8378
7.6000 -8.0931 0.8148
6.7327 -6.6724 0.6956
6.5851 -6.0735 0.6574
6.5851 -5.6497 0.6367
6.5715 -5.2405 0.6167
6.7104 -4.9679 0.6126
6.9898 -4.7962 0.6220
7.2545 -4.6038 0.6304
7.4182 -4.3422 0.6306
2.4445 -1.3154 0.2036
6.7840 -3.3423 0.5548
7.5353 -3.3819 0.6059
7.9445 -3.2282 0.6290
7.9909 -2.9174 0.6239
7.9909 -2.5963 0.6162
6.8756 -1.9641 0.5244
6.9996 -1.7303 0.5288
7.8992 -1.6543 0.5918
7.9907 -1.3761 0.5946
7.9976 -1.0833 0.5918
7.9906 -0.7915 0.5888
7.8919 -0.4965 0.5798
6.9989 -0.1885 0.5133
7.9330 0.0713 0.5816
7.9336 0.3564 0.5822
7.4197 0.6008 0.5457
7.2692 0.8521 0.5365
6.9671 1.0715 0.5167
6.6851 1.2753 0.4988
6.5707 1.4998 0.4940
6.5840 1.7537 0.4994
6.5840 2.0094 0.5045
6.5840 2.2708 0.5104
6.4738 2.4962 0.5084
6.7125 2.8691 0.5349
7.4622 3.5115 0.6043
8.2915 4.2718 0.6834
8.2914 4.6557 0.6967
8.2913 5.0555 0.7115
8.2913 5.4731 0.7278
8.2912 5.9110 0.7459
8.2911 6.3719 0.7660
8.2911 6.8590 0.7882
8.2910 7.3760 0.8129
8.2909 7.9270 0.8402
8.2908 8.5172 0.8706
8.2907 9.1527 0.9045
8.2906 9.8406 0.9424
8.2905 10.5897 0.9850
8.2646 11.3754 1.0298
8.2903 12.3174 1.0874
8.5401 13.7280 1.1840
8.5399 14.8945 1.2573
8.5398 16.2168 1.3422
8.5395 17.7327 1.4413
8.5393 19.4928 1.5584
8.5132 21.5021 1.6935
8.5397 24.0584 1.8694
8.5393 27.1069 2.0811
7.7433 28.0574 2.1313
6.7312 28.3174 2.1313
5.7104 28.5410 2.1313
4.6864 28.7534 2.1332
3.6513 28.9031 2.1332
2.6115 29.0156 2.1332
1.6440 30.4964 2.2363
0.5482 30.5357 2.2363
-0.5482 30.5355 2.2363
-1.6439 30.4960 2.2363
-2.7375 30.4171 2.2363
-3.8276 30.2989 2.2363
-4.9127 30.1416 2.2363
-5.9914 29.9455 2.2363
-6.7363 28.3390 2.1331
-7.7491 28.0784 2.1331
-8.7518 27.7817 2.1331
-9.7432 27.4490 2.1331
-10.8389 27.3761 2.1563
-6.7271 15.3561 1.2278
-12.3112 25.5648 2.0781
-13.1087 24.8931 2.0605
-13.9153 24.2696 2.0490
-14.8393 23.8537 2.0576
-16.0547 23.8536 2.1061
-15.5180 21.3589 1.9338
-15.5200 19.8241 1.8442
-15.5218 18.4236 1.7647
-15.5235 17.1374 1.6939
-15.5251 15.9491 1.6306
-15.5266 14.8451 1.5738
-15.5279 13.8142 1.5227
-15.5292 12.8470 1.4767
-15.5304 11.9355 1.4351
-15.5315 11.0728 1.3977
-15.5326 10.2531 1.3638
-15.5336 9.4713 1.3332
-15.5346 8.7229 1.3056
-15.5356 8.0039 1.2808
-15.5365 7.3110 1.2584
-15.5374 6.6411 1.2384
-15.8254 6.1021 1.2432
-15.5796 5.3733 1.2080
-15.5795 4.7548 1.1940
-15.5794 4.1497 1.1819
-15.5793 3.5560 1.1715
-15.5792 2.9720 1.1628
-15.5791 2.3960 1.1556
-15.5790 1.8263 1.1501
-15.5790 1.2614 1.1460
-15.5789 0.6998 1.1435
-15.5788 0.1400 1.1425
-15.5787 -0.4195 1.1429
-15.5786 -0.9800 1.1448
-15.5786 -1.5431 1.1481
-15.5785 -2.1101 1.1530
-15.5784 -2.6827 1.1595
-15.5783 -3.2625 1.1675
-15.5782 -3.8510 1.1771
-15.5781 -4.4500 1.1885
-15.5780 -5.0615 1.2016
-15.5780 -5.6874 1.2167
-15.5779 -6.3299 1.2337
-15.5778 -6.9915 1.2528
-15.5777 -7.6747 1.2742
-15.5776 -8.3825 1.2980
-15.5775 -9.1182 1.3245
-15.5773 -9.8856 1.3539
-15.5772 -10.6887 1.3864
-15.5771 -11.5323 1.4224
-15.5770 -12.4221 1.4622
-15.5768 -13.3643 1.5063
-15.5767 -14.3664 1.5553
-15.5765 -15.4372 1.6096
-20.8566 -22.2099 2.2363
-20.0454 -22.9436 2.2363
-19.2083 -23.6477 2.2363
-18.3466 -24.3214 2.2363
-17.4613 -24.9636 2.2363
-16.5536 -25.5737 2.2363
-15.6245 -26.1509 2.2363
-14.6755 -26.6944 2.2363
-13.7075 -27.2035 2.2363
-12.7220 -27.6776 2.2363
-11.7201 -28.1160 2.2363
-10.7031 -28.5182 2.2363
-9.6724 -28.8837 2.2363
-8.6293 -29.2120 2.2363
-7.5751 -29.5027 2.2363
-6.5111 -29.7554 2.2363
-5.4387 -29.9698 2.2363
-4.3594 -30.1457 2.2363
-3.2745 -30.2827 2.2363
-2.1853 -30.3807 2.2363
-1.0934 -30.4397 2.2363
0.0000 -23.2701 2.2363
0.8353 -23.2552 2.2363
1.6696 -23.2103 2.2363
2.3864 -22.0691 2.1332
2.3343 -16.1420 1.5674
2.2683 -12.4991 1.2208
4.7452 -21.6853 2.1332
5.5206 -21.5012 2.1332
6.4308 -21.7694 2.1813
5.9500 -17.7679 1.8006
6.1424 -16.3662 1.6798
6.4150 -15.3893 1.6021
6.1968 -13.4816 1.4257
6.4686 -12.8374 1.3813
6.7541 -12.2855 1.3471
6.9704 -11.6664 1.3058
7.0948 -10.9607 1.2545
7.2099 -10.3075 1.2086
7.3169 -9.6997 1.1673
7.4171 -9.1313 1.1302
7.5112 -8.5972 1.0968
7.6000 -8.0931 1.0666
7.6881 -7.6193 1.0398
6.4872 -5.9832 0.8478
6.4903 -5.5684 0.8215
6.5715 -5.2405 0.8074
6.7104 -4.9679 0.8020
6.8649 -4.7105 0.7997
7.0989 -4.5050 0.8076
7.4713 -4.3733 0.8315
2.4441 -1.3152 0.2666
6.8626 -3.3810 0.7347
7.5349 -3.3817 0.7932
7.9453 -3.2285 0.8236
7.9909 -2.9174 0.8169
7.9909 -2.5963 0.8068
6.5524 -1.8717 0.6543
6.5591 -1.6214 0.6488
7.8992 -1.6543 0.7749
7.9907 -1.3761 0.7785
7.9907 -1.0823 0.7742
7.9906 -0.7915 0.7709
7.8919 -0.4964 0.7591
6.5769 -0.1771 0.6316
7.9330 0.0713 0.7616
7.9336 0.3564 0.7623
7.4196 0.6008 0.7145
7.2189 0.8463 0.6976
6.9671 1.0715 0.6766
6.6851 1.2753 0.6532
6.5707 1.4998 0.6468
6.5840 1.7537 0.6539
6.5840 2.0094 0.6606
6.5840 2.2708 0.6683
6.4738 2.4962 0.6658
6.7125 2.8691 0.7005
7.4626 3.5117 0.7914
8.2915 4.2718 0.8950
8.2914 4.6557 0.9124
8.2913 5.0555 0.9317
8.2913 5.4731 0.9532
8.2912 5.9110 0.9769
8.2911 6.3720 1.0032
8.2911 6.8591 1.0323
8.2910 7.3760 1.0646
8.2909 7.9270 1.1004
8.2908 8.5173 1.1402
8.2907 9.1527 1.1846
8.2906 9.8406 1.2343
8.2905 10.5897 1.2901
8.2646 11.3754 1.3487
8.2903 12.3174 1.4241
8.5401 13.7280 1.5507
8.5399 14.8945 1.6468
8.5398 16.2168 1.7579
8.5395 17.7327 1.8877
8.5393 19.4929 2.0411
8.3723 21.1463 2.1813
7.6079 21.4333 2.1813
6.7812 21.5260 2.1645
5.9407 21.5259 2.1417
5.1439 21.6396 2.1332
4.3638 21.8104 2.1332
3.5781 21.9531 2.1332
2.7877 22.0674 2.1332
1.9938 22.1533 2.1332
1.2552 23.2839 2.2363
0.4186 23.3139 2.2363
-0.4185 23.3138 2.2363
-1.2551 23.2836 2.2363
-2.0901 23.2234 2.2363
-2.9224 23.1332 2.2363
-3.7508 23.0132 2.2363
-4.5745 22.8636 2.2363
-5.3922 22.6843 2.2363
-6.1531 22.2955 2.2184
-6.6821 21.2117 2.1331
-7.4391 20.9578 2.1331
-8.1865 20.6770 2.1331
-6.6948 15.2824 1.6004
-9.6485 20.0356 2.1331
-10.3528 19.6598 2.1313
-9.0122 15.7181 1.7380
-11.7361 18.8656 2.1313
-12.4055 18.4317 2.1313
-13.0588 17.9741 2.1313
-13.6952 17.4933 2.1313
-13.8978 16.4960 2.0693
-14.9142 16.4648 2.1313
-15.4952 15.9184 2.1313
-15.5266 14.8451 2.0610
-15.5279 13.8143 1.9941
-15.5292 12.8471 1.9338
-15.5304 11.9356 1.8794
-13.7780 9.8227 1.6237
-15.5326 10.2532 1.7859
-15.5336 9.4713 1.7459
-15.5346 8.7229 1.7097
-15.5356 8.0040 1.6772
-15.5365 7.3111 1.6479
-15.5374 6.6412 1.6217
-15.8253 6.1021 1.6279
-15.5796 5.3733 1.5818
-15.5795 4.7548 1.5635
-15.5794 4.1497 1.5476
-15.5793 3.5560 1.5340
-15.5792 2.9721 1.5225
-15.5791 2.3960 1.5132
-15.5790 1.8263 1.5059
-15.5790 1.2614 1.5006
-15.5789 0.6998 1.4972
-15.5788 0.1400 1.4958
-15.5787 -0.4195 1.4964
-15.5786 -0.9800 1.4988
-15.5786 -1.5430 1.5032
-15.5785 -2.1101 1.5096
-15.5784 -2.6827 1.5180
-15.5783 -3.2624 1.5285
-15.5782 -3.8510 1.5411
-15.5781 -4.4500 1.5560
-15.5780 -5.0615 1.5732
-15.5780 -5.6874 1.5928
-15.5779 -6.3299 1.6151
-15.5778 -6.9914 1.6401
-15.5777 -7.6747 1.6681
-15.5776 -8.3825 1.6993
-15.5775 -9.1182 1.7339
-15.5773 -9.8855 1.7723
-15.5772 -10.6886 1.8149
-15.5771 -11.5323 1.8620
-15.5770 -12.4220 1.9141
-15.5768 -13.3643 1.9719
-13.7742 -12.7040 1.8003
-13.2545 -13.1359 1.7930
-12.7391 -13.5656 1.7880
-14.6062 -16.7179 2.1331
-13.9964 -17.2311 2.1331
-13.3686 -17.7221 2.1331
-12.7235 -18.1902 2.1331
-12.0622 -18.6349 2.1331
-11.3853 -19.0556 2.1331
-10.6937 -19.4517 2.1331
-10.4720 -20.7823 2.2363
-7.0571 -15.3532 1.6238
-8.9537 -21.4795 2.2363
-8.1768 -21.7869 2.2363
-7.3894 -22.0661 2.2363
-6.5925 -22.3170 2.2363
-5.7871 -22.5391 2.2363
-4.9743 -22.7322 2.2363
-4.1550 -22.8961 2.2363
-3.3305 -23.0304 2.2363
-2.5016 -23.1351 2.2363
-1.6695 -23.2100 2.2363
-0.8353 -23.2550 2.2363
0.0000 -18.8109 2.2363
0.6753 -18.7988 2.2363
1.3497 -18.7625 2.2363
1.9291 -17.8400 2.1332
2.3191 -16.0364 1.9263
2.2683 -12.4991 1.5102
3.8359 -17.5296 2.1332
4.4627 -17.3808 2.1332
5.0838 -17.2096 2.1332
5.6984 -17.0162 2.1332
6.1487 -16.3830 2.0802
5.7933 -13.8977 1.7899
6.0718 -13.2096 1.7282
6.2232 -12.3503 1.6439
6.6360 -12.0706 1.6373
6.9705 -11.6664 1.6154
7.1738 -11.0828 1.5692
7.2099 -10.3075 1.4951
7.3169 -9.6997 1.4441
7.4171 -9.1312 1.3982
7.5112 -8.5971 1.3569
7.6000 -8.0931 1.3195
6.7327 -6.6724 1.1266
6.4258 -5.9265 1.0389
6.4903 -5.5684 1.0163
6.5715 -5.2405 0.9989
6.7104 -4.9679 0.9922
6.9084 -4.7403 0.9956
7.1497 -4.5372 1.0062
7.4713 -4.3733 1.0287
2.4437 -1.3150 0.3297
6.8627 -3.3810 0.9090
7.5351 -3.3818 0.9813
7.9462 -3.2288 1.0191
7.9909 -2.9174 1.0107
6.3961 -2.0781 0.7990
6.4039 -1.8293 0.7912
6.6968 -1.6554 0.8195
7.8992 -1.6542 0.9588
7.9907 -1.3760 0.9632
7.9907 -1.0823 0.9579
7.9906 -0.7914 0.9538
7.8919 -0.4964 0.9393
6.4328 -0.1732 0.7644
7.9330 0.0713 0.9423
7.9336 0.3564 0.9432
7.5633 0.6124 0.9012
7.0830 0.8304 0.8470
6.8533 1.0540 0.8235
6.6851 1.2753 0.8082
6.5706 1.4998 0.8004
6.4541 1.7191 0.7931
6.4161 1.9582 0.7966
6.4297 2.2176 0.8076
6.5345 2.5197 0.8316
6.7125 2.8691 0.8668
8.2915 3.9018 1.0881
8.2915 4.2718 1.1074
8.2914 4.6557 1.1290
8.2913 5.0555 1.1530
8.2913 5.4731 1.1795
8.2912 5.9111 1.2089
8.2911 6.3720 1.2414
8.2911 6.8591 1.2774
8.2910 7.3760 1.3174
8.2909 7.9271 1.3617
8.2908 8.5173 1.4110
8.2907 9.1527 1.4660
8.2906 9.8406 1.5274
8.2905 10.5898 1.5964
8.2646 11.3754 1.6690
8.2903 12.3175 1.7624
8.5401 13.7280 1.9191
8.5399 14.8945 2.0379
8.5398 16.2169 2.1754
7.9738 16.5579 2.1813
7.3743 16.8336 2.1813
6.7654 17.0876 2.1813
6.1477 17.3196 2.1813
5.4003 17.1428 2.1332
4.7815 17.3256 2.1332
4.1566 17.4862 2.1332
3.5262 17.6242 2.1332
2.8913 17.7395 2.1332
2.2527 17.8318 2.1332
1.6890 18.7663 2.2363
1.0143 18.8148 2.2363
0.3382 18.8391 2.2363
-0.3382 18.8390 2.2363
-1.0142 18.8147 2.2363
-1.6889 18.7660 2.2363
-2.3615 18.6932 2.2363
-3.0309 18.5962 2.2363
-3.6965 18.4753 2.2363
-4.3572 18.3306 2.2363
-5.0124 18.1621 2.2363
-5.6610 17.9703 2.2363
-6.1524 17.3329 2.1831
-6.6153 16.7086 2.1331
-6.6877 15.2663 1.9784
-7.7968 16.1905 2.1331
-8.3728 15.8999 2.1331
-8.9380 15.5888 2.1331
-9.4917 15.2577 2.1331
-10.0248 14.8946 2.1313
-10.5528 14.5249 2.1313
-11.0672 14.1365 2.1313
-11.5672 13.7298 2.1313
-12.0524 13.3055 2.1313
-9.5394 9.7999 1.6237
-12.9753 12.4059 2.1313
-13.4119 11.9318 2.1313
-13.8313 11.4424 2.1313
-14.2327 10.9383 2.1313
-13.0382 9.2953 1.9013
-14.9801 9.8885 2.1313
-15.3250 9.3441 2.1313
-15.5346 8.7229 2.1156
-15.5356 8.0040 2.0753
-15.5365 7.3111 2.0391
-15.5374 6.6412 2.0066
-15.8252 6.1021 2.0143
-15.5796 5.3734 1.9572
-15.5795 4.7548 1.9346
-15.5794 4.1497 1.9149
-15.5793 3.5561 1.8980
-13.8426 2.6408 1.6738
-13.5106 2.0779 1.6237
-15.5790 1.8264 1.8632
-15.5790 1.2615 1.8566
-15.5789 0.6998 1.8525
-15.5788 0.1400 1.8508
-15.5787 -0.4194 1.8514
-15.5786 -0.9799 1.8544
-15.5786 -1.5430 1.8599
-15.5785 -2.1101 1.8678
-15.5784 -2.6827 1.8781
-13.6515 -2.8589 1.6572
-13.2658 -3.2793 1.6237
-13.1391 -3.7532 1.6237
-15.5780 -5.0614 1.9463
-15.5780 -5.6873 1.9706
-15.5779 -6.3299 1.9981
-15.5778 -6.9914 2.0291
-15.5777 -7.6746 2.0637
-15.5776 -8.3824 2.1023
-15.4772 -9.0595 2.1313
-15.1417 -9.6090 2.1313
-14.7866 -10.1461 2.1313
-14.4126 -10.6701 2.1313
-14.0200 -11.1804 2.1313
-13.6093 -11.6762 2.1313
-13.1811 -12.1570 2.1313
-12.7360 -12.6220 2.1313
-12.2745 -13.0708 2.1313
-11.7972 -13.5028 2.1313
-11.3047 -13.9173 2.1313
-9.6979 -12.8560 1.9142
-10.2767 -14.6921 2.1313
-9.7506 -15.0636 2.1331
-9.2034 -15.4037 2.1331
-8.6444 -15.7240 2.1331
-8.0743 -16.0240 2.1331
-7.0496 -15.3369 2.0066
-6.9037 -16.5617 2.1331
-6.6099 -17.6118 2.2363
-5.9734 -17.8376 2.2363
-5.3292 -18.0404 2.2363
-4.6781 -18.2200 2.2363
-4.0211 -18.3761 2.2363
-3.3588 -18.5086 2.2363
-2.6922 -18.6172 2.2363
-2.0222 -18.7018 2.2363
-1.3496 -18.7623 2.2363
-0.6752 -18.7987 2.2363
0.0000 -15.7722 2.2363
0.5662 -15.7621 2.2363
1.1316 -15.7317 2.2363
1.6956 -15.6810 2.2363
2.1534 -14.8905 2.1332
2.2683 -12.4991 1.8011
3.2162 -14.6979 2.1332
3.7418 -14.5731 2.1332
4.2626 -14.4295 2.1332
4.7778 -14.2673 2.1332
5.2869 -14.0868 2.1332
5.6653 -13.5907 2.0876
5.8334 -12.6907 1.9802
6.0983 -12.1024 1.9213
6.6360 -12.0706 1.9528
6.9705 -11.6664 1.9267
7.1738 -11.0827 1.8716
7.2099 -10.3075 1.7832
7.3170 -9.6997 1.7224
7.4997 -9.2329 1.6862
7.5949 -8.6928 1.6363
7.6000 -8.0930 1.5738
6.7327 -6.6724 1.3437
6.5851 -6.0734 1.2698
6.5851 -5.6496 1.2299
6.5715 -5.2405 1.1914
6.7104 -4.9679 1.1834
6.9898 -4.7961 1.2015
7.2545 -4.6038 1.2178
6.1640 -3.6080 1.0123
2.4432 -1.3147 0.3932
6.8628 -3.3811 1.0843
7.2385 -3.2487 1.1244
7.2397 -2.9417 1.1075
7.2409 -2.6435 1.0924
6.1014 -1.9824 0.9091
6.1107 -1.7455 0.9006
6.6970 -1.6555 0.9775
7.2425 -1.5167 1.0485
7.2413 -1.2470 1.0412
7.2402 -0.9806 1.0353
7.2426 -0.7173 1.0312
6.2934 -0.3959 0.8934
6.2942 -0.1694 0.8921
7.9332 0.0713 1.1240
7.9336 0.3564 1.1251
7.4196 0.6008 1.0546
7.0830 0.8304 1.0103
6.8533 1.0540 0.9823
6.6850 1.2753 0.9641
6.5706 1.4998 0.9547
6.5044 1.7325 0.9535
6.4662 1.9735 0.9576
6.4852 2.2367 0.9717
6.5345 2.5197 0.9920
6.7125 2.8692 1.0340
8.2915 3.9018 1.2979
8.2915 4.2718 1.3211
8.2914 4.6558 1.3468
8.2913 5.0555 1.3754
8.2913 5.4732 1.4070
8.2912 5.9111 1.4421
8.2911 6.3720 1.4809
8.2911 6.8591 1.5239
8.2910 7.3760 1.5715
8.2909 7.9271 1.6244
8.2908 8.5173 1.6832
8.2907 9.1527 1.7488
8.2906 9.8406 1.8221
8.2905 10.5898 1.9045
8.2646 11.3755 1.9911
8.2903 12.3175 2.1024
8.1371 13.0803 2.1813
7.6625 13.3641 2.1813
7.1779 13.6307 2.1813
6.6840 13.8797 2.1813
6.1815 14.1108 2.1813
5.5461 14.0079 2.1332
5.0397 14.1980 2.1332
4.5268 14.3699 2.1332
4.0081 14.5232 2.1332
3.4842 14.6578 2.1332
2.9558 14.7734 2.1332
2.4236 14.8700 2.1332
1.9018 15.0548 2.1485
1.4158 15.7308 2.2363
0.8502 15.7714 2.2363
0.2835 15.7918 2.2363
-0.2835 15.7917 2.2363
-0.8502 15.7713 2.2363
-1.4157 15.7306 2.2363
-1.9795 15.6695 2.2363
-2.5407 15.5883 2.2363
-3.0985 15.4869 2.2363
-3.6524 15.3656 2.2363
-4.2016 15.2245 2.2363
-4.7453 15.0637 2.2363
-5.2830 14.8835 2.2363
-5.8137 14.6841 2.2363
-6.1548 14.0498 2.1720
-6.5357 13.5719 2.1331
-7.0186 13.3283 2.1331
-7.4924 13.0676 2.1331
-7.9565 12.7901 2.1331
-8.4104 12.4960 2.1331
-8.8534 12.1859 2.1331
-9.2849 11.8600 2.1331
-9.7045 11.5189 2.1331
-10.1033 11.1537 2.1313
-8.7897 9.0298 1.7847
-10.8770 10.3997 2.1313
-11.2431 10.0024 2.1313
-11.5947 9.5921 2.1313
-11.9313 9.1696 2.1313
-12.2524 8.7352 2.1313
-12.5578 8.2896 2.1313
-12.8470 7.8333 2.1313
-13.1196 7.3669 2.1313
-13.3753 6.8910 2.1313
-13.6137 6.4063 2.1313
-13.8346 5.9134 2.1313
-14.0376 5.4128 2.1313
-14.2225 4.9053 2.1313
-14.3891 4.3916 2.1313
-14.5370 3.8721 2.1313
-14.6663 3.3477 2.1313
-14.7767 2.8190 2.1313
-14.8680 2.2867 2.1313
-13.1570 1.5424 1.8769
-14.9930 1.2140 2.1313
-15.0265 0.6750 2.1313
-15.0407 0.1352 2.1313
-15.0354 -0.4048 2.1313
-15.0108 -0.9442 2.1313
-14.9669 -1.4824 2.1313
-14.9037 -2.0186 2.1313
-14.8213 -2.5523 2.1313
-13.7574 -2.8811 1.9920
-14.5992 -3.6089 2.1313
-13.1127 -3.7457 1.9327
-14.3020 -4.6468 2.1313
-14.1257 -5.1571 2.1313
-13.9311 -5.6607 2.1313
-13.7187 -6.1570 2.1313
-13.4885 -6.6453 2.1313
-13.2410 -7.1251 2.1313
-12.9764 -7.5957 2.1313
-12.6951 -8.0564 2.1313
-12.3975 -8.5068 2.1313
-12.0839 -8.9461 2.1313
-9.5579 -7.6220 1.7330
-9.2172 -7.9079 1.7216
-8.8804 -8.1904 1.7126
-8.6255 -8.5483 1.7216
-10.2915 -10.9591 2.1313
-9.8994 -11.3306 2.1331
-9.4862 -11.6785 2.1331
-9.0607 -12.0113 2.1331
-8.6236 -12.3287 2.1331
-8.1754 -12.6301 2.1331
-7.7166 -12.9153 2.1331
-7.2480 -13.1839 2.1331
-6.7700 -13.4354 2.1331
-6.2833 -13.6696 2.1331
-6.0687 -14.5584 2.2363
-5.5421 -14.7668 2.2363
-5.0084 -14.9561 2.2363
-4.4683 -15.1262 2.2363
