ply
format ascii 1.0
element vertex 2172
property float32 x
property float32 y
property float32 z
end_header
-11.4065 -1.1328 2.1556
-11.3615 -1.5420 2.1556
-11.3019 -1.9493 2.1556
-11.2276 -2.3544 2.1556
-11.1388 -2.7566 2.1556
-11.0356 -3.1555 2.1556
-10.9181 -3.5505 2.1556
-10.7864 -3.9412 2.1556
-10.6408 -4.3269 2.1556
-10.3690 -4.6569 2.1325
-10.1978 -5.0273 2.1325
-10.0133 -5.3915 2.1325
-9.8158 -5.7489 2.1325
-9.6055 -6.0990 2.1325
-9.3820 -6.4409 2.1324
-9.1470 -6.7751 2.1324
-8.9000 -7.1007 2.1324
-8.6414 -7.4173 2.1324
-8.3715 -7.7244 2.1324
-8.0907 -8.0217 2.1324
-7.7992 -8.3087 2.1324
-7.4976 -8.5850 2.1324
-7.1861 -8.8504 2.1324
-6.8652 -9.1044 2.1324
-6.5352 -9.3467 2.1324
-6.4412 -9.9549 2.2165
-6.1333 -10.2692 2.2356
-5.7618 -10.4845 2.2356
-5.3827 -10.6863 2.2356
-4.9964 -10.8742 2.2356
-4.6036 -11.0482 2.2356
-4.2047 -11.2078 2.2356
-3.8003 -11.3530 2.2356
-3.3908 -11.4834 2.2356
-2.9769 -11.5991 2.2356
-2.5590 -11.6996 2.2356
-2.1376 -11.7851 2.2356
-1.7135 -11.8552 2.2356
-1.2870 -11.9100 2.2356
-0.8588 -11.9493 2.2356
-0.4295 -11.9731 2.2356
0.0005 -10.6459 2.2356
0.3826 -10.6394 2.2356
0.7641 -10.6192 2.2356
1.1448 -10.5851 2.2356
1.5239 -10.5373 2.2356
1.8134 -9.9928 2.1325
2.1708 -9.9212 2.1325
2.5254 -9.8367 2.1325
2.8767 -9.7395 2.1325
3.2243 -9.6297 2.1325
3.5676 -9.5074 2.1325
3.9063 -9.3728 2.1325
4.2399 -9.2260 2.1325
4.5679 -9.0673 2.1325
4.8900 -8.8969 2.1325
5.2057 -8.7150 2.1325
5.5146 -8.5218 2.1325
5.8248 -8.3296 2.1356
6.1193 -8.1143 2.1356
6.4058 -7.8886 2.1356
6.6840 -7.6527 2.1356
5.6923 -6.0635 1.7483
7.2138 -7.1516 2.1356
7.4647 -6.8872 2.1356
7.7059 -6.6138 2.1356
7.9371 -6.3320 2.1356
8.1579 -6.0421 2.1356
5.6979 -3.9115 1.4542
8.5673 -5.4395 2.1356
8.7555 -5.1276 2.1356
8.4369 -4.5425 2.0172
9.0973 -4.4846 2.1356
9.2506 -4.1544 2.1356
9.3918 -3.8190 2.1356
9.5209 -3.4787 2.1356
8.3628 -2.7196 1.8531
8.3522 -2.3882 1.8310
9.1520 -2.2650 1.9877
9.9122 -2.0786 2.1356
9.9781 -1.7211 2.1356
10.0312 -1.3616 2.1356
10.0618 -0.9995 2.1336
10.0612 -0.6358 2.1277
10.0606 -0.2738 2.1247
10.1134 0.0879 2.1356
10.1014 0.4508 2.1356
10.0763 0.8129 2.1356
1.9339 0.2261 0.4114
1.8981 0.2913 0.4059
9.9234 1.8901 2.1356
9.8468 2.2445 2.1356
9.7576 2.5960 2.1356
9.6558 2.9439 2.1356
9.5417 3.2878 2.1356
9.4153 3.6274 2.1356
9.2769 3.9621 2.1356
9.1266 4.2916 2.1356
8.9646 4.6154 2.1356
8.7911 4.9331 2.1356
8.6064 5.2444 2.1356
8.4108 5.5488 2.1356
8.2044 5.8459 2.1356
7.9875 6.1354 2.1356
7.7487 6.4071 2.1324
7.5121 6.6797 2.1324
7.2660 6.9438 2.1324
5.6690 5.8211 1.7243
5.6458 6.2299 1.7845
6.4736 7.6804 2.1324
6.1926 7.9065 2.1324
5.9037 8.1223 2.1324
5.6074 8.3276 2.1324
5.3039 8.5222 2.1324
4.9937 8.7058 2.1324
4.6772 8.8782 2.1324
4.3548 9.0391 2.1324
4.2219 9.6334 2.2356
3.8729 9.7775 2.2356
3.5189 9.9091 2.2356
3.1605 10.0279 2.2356
2.7981 10.1339 2.2356
2.4322 10.2268 2.2356
2.0632 10.3066 2.2356
1.6917 10.3732 2.2356
1.3180 10.4265 2.2356
0.9428 10.4665 2.2356
0.5663 10.4930 2.2356
0.1892 10.5060 2.2356
-0.1882 10.5056 2.2356
-0.5652 10.4918 2.2356
-0.9416 10.4645 2.2356
-1.3167 10.4238 2.2356
-1.6901 10.3697 2.2356
-2.0614 10.3024 2.2356
-2.4300 10.2218 2.2356
-2.7955 10.1282 2.2356
-3.1575 10.0216 2.2356
-3.5154 9.9021 2.2356
-3.8689 9.7699 2.2356
-4.2174 9.6252 2.2356
-4.5605 9.4682 2.2356
-4.8979 9.2990 2.2356
-5.2291 9.1178 2.2356
-5.5535 8.9250 2.2356
-5.8710 8.7206 2.2356
-6.1809 8.5051 2.2356
-6.4582 8.2468 2.2270
-6.4691 7.6761 2.1341
-6.7365 7.4344 2.1325
-7.0000 7.1887 2.1325
-7.2546 6.9337 2.1325
-7.4999 6.6697 2.1325
-7.7357 6.3971 2.1325
-7.9617 6.1162 2.1325
-8.1775 5.8274 2.1325
-8.3829 5.5310 2.1325
-8.5776 5.2274 2.1325
-8.7613 4.9169 2.1325
-8.9339 4.6001 2.1325
-9.0950 4.2772 2.1325
-9.2445 3.9487 2.1325
-9.3822 3.6150 2.1325
-9.5079 3.2765 2.1325
-9.6215 2.9337 2.1325
-9.7227 2.5869 2.1325
-9.8114 2.2367 2.1325
-9.8876 1.8834 2.1325
-9.9510 1.5276 2.1325
-10.0017 1.1696 2.1325
-10.0396 0.8100 2.1325
-10.0645 0.4492 2.1325
-10.0765 0.0876 2.1325
-10.0755 -0.2742 2.1325
-10.0616 -0.6359 2.1325
-10.0346 -0.9969 2.1325
-9.9948 -1.3568 2.1325
-9.9420 -1.7151 2.1325
-9.8764 -2.0713 2.1325
-9.7980 -2.4251 2.1325
-9.7069 -2.7759 2.1325
-9.6033 -3.1233 2.1325
-9.4872 -3.4668 2.1325
-9.3589 -3.8060 2.1325
-9.2184 -4.1404 2.1325
-9.0659 -4.4696 2.1325
-8.9016 -4.7933 2.1325
-8.7258 -5.1108 2.1325
-8.5386 -5.4219 2.1325
-8.3404 -5.7262 2.1325
-8.1312 -6.0231 2.1325
-7.9109 -6.3119 2.1324
-7.6808 -6.5931 2.1324
-7.4407 -6.8660 2.1324
-7.1910 -7.1300 2.1324
-6.9318 -7.3849 2.1324
-6.6635 -7.6304 2.1324
-6.4517 -7.9463 2.1541
-6.3966 -8.4834 2.2356
-6.0891 -8.7090 2.2356
-5.7735 -8.9234 2.2356
-5.4504 -9.1263 2.2356
-5.1202 -9.3174 2.2356
-4.7832 -9.4966 2.2356
-4.4399 -9.6634 2.2356
-4.0908 -9.8178 2.2356
-3.7363 -9.9596 2.2356
-3.3768 -10.0884 2.2356
-3.0130 -10.2042 2.2356
-2.6451 -10.3068 2.2356
-2.2737 -10.3961 2.2356
-1.8993 -10.4719 2.2356
-1.5224 -10.5341 2.2356
-1.1435 -10.5827 2.2356
-0.7630 -10.6175 2.2356
-0.3815 -10.6386 2.2356
0.0005 -9.5692 2.2356
0.3439 -9.5633 2.2356
0.6869 -9.5451 2.2356
1.0290 -9.5144 2.2356
1.3697 -9.4715 2.2356
1.6300 -8.9820 2.1325
1.9512 -8.9177 2.1325
2.2699 -8.8418 2.1325
2.5857 -8.7544 2.1325
2.8981 -8.6558 2.1325
3.2067 -8.5459 2.1325
3.5112 -8.4249 2.1325
3.8110 -8.2930 2.1325
4.1059 -8.1504 2.1325
4.3955 -7.9973 2.1325
4.6793 -7.8338 2.1325
4.9570 -7.6602 2.1325
5.2282 -7.4768 2.1325
5.4926 -7.2836 2.1325
5.7582 -7.0913 2.1356
6.0083 -6.8793 2.1356
6.2506 -6.6585 2.1356
6.4847 -6.4291 2.1356
6.7104 -6.1915 2.1356
5.6898 -4.8837 1.7541
5.7273 -4.5693 1.7142
7.3338 -5.4321 2.1356
5.6978 -3.9116 1.6175
7.7022 -4.8905 2.1356
7.8715 -4.6101 2.1356
8.0305 -4.3239 2.1356
8.1791 -4.0323 2.1356
8.3170 -3.7354 2.1356
8.4442 -3.4339 2.1356
8.5604 -3.1281 2.1356
8.6655 -2.8183 2.1356
8.3634 -2.3917 2.0391
8.8419 -2.1885 2.1356
8.9130 -1.8694 2.1356
8.9725 -1.5480 2.1356
9.0204 -1.2247 2.1356
9.0567 -0.8999 2.1356
9.0812 -0.5741 2.1356
9.0941 -0.2477 2.1356
9.0952 0.0788 2.1356
9.0845 0.4051 2.1356
9.0622 0.7308 2.1356
1.9336 0.2260 0.4574
1.8978 0.2912 0.4512
8.9253 1.6997 2.1356
8.8566 2.0185 2.1356
8.7765 2.3347 2.1356
8.6852 2.6476 2.1356
8.5828 2.9571 2.1356
8.4693 3.2626 2.1356
8.3449 3.5638 2.1356
8.2099 3.8602 2.1356
8.0643 4.1516 2.1356
7.9085 4.4375 2.1356
7.7425 4.7176 2.1356
7.5666 4.9916 2.1356
7.3811 5.2590 2.1356
7.1862 5.5195 2.1356
5.6637 4.6828 1.7324
5.6541 5.0274 1.7839
6.5375 6.2472 2.1324
6.3078 6.4767 2.1324
6.0702 6.6978 2.1324
5.8248 6.9103 2.1324
5.5721 7.1138 2.1324
5.3122 7.3082 2.1324
5.0456 7.4931 2.1324
4.7727 7.6683 2.1324
4.4936 7.8336 2.1324
4.2089 7.9888 2.1324
3.9188 8.1338 2.1324
3.6238 8.2682 2.1324
3.4852 8.7984 2.2356
3.1667 8.9169 2.2356
2.8442 9.0239 2.2356
2.5181 9.1194 2.2356
2.1888 9.2031 2.2356
1.8568 9.2750 2.2356
1.5225 9.3350 2.2356
1.1862 9.3830 2.2356
0.8485 9.4190 2.2356
0.5097 9.4429 2.2356
0.1703 9.4547 2.2356
-0.1693 9.4544 2.2356
-0.5087 9.4420 2.2356
-0.8474 9.4174 2.2356
-1.1850 9.3808 2.2356
-1.5210 9.3322 2.2356
-1.8551 9.2716 2.2356
-2.1869 9.1991 2.2356
-2.5158 9.1148 2.2356
-2.8416 9.0188 2.2356
-3.1637 8.9112 2.2356
-3.4818 8.7922 2.2356
-3.7954 8.6620 2.2356
-4.1042 8.5206 2.2356
-4.4078 8.3683 2.2356
-4.7058 8.2052 2.2356
-4.9978 8.0315 2.2356
-5.2834 7.8476 2.2356
-5.5622 7.6535 2.2356
-5.8341 7.4496 2.2356
-6.0984 7.2361 2.2356
-6.3550 7.0132 2.2356
-6.4558 6.6296 2.1856
-6.5281 6.2391 2.1325
-6.7487 6.0015 2.1325
-6.9608 5.7561 2.1325
-7.1640 5.5032 2.1325
-7.3581 5.2432 2.1325
-7.5428 4.9764 2.1325
-7.7178 4.7032 2.1325
-7.8830 4.4238 2.1325
-8.0381 4.1386 2.1325
-8.1830 3.8480 2.1325
-8.3173 3.5524 2.1325
-8.4411 3.2521 2.1325
-8.5540 2.9475 2.1325
-8.6560 2.6390 2.1325
-8.7468 2.3270 2.1325
-8.8265 2.0119 2.1325
-8.8948 1.6940 2.1325
-8.9517 1.3739 2.1325
-8.9971 1.0519 2.1325
-9.0310 0.7284 2.1325
-9.0532 0.4038 2.1325
-9.0638 0.0785 2.1325
-9.0627 -0.2469 2.1325
-9.0499 -0.5722 2.1325
-9.0255 -0.8969 2.1325
-8.9894 -1.2206 2.1325
-8.9418 -1.5428 2.1325
-8.8825 -1.8632 2.1325
-8.8118 -2.1813 2.1325
-8.7297 -2.4968 2.1325
-8.6363 -2.8091 2.1325
-8.5318 -3.1179 2.1325
-8.4161 -3.4229 2.1325
-8.2896 -3.7236 2.1325
-8.1523 -4.0195 2.1325
-8.0044 -4.3105 2.1325
-7.8462 -4.5959 2.1325
-7.6777 -4.8756 2.1325
-7.4993 -5.1490 2.1325
-7.3110 -5.4159 2.1325
-7.1133 -5.6759 2.1325
-6.9063 -5.9287 2.1325
-6.6903 -6.1738 2.1325
-6.4651 -6.4106 2.1324
-6.4462 -6.8679 2.2057
-6.2808 -7.1924 2.2356
-6.0196 -7.4144 2.2356
-5.7505 -7.6269 2.2356
-5.4739 -7.8296 2.2356
-5.1902 -8.0222 2.2356
-4.8997 -8.2045 2.2356
-4.6027 -8.3762 2.2356
-4.2997 -8.5371 2.2356
-3.9911 -8.6870 2.2356
-3.6772 -8.8257 2.2356
-3.3585 -8.9530 2.2356
-3.0354 -9.0687 2.2356
-2.7082 -9.1727 2.2356
-2.3775 -9.2648 2.2356
-2.0437 -9.3450 2.2356
-1.7072 -9.4130 2.2356
-1.3684 -9.4689 2.2356
-1.0278 -9.5125 2.2356
-0.6858 -9.5438 2.2356
-0.3429 -9.5627 2.2356
0.0005 -8.6818 2.2356
0.3120 -8.6765 2.2356
0.6232 -8.6599 2.2356
0.9336 -8.6321 2.2356
1.2427 -8.5931 2.2356
1.5503 -8.5430 2.2356
1.7702 -8.0907 2.1325
2.0594 -8.0218 2.1325
2.3459 -7.9426 2.1325
2.6293 -7.8531 2.1325
2.9093 -7.7534 2.1325
3.1855 -7.6437 2.1325
3.4576 -7.5241 2.1325
3.7252 -7.3948 2.1325
3.9879 -7.2559 2.1325
4.2454 -7.1076 2.1325
4.4974 -6.9502 2.1325
4.7435 -6.7838 2.1325
4.9834 -6.6086 2.1325
5.2169 -6.4249 2.1325
5.4431 -6.2324 2.1324
5.6713 -6.0416 2.1356
5.8838 -5.8336 2.1356
6.0886 -5.6180 2.1356
6.2855 -5.3952 2.1356
6.4742 -5.1655 2.1356
6.6545 -4.9291 2.1356
5.6976 -3.9117 1.7825
5.6893 -3.6126 1.7385
5.7280 -3.3549 1.7126
7.2871 -3.9239 2.1356
7.4220 -3.6593 2.1356
7.5473 -3.3900 2.1356
7.6628 -3.1164 2.1356
7.7684 -2.8389 2.1356
7.8639 -2.5578 2.1356
7.9492 -2.2735 2.1356
8.0243 -1.9864 2.1356
8.0889 -1.6968 2.1356
8.1431 -1.4051 2.1356
8.1867 -1.1117 2.1356
8.2198 -0.8170 2.1356
8.2422 -0.5213 2.1356
8.2540 -0.2251 2.1356
8.2552 0.0713 2.1356
8.2457 0.3675 2.1356
8.2255 0.6631 2.1356
1.9332 0.2259 0.5038
1.8975 0.2911 0.4970
8.1017 1.5426 2.1356
8.0396 1.8321 2.1356
7.9670 2.1190 2.1356
7.8843 2.4032 2.1356
7.7914 2.6842 2.1356
7.6885 2.9615 2.1356
7.5758 3.2350 2.1356
7.4533 3.5042 2.1356
7.3213 3.7688 2.1356
7.1800 4.0285 2.1356
5.6822 3.4620 1.7263
5.6615 3.7345 1.7600
5.7066 4.0656 1.8185
6.5246 5.0111 2.1356
6.3394 5.2412 2.1356
6.1461 5.4645 2.1356
5.9359 5.6721 2.1324
5.7275 5.8806 2.1324
5.5118 6.0814 2.1324
5.2891 6.2745 2.1324
5.0597 6.4594 2.1324
4.8238 6.6359 2.1324
4.5818 6.8039 2.1324
4.3339 6.9631 2.1324
4.0806 7.1133 2.1324
3.8221 7.2543 2.1324
3.5587 7.3860 2.1324
3.2909 7.5082 2.1324
3.0189 7.6207 2.1324
2.8758 8.0974 2.2356
2.5829 8.1947 2.2356
2.2869 8.2814 2.2356
1.9878 8.3575 2.2356
1.6863 8.4229 2.2356
1.3827 8.4775 2.2356
1.0773 8.5211 2.2356
0.7706 8.5538 2.2356
0.4629 8.5756 2.2356
0.1547 8.5863 2.2356
-0.1537 8.5861 2.2356
-0.4619 8.5748 2.2356
-0.7695 8.5525 2.2356
-1.0761 8.5193 2.2356
-1.3813 8.4751 2.2356
-1.6848 8.4201 2.2356
-1.9861 8.3542 2.2356
-2.2848 8.2776 2.2356
-2.5806 8.1904 2.2356
-2.8732 8.0928 2.2356
-3.1620 7.9847 2.2356
-3.4468 7.8663 2.2356
-3.7273 7.7379 2.2356
-4.0030 7.5995 2.2356
-4.2735 7.4513 2.2356
-4.5387 7.2936 2.2356
-4.7980 7.1265 2.2356
-5.0513 6.9502 2.2356
-5.2980 6.7649 2.2356
-5.5381 6.5710 2.2356
-5.7710 6.3685 2.2356
-5.9967 6.1579 2.2356
-6.2146 5.9393 2.2356
-6.4246 5.7130 2.2356
-6.4548 5.3374 2.1777
-6.5054 4.9970 2.1325
-6.6815 4.7609 2.1325
-6.8491 4.5185 2.1325
-7.0079 4.2704 2.1325
-7.1578 4.0166 2.1325
-7.2986 3.7576 2.1325
-7.4300 3.4937 2.1325
-7.5519 3.2252 2.1325
-7.6641 2.9525 2.1325
-7.7665 2.6759 2.1325
-7.8589 2.3958 2.1325
-7.9413 2.1124 2.1325
-8.0135 1.8263 2.1325
-8.0754 1.5377 2.1325
-8.1269 1.2471 2.1325
-8.1680 0.9547 2.1325
-8.1985 0.6610 2.1325
-8.2186 0.3663 2.1325
-8.2280 0.0710 2.1325
-8.2269 -0.2244 2.1325
-8.2151 -0.5197 2.1325
-8.1928 -0.8144 2.1325
-8.1599 -1.1082 2.1325
-8.1165 -1.4007 2.1325
-8.0626 -1.6915 2.1325
-7.9982 -1.9802 2.1325
-7.9236 -2.2665 2.1325
-7.8387 -2.5499 2.1325
-7.7436 -2.8302 2.1325
-7.6385 -3.1069 2.1325
-7.5235 -3.3797 2.1325
-7.3988 -3.6483 2.1325
-7.2645 -3.9123 2.1325
-7.1207 -4.1713 2.1325
-6.9677 -4.4250 2.1325
-6.8056 -4.6730 2.1325
-6.6440 -4.9221 2.1355
-6.4552 -5.1510 2.1325
-6.4338 -5.5233 2.1892
-6.3646 -5.8736 2.2356
-6.1507 -6.0992 2.2356
-5.9288 -6.3170 2.2356
-5.6992 -6.5268 2.2356
-5.4621 -6.7281 2.2356
-5.2179 -6.9208 2.2356
-4.9668 -7.1046 2.2356
-4.7093 -7.2793 2.2356
-4.4457 -7.4446 2.2356
-4.1762 -7.6003 2.2356
-3.9012 -7.7462 2.2356
-3.6211 -7.8821 2.2356
-3.3363 -8.0079 2.2356
-3.0471 -8.1233 2.2356
-2.7539 -8.2282 2.2356
-2.4571 -8.3225 2.2356
-2.1570 -8.4060 2.2356
-1.8541 -8.4786 2.2356
-1.5488 -8.5403 2.2356
-1.2414 -8.5910 2.2356
-0.9324 -8.6305 2.2356
-0.6221 -8.6588 2.2356
-0.3110 -8.6759 2.2356
0.0005 -7.9372 2.2356
0.2853 -7.9323 2.2356
0.5698 -7.9171 2.2356
0.8535 -7.8917 2.2356
1.1361 -7.8560 2.2356
1.4173 -7.8102 2.2356
1.6184 -7.3967 2.1325
1.8827 -7.3338 2.1325
2.1447 -7.2614 2.1325
2.4038 -7.1795 2.1325
2.6598 -7.0885 2.1325
2.9123 -6.9882 2.1325
3.1610 -6.8789 2.1325
3.4056 -6.7607 2.1325
3.6458 -6.6337 2.1325
3.8813 -6.4982 2.1325
4.1117 -6.3543 2.1325
4.3364 -6.2017 2.1324
4.5558 -6.0416 2.1324
4.7692 -5.8737 2.1324
4.9765 -5.6983 2.1324
5.1772 -5.5155 2.1324
5.3712 -5.3256 2.1324
5.5583 -5.1288 2.1324
5.7468 -4.9330 2.1356
5.9194 -4.7230 2.1356
6.0844 -4.5070 2.1356
5.7015 -3.9145 1.9509
6.3903 -4.0579 2.1356
6.5309 -3.8254 2.1356
6.6630 -3.5881 2.1356
5.6881 -2.8046 1.7900
5.6855 -2.5539 1.7594
5.6906 -2.3145 1.7344
5.7162 -2.0891 1.7185
7.1909 -2.3391 2.1356
7.2690 -2.0792 2.1356
7.3378 -1.8167 2.1356
7.3970 -1.5519 2.1356
7.4466 -1.2852 2.1356
7.4866 -1.0169 2.1356
7.5170 -0.7474 2.1356
7.5376 -0.4770 2.1356
7.5485 -0.2061 2.1356
7.5497 0.0649 2.1356
7.5411 0.3358 2.1356
7.5228 0.6062 2.1356
1.9329 0.2258 0.5508
1.8972 0.2910 0.5433
7.4100 1.4106 2.1356
7.3532 1.6754 2.1356
7.2870 1.9379 2.1356
7.2114 2.1979 2.1356
5.7150 1.9686 1.7126
5.6889 2.1911 1.7276
5.6718 2.4218 1.7480
5.6698 2.6655 1.7760
6.6970 3.4472 2.1356
6.5678 3.6848 2.1356
6.4302 3.9175 2.1356
6.2843 4.1451 2.1356
6.1305 4.3674 2.1356
5.9687 4.5839 2.1356
5.7994 4.7945 2.1356
5.6141 4.9912 2.1324
5.4304 5.1887 2.1324
5.2398 5.3795 2.1324
5.0426 5.5634 2.1324
4.8389 5.7400 2.1324
4.6290 5.9093 2.1324
4.4133 6.0709 2.1324
4.1919 6.2246 2.1324
3.9652 6.3703 2.1324
3.7335 6.5078 2.1324
3.4970 6.6369 2.1324
3.2561 6.7575 2.1324
3.0110 6.8693 2.1324
2.7621 6.9723 2.1324
2.5098 7.0664 2.1324
2.3634 7.4976 2.2356
2.0924 7.5770 2.2356
1.8189 7.6467 2.2356
1.5430 7.7065 2.2356
1.2652 7.7565 2.2356
0.9858 7.7965 2.2356
0.7052 7.8265 2.2356
0.4236 7.8464 2.2356
0.1416 7.8563 2.2356
-0.1406 7.8560 2.2356
-0.4226 7.8457 2.2356
-0.7041 7.8254 2.2356
-0.9846 7.7949 2.2356
-1.2639 7.7545 2.2356
-1.5415 7.7042 2.2356
-1.8172 7.6439 2.2356
-2.0906 7.5738 2.2356
-2.3612 7.4940 2.2356
-2.6289 7.4046 2.2356
-2.8932 7.3057 2.2356
-3.1538 7.1974 2.2356
-3.4104 7.0798 2.2356
-3.6626 6.9532 2.2356
-3.9102 6.8176 2.2356
-4.1527 6.6732 2.2356
-4.3900 6.5203 2.2356
-4.6217 6.3589 2.2356
-4.8474 6.1894 2.2356
-5.0670 6.0119 2.2356
-5.2801 5.8266 2.2356
-5.4865 5.6338 2.2356
-5.6859 5.4338 2.2356
-5.8780 5.2267 2.2356
-6.0626 5.0129 2.2356
-6.2394 4.7925 2.2356
-6.4083 4.5660 2.2356
-6.4530 4.2570 2.1962
-6.4554 3.9334 2.1472
-6.5484 3.6744 2.1325
-6.6770 3.4374 2.1325
-6.7972 3.1959 2.1325
-6.9086 2.9502 2.1325
-7.0111 2.7007 2.1325
-7.1047 2.4477 2.1325
-7.1892 2.1914 2.1325
-7.2644 1.9322 2.1325
-7.3303 1.6704 2.1325
-7.3869 1.4064 2.1325
-7.4339 1.1405 2.1325
-7.4713 0.8730 2.1325
-7.4992 0.6044 2.1325
-7.5174 0.3348 2.1325
-7.5259 0.0647 2.1325
-7.5248 -0.2055 2.1325
-7.5139 -0.4756 2.1325
-7.4934 -0.7451 2.1325
-7.4632 -1.0138 2.1325
-7.4233 -1.2813 2.1325
-7.3739 -1.5473 2.1325
-7.3149 -1.8113 2.1325
-7.2466 -2.0731 2.1325
-7.1688 -2.3323 2.1325
-7.0817 -2.5885 2.1325
-6.9855 -2.8416 2.1325
-6.8803 -3.0910 2.1325
-6.7661 -3.3366 2.1325
-6.6462 -3.5795 2.1335
-6.5116 -3.8147 2.1325
-6.4323 -4.0852 2.1529
-6.4318 -4.4166 2.2040
-6.3601 -4.7120 2.2356
-6.1879 -4.9381 2.2356
-6.0077 -5.1578 2.2356
-5.8196 -5.3709 2.2356
-5.6240 -5.5772 2.2356
-5.4210 -5.7763 2.2356
-5.2110 -5.9680 2.2356
-4.9941 -6.1520 2.2356
-4.7708 -6.3281 2.2356
-4.5412 -6.4961 2.2356
-4.3057 -6.6557 2.2356
-4.0646 -6.8068 2.2356
-3.8182 -6.9491 2.2356
-3.5667 -7.0824 2.2356
-3.3106 -7.2066 2.2356
-3.0502 -7.3215 2.2356
-2.7858 -7.4270 2.2356
-2.5177 -7.5228 2.2356
-2.2463 -7.6090 2.2356
-1.9720 -7.6853 2.2356
-1.6951 -7.7517 2.2356
-1.4159 -7.8080 2.2356
-1.1349 -7.8542 2.2356
-0.8524 -7.8903 2.2356
-0.5687 -7.9162 2.2356
-0.2843 -7.9318 2.2356
0.0005 -7.3028 2.2356
0.2626 -7.2983 2.2356
0.5243 -7.2843 2.2356
0.7853 -7.2609 2.2356
1.0454 -7.2281 2.2356
1.3040 -7.1860 2.2356
1.5610 -7.1345 2.2356
1.7323 -6.7476 2.1325
1.9732 -6.6810 2.1325
2.2116 -6.6058 2.1325
2.4472 -6.5220 2.1325
2.6795 -6.4297 2.1325
2.9083 -6.3292 2.1325
3.1332 -6.2200 2.1324
3.3542 -6.1032 2.1324
3.5708 -5.9786 2.1324
3.7828 -5.8462 2.1324
3.9898 -5.7063 2.1324
4.1917 -5.5590 2.1324
4.3881 -5.4046 2.1324
4.5789 -5.2432 2.1324
4.7636 -5.0750 2.1324
4.9422 -4.9004 2.1324
5.1143 -4.7194 2.1324
5.2798 -4.5323 2.1324
5.4384 -4.3394 2.1324
5.5900 -4.1410 2.1324
5.7430 -3.9432 2.1356
5.8801 -3.7341 2.1356
6.0095 -3.5203 2.1356
6.1312 -3.3019 2.1356
6.2449 -3.0793 2.1356
6.3505 -2.8528 2.1356
6.4478 -2.6227 2.1356
6.5368 -2.3892 2.1356
6.6173 -2.1528 2.1356
6.6893 -1.9136 2.1356
5.7104 -1.4140 1.8060
5.6849 -1.1929 1.7835
5.6833 -0.9810 1.7711
5.6825 -0.7720 1.7614
5.6828 -0.5652 1.7543
5.6830 -0.3598 1.7496
5.6829 -0.1554 1.7470
5.6826 0.0487 1.7466
5.6821 0.2529 1.7484
5.6814 0.4576 1.7524
1.9326 0.2257 0.5983
1.8970 0.2909 0.5902
5.6808 1.0812 1.7788
5.6857 1.2953 1.7941
6.7072 1.7835 2.1356
6.6377 2.0228 2.1356
6.5597 2.2594 2.1356
6.4733 2.4930 2.1356
6.3785 2.7233 2.1356
6.2756 2.9500 2.1356
6.1647 3.1729 2.1356
6.0458 3.3916 2.1356
5.9192 3.6059 2.1356
5.7850 3.8155 2.1356
5.6434 4.0201 2.1356
5.4862 4.2131 2.1324
5.3306 4.4067 2.1324
5.1682 4.5945 2.1324
4.9992 4.7765 2.1324
4.8238 4.9522 2.1324
4.6423 5.1215 2.1324
4.4548 5.2842 2.1324
4.2616 5.4400 2.1324
4.0630 5.5888 2.1324
3.8593 5.7304 2.1324
3.6506 5.8646 2.1324
3.4373 5.9913 2.1324
3.2196 6.1102 2.1324
2.9978 6.2212 2.1324
2.7722 6.3242 2.1324
2.5431 6.4191 2.1324
2.3108 6.5057 2.1324
2.1760 6.9028 2.2356
1.9266 6.9760 2.2356
1.6747 7.0401 2.2356
1.4207 7.0953 2.2356
1.1649 7.1413 2.2356
0.9077 7.1782 2.2356
0.6493 7.2058 2.2356
0.3901 7.2242 2.2356
0.1304 7.2333 2.2356
-0.1294 7.2331 2.2356
-0.3891 7.2236 2.2356
-0.6482 7.2049 2.2356
-0.9065 7.1769 2.2356
-1.1637 7.1397 2.2356
-1.4193 7.0933 2.2356
-1.6731 7.0378 2.2356
-1.9248 6.9733 2.2356
-2.1740 6.8998 2.2356
-2.4205 6.8174 2.2356
-2.6638 6.7263 2.2356
-2.9038 6.6266 2.2356
-3.1400 6.5183 2.2356
-3.3722 6.4017 2.2356
-3.6001 6.2768 2.2356
-3.8234 6.1439 2.2356
-4.0419 6.0030 2.2356
-4.2551 5.8544 2.2356
-4.4630 5.6983 2.2356
-4.6651 5.5348 2.2356
-4.8613 5.3642 2.2356
-5.0513 5.1867 2.2356
-5.2348 5.0025 2.2356
-5.4116 4.8118 2.2356
-5.5815 4.6149 2.2356
-5.7443 4.4120 2.2356
-5.8997 4.2034 2.2356
-6.0476 3.9893 2.2356
-6.1877 3.7701 2.2356
-6.3199 3.5459 2.2356
-6.4440 3.3172 2.2356
-6.4497 3.0323 2.1981
-6.4490 2.7538 2.1624
-6.4598 2.4882 2.1344
-6.5403 2.2530 2.1325
-6.6179 2.0170 2.1325
-6.6871 1.7784 2.1325
-6.7477 1.5374 2.1325
-6.7997 1.2944 2.1325
-6.8428 1.0496 2.1325
-6.8773 0.8034 2.1325
-6.9028 0.5561 2.1325
-6.9195 0.3079 2.1325
-6.9272 0.0594 2.1325
-6.9261 -0.1894 2.1325
-6.9160 -0.4380 2.1325
-6.8970 -0.6861 2.1325
-6.8691 -0.9334 2.1325
-6.8323 -1.1796 2.1325
-6.7867 -1.4243 2.1325
-6.7324 -1.6673 2.1325
-6.6694 -1.9082 2.1325
-6.5977 -2.1467 2.1325
-6.5175 -2.3825 2.1325
-6.4441 -2.6216 2.1376
-6.4342 -2.8909 2.1670
-6.4338 -3.1729 2.2034
-6.4090 -3.4521 2.2356
-6.2820 -3.6805 2.2356
-6.1469 -3.9042 2.2356
-6.0037 -4.1229 2.2356
-5.8528 -4.3364 2.2356
-5.6943 -4.5444 2.2356
-5.5283 -4.7465 2.2356
-5.3552 -4.9426 2.2356
-5.1751 -5.1323 2.2356
-4.9883 -5.3155 2.2356
-4.7950 -5.4918 2.2356
-4.5954 -5.6611 2.2356
-4.3898 -5.8231 2.2356
-4.1785 -5.9776 2.2356
-3.9618 -6.1244 2.2356
-3.7399 -6.2634 2.2356
-3.5131 -6.3942 2.2356
-3.2818 -6.5169 2.2356
-3.0461 -6.6311 2.2356
-2.8064 -6.7368 2.2356
-2.5631 -6.8337 2.2356
-2.3165 -6.9219 2.2356
-2.0668 -7.0011 2.2356
-1.8143 -7.0713 2.2356
-1.5595 -7.1323 2.2356
-1.3027 -7.1841 2.2356
-1.0441 -7.2266 2.2356
-0.7842 -7.2598 2.2356
-0.5232 -7.2836 2.2356
-0.2615 -7.2979 2.2356
0.0005 -6.7554 2.2356
0.2429 -6.7512 2.2356
0.4850 -6.7383 2.2356
0.7264 -6.7166 2.2356
0.9670 -6.6863 2.2356
1.2063 -6.6473 2.2356
1.4440 -6.5997 2.2356
1.6023 -6.2414 2.1324
1.8251 -6.1798 2.1324
2.0457 -6.1101 2.1324
2.2635 -6.0327 2.1324
2.4784 -5.9474 2.1324
2.6901 -5.8544 2.1324
2.8983 -5.7538 2.1324
3.1027 -5.6458 2.1324
3.3031 -5.5306 2.1324
3.4993 -5.4081 2.1324
3.6908 -5.2787 2.1324
3.8776 -5.1425 2.1324
4.0593 -4.9997 2.1324
4.2357 -4.8504 2.1324
4.4066 -4.6949 2.1324
4.5719 -4.5334 2.1324
4.7311 -4.3660 2.1324
4.8843 -4.1930 2.1324
5.0310 -4.0146 2.1324
5.1713 -3.8310 2.1324
5.3048 -3.6426 2.1324
5.4315 -3.4494 2.1324
5.5511 -3.2519 2.1324
5.6721 -3.0549 2.1356
5.7774 -2.8490 2.1356
5.8751 -2.6395 2.1356
5.9652 -2.4266 2.1356
6.0477 -2.2106 2.1356
6.1222 -1.9919 2.1356
6.1889 -1.7706 2.1356
6.2475 -1.5472 2.1356
6.2981 -1.3217 2.1356
6.3405 -1.0947 2.1356
6.3747 -0.8663 2.1356
6.4007 -0.6368 2.1356
6.4185 -0.4066 2.1356
6.4279 -0.1759 2.1356
6.4291 0.0549 2.1356
6.4219 0.2856 2.1356
6.4065 0.5158 2.1356
1.9322 0.2256 0.6465
1.8967 0.2908 0.6378
6.3109 1.2010 2.1356
6.2627 1.4265 2.1356
6.2064 1.6501 2.1356
6.1422 1.8716 2.1356
6.0701 2.0905 2.1356
5.9902 2.3067 2.1356
5.9026 2.5199 2.1356
5.8075 2.7297 2.1356
5.7048 2.9360 2.1356
5.5864 3.1337 2.1324
5.4694 3.3317 2.1324
5.3455 3.5254 2.1324
5.2147 3.7145 2.1324
5.0773 3.8988 2.1324
4.9333 4.0780 2.1324
4.7831 4.2519 2.1324
4.6267 4.4203 2.1324
4.4644 4.5830 2.1324
4.2964 4.7397 2.1324
4.1230 4.8903 2.1324
3.9442 5.0346 2.1324
3.7605 5.1724 2.1324
3.5719 5.3035 2.1324
3.3788 5.4277 2.1324
3.1814 5.5450 2.1324
2.9799 5.6551 2.1324
2.7747 5.7579 2.1324
2.5659 5.8533 2.1324
2.3538 5.9411 2.1324
2.1388 6.0213 2.1324
2.0141 6.3889 2.2356
1.7832 6.4566 2.2356
1.5501 6.5161 2.2356
1.3150 6.5671 2.2356
1.0783 6.6098 2.2356
0.8402 6.6439 2.2356
0.6010 6.6695 2.2356
0.3611 6.6865 2.2356
0.1208 6.6949 2.2356
-0.1197 6.6948 2.2356
-0.3601 6.6860 2.2356
-0.6000 6.6687 2.2356
-0.8391 6.6428 2.2356
-1.0771 6.6083 2.2356
-1.3137 6.5654 2.2356
-1.5486 6.5140 2.2356
-1.7816 6.4543 2.2356
-2.0123 6.3863 2.2356
-2.2404 6.3101 2.2356
-2.4656 6.2257 2.2356
-2.6877 6.1334 2.2356
-2.9063 6.0332 2.2356
-3.1213 5.9252 2.2356
-3.3322 5.8096 2.2356
-3.5389 5.6865 2.2356
-3.7411 5.5561 2.2356
-3.9385 5.4185 2.2356
-4.1308 5.2740 2.2356
-4.3179 5.1227 2.2356
-4.4994 4.9647 2.2356
-4.6752 4.8004 2.2356
-4.8450 4.6298 2.2356
-5.0086 4.4533 2.2356
-5.1659 4.2710 2.2356
-5.3165 4.0832 2.2356
-5.4603 3.8901 2.2356
-5.5971 3.6920 2.2356
-5.7267 3.4890 2.2356
-5.8490 3.2816 2.2356
-5.9638 3.0698 2.2356
-6.0710 2.8541 2.2356
-6.1704 2.6346 2.2356
-6.2619 2.4117 2.2356
-6.3453 2.1856 2.2356
-6.4206 1.9567 2.2356
-6.4461 1.7141 2.2213
-6.4454 1.4683 2.2012
-6.4448 1.2266 2.1841
-6.4441 0.9882 2.1702
-6.4435 0.7525 2.1591
-6.4435 0.5189 2.1512
-6.4457 0.2867 2.1467
-6.4465 0.0550 2.1446
-6.4458 -0.1764 2.1448
-6.4436 -0.4083 2.1472
-6.4399 -0.6408 2.1519
-6.4390 -0.8752 2.1604
-6.4384 -1.1118 2.1718
-6.4377 -1.3513 2.1862
-6.4371 -1.5944 2.2036
-6.4364 -1.8417 2.2243
-6.3997 -2.0825 2.2356
-6.3218 -2.3112 2.2356
-6.2358 -2.5371 2.2356
-6.1417 -2.7597 2.2356
-6.0396 -2.9788 2.2356
-5.9297 -3.1941 2.2356
-5.8121 -3.4054 2.2356
-5.6870 -3.6124 2.2356
-5.5545 -3.8147 2.2356
-5.4148 -4.0122 2.2356
-5.2681 -4.2045 2.2356
-5.1145 -4.3915 2.2356
-4.9543 -4.5728 2.2356
-4.7876 -4.7483 2.2356
-4.6147 -4.9177 2.2356
-4.4359 -5.0808 2.2356
-4.2512 -5.2373 2.2356
-4.0610 -5.3872 2.2356
-3.8655 -5.5301 2.2356
-3.6650 -5.6658 2.2356
-3.4597 -5.7943 2.2356
-3.2499 -5.9154 2.2356
-3.0358 -6.0287 2.2356
-2.8178 -6.1344 2.2356
-2.5961 -6.2321 2.2356
-2.3710 -6.3218 2.2356
-2.1428 -6.4033 2.2356
-1.9118 -6.4765 2.2356
-1.6783 -6.5414 2.2356
-1.4426 -6.5978 2.2356
-1.2050 -6.6457 2.2356
-0.9658 -6.6850 2.2356
-0.7253 -6.7157 2.2356
-0.4839 -6.7376 2.2356
-0.2419 -6.7509 2.2356
0.0005 -6.2778 2.2356
0.2258 -6.2739 2.2356
0.4507 -6.2619 2.2356
0.6751 -6.2417 2.2356
0.8986 -6.2135 2.2356
1.1210 -6.1773 2.2356
1.3419 -6.1331 2.2356
1.5611 -6.0809 2.2356
1.6961 -5.7428 2.1324
1.9010 -5.6781 2.1324
2.1034 -5.6061 2.1324
2.3032 -5.5269 2.1324
2.4999 -5.4405 2.1324
2.6934 -5.3471 2.1324
2.8833 -5.2467 2.1324
3.0696 -5.1396 2.1324
3.2518 -5.0259 2.1324
3.4298 -4.9057 2.1324
3.6034 -4.7791 2.1324
3.7723 -4.6464 2.1324
3.9363 -4.5077 2.1324
4.0952 -4.3632 2.1324
4.2487 -4.2131 2.1324
4.3967 -4.0576 2.1324
4.5391 -3.8968 2.1324
4.6755 -3.7311 2.1324
4.8059 -3.5605 2.1324
4.9300 -3.3854 2.1324
5.0478 -3.2060 2.1324
5.1590 -3.0224 2.1324
5.2635 -2.8350 2.1324
5.3612 -2.6439 2.1324
5.4519 -2.4495 2.1324
5.5356 -2.2520 2.1324
5.6223 -2.0554 2.1362
5.6900 -1.8515 2.1356
5.7521 -1.6459 2.1356
5.8066 -1.4382 2.1356
5.8537 -1.2287 2.1356
5.8931 -1.0176 2.1356
5.9250 -0.8054 2.1356
5.9492 -0.5921 2.1356
5.9658 -0.3781 2.1356
5.9746 -0.1637 2.1356
5.9757 0.0508 2.1356
5.9692 0.2652 2.1356
5.9549 0.4792 2.1356
1.9319 0.2255 0.6954
1.8964 0.2907 0.6860
5.8662 1.1161 2.1356
5.8215 1.3258 2.1356
5.7692 1.5337 2.1356
5.7096 1.7395 2.1356
5.6426 1.9431 2.1356
5.5599 2.1408 2.1324
5.4787 2.3387 2.1324
5.3904 2.5335 2.1324
5.2952 2.7250 2.1324
5.1932 2.9129 2.1324
5.0846 3.0970 2.1324
4.9694 3.2771 2.1324
4.8479 3.4530 2.1324
4.7201 3.6243 2.1324
4.5863 3.7909 2.1324
4.4467 3.9527 2.1324
4.3014 4.1092 2.1324
4.1505 4.2605 2.1324
3.9944 4.4063 2.1324
3.8331 4.5463 2.1324
3.6670 4.6805 2.1324
3.4962 4.8086 2.1324
3.3209 4.9305 2.1324
3.1414 5.0461 2.1324
2.9579 5.1551 2.1324
2.7706 5.2575 2.1324
2.5798 5.3531 2.1324
0.8580 1.9572 0.7669
2.1885 5.5236 2.1324
1.9931 5.6108 2.1372
1.8727 5.9399 2.2356
1.6580 6.0029 2.2356
1.4413 6.0582 2.2356
1.2227 6.1057 2.2356
1.0026 6.1454 2.2356
0.7812 6.1771 2.2356
0.5589 6.2010 2.2356
0.3358 6.2168 2.2356
0.1123 6.2247 2.2356
-0.1113 6.2245 2.2356
-0.3348 6.2164 2.2356
-0.5578 6.2003 2.2356
-0.7801 6.1762 2.2356
-1.0014 6.1442 2.2356
-1.2214 6.1042 2.2356
-1.4399 6.0565 2.2356
-1.6565 6.0009 2.2356
-1.8709 5.9377 2.2356
-2.0830 5.8668 2.2356
-2.2924 5.7884 2.2356
-0.8577 1.9572 0.7673
-0.9274 1.9251 0.7673
-2.9021 5.5089 2.2356
-3.0982 5.4014 2.2356
-3.2903 5.2869 2.2356
-3.4783 5.1657 2.2356
-3.6618 5.0378 2.2356
-3.8406 4.9033 2.2356
-4.0145 4.7626 2.2356
-4.1833 4.6157 2.2356
-4.3467 4.4629 2.2356
-4.5046 4.3043 2.2356
-4.6567 4.1402 2.2356
-4.8028 3.9707 2.2356
-4.9428 3.7960 2.2356
-5.0764 3.6165 2.2356
-5.2036 3.4322 2.2356
-5.3241 3.2435 2.2356
-5.4377 3.0506 2.2356
-5.5444 2.8537 2.2356
-5.6440 2.6532 2.2356
-5.7364 2.4491 2.2356
-5.8214 2.2418 2.2356
-5.8989 2.0317 2.2356
-5.9688 1.8188 2.2356
-6.0311 1.6035 2.2356
-6.0856 1.3862 2.2356
-6.1323 1.1669 2.2356
-6.1712 0.9462 2.2356
-6.2021 0.7241 2.2356
-6.2250 0.5011 2.2356
-6.2399 0.2773 2.2356
-6.2467 0.0531 2.2356
-6.2456 -0.1712 2.2356
-6.2363 -0.3953 2.2356
-6.2191 -0.6191 2.2356
-6.1938 -0.8420 2.2356
-6.1605 -1.0640 2.2356
-6.1193 -1.2846 2.2356
-6.0701 -1.5037 2.2356
-6.0131 -1.7209 2.2356
-5.9484 -1.9359 2.2356
-5.8760 -2.1485 2.2356
-5.7959 -2.3583 2.2356
-5.7084 -2.5652 2.2356
-5.6135 -2.7689 2.2356
-5.5113 -2.9690 2.2356
-5.4019 -3.1653 2.2356
-5.2856 -3.3576 2.2356
-5.1624 -3.5456 2.2356
-5.0325 -3.7292 2.2356
-4.8961 -3.9079 2.2356
-4.7533 -4.0816 2.2356
-4.6044 -4.2501 2.2356
-4.4495 -4.4132 2.2356
-4.2888 -4.5706 2.2356
-4.1225 -4.7221 2.2356
-3.9508 -4.8675 2.2356
-3.7740 -5.0067 2.2356
-3.5923 -5.1395 2.2356
-3.4060 -5.2657 2.2356
-3.2151 -5.3850 2.2356
-3.0201 -5.4975 2.2356
-2.8212 -5.6028 2.2356
-2.6185 -5.7009 2.2356
-2.4125 -5.7917 2.2356
-2.2033 -5.8750 2.2356
-1.9912 -5.9507 2.2356
-1.7766 -6.0188 2.2356
-1.5596 -6.0790 2.2356
-1.3405 -6.1314 2.2356
-1.1197 -6.1759 2.2356
-0.8975 -6.2124 2.2356
-0.6740 -6.2409 2.2356
-0.4497 -6.2613 2.2356
-0.2247 -6.2736 2.2356
0.0005 -5.8570 2.2356
0.2106 -5.8533 2.2356
0.4205 -5.8421 2.2356
0.6299 -5.8233 2.2356
0.8384 -5.7970 2.2356
1.0458 -5.7632 2.2356
1.2519 -5.7219 2.2356
1.4564 -5.6733 2.2356
1.5896 -5.3822 2.1421
1.7863 -5.3356 2.1477
1.9624 -5.2304 2.1324
2.1487 -5.1564 2.1324
2.3323 -5.0759 2.1324
2.5128 -4.9887 2.1324
2.6900 -4.8951 2.1324
2.8638 -4.7952 2.1324
3.0338 -4.6891 2.1324
3.1999 -4.5770 2.1324
3.3619 -4.4589 2.1324
3.5194 -4.3351 2.1324
3.6725 -4.2057 2.1324
3.8207 -4.0709 2.1324
3.9640 -3.9309 2.1324
4.1021 -3.7858 2.1324
4.2350 -3.6359 2.1324
4.3623 -3.4812 2.1324
4.4839 -3.3221 2.1324
4.5998 -3.1588 2.1324
4.7097 -2.9914 2.1324
4.8134 -2.8201 2.1324
4.9110 -2.6453 2.1324
5.0022 -2.4671 2.1324
5.0869 -2.2857 2.1324
5.1650 -2.1014 2.1324
5.2365 -1.9145 2.1324
5.3011 -1.7251 2.1324
5.3589 -1.5336 2.1324
5.4098 -1.3401 2.1324
5.4537 -1.1449 2.1324
5.4905 -0.9483 2.1324
5.5203 -0.7505 2.1324
5.5428 -0.5518 2.1324
5.5583 -0.3525 2.1324
5.5666 -0.1527 2.1324
5.5677 0.0472 2.1324
5.5616 0.2469 2.1324
5.5484 0.4463 2.1324
1.9315 0.2254 0.7451
1.8961 0.2906 0.7351
5.4659 1.0398 2.1324
5.4243 1.2351 2.1324
5.3756 1.4288 2.1324
5.3201 1.6207 2.1324
5.2578 1.8103 2.1324
5.1887 1.9976 2.1324
5.1129 2.1823 2.1324
5.0305 2.3641 2.1324
4.9417 2.5429 2.1324
4.8466 2.7183 2.1324
4.7452 2.8901 2.1324
4.6378 3.0582 2.1324
4.5244 3.2224 2.1324
4.4052 3.3823 2.1324
4.2804 3.5378 2.1324
4.1501 3.6888 2.1324
4.0145 3.8350 2.1324
3.8737 3.9762 2.1324
3.7280 4.1122 2.1324
3.5776 4.2430 2.1324
3.4225 4.3682 2.1324
3.2631 4.4878 2.1324
3.0996 4.6017 2.1324
2.9320 4.7095 2.1324
2.7608 4.8113 2.1324
2.5860 4.9069 2.1324
0.8658 1.7964 0.7667
0.8007 1.8263 0.7668
0.7346 1.8539 0.7668
0.6675 1.8790 0.7669
0.5996 1.9018 0.7669
0.5309 1.9221 0.7669
0.4615 1.9399 0.7670
0.3916 1.9552 0.7670
0.9359 5.7358 2.2356
0.7292 5.7655 2.2356
0.5217 5.7877 2.2356
0.3135 5.8025 2.2356
0.1049 5.8099 2.2356
-0.1039 5.8098 2.2356
-0.3124 5.8022 2.2356
-0.5206 5.7871 2.2356
-0.7281 5.7647 2.2356
-0.9347 5.7348 2.2356
-0.3912 1.9552 0.7672
-0.4612 1.9399 0.7672
-0.5306 1.9221 0.7672
-0.5993 1.9018 0.7672
-0.6672 1.8790 0.7671
-0.7342 1.8539 0.7671
-0.8003 1.8263 0.7671
-0.8654 1.7964 0.7671
-0.9294 1.7642 0.7671
-2.8918 5.0414 2.2356
-3.0711 4.9345 2.2356
-3.2465 4.8213 2.2356
-3.4178 4.7019 2.2356
-3.5847 4.5765 2.2356
-3.7470 4.4451 2.2356
-3.9045 4.3080 2.2356
-4.0570 4.1653 2.2356
-4.2043 4.0173 2.2356
-4.3463 3.8640 2.2356
-4.4826 3.7058 2.2356
-4.6133 3.5428 2.2356
-4.7380 3.3752 2.2356
-4.8566 3.2032 2.2356
-4.9691 3.0271 2.2356
-5.0751 2.8470 2.2356
-5.1746 2.6632 2.2356
-5.2675 2.4760 2.2356
-5.3537 2.2855 2.2356
-5.4330 2.0921 2.2356
-5.5053 1.8959 2.2356
-5.5705 1.6972 2.2356
-5.6286 1.4963 2.2356
-5.6794 1.2935 2.2356
-5.7230 1.0889 2.2356
-5.7592 0.8828 2.2356
-5.7879 0.6756 2.2356
-5.8093 0.4674 2.2356
-5.8231 0.2586 2.2356
-5.8295 0.0494 2.2356
-5.8283 -0.1600 2.2356
-5.8197 -0.3691 2.2356
-5.8035 -0.5779 2.2356
-5.7798 -0.7860 2.2356
-5.7487 -0.9931 2.2356
-5.7102 -1.1990 2.2356
-5.6643 -1.4034 2.2356
-5.6111 -1.6060 2.2356
-5.5506 -1.8066 2.2356
-5.4830 -2.0050 2.2356
-5.4082 -2.2008 2.2356
-5.3265 -2.3938 2.2356
-5.2379 -2.5838 2.2356
-5.1425 -2.7705 2.2356
-5.0404 -2.9537 2.2356
-4.9318 -3.1331 2.2356
-4.8169 -3.3085 2.2356
-4.6956 -3.4797 2.2356
-4.5683 -3.6465 2.2356
-4.4351 -3.8085 2.2356
-4.2961 -3.9657 2.2356
-4.1515 -4.1178 2.2356
-4.0015 -4.2646 2.2356
-3.8463 -4.4060 2.2356
-3.6861 -4.5417 2.2356
-3.5212 -4.6715 2.2356
-3.3516 -4.7954 2.2356
-3.1777 -4.9130 2.2356
-2.9997 -5.0244 2.2356
-2.8177 -5.1292 2.2356
-2.6321 -5.2275 2.2356
-2.4430 -5.3190 2.2356
-2.2508 -5.4037 2.2356
-2.0556 -5.4814 2.2356
-1.8577 -5.5520 2.2356
-1.6574 -5.6154 2.2356
-1.4550 -5.6716 2.2356
-1.2506 -5.7205 2.2356
-1.0446 -5.7620 2.2356
-0.8372 -5.7960 2.2356
-0.6288 -5.8226 2.2356
-0.4195 -5.8416 2.2356
-0.2096 -5.8531 2.2356
0.0005 -5.4831 2.2356
0.1972 -5.4796 2.2356
0.3937 -5.4691 2.2356
0.5897 -5.4515 2.2356
0.7849 -5.4269 2.2356
0.9791 -5.3953 2.2356
1.1720 -5.3566 2.2356
1.3634 -5.3111 2.2356
1.5530 -5.2587 2.2356
1.6603 -4.9593 2.1324
1.8371 -4.8965 2.1324
2.0115 -4.8273 2.1324
2.1833 -4.7518 2.1324
2.3523 -4.6703 2.1324
2.5183 -4.5827 2.1324
2.6809 -4.4892 2.1324
2.8401 -4.3899 2.1324
2.9956 -4.2849 2.1324
3.1472 -4.1744 2.1324
3.2948 -4.0585 2.1324
3.4380 -3.9374 2.1324
3.5768 -3.8112 2.1324
3.7110 -3.6802 2.1324
3.8403 -3.5444 2.1324
3.9647 -3.4040 2.1324
4.0839 -3.2592 2.1324
4.1978 -3.1103 2.1324
4.3063 -2.9574 2.1324
4.4092 -2.8007 2.1324
4.5064 -2.6404 2.1324
4.5977 -2.4767 2.1324
4.6831 -2.3099 2.1324
4.7625 -2.1401 2.1324
4.8356 -1.9676 2.1324
4.9026 -1.7926 2.1324
4.9631 -1.6153 2.1324
5.0173 -1.4360 2.1324
5.0649 -1.2548 2.1324
5.1061 -1.0721 2.1324
5.1406 -0.8880 2.1324
5.1685 -0.7029 2.1324
5.1897 -0.5169 2.1324
5.2042 -0.3302 2.1324
5.2120 -0.1432 2.1324
5.2131 0.0440 2.1324
5.2074 0.2310 2.1324
5.1951 0.4177 2.1324
1.9312 0.2253 0.7956
1.8958 0.2905 0.7849
5.1179 0.9734 2.1324
5.0790 1.1563 2.1324
5.0335 1.3377 2.1324
4.9816 1.5173 2.1324
4.9232 1.6950 2.1324
4.8586 1.8704 2.1324
4.7876 2.0433 2.1324
4.7106 2.2136 2.1324
4.6275 2.3810 2.1324
4.5384 2.5452 2.1324
4.4435 2.7062 2.1324
4.3429 2.8636 2.1324
4.2368 3.0173 2.1324
4.1252 3.1671 2.1324
4.0084 3.3128 2.1324
3.8864 3.4542 2.1324
3.7594 3.5911 2.1324
3.6276 3.7233 2.1324
3.4912 3.8508 2.1324
3.3503 3.9732 2.1324
3.2052 4.0906 2.1324
3.0559 4.2026 2.1324
2.9027 4.3092 2.1324
2.7458 4.4103 2.1324
2.5855 4.5056 2.1324
0.8705 1.6518 0.7665
0.8106 1.6820 0.7666
0.7497 1.7100 0.7666
0.6878 1.7358 0.7667
0.6250 1.7593 0.7667
0.5614 1.7806 0.7667
0.4971 1.7996 0.7668
0.4322 1.8163 0.7668
0.3667 1.8306 0.7669
0.3007 1.8426 0.7669
0.2343 1.8522 0.7669
0.1676 1.8594 0.7669
0.1007 1.8642 0.7670
0.0337 1.8666 0.7670
-0.0334 1.8666 0.7670
-0.1004 1.8642 0.7670
-0.1673 1.8594 0.7670
-0.2339 1.8522 0.7670
-0.3003 1.8426 0.7670
-0.3663 1.8306 0.7670
-0.4318 1.8163 0.7670
-0.4968 1.7996 0.7670
-0.5611 1.7806 0.7670
-0.6247 1.7593 0.7670
-0.6875 1.7358 0.7670
-0.7494 1.7100 0.7669
-0.8103 1.6820 0.7669
-0.8702 1.6518 0.7669
-0.9290 1.6195 0.7669
-2.8762 4.6211 2.2356
-3.0404 4.5151 2.2356
-3.2008 4.4033 2.2356
-3.3571 4.2857 2.2356
-3.5091 4.1627 2.2356
-3.6566 4.0343 2.2356
-3.7994 3.9006 2.2356
-3.9373 3.7620 2.2356
-4.0702 3.6185 2.2356
-4.1979 3.4703 2.2356
-4.3202 3.3176 2.2356
-4.4370 3.1606 2.2356
-4.5481 2.9995 2.2356
-4.6533 2.8346 2.2356
-4.7526 2.6659 2.2356
-4.8458 2.4938 2.2356
-4.9328 2.3185 2.2356
-5.0134 2.1401 2.2356
-5.0876 1.9589 2.2356
-5.1553 1.7752 2.2356
-5.2163 1.5892 2.2356
-5.2707 1.4010 2.2356
-5.3183 1.2110 2.2356
-5.3590 1.0194 2.2356
-5.3929 0.8265 2.2356
-5.4198 0.6324 2.2356
-5.4397 0.4375 2.2356
-5.4526 0.2419 2.2356
-5.4585 0.0460 2.2356
-5.4574 -0.1500 2.2356
-5.4492 -0.3458 2.2356
-5.4341 -0.5413 2.2356
-5.4119 -0.7361 2.2356
-5.3827 -0.9300 2.2356
-5.3466 -1.1228 2.2356
-5.3036 -1.3142 2.2356
-5.2537 -1.5039 2.2356
-5.1970 -1.6917 2.2356
-5.1337 -1.8774 2.2356
-5.0637 -2.0608 2.2356
-4.9871 -2.2415 2.2356
-4.9041 -2.4194 2.2356
-4.8147 -2.5941 2.2356
-4.7191 -2.7656 2.2356
-4.6174 -2.9336 2.2356
-4.5097 -3.0978 2.2356
-4.3962 -3.2580 2.2356
-4.2770 -3.4141 2.2356
-4.1522 -3.5658 2.2356
-4.0220 -3.7130 2.2356
-3.8866 -3.8554 2.2356
-3.7462 -3.9928 2.2356
-3.6009 -4.1251 2.2356
-3.4509 -4.2521 2.2356
-3.2965 -4.3736 2.2356
-3.1377 -4.4895 2.2356
-2.9749 -4.5997 2.2356
-2.8082 -4.7039 2.2356
-2.6378 -4.8020 2.2356
-2.4640 -4.8940 2.2356
-2.2870 -4.9796 2.2356
-2.1070 -5.0589 2.2356
-1.9243 -5.1316 2.2356
-1.7391 -5.1977 2.2356
-1.5516 -5.2571 2.2356
-1.3620 -5.3096 2.2356
-1.1707 -5.3554 2.2356
-0.9779 -5.3942 2.2356
-0.7837 -5.4261 2.2356
-0.5886 -5.4509 2.2356
-0.3927 -5.4687 2.2356
-0.1962 -5.4794 2.2356
0.0005 -5.1483 2.2356
0.1852 -5.1451 2.2356
0.3697 -5.1352 2.2356
0.5537 -5.1187 2.2356
0.7370 -5.0956 2.2356
0.9193 -5.0658 2.2356
1.1004 -5.0296 2.2356
1.2801 -4.9868 2.2356
1.4582 -4.9376 2.2356
1.5820 -4.7255 2.1639
1.7249 -4.5975 2.1324
1.8887 -4.5326 2.1324
2.0500 -4.4618 2.1324
2.2087 -4.3852 2.1324
2.3645 -4.3029 2.1324
2.5172 -4.2151 2.1324
2.6667 -4.1219 2.1324
2.8127 -4.0234 2.1324
2.9551 -3.9196 2.1324
3.0936 -3.8109 2.1324
3.2281 -3.6972 2.1324
3.3585 -3.5787 2.1324
3.4844 -3.4556 2.1324
3.6059 -3.3281 2.1324
3.7227 -3.1964 2.1324
3.8346 -3.0605 2.1324
3.9416 -2.9206 2.1324
4.0435 -2.7771 2.1324
4.1401 -2.6299 2.1324
4.2314 -2.4794 2.1324
4.3172 -2.3258 2.1324
4.3974 -2.1691 2.1324
4.4720 -2.0097 2.1324
4.5407 -1.8477 2.1324
4.6036 -1.6834 2.1324
4.6605 -1.5169 2.1324
4.7113 -1.3486 2.1324
4.7561 -1.1785 2.1324
4.7948 -1.0069 2.1324
4.8272 -0.8341 2.1324
4.8534 -0.6602 2.1324
4.8734 -0.4855 2.1324
4.8871 -0.3103 2.1324
4.8944 -0.1346 2.1324
4.8955 0.0411 2.1324
4.8902 0.2168 2.1324
4.8786 0.3921 2.1324
1.9308 0.2252 0.8470
1.8955 0.2904 0.8357
4.8063 0.9139 2.1324
4.7698 1.0857 2.1324
4.7271 1.2561 2.1324
4.6783 1.4248 2.1324
4.6236 1.5916 2.1324
4.5629 1.7564 2.1324
4.4963 1.9188 2.1324
4.4240 2.0787 2.1324
4.3459 2.2359 2.1324
4.2623 2.3902 2.1324
4.1732 2.5414 2.1324
4.0788 2.6893 2.1324
3.9791 2.8336 2.1324
3.8744 2.9743 2.1324
3.7646 3.1112 2.1324
3.6501 3.2440 2.1324
3.5309 3.3726 2.1324
3.4071 3.4968 2.1324
3.2790 3.6165 2.1324
3.1467 3.7316 2.1324
3.0104 3.8418 2.1324
2.8702 3.9470 2.1324
2.7264 4.0472 2.1324
2.5790 4.1421 2.1324
0.8727 1.5208 0.7663
0.8175 1.5511 0.7664
0.7613 1.5795 0.7664
0.7041 1.6058 0.7665
0.6459 1.6300 0.7665
0.5870 1.6521 0.7666
0.5273 1.6721 0.7666
0.4669 1.6900 0.7666
0.4059 1.7056 0.7667
0.3443 1.7191 0.7667
0.2824 1.7303 0.7667
0.2200 1.7394 0.7668
0.1574 1.7461 0.7668
0.0946 1.7507 0.7668
0.0317 1.7529 0.7668
-0.0313 1.7529 0.7668
-0.0942 1.7507 0.7669
-0.1571 1.7461 0.7669
-0.2197 1.7394 0.7669
-0.2820 1.7303 0.7669
-0.3440 1.7191 0.7669
-0.4055 1.7056 0.7669
-0.4665 1.6900 0.7669
-0.5269 1.6721 0.7668
-0.5866 1.6521 0.7668
-0.6456 1.6300 0.7668
-0.7037 1.6058 0.7668
-0.7609 1.5795 0.7668
-0.8172 1.5511 0.7667
-0.8724 1.5208 0.7667
-0.9264 1.4885 0.7667
-0.9793 1.4543 0.7667
-3.0064 4.1357 2.2356
-3.1532 4.0253 2.2356
-3.2959 3.9097 2.2356
-3.4344 3.7890 2.2356
-3.5685 3.6635 2.2356
-3.6981 3.5333 2.2356
-3.8229 3.3985 2.2356
-3.9428 3.2592 2.2356
-4.0577 3.1158 2.2356
-4.1673 2.9684 2.2356
-4.2716 2.8171 2.2356
-4.3705 2.6621 2.2356
-4.4637 2.5037 2.2356
-4.5512 2.3420 2.2356
-4.6329 2.1773 2.2356
-4.7086 2.0098 2.2356
-4.7782 1.8396 2.2356
-4.8418 1.6671 2.2356
-4.8991 1.4923 2.2356
-4.9501 1.3156 2.2356
-4.9947 1.1372 2.2356
-5.0329 0.9572 2.2356
-5.0647 0.7760 2.2356
-5.0899 0.5937 2.2356
-5.1086 0.4107 2.2356
-5.1207 0.2270 2.2356
-5.1262 0.0431 2.2356
-5.1252 -0.1410 2.2356
-5.1175 -0.3250 2.2356
-5.1032 -0.5085 2.2356
-5.0823 -0.6915 2.2356
-5.0549 -0.8736 2.2356
-5.0209 -1.0546 2.2356
-4.9805 -1.2343 2.2356
-4.9336 -1.4125 2.2356
-4.8804 -1.5888 2.2356
-4.8208 -1.7632 2.2356
-4.7550 -1.9354 2.2356
-4.6831 -2.1050 2.2356
-4.6051 -2.2721 2.2356
-4.5212 -2.4362 2.2356
-4.4314 -2.5972 2.2356
-4.3358 -2.7549 2.2356
-4.2347 -2.9091 2.2356
-4.1281 -3.0595 2.2356
-4.0161 -3.2061 2.2356
-3.8989 -3.3485 2.2356
-3.7766 -3.4867 2.2356
-3.6495 -3.6203 2.2356
-3.5176 -3.7494 2.2356
-3.3811 -3.8736 2.2356
-3.2403 -3.9928 2.2356
-3.0952 -4.1069 2.2356
-2.9462 -4.2157 2.2356
-2.7933 -4.3191 2.2356
-2.6367 -4.4169 2.2356
-2.4767 -4.5091 2.2356
-2.3135 -4.5954 2.2356
-2.1474 -4.6758 2.2356
-1.9783 -4.7502 2.2356
-1.8068 -4.8184 2.2356
-1.6328 -4.8805 2.2356
-1.4568 -4.9362 2.2356
-1.2788 -4.9856 2.2356
-1.0992 -5.0285 2.2356
-0.9181 -5.0649 2.2356
-0.7358 -5.0948 2.2356
-0.5526 -5.1181 2.2356
-0.3686 -5.1348 2.2356
-0.1842 -5.1449 2.2356
0.0005 -4.8466 2.2356
0.1744 -4.8435 2.2356
0.3480 -4.8342 2.2356
0.5212 -4.8187 2.2356
0.6938 -4.7969 2.2356
0.8654 -4.7689 2.2356
1.0359 -4.7348 2.2356
1.2051 -4.6945 2.2356
1.3727 -4.6482 2.2356
1.5386 -4.5959 2.2356
1.6238 -4.3281 2.1324
1.7873 -4.2894 2.1436
1.9298 -4.2003 2.1324
2.0792 -4.1282 2.1324
2.2259 -4.0508 2.1324
2.3697 -3.9682 2.1324
2.5104 -3.8804 2.1324
2.6478 -3.7876 2.1324
2.7819 -3.6900 2.1324
2.9123 -3.5876 2.1324
3.0389 -3.4806 2.1324
3.1616 -3.3691 2.1324
3.2802 -3.2533 2.1324
3.3946 -3.1332 2.1324
3.5045 -3.0092 2.1324
3.6099 -2.8813 2.1324
3.7107 -2.7497 2.1324
3.8066 -2.6145 2.1324
3.8976 -2.4760 2.1324
3.9835 -2.3343 2.1324
4.0644 -2.1897 2.1324
4.1399 -2.0422 2.1324
4.2101 -1.8922 2.1324
4.2748 -1.7397 2.1324
4.3340 -1.5850 2.1324
4.3876 -1.4283 2.1324
4.4355 -1.2698 2.1324
4.4777 -1.1096 2.1324
4.5141 -0.9481 2.1324
4.5447 -0.7854 2.1324
4.5694 -0.6217 2.1324
4.5882 -0.4573 2.1324
4.6011 -0.2923 2.1324
4.6081 -0.1269 2.1324
4.6091 0.0385 2.1324
4.6042 0.2039 2.1324
4.5933 0.3690 2.1324
1.9305 0.2251 0.8995
1.8952 0.2902 0.8874
4.5253 0.8603 2.1324
4.4909 1.0221 2.1324
4.4508 1.1825 2.1324
4.4049 1.3413 2.1324
4.3534 1.4984 2.1324
4.2962 1.6535 2.1324
4.2336 1.8065 2.1324
4.1655 1.9571 2.1324
4.0920 2.1051 2.1324
4.0133 2.2504 2.1324
3.9295 2.3928 2.1324
3.8406 2.5320 2.1324
3.7468 2.6680 2.1324
3.6482 2.8005 2.1324
3.5448 2.9293 2.1324
3.4370 3.0544 2.1324
3.3248 3.1755 2.1324
3.2082 3.2925 2.1324
3.0876 3.4053 2.1324
2.9631 3.5136 2.1324
2.8347 3.6174 2.1324
2.7027 3.7165 2.1324
2.5673 3.8108 2.1324
0.8726 1.4014 0.7662
0.8217 1.4318 0.7662
0.7697 1.4604 0.7663
0.7168 1.4870 0.7663
0.6629 1.5118 0.7664
0.6082 1.5346 0.7664
0.5527 1.5555 0.7664
0.4964 1.5743 0.7665
0.4396 1.5911 0.7665
0.3821 1.6058 0.7666
0.3242 1.6185 0.7666
0.2659 1.6291 0.7666
0.2072 1.6376 0.7666
0.1482 1.6440 0.7667
0.0891 1.6482 0.7667
0.0298 1.6503 0.7667
-0.0295 1.6503 0.7667
-0.0887 1.6482 0.7667
-0.1479 1.6440 0.7667
-0.2068 1.6376 0.7667
-0.2655 1.6291 0.7667
-0.3239 1.6185 0.7667
-0.3818 1.6058 0.7667
-0.4392 1.5911 0.7667
-0.4961 1.5743 0.7667
-0.5523 1.5555 0.7667
-0.6078 1.5346 0.7667
-0.6626 1.5118 0.7667
-0.7164 1.4870 0.7666
-0.7694 1.4604 0.7666
-0.8214 1.4318 0.7666
-0.8723 1.4014 0.7666
-0.9220 1.3692 0.7665
-0.9706 1.3352 0.7665
-2.9692 3.7903 2.2356
-3.1036 3.6814 2.2356
-3.2341 3.5678 2.2356
-3.3603 3.4496 2.2356
-3.4823 3.3270 2.2356
-3.5998 3.2000 2.2356
-3.7127 3.0689 2.2356
-3.8209 2.9338 2.2356
-3.9241 2.7950 2.2356
-4.0223 2.6525 2.2356
-4.1154 2.5066 2.2356
-4.2031 2.3574 2.2356
-4.2855 2.2051 2.2356
-4.3624 2.0501 2.2356
-4.4336 1.8923 2.2356
-4.4992 1.7320 2.2356
-4.5590 1.5696 2.2356
-4.6129 1.4050 2.2356
-4.6609 1.2386 2.2356
-4.7030 1.0706 2.2356
-4.7389 0.9011 2.2356
-4.7688 0.7305 2.2356
-4.7925 0.5589 2.2356
-4.8101 0.3865 2.2356
-4.8214 0.2136 2.2356
-4.8266 0.0404 2.2356
-4.8255 -0.1329 2.2356
-4.8183 -0.3061 2.2356
-4.8048 -0.4790 2.2356
-4.7851 -0.6512 2.2356
-4.7592 -0.8227 2.2356
-4.7272 -0.9931 2.2356
-4.6891 -1.1623 2.2356
-4.6450 -1.3300 2.2356
-4.5948 -1.4961 2.2356
-4.5387 -1.6602 2.2356
-4.4768 -1.8223 2.2356
-4.4090 -1.9820 2.2356
-4.3356 -2.1393 2.2356
-4.2565 -2.2938 2.2356
-4.1719 -2.4453 2.2356
-4.0820 -2.5938 2.2356
-3.9867 -2.7389 2.2356
-3.8863 -2.8806 2.2356
-3.7809 -3.0185 2.2356
-3.6705 -3.1526 2.2356
-3.5554 -3.2826 2.2356
-3.4357 -3.4084 2.2356
-3.3115 -3.5299 2.2356
-3.1830 -3.6468 2.2356
-3.0504 -3.7590 2.2356
-2.9138 -3.8664 2.2356
-2.7735 -3.9688 2.2356
-2.6295 -4.0662 2.2356
-2.4822 -4.1582 2.2356
-2.3316 -4.2450 2.2356
-2.1779 -4.3262 2.2356
-2.0214 -4.4019 2.2356
-1.8624 -4.4719 2.2356
-1.7008 -4.5361 2.2356
-1.5371 -4.5945 2.2356
-1.3713 -4.6469 2.2356
-1.2038 -4.6934 2.2356
-1.0347 -4.7338 2.2356
-0.8642 -4.7681 2.2356
-0.6926 -4.7962 2.2356
-0.5202 -4.8182 2.2356
-0.3470 -4.8339 2.2356
-0.1734 -4.8434 2.2356
0.0005 -4.5729 2.2356
0.1645 -4.5700 2.2356
0.3284 -4.5613 2.2356
0.4918 -4.5466 2.2356
0.6546 -4.5260 2.2356
0.8165 -4.4996 2.2356
0.9774 -4.4674 2.2356
1.1370 -4.4295 2.2356
1.2952 -4.3858 2.2356
1.4517 -4.3364 2.2356
1.5811 -4.2146 2.2007
1.6775 -4.0260 2.1324
1.8208 -3.9632 2.1324
1.9618 -3.8951 2.1324
2.1001 -3.8221 2.1324
2.2358 -3.7442 2.1324
2.3686 -3.6614 2.1324
2.4983 -3.5739 2.1324
2.6247 -3.4817 2.1324
2.7478 -3.3851 2.1324
2.8673 -3.2842 2.1324
2.9831 -3.1790 2.1324
3.0950 -3.0697 2.1324
3.2029 -2.9565 2.1324
3.3067 -2.8394 2.1324
3.4061 -2.7188 2.1324
3.5012 -2.5946 2.1324
3.5917 -2.4671 2.1324
3.6776 -2.3364 2.1324
3.7587 -2.2027 2.1324
3.8350 -2.0663 2.1324
3.9063 -1.9271 2.1324
3.9725 -1.7855 2.1324
4.0336 -1.6417 2.1324
4.0895 -1.4957 2.1324
4.1401 -1.3479 2.1324
4.1853 -1.1983 2.1324
4.2252 -1.0472 2.1324
4.2595 -0.8948 2.1324
4.2884 -0.7413 2.1324
4.3118 -0.5868 2.1324
4.3295 -0.4316 2.1324
4.3417 -0.2760 2.1324
4.3483 -0.1199 2.1324
4.3493 0.0362 2.1324
4.3447 0.1923 2.1324
4.3344 0.3481 2.1324
1.9301 0.2250 0.9530
1.8949 0.2901 0.9403
4.2704 0.8117 2.1324
4.2380 0.9644 2.1324
4.2001 1.1157 2.1324
4.1568 1.2656 2.1324
4.1082 1.4139 2.1324
4.0543 1.5603 2.1324
3.9952 1.7046 2.1324
3.9310 1.8467 2.1324
3.8617 1.9864 2.1324
3.7874 2.1236 2.1324
3.7083 2.2579 2.1324
3.6245 2.3894 2.1324
3.5360 2.5177 2.1324
3.4429 2.6427 2.1324
3.3454 2.7644 2.1324
3.2436 2.8824 2.1324
3.1377 2.9967 2.1324
3.0278 3.1071 2.1324
2.9140 3.2136 2.1324
2.7964 3.3158 2.1324
2.6753 3.4138 2.1324
0.9163 1.2599 0.7660
0.8704 1.2920 0.7660
0.8234 1.3224 0.7661
0.7754 1.3511 0.7661
0.7264 1.3780 0.7662
0.6764 1.4032 0.7662
0.6256 1.4266 0.7663
0.5739 1.4481 0.7663
0.5215 1.4678 0.7663
0.4685 1.4855 0.7664
0.4148 1.5014 0.7664
0.3606 1.5153 0.7664
0.3060 1.5273 0.7665
0.2509 1.5372 0.7665
0.1955 1.5453 0.7665
0.1399 1.5513 0.7665
0.0841 1.5553 0.7666
0.0281 1.5573 0.7666
-0.0278 1.5573 0.7666
-0.0837 1.5553 0.7666
-0.1395 1.5513 0.7666
-0.1952 1.5453 0.7666
-0.2505 1.5373 0.7666
-0.3056 1.5273 0.7666
-0.3603 1.5153 0.7666
-0.4145 1.5014 0.7666
-0.4681 1.4855 0.7666
-0.5212 1.4678 0.7666
-0.5736 1.4481 0.7666
-0.6252 1.4266 0.7665
-0.6761 1.4032 0.7665
-0.7260 1.3780 0.7665
-0.7751 1.3511 0.7665
-0.8231 1.3224 0.7664
-0.8701 1.2920 0.7664
-0.9159 1.2599 0.7664
-0.9606 1.2262 0.7664
-2.9291 3.4743 2.2356
-3.0522 3.3671 2.2356
-3.1714 3.2555 2.2356
-3.2865 3.1397 2.2356
-3.3974 3.0199 2.2356
-3.5039 2.8962 2.2356
-3.6060 2.7687 2.2356
-3.7034 2.6376 2.2356
-3.7961 2.5031 2.2356
-3.8839 2.3654 2.2356
-3.9667 2.2246 2.2356
-4.0444 2.0809 2.2356
-4.1169 1.9345 2.2356
-4.1842 1.7857 2.2356
-4.2460 1.6344 2.2356
-4.3024 1.4811 2.2356
-4.3533 1.3258 2.2356
-4.3986 1.1687 2.2356
-4.4382 1.0101 2.2356
-4.4721 0.8502 2.2356
-4.5003 0.6892 2.2356
-4.5227 0.5272 2.2356
-4.5392 0.3646 2.2356
-4.5499 0.2014 2.2356
-4.5548 0.0379 2.2356
-4.5537 -0.1256 2.2356
-4.5468 -0.2891 2.2356
-4.5341 -0.4521 2.2356
-4.5155 -0.6147 2.2356
-4.4910 -0.7765 2.2356
-4.4608 -0.9373 2.2356
-4.4248 -1.0970 2.2356
-4.3832 -1.2552 2.2356
-4.3358 -1.4119 2.2356
-4.2828 -1.5668 2.2356
-4.2243 -1.7197 2.2356
-4.1604 -1.8704 2.2356
-4.0911 -2.0188 2.2356
-4.0164 -2.1646 2.2356
-3.9366 -2.3076 2.2356
-3.8517 -2.4476 2.2356
-3.7618 -2.5846 2.2356
-3.6670 -2.7182 2.2356
-3.5675 -2.8484 2.2356
-3.4634 -2.9749 2.2356
-3.3547 -3.0975 2.2356
-3.2418 -3.2163 2.2356
-3.1246 -3.3308 2.2356
-3.0033 -3.4411 2.2356
-2.8782 -3.5470 2.2356
-2.7493 -3.6483 2.2356
-2.6169 -3.7449 2.2356
-2.4810 -3.8368 2.2356
-2.3420 -3.9236 2.2356
-2.1999 -4.0054 2.2356
-2.0549 -4.0821 2.2356
-1.9073 -4.1535 2.2356
-1.7571 -4.2195 2.2356
-1.6047 -4.2801 2.2356
-1.4502 -4.3352 2.2356
-1.2938 -4.3846 2.2356
-1.1358 -4.4285 2.2356
-0.9762 -4.4666 2.2356
-0.8154 -4.4989 2.2356
-0.6535 -4.5254 2.2356
-0.4908 -4.5461 2.2356
-0.3274 -4.5610 2.2356
-0.1635 -4.5699 2.2356
0.0005 -4.3234 2.2356
0.1556 -4.3206 2.2356
0.3105 -4.3123 2.2356
0.4650 -4.2985 2.2356
0.6189 -4.2790 2.2356
0.7720 -4.2541 2.2356
0.9241 -4.2237 2.2356
1.0750 -4.1878 2.2356
1.2245 -4.1465 2.2356
1.3724 -4.0998 2.2356
1.5186 -4.0478 2.2356
0.9048 -2.1716 1.2165
1.7214 -3.7469 2.1324
1.8547 -3.6826 2.1324
1.9855 -3.6136 2.1324
2.1138 -3.5399 2.1324
2.2393 -3.4616 2.1324
2.3619 -3.3789 2.1324
2.4815 -3.2918 2.1324
2.5978 -3.2005 2.1324
2.7108 -3.1051 2.1324
2.8203 -3.0056 2.1324
2.9261 -2.9023 2.1324
3.0281 -2.7953 2.1324
3.1262 -2.6846 2.1324
3.2203 -2.5705 2.1324
3.3102 -2.4532 2.1324
3.3958 -2.3326 2.1324
3.4770 -2.2091 2.1324
3.5537 -2.0827 2.1324
3.6258 -1.9537 2.1324
