ply
format ascii 1.0
element vertex 2150
property float32 x
property float32 y
property float32 z
end_header
-15.9117 7.4667 2.1518
-16.2129 6.9089 2.1518
-16.4953 6.3395 2.1518
-16.7584 5.7590 2.1518
-17.0018 5.1680 2.1518
-17.2250 4.5671 2.1518
-17.4275 3.9570 2.1518
-17.6089 3.3384 2.1518
-17.7688 2.7119 2.1518
-17.9069 2.0784 2.1518
-18.0227 1.4385 2.1518
-18.1160 0.7929 2.1518
-18.1864 0.1426 2.1518
-18.2336 -0.5118 2.1518
-18.2572 -1.1693 2.1518
-18.2573 -1.8291 2.1518
-18.2334 -2.4905 2.1518
-18.1854 -3.1524 2.1518
-18.1133 -3.8141 2.1518
-18.0168 -4.4745 2.1518
-17.8959 -5.1328 2.1518
-17.7505 -5.7880 2.1518
-17.3909 -6.3697 2.1285
-17.1990 -7.0090 2.1286
-16.9830 -7.6425 2.1286
-16.7431 -8.2692 2.1286
-16.4793 -8.8881 2.1286
-16.1920 -9.4982 2.1287
-16.6502 -10.5876 2.2318
-16.3000 -11.2058 2.2318
-15.9260 -11.8118 2.2318
-15.5285 -12.4045 2.2318
-15.1080 -12.9831 2.2318
-14.6650 -13.5465 2.2318
-14.1999 -14.0938 2.2318
-13.7134 -14.6240 2.2318
-13.2061 -15.1362 2.2318
-12.6786 -15.6295 2.2318
-12.1317 -16.1030 2.2318
-11.5661 -16.5560 2.2318
-10.9827 -16.9875 2.2318
-10.3821 -17.3967 2.2318
-9.7654 -17.7830 2.2318
-8.9948 -17.8702 2.1979
-8.2077 -17.8752 2.1583
-7.4660 -17.9289 2.1287
-6.8251 -18.2033 2.1287
-6.1735 -18.4528 2.1287
-5.5121 -18.6769 2.1287
-4.8421 -18.8752 2.1287
-4.1645 -19.0474 2.1287
-3.4804 -19.1931 2.1287
-2.7909 -19.3119 2.1287
-2.0971 -19.4039 2.1287
-1.4001 -19.4686 2.1287
-0.7011 -19.5061 2.1287
-0.0013 -16.9176 2.2318
0.6051 -16.9034 2.2318
1.2103 -16.8659 2.2318
1.8134 -16.8051 2.2318
2.4136 -16.7212 2.2318
3.0098 -16.6144 2.2318
3.6011 -16.4848 2.2318
4.1866 -16.3328 2.2318
4.7654 -16.1584 2.2318
5.3366 -15.9622 2.2318
5.8994 -15.7445 2.2318
6.4529 -15.5057 2.2318
6.9964 -15.2461 2.2318
7.5289 -14.9664 2.2318
8.0498 -14.6669 2.2318
8.5582 -14.3483 2.2318
9.0535 -14.0110 2.2318
9.5350 -13.6557 2.2318
10.0019 -13.2830 2.2318
10.4538 -12.8935 2.2318
10.8899 -12.4880 2.2318
5.4956 -5.8635 1.0844
5.9072 -5.8661 1.1256
6.3501 -5.8689 1.1714
6.8294 -5.8720 1.2226
7.3509 -5.8753 1.2800
7.9222 -5.8789 1.3448
2.0193 -1.3891 0.3348
9.2530 -5.8873 1.5016
10.0386 -5.8923 1.5973
10.8160 -5.8373 1.6907
5.6574 -2.7960 0.8700
14.0445 -6.3247 2.1285
14.2501 -5.8117 2.1318
14.4147 -5.2839 2.1318
14.5595 -4.7517 2.1318
14.6846 -4.2159 2.1318
14.7900 -3.6771 2.1318
14.8755 -3.1362 2.1318
14.9414 -2.5939 2.1318
14.9875 -2.0509 2.1318
15.0141 -1.5079 2.1318
15.0211 -0.9656 2.1318
15.0088 -0.4247 2.1318
14.9773 0.1140 2.1318
14.9268 0.6500 2.1318
14.8575 1.1826 2.1318
14.7695 1.7111 2.1318
14.6632 2.2349 2.1318
14.5388 2.7533 2.1318
14.3966 3.2659 2.1318
5.6966 1.5093 0.8530
14.0599 4.2710 2.1318
13.8661 4.7624 2.1318
13.6557 5.2456 2.1318
13.4291 5.7202 2.1318
13.1868 6.1856 2.1318
12.9290 6.6413 2.1318
12.6561 7.0870 2.1318
12.3687 7.5220 2.1318
12.0670 7.9460 2.1318
11.7515 8.3586 2.1318
11.4227 8.7593 2.1318
11.0809 9.1479 2.1318
5.7162 5.0751 1.1360
10.3605 9.8867 2.1318
9.9827 10.2364 2.1318
9.5938 10.5724 2.1318
9.1944 10.8945 2.1318
8.7848 11.2024 2.1318
8.3656 11.4958 2.1318
7.9372 11.7745 2.1318
7.5002 12.0381 2.1318
5.7513 10.0160 1.7378
6.6021 12.5195 2.1318
6.1422 12.7368 2.1318
5.6673 12.9195 2.1287
5.1953 13.1047 2.1287
4.7176 13.2737 2.1287
4.2348 13.4265 2.1287
3.7475 13.5628 2.1287
3.2561 13.6825 2.1287
2.7611 13.7857 2.1287
2.2631 13.8721 2.1287
1.7626 13.9416 2.1287
1.3212 14.6720 2.2318
0.7929 14.7096 2.2318
0.2637 14.7293 2.2318
-0.2660 14.7312 2.2318
-0.7955 14.7153 2.2318
-1.3244 14.6816 2.2318
-1.8520 14.6301 2.2318
-2.3778 14.5608 2.2318
-2.9012 14.4738 2.2318
-3.4218 14.3692 2.2318
-3.9388 14.2471 2.2318
-4.4519 14.1074 2.2318
-4.9604 13.9504 2.2318
-5.4637 13.7762 2.2318
-5.9614 13.5848 2.2318
-6.3692 13.2028 2.2028
-6.6167 12.5429 2.1285
-7.0720 12.3124 2.1285
-7.5199 12.0662 2.1285
-7.9597 11.8046 2.1285
-8.3910 11.5278 2.1285
-8.8133 11.2360 2.1285
-9.2261 10.9295 2.1285
-9.6288 10.6086 2.1285
-10.0210 10.2734 2.1285
-10.4021 9.9245 2.1285
-10.8895 9.6664 2.1518
-11.2511 9.2866 2.1518
-11.6001 8.8938 2.1518
-11.9360 8.4883 2.1518
-12.2584 8.0707 2.1518
-12.5667 7.6412 2.1518
-12.8606 7.2003 2.1518
-13.1397 6.7485 2.1518
-13.4034 6.2863 2.1518
-13.6515 5.8141 2.1518
-13.8833 5.3323 2.1518
-14.0987 4.8417 2.1518
-14.2972 4.3425 2.1518
-14.4784 3.8355 2.1518
-14.6421 3.3212 2.1518
-14.7878 2.8002 2.1518
-14.9153 2.2731 2.1518
-15.0242 1.7404 2.1518
-15.1143 1.2030 2.1518
-15.1854 0.6613 2.1518
-15.2373 0.1161 2.1518
-15.2696 -0.4319 2.1518
-15.2822 -0.9821 2.1518
-15.2749 -1.5337 2.1518
-15.2477 -2.0860 2.1518
-15.2004 -2.6383 2.1518
-15.1330 -3.1899 2.1518
-15.0453 -3.7399 2.1518
-14.9373 -4.2876 2.1518
-14.8091 -4.8323 2.1518
-14.6608 -5.3731 2.1518
-14.3355 -5.8454 2.1285
-14.1492 -6.3706 2.1285
-13.9430 -6.8896 2.1285
-13.7174 -7.4017 2.1286
-13.4724 -7.9062 2.1286
-13.2082 -8.4022 2.1286
-12.9252 -8.8890 2.1286
-12.6237 -9.3659 2.1287
-12.8997 -10.3081 2.2318
-12.5456 -10.7846 2.2318
-12.1732 -11.2483 2.2318
-11.7830 -11.6984 2.2318
-11.3753 -12.1341 2.2318
-10.9509 -12.5548 2.2318
-10.5102 -12.9598 2.2318
-10.0538 -13.3483 2.2318
-9.5823 -13.7197 2.2318
-9.0964 -14.0733 2.2318
-8.5968 -14.4086 2.2318
-8.0842 -14.7249 2.2318
-7.5594 -15.0217 2.2318
-7.0230 -15.2985 2.2318
-6.4760 -15.5548 2.2318
-5.9191 -15.7901 2.2318
-5.3532 -16.0040 2.2318
-4.7791 -16.1962 2.2318
-4.1978 -16.3663 2.2318
-3.6100 -16.5139 2.2318
-3.0168 -16.6389 2.2318
-2.4190 -16.7410 2.2318
-1.8177 -16.8200 2.2318
-1.2136 -16.8759 2.2318
-0.6078 -16.9084 2.2318
-0.0013 -14.4074 2.2318
0.5150 -14.3957 2.2318
1.0304 -14.3644 2.2318
1.5440 -14.3135 2.2318
2.0552 -14.2430 2.2318
2.5632 -14.1532 2.2318
3.0670 -14.0442 2.2318
3.5661 -13.9162 2.2318
4.0597 -13.7694 2.2318
4.5470 -13.6041 2.2318
5.0273 -13.4206 2.2318
5.4999 -13.2192 2.2318
5.9641 -13.0002 2.2318
6.4193 -12.7641 2.2318
6.8647 -12.5112 2.2318
7.2999 -12.2420 2.2318
7.7240 -11.9569 2.2318
8.1366 -11.6564 2.2318
8.5372 -11.3411 2.2318
7.5964 -9.3721 1.8995
9.2998 -10.6679 2.2318
5.4938 -5.8635 1.2691
5.9052 -5.8661 1.3169
6.3480 -5.8689 1.3701
6.8269 -5.8720 1.4295
7.3482 -5.8753 1.4962
7.9191 -5.8789 1.5714
2.0190 -1.3894 0.3912
9.1607 -5.8311 1.7367
11.4540 -6.7261 2.1285
11.6648 -6.2984 2.1285
5.6579 -2.7977 1.0155
12.0559 -5.4321 2.1318
12.2178 -4.9858 2.1318
12.3631 -4.5348 2.1318
12.4915 -4.0798 2.1318
12.6032 -3.6213 2.1318
12.6979 -3.1599 2.1318
12.7758 -2.6965 2.1318
12.8367 -2.2314 2.1318
12.8808 -1.7655 2.1318
12.9080 -1.2992 2.1318
12.9185 -0.8333 2.1318
12.9123 -0.3683 2.1318
12.8896 0.0953 2.1318
12.8504 0.5568 2.1318
12.7950 1.0156 2.1318
12.7234 1.4712 2.1318
12.6360 1.9231 2.1318
12.5328 2.3707 2.1318
12.4142 2.8134 2.1318
5.6962 1.5079 0.9888
12.1314 3.6824 2.1318
11.9678 4.1077 2.1318
11.7897 4.5261 2.1318
11.5975 4.9373 2.1318
11.3914 5.3407 2.1318
11.1718 5.7361 2.1318
10.9391 6.1228 2.1318
10.6934 6.5005 2.1318
10.4353 6.8689 2.1318
10.1650 7.2275 2.1318
9.8830 7.5760 2.1318
9.5895 7.9140 2.1318
5.7165 5.0739 1.3125
8.9700 8.5572 2.1318
8.6447 8.8618 2.1318
8.3096 9.1546 2.1318
7.9651 9.4354 2.1318
7.6116 9.7039 2.1318
7.2496 9.9598 2.1318
5.7415 8.5152 1.7791
6.5017 10.4331 2.1318
6.1166 10.6499 2.1318
5.7248 10.8533 2.1318
5.3189 11.0271 2.1287
4.9153 11.2028 2.1287
4.5063 11.3646 2.1287
4.0923 11.5122 2.1287
3.6738 11.6457 2.1287
3.2512 11.7647 2.1287
2.8251 11.8693 2.1287
2.3957 11.9594 2.1287
1.9637 12.0348 2.1287
1.6035 12.6812 2.2318
1.1464 12.7294 2.2318
0.6879 12.7620 2.2318
0.2286 12.7790 2.2318
-0.2310 12.7805 2.2318
-0.6905 12.7663 2.2318
-1.1493 12.7366 2.2318
-1.6071 12.6912 2.2318
-2.0632 12.6304 2.2318
-2.5171 12.5540 2.2318
-2.9685 12.4623 2.2318
-3.4167 12.3552 2.2318
-3.8613 12.2328 2.2318
-4.3019 12.0952 2.2318
-4.7378 11.9426 2.2318
-5.1687 11.7751 2.2318
-5.5940 11.5929 2.2318
-6.0133 11.3960 2.2318
-6.3824 11.1087 2.2166
-6.5157 10.4521 2.1285
-6.8956 10.2235 2.1285
-7.2678 9.9818 2.1285
-7.6320 9.7271 2.1285
-7.9878 9.4597 2.1285
-8.3347 9.1798 2.1285
-8.6722 8.8878 2.1285
-8.9999 8.5837 2.1285
-9.3175 8.2680 2.1285
-9.6244 7.9411 2.1285
-9.9204 7.6031 2.1285
-10.2049 7.2544 2.1285
-10.5922 6.9708 2.1518
-10.8556 6.5978 2.1518
-11.1063 6.2152 2.1518
-11.3440 5.8234 2.1518
-11.5682 5.4227 2.1518
-11.7787 5.0136 2.1518
-11.9751 4.5965 2.1518
-12.1570 4.1720 2.1518
-12.3242 3.7404 2.1518
-12.4764 3.3023 2.1518
-12.6133 2.8581 2.1518
-12.7346 2.4085 2.1518
-12.8401 1.9539 2.1518
-12.9295 1.4949 2.1518
-13.0027 1.0320 2.1518
-13.0595 0.5658 2.1518
-13.0995 0.0969 2.1518
-13.1228 -0.3741 2.1518
-13.1291 -0.8466 2.1518
-13.1184 -1.3201 2.1518
-13.0906 -1.7938 2.1518
-13.0455 -2.2672 2.1518
-12.9831 -2.7396 2.1518
-12.9035 -3.2104 2.1518
-12.8067 -3.6789 2.1518
-12.6925 -4.1445 2.1518
-12.5612 -4.6065 2.1518
-12.4127 -5.0643 2.1518
-12.2472 -5.5171 2.1518
-11.9345 -5.9000 2.1285
-11.7376 -6.3363 2.1285
-11.5244 -6.7659 2.1286
-11.2951 -7.1881 2.1286
-11.0498 -7.6021 2.1286
-10.7889 -8.0075 2.1286
-10.5127 -8.4034 2.1286
-10.2214 -8.7895 2.1287
-10.3957 -9.6087 2.2318
-10.0598 -9.9906 2.2318
-9.7094 -10.3600 2.2318
-9.3450 -10.7166 2.2318
-8.9668 -11.0596 2.2318
-8.5756 -11.3886 2.2318
-8.1718 -11.7030 2.2318
-7.7559 -12.0022 2.2318
-7.3286 -12.2858 2.2318
-6.8905 -12.5534 2.2318
-6.4421 -12.8043 2.2318
-5.9842 -13.0383 2.2318
-5.5173 -13.2549 2.2318
-5.0423 -13.4537 2.2318
-4.5597 -13.6345 2.2318
-4.0704 -13.7968 2.2318
-3.5750 -13.9406 2.2318
-3.0742 -14.0653 2.2318
-2.5690 -14.1710 2.2318
-2.0599 -14.2574 2.2318
-1.5478 -14.3243 2.2318
-1.0335 -14.3716 2.2318
-0.5177 -14.3993 2.2318
-0.0013 -12.5345 2.2318
0.4478 -12.5246 2.2318
0.8961 -12.4978 2.2318
1.3430 -12.4540 2.2318
1.7878 -12.3934 2.2318
2.2298 -12.3160 2.2318
2.6683 -12.2221 2.2318
3.1028 -12.1117 2.2318
3.5326 -11.9851 2.2318
3.9571 -11.8425 2.2318
4.3756 -11.6840 2.2318
4.7875 -11.5101 2.2318
5.1923 -11.3210 2.2318
5.5893 -11.1169 2.2318
5.9781 -10.8983 2.2318
6.3580 -10.6655 2.2318
6.7285 -10.4189 2.2318
6.7612 -9.6889 2.1285
7.0953 -9.4285 2.1285
7.4191 -9.1562 2.1285
7.7321 -8.8723 2.1285
5.4920 -5.8635 1.4550
5.9033 -5.8661 1.5095
6.3457 -5.8689 1.5701
6.8244 -5.8719 1.6379
7.3243 -5.8584 1.7090
7.8403 -5.8227 1.7824
2.0187 -1.3898 0.4480
9.8046 -6.2436 2.1285
10.0203 -5.8869 2.1318
10.2072 -5.5141 2.1318
5.6584 -2.7994 1.1621
10.5386 -4.7511 2.1318
10.6829 -4.3621 2.1318
10.8126 -3.9687 2.1318
10.9278 -3.5716 2.1318
11.0283 -3.1713 2.1318
11.1141 -2.7684 2.1318
11.1851 -2.3633 2.1318
11.2414 -1.9567 2.1318
11.2829 -1.5491 2.1318
11.3098 -1.1409 2.1318
11.3219 -0.7329 2.1318
11.3194 -0.3254 2.1318
11.3023 0.0810 2.1318
11.2709 0.4858 2.1318
11.2251 0.8885 2.1318
11.1651 1.2885 2.1318
11.0911 1.6855 2.1318
11.0033 2.0789 2.1318
10.9018 2.4682 2.1318
5.6958 1.5065 1.1256
10.6585 3.2329 2.1318
10.5172 3.6073 2.1318
10.3631 3.9760 2.1318
10.1964 4.3384 2.1318
10.0174 4.6941 2.1318
9.8264 5.0429 2.1318
9.6236 5.3841 2.1318
9.4095 5.7177 2.1318
9.1841 6.0430 2.1318
8.9479 6.3598 2.1318
8.7013 6.6678 2.1318
8.4444 6.9666 2.1318
5.7169 5.0726 1.4903
7.9015 7.5356 2.1318
7.6162 7.8052 2.1318
7.3221 8.0644 2.1318
5.7306 6.7865 1.7403
6.7090 8.5509 2.1318
6.3908 8.7776 2.1318
6.0652 8.9931 2.1318
5.7328 9.1970 2.1318
5.3860 9.3757 2.1287
5.0415 9.5558 2.1287
4.6912 9.7238 2.1287
4.3357 9.8796 2.1287
3.9752 10.0231 2.1287
3.6103 10.1541 2.1287
3.2412 10.2724 2.1287
2.8685 10.3780 2.1287
2.4926 10.4708 2.1287
2.1139 10.5506 2.1287
1.7327 10.6175 2.1287
1.4149 11.1880 2.2318
1.0115 11.2306 2.2318
0.6069 11.2594 2.2318
0.2016 11.2744 2.2318
-0.2040 11.2755 2.2318
-0.6094 11.2628 2.2318
-1.0143 11.2362 2.2318
-1.4182 11.1958 2.2318
-1.8205 11.1416 2.2318
-2.2210 11.0736 2.2318
-2.6190 10.9920 2.2318
-3.0142 10.8967 2.2318
-3.4062 10.7879 2.2318
-3.7945 10.6656 2.2318
-4.1786 10.5300 2.2318
-4.5581 10.3812 2.2318
-4.9326 10.2194 2.2318
-5.3017 10.0446 2.2318
-5.6649 9.8570 2.2318
-6.0218 9.6569 2.2318
-6.3719 9.4444 2.2318
-6.4094 8.8002 2.1302
-6.7241 8.5674 2.1285
-7.0364 8.3305 2.1285
-7.3408 8.0825 2.1285
-7.6367 7.8239 2.1285
-7.9238 7.5548 2.1285
-8.2019 7.2755 2.1285
-8.4705 6.9864 2.1285
-8.7295 6.6878 2.1286
-8.9780 6.3797 2.1286
-9.2160 6.0625 2.1286
-9.4431 5.7368 2.1285
-9.6591 5.4028 2.1285
-9.8635 5.0608 2.1285
-10.0561 4.7113 2.1285
-10.2367 4.3546 2.1285
-10.4048 3.9912 2.1285
-10.6758 3.6611 2.1518
-10.8200 3.2813 2.1518
-10.9509 2.8959 2.1518
-11.0683 2.5055 2.1518
-11.1719 2.1104 2.1518
-11.2616 1.7112 2.1518
-11.3372 1.3082 2.1518
-11.3984 0.9021 2.1518
-11.4452 0.4933 2.1518
-11.4773 0.0824 2.1518
-11.4947 -0.3302 2.1518
-11.4973 -0.7440 2.1518
-11.4849 -1.1583 2.1518
-11.4575 -1.5726 2.1518
-11.4151 -1.9864 2.1518
-11.3577 -2.3992 2.1518
-11.2851 -2.8103 2.1518
-11.1975 -3.2192 2.1518
-11.0949 -3.6254 2.1518
-10.9774 -4.0282 2.1518
-10.8450 -4.4272 2.1518
-10.5822 -4.7696 2.1285
-10.4221 -5.1548 2.1285
-10.2477 -5.5345 2.1285
-10.0591 -5.9081 2.1285
-9.8566 -6.2751 2.1285
-9.6404 -6.6349 2.1285
-9.4106 -6.9870 2.1285
-9.1677 -7.3308 2.1285
-8.9118 -7.6657 2.1285
-8.6433 -7.9915 2.1285
-8.7681 -8.7103 2.2318
-8.4611 -9.0306 2.2318
-8.1420 -9.3397 2.2318
-7.8113 -9.6370 2.2318
-7.4693 -9.9219 2.2318
-7.1164 -10.1942 2.2318
-6.7533 -10.4533 2.2318
-6.3804 -10.6987 2.2318
-5.9982 -10.9302 2.2318
-5.6072 -11.1474 2.2318
-5.2081 -11.3498 2.2318
-4.8013 -11.5371 2.2318
-4.3875 -11.7091 2.2318
-3.9673 -11.8654 2.2318
-3.5413 -12.0058 2.2318
-3.1101 -12.1301 2.2318
-2.6744 -12.2381 2.2318
-2.2348 -12.3295 2.2318
-1.7919 -12.4042 2.2318
-1.3464 -12.4622 2.2318
-0.8991 -12.5032 2.2318
-0.4505 -12.5274 2.2318
-0.0013 -11.0822 2.2318
0.3957 -11.0737 2.2318
0.7920 -11.0502 2.2318
1.1871 -11.0119 2.2318
1.5803 -10.9588 2.2318
1.9712 -10.8909 2.2318
2.3590 -10.8085 2.2318
2.7434 -10.7116 2.2318
3.1236 -10.6004 2.2318
3.4992 -10.4751 2.2318
3.8696 -10.3359 2.2318
4.2343 -10.1830 2.2318
4.5928 -10.0167 2.2318
4.9446 -9.8373 2.2318
5.0444 -9.1987 2.1285
5.3656 -9.0034 2.1285
5.6791 -8.7964 2.1285
5.9843 -8.5780 2.1285
6.2809 -8.3487 2.1285
6.5684 -8.1088 2.1285
6.8466 -7.8587 2.1285
5.4902 -5.8635 1.6424
5.9013 -5.8661 1.7036
6.2811 -5.8111 1.7542
7.8582 -6.7638 2.1285
8.0842 -6.4686 2.1285
8.2990 -6.1657 2.1285
2.0184 -1.3901 0.5053
8.7069 -5.5470 2.1318
8.8866 -5.2232 2.1318
9.0540 -4.8935 2.1318
5.6589 -2.8011 1.3099
9.3517 -4.2184 2.1318
9.4815 -3.8739 2.1318
9.5986 -3.5255 2.1318
9.7028 -3.1736 2.1318
9.7940 -2.8187 2.1318
9.8722 -2.4614 2.1318
9.9373 -2.1020 2.1318
9.9894 -1.7411 2.1318
10.0283 -1.3791 2.1318
10.0542 -1.0165 2.1318
10.0670 -0.6539 2.1318
10.0668 -0.2916 2.1318
10.0537 0.0698 2.1318
10.0278 0.4300 2.1318
9.9890 0.7884 2.1318
9.9376 1.1446 2.1318
9.8737 1.4983 2.1318
9.7974 1.8488 2.1318
9.7089 2.1959 2.1318
5.6954 1.5051 1.2636
9.4958 2.8780 2.1318
9.3716 3.2122 2.1318
9.2359 3.5414 2.1318
9.0890 3.8650 2.1318
8.9309 4.1829 2.1318
8.7621 4.4945 2.1318
8.5828 4.7997 2.1318
8.3931 5.0979 2.1318
8.1934 5.3890 2.1318
7.9839 5.6725 2.1318
7.7649 5.9482 2.1318
7.5368 6.2158 2.1318
5.7173 5.0713 1.6696
5.7262 5.4593 1.7305
5.7515 5.8924 1.8030
6.5385 7.1993 2.1318
6.2690 7.4222 2.1318
5.9923 7.6354 2.1318
5.7087 7.8388 2.1318
5.4106 8.0204 2.1287
5.1145 8.2031 2.1287
4.8125 8.3753 2.1287
4.5050 8.5369 2.1287
4.1923 8.6877 2.1287
3.8748 8.8276 2.1287
3.5529 8.9564 2.1287
3.2269 9.0739 2.1287
2.8972 9.1802 2.1287
2.5641 9.2750 2.1287
2.2282 9.3582 2.1287
1.8896 9.4299 2.1287
1.6239 9.9494 2.2318
1.2648 10.0000 2.2318
0.9042 10.0382 2.2318
0.5425 10.0640 2.2318
0.1801 10.0773 2.2318
-0.1825 10.0782 2.2318
-0.5450 10.0666 2.2318
-0.9069 10.0426 2.2318
-1.2679 10.0062 2.2318
-1.6275 9.9574 2.2318
-1.9854 9.8962 2.2318
-2.3411 9.8227 2.2318
-2.6942 9.7370 2.2318
-3.0443 9.6391 2.2318
-3.3911 9.5292 2.2318
-3.7341 9.4073 2.2318
-4.0729 9.2736 2.2318
-4.4072 9.1282 2.2318
-4.7365 8.9712 2.2318
-5.0604 8.8027 2.2318
-5.3786 8.6230 2.2318
-5.6908 8.4323 2.2318
-5.9964 8.2306 2.2318
-6.2951 8.0183 2.2318
-6.4067 7.5826 2.1708
-6.5527 7.2125 2.1285
-6.8159 6.9807 2.1285
-7.0712 6.7396 2.1285
-7.3187 6.4898 2.1286
-7.5572 6.2308 2.1286
-7.7868 5.9632 2.1286
-8.0071 5.6875 2.1286
-8.2180 5.4038 2.1286
-8.4191 5.1124 2.1286
-8.6102 4.8138 2.1286
-8.7908 4.5082 2.1286
-8.9609 4.1959 2.1286
-9.1201 3.8774 2.1286
-9.2682 3.5530 2.1286
-9.4050 3.2230 2.1285
-9.5302 2.8878 2.1285
-9.6436 2.5479 2.1285
-9.7450 2.2037 2.1285
-9.8343 1.8554 2.1285
-9.9113 1.5037 2.1285
-6.7993 0.7830 1.4508
-10.0276 0.7914 2.1285
-10.0666 0.4316 2.1285
-10.0928 0.0702 2.1285
-10.1061 -0.2926 2.1285
-10.1063 -0.6562 2.1285
-10.0933 -1.0202 2.1285
-10.0672 -1.3840 2.1285
-10.0280 -1.7473 2.1285
-9.9755 -2.1094 2.1285
-9.9098 -2.4700 2.1285
-9.8309 -2.8286 2.1285
-9.7390 -3.1846 2.1285
-9.6339 -3.5375 2.1285
-9.5159 -3.8869 2.1285
-9.3850 -4.2322 2.1286
-9.2414 -4.5731 2.1286
-9.0851 -4.9089 2.1286
-8.9164 -5.2392 2.1286
-8.7354 -5.5636 2.1286
-8.5423 -5.8814 2.1286
-8.3374 -6.1924 2.1286
-8.1208 -6.4959 2.1286
-7.8929 -6.7915 2.1286
-7.6539 -7.0789 2.1286
-7.7628 -7.7140 2.2318
-7.4900 -7.9965 2.2318
-7.2066 -8.2689 2.2318
-6.9129 -8.5309 2.2318
-6.6094 -8.7820 2.2318
-6.2964 -9.0218 2.2318
-5.9745 -9.2500 2.2318
-5.6440 -9.4661 2.2318
-5.3054 -9.6700 2.2318
-4.9591 -9.8611 2.2318
-4.6057 -10.0392 2.2318
-4.2457 -10.2041 2.2318
-3.8795 -10.3555 2.2318
-3.5078 -10.4930 2.2318
-3.1310 -10.6166 2.2318
-2.7496 -10.7260 2.2318
-2.3643 -10.8210 2.2318
-1.9756 -10.9014 2.2318
-1.5841 -10.9673 2.2318
-1.1903 -11.0183 2.2318
-0.7949 -11.0545 2.2318
-0.3983 -11.0759 2.2318
-0.0013 -9.9222 2.2318
0.3541 -9.9147 2.2318
0.7088 -9.8939 2.2318
1.0625 -9.8598 2.2318
1.4146 -9.8126 2.2318
1.7645 -9.7522 2.2318
2.1119 -9.6789 2.2318
2.4561 -9.5926 2.2318
2.7967 -9.4936 2.2318
3.1332 -9.3820 2.2318
3.4651 -9.2579 2.2318
3.7920 -9.1217 2.2318
4.1134 -8.9735 2.2318
4.2239 -8.4058 2.1285
4.5186 -8.2423 2.1285
4.8068 -8.0680 2.1285
5.0881 -7.8834 2.1285
5.3622 -7.6886 2.1285
5.6286 -7.4840 2.1285
5.8869 -7.2698 2.1285
6.1370 -7.0465 2.1285
6.3784 -6.8142 2.1285
6.6107 -6.5736 2.1285
5.6237 -5.2048 1.7516
5.6670 -4.8795 1.7116
7.2623 -5.8131 2.1318
7.4562 -5.5418 2.1318
2.0181 -1.3905 0.5631
7.8131 -4.9798 2.1318
7.9755 -4.6899 2.1318
8.1271 -4.3946 2.1318
5.6594 -2.8028 1.4592
8.3969 -3.7898 2.1318
8.5148 -3.4811 2.1318
8.6213 -3.1687 2.1318
8.7163 -2.8530 2.1318
8.7997 -2.5347 2.1318
8.8714 -2.2139 2.1318
8.9314 -1.8913 2.1318
8.9797 -1.5672 2.1318
9.0162 -1.2420 2.1318
9.0409 -0.9162 2.1318
9.0539 -0.5902 2.1318
9.0553 -0.2644 2.1318
9.0449 0.0608 2.1318
9.0230 0.3849 2.1318
8.9896 0.7075 2.1318
8.9448 1.0283 2.1318
8.8887 1.3468 2.1318
8.8214 1.6626 2.1318
8.7430 1.9755 2.1318
5.6949 1.5036 1.4029
8.5537 2.5905 2.1318
8.4431 2.8920 2.1318
8.3221 3.1890 2.1318
8.1908 3.4812 2.1318
8.0496 3.7681 2.1318
7.8985 4.0496 2.1318
7.7378 4.3252 2.1318
7.5678 4.5947 2.1318
7.3886 4.8578 2.1318
5.7593 4.0903 1.7050
5.7154 4.3766 1.7395
5.7374 4.7302 1.7989
5.7177 5.0700 1.8507
6.3650 6.0665 2.1318
6.1365 6.2851 2.1318
5.9009 6.4954 2.1318
5.6500 6.6875 2.1287
5.4011 6.8803 2.1287
5.1459 7.0642 2.1287
4.8846 7.2390 2.1287
4.6177 7.4045 2.1287
4.3453 7.5605 2.1287
4.0679 7.7069 2.1287
3.7858 7.8436 2.1287
3.4993 7.9703 2.1287
3.2087 8.0870 2.1287
2.9144 8.1936 2.1287
2.6167 8.2899 2.1287
2.3160 8.3758 2.1287
2.0126 8.4512 2.1287
1.7068 8.5162 2.1287
1.4668 8.9856 2.2318
1.1424 9.0313 2.2318
0.8167 9.0659 2.2318
0.4899 9.0892 2.2318
0.1626 9.1012 2.2318
-0.1650 9.1020 2.2318
-0.4924 9.0914 2.2318
-0.8193 9.0696 2.2318
-1.1454 9.0364 2.2318
-1.4702 8.9920 2.2318
-1.7934 8.9364 2.2318
-2.1146 8.8697 2.2318
-2.4334 8.7919 2.2318
-2.7495 8.7031 2.2318
-3.0625 8.6033 2.2318
-3.3720 8.4927 2.2318
-3.6777 8.3714 2.2318
-3.9792 8.2395 2.2318
-4.2762 8.0971 2.2318
-4.5683 7.9444 2.2318
-4.8552 7.7815 2.2318
-5.1364 7.6087 2.2318
-5.4118 7.4260 2.2318
-5.6808 7.2336 2.2318
-5.9433 7.0318 2.2318
-6.1988 6.8208 2.2318
-6.4023 6.5549 2.2163
-6.4149 6.1119 2.1407
-6.6009 5.8512 2.1287
-6.8151 5.6169 2.1287
-7.0213 5.3749 2.1286
-7.2190 5.1256 2.1286
-7.4082 4.8692 2.1286
-7.5884 4.6059 2.1286
-7.7595 4.3361 2.1286
-7.9212 4.0601 2.1286
-8.0733 3.7782 2.1286
-8.2155 3.4907 2.1286
-8.3476 3.1980 2.1286
-8.4695 2.9003 2.1286
-8.5809 2.5981 2.1286
-8.6817 2.2917 2.1286
-8.7716 1.9815 2.1286
-8.8505 1.6678 2.1286
-6.7125 1.0168 1.6021
-6.7145 0.7717 1.5925
-9.0201 0.7098 2.1286
-9.0537 0.3862 2.1286
-9.0758 0.0611 2.1286
-9.0862 -0.2651 2.1286
-9.0849 -0.5919 2.1286
-9.0718 -0.9190 2.1286
-9.0468 -1.2458 2.1286
-9.0101 -1.5720 2.1286
-8.9615 -1.8971 2.1286
-8.9010 -2.2206 2.1286
-8.8288 -2.5423 2.1286
-8.7448 -2.8615 2.1286
-8.6491 -3.1779 2.1286
-8.5418 -3.4910 2.1286
-8.4230 -3.8005 2.1286
-8.2928 -4.1057 2.1286
-8.1514 -4.4064 2.1286
-7.9989 -4.7021 2.1286
-7.8354 -4.9924 2.1286
-7.6611 -5.2768 2.1286
-7.4763 -5.5549 2.1286
-7.2812 -5.8263 2.1287
-7.0759 -6.0906 2.1286
-7.1931 -6.6549 2.2318
-6.9575 -6.9159 2.2318
-6.7123 -7.1682 2.2318
-6.4575 -7.4115 2.2318
-6.1938 -7.6455 2.2318
-5.9212 -7.8697 2.2318
-5.6403 -8.0838 2.2318
-5.3515 -8.2874 2.2318
-5.0550 -8.4803 2.2318
-4.7513 -8.6622 2.2318
-4.4409 -8.8327 2.2318
-4.1242 -8.9916 2.2318
-3.8016 -9.1386 2.2318
-3.4735 -9.2736 2.2318
-3.1405 -9.3963 2.2318
-2.8031 -9.5066 2.2318
-2.4616 -9.6041 2.2318
-2.1166 -9.6889 2.2318
-1.7686 -9.7606 2.2318
-1.4181 -9.8194 2.2318
-1.0656 -9.8649 2.2318
-0.7116 -9.8973 2.2318
-0.3567 -9.9164 2.2318
-0.0013 -8.9733 2.2318
0.3200 -8.9666 2.2318
0.6408 -8.9480 2.2318
0.9606 -8.9174 2.2318
1.2790 -8.8749 2.2318
1.5955 -8.8206 2.2318
1.9096 -8.7546 2.2318
2.2210 -8.6769 2.2318
2.5291 -8.5878 2.2318
2.8336 -8.4873 2.2318
3.1340 -8.3756 2.2318
3.2711 -7.8711 2.1285
3.5486 -7.7437 2.1285
3.8210 -7.6062 2.1285
4.0879 -7.4589 2.1285
4.3490 -7.3018 2.1285
4.6040 -7.1353 2.1285
4.8523 -6.9597 2.1285
5.0939 -6.7751 2.1285
5.3282 -6.5819 2.1285
5.5551 -6.3804 2.1285
5.7742 -6.1708 2.1285
5.9852 -5.9536 2.1285
6.1879 -5.7289 2.1285
6.3820 -5.4972 2.1285
6.5772 -5.2668 2.1318
5.6457 -4.1978 1.7820
2.0178 -1.3909 0.6215
5.6885 -3.6272 1.7131
7.2267 -4.2515 2.1318
7.3650 -3.9845 2.1318
5.6599 -2.8045 1.6102
7.6114 -3.4373 2.1318
7.7194 -3.1578 2.1318
7.8170 -2.8750 2.1318
7.9041 -2.5891 2.1318
7.9808 -2.3007 2.1318
8.0470 -2.0101 2.1318
8.1025 -1.7177 2.1318
8.1474 -1.4238 2.1318
8.1816 -1.1289 2.1318
8.2051 -0.8334 2.1318
8.2181 -0.5376 2.1318
8.2204 -0.2419 2.1318
8.2121 0.0533 2.1318
8.1933 0.3476 2.1318
8.1641 0.6407 2.1318
8.1245 0.9321 2.1318
8.0745 1.2216 2.1318
8.0144 1.5087 2.1318
7.9443 1.7931 2.1318
5.6945 1.5022 1.5436
7.7742 2.3526 2.1318
7.6746 2.6269 2.1318
7.5655 2.8973 2.1318
7.4471 3.1632 2.1318
7.3195 3.4245 2.1318
5.7497 2.9465 1.7064
5.7122 3.1915 1.7303
5.7083 3.4643 1.7678
6.7214 4.4173 2.1318
6.5511 4.6510 2.1318
6.3728 4.8783 2.1318
6.1869 5.0990 2.1318
5.9935 5.3128 2.1318
5.7930 5.5196 2.1318
5.5770 5.7103 2.1285
5.3633 5.9019 2.1285
5.1431 6.0858 2.1285
4.9169 6.2618 2.1285
4.6849 6.4297 2.1285
4.4473 6.5892 2.1285
4.2049 6.7409 2.1287
3.9571 6.8833 2.1287
3.7047 7.0171 2.1287
3.4479 7.1419 2.1287
3.1871 7.2577 2.1287
2.9225 7.3643 2.1287
2.6546 7.4616 2.1287
2.3835 7.5496 2.1287
2.1096 7.6280 2.1287
1.8347 7.7028 2.1303
1.6301 8.1319 2.2318
1.3361 8.1839 2.2318
1.0406 8.2257 2.2318
0.7439 8.2572 2.2318
0.4462 8.2785 2.2318
0.1480 8.2894 2.2318
-0.1504 8.2900 2.2318
-0.4487 8.2803 2.2318
-0.7465 8.2603 2.2318
-1.0435 8.2299 2.2318
-1.3394 8.1893 2.2318
-1.6337 8.1384 2.2318
-1.9262 8.0773 2.2318
-2.2166 8.0062 2.2318
-2.5043 7.9249 2.2318
-2.7893 7.8337 2.2318
-3.0711 7.7326 2.2318
-3.3493 7.6217 2.2318
-3.6236 7.5011 2.2318
-3.8939 7.3710 2.2318
-4.1595 7.2314 2.2318
-4.4204 7.0826 2.2318
-4.6761 6.9247 2.2318
-4.9264 6.7579 2.2318
-5.1709 6.5822 2.2318
-5.4093 6.3980 2.2318
-5.6414 6.2053 2.2318
-5.8668 6.0045 2.2318
-6.0852 5.7958 2.2318
-6.2964 5.5792 2.2318
-6.4108 5.2816 2.2011
-6.4225 4.9146 2.1406
-6.5659 4.6599 2.1287
-6.7372 4.4262 2.1287
-6.9003 4.1863 2.1287
-7.0551 3.9406 2.1286
-7.2013 3.6892 2.1286
-7.3386 3.4325 2.1286
-7.4670 3.1708 2.1286
-7.5861 2.9043 2.1286
-7.6959 2.6335 2.1286
-7.7961 2.3586 2.1286
-7.8866 2.0800 2.1286
-7.9673 1.7979 2.1286
-8.0379 1.5127 2.1286
-6.7057 1.0142 1.7625
-6.7077 0.7694 1.7522
-8.1886 0.6425 2.1286
-8.2181 0.3486 2.1286
-8.2370 0.0535 2.1286
-8.2453 -0.2425 2.1286
-8.2430 -0.5390 2.1286
-8.2300 -0.8356 2.1286
-8.2062 -1.1319 2.1286
-8.1718 -1.4276 2.1286
-8.1266 -1.7222 2.1286
-8.0707 -2.0154 2.1286
-8.0042 -2.3067 2.1286
-7.9270 -2.5958 2.1286
-7.8392 -2.8822 2.1286
-7.7410 -3.1656 2.1286
-7.6324 -3.4456 2.1286
-7.5135 -3.7218 2.1286
-7.3845 -3.9937 2.1286
-7.2454 -4.2611 2.1286
-7.0965 -4.5234 2.1287
-6.9379 -4.7804 2.1287
-6.7698 -5.0317 2.1287
-6.7781 -5.4257 2.1887
-6.7160 -5.7827 2.2318
-6.5112 -6.0259 2.2318
-6.2974 -6.2615 2.2318
-6.0748 -6.4893 2.2318
-5.8437 -6.7090 2.2318
-5.6045 -6.9201 2.2318
-5.3575 -7.1223 2.2318
-5.1029 -7.3154 2.2318
-4.8413 -7.4991 2.2318
-4.5727 -7.6731 2.2318
-4.2978 -7.8371 2.2318
-4.0168 -7.9909 2.2318
-3.7301 -8.1341 2.2318
-3.4381 -8.2667 2.2318
-3.1413 -8.3884 2.2318
-2.8401 -8.4990 2.2318
-2.5348 -8.5984 2.2318
-2.2259 -8.6863 2.2318
-1.9139 -8.7627 2.2318
-1.5993 -8.8275 2.2318
-1.2823 -8.8804 2.2318
-0.9636 -8.9216 2.2318
-0.6435 -8.9508 2.2318
-0.3226 -8.9680 2.2318
-0.0013 -8.1821 2.2318
0.2916 -8.1760 2.2318
0.5841 -8.1591 2.2318
0.8756 -8.1314 2.2318
1.1659 -8.0928 2.2318
1.4545 -8.0435 2.2318
1.7409 -7.9836 2.2318
2.0249 -7.9131 2.2318
2.3059 -7.8321 2.2318
2.5836 -7.7408 2.2318
2.8577 -7.6393 2.2318
2.9829 -7.1795 2.1285
3.2361 -7.0638 2.1285
3.4847 -6.9388 2.1285
3.7284 -6.8048 2.1285
3.9668 -6.6620 2.1285
4.1996 -6.5106 2.1285
4.4265 -6.3509 2.1285
4.6472 -6.1830 2.1285
4.8614 -6.0072 2.1285
5.0688 -5.8238 2.1285
5.2692 -5.6330 2.1285
5.4622 -5.4353 2.1285
5.6477 -5.2307 2.1285
5.8254 -5.0197 2.1285
6.0042 -4.8098 2.1318
6.1659 -4.5865 2.1318
2.0175 -1.3913 0.6806
6.4639 -4.1235 2.1318
6.5998 -3.8845 2.1318
5.6936 -3.0818 1.8043
5.6588 -2.8055 1.7624
5.6718 -2.5628 1.7389
5.6935 -2.3305 1.7209
5.7188 -2.1047 1.7068
7.2232 -2.3679 2.1318
7.2941 -2.1045 2.1318
7.3553 -1.8391 2.1318
7.4069 -1.5720 2.1318
7.4488 -1.3035 2.1318
7.4810 -1.0340 2.1318
7.5034 -0.7639 2.1318
7.5160 -0.4934 2.1318
7.5190 -0.2230 2.1318
7.5123 0.0470 2.1318
7.4960 0.3163 2.1318
7.4700 0.5845 2.1318
7.4346 0.8512 2.1318
7.3897 1.1162 2.1318
7.3355 1.3792 2.1318
7.2721 1.6397 2.1318
5.6941 1.5007 1.6860
5.7274 1.7318 1.7153
5.7042 1.9511 1.7303
5.7000 2.1815 1.7538
5.7032 2.4211 1.7825
6.7043 3.1350 2.1318
6.5798 3.3702 2.1318
6.4473 3.6005 2.1318
6.3069 3.8259 2.1318
6.1588 4.0459 2.1318
6.0032 4.2603 2.1318
5.8403 4.4690 2.1318
5.6703 4.6717 2.1318
5.4852 4.8606 2.1285
5.3021 5.0502 2.1285
5.1126 5.2331 2.1285
4.9170 5.4092 2.1285
4.7155 5.5781 2.1285
4.5083 5.7398 2.1285
4.2958 5.8941 2.1285
4.0782 6.0408 2.1285
3.8558 6.1797 2.1285
3.6288 6.3107 2.1285
3.3974 6.4336 2.1285
3.1621 6.5484 2.1285
2.9230 6.6548 2.1285
2.6807 6.7533 2.1287
2.4349 6.8428 2.1287
2.1863 6.9237 2.1287
1.9352 6.9959 2.1287
1.6817 7.0592 2.1287
1.4953 7.4583 2.2318
1.2257 7.5061 2.2318
0.9546 7.5445 2.2318
0.6823 7.5735 2.2318
0.4093 7.5930 2.2318
0.1357 7.6030 2.2318
-0.1381 7.6035 2.2318
-0.4117 7.5945 2.2318
-0.6849 7.5760 2.2318
-0.9574 7.5480 2.2318
-1.2288 7.5106 2.2318
-1.4987 7.4637 2.2318
-1.7670 7.4075 2.2318
-2.0333 7.3420 2.2318
-2.2972 7.2672 2.2318
-2.5584 7.1832 2.2318
-2.8167 7.0902 2.2318
-3.0718 6.9881 2.2318
-3.3232 6.8772 2.2318
-3.5708 6.7575 2.2318
-3.8143 6.6292 2.2318
-4.0532 6.4924 2.2318
-4.2874 6.3472 2.2318
-4.5166 6.1937 2.2318
-4.7404 6.0323 2.2318
-4.9586 5.8630 2.2318
-5.1709 5.6860 2.2318
-5.3771 5.5015 2.2318
-5.5768 5.3097 2.2318
-5.7699 5.1108 2.2318
-5.9561 4.9051 2.2318
-6.1350 4.6928 2.2318
-6.3066 4.4740 2.2318
-6.4173 4.2142 2.2134
-6.4237 3.8954 2.1634
-6.4616 3.6073 2.1287
-6.6148 3.3870 2.1351
-6.7200 3.1414 2.1287
-6.8368 2.9014 2.1287
-6.9452 2.6572 2.1286
-7.0449 2.4090 2.1286
-7.1359 2.1571 2.1286
-7.2179 1.9019 2.1286
-7.2909 1.6435 2.1286
-7.3548 1.3824 2.1286
-6.6988 1.0116 1.9245
-6.7009 0.7670 1.9134
-7.4901 0.5859 2.1286
-7.5162 0.3171 2.1286
-7.5326 0.0472 2.1286
-7.5394 -0.2235 2.1286
-7.5364 -0.4945 2.1286
-7.5236 -0.7656 2.1286
-7.5011 -1.0364 2.1286
-7.4688 -1.3065 2.1286
-7.4266 -1.5756 2.1286
-7.3747 -1.8433 2.1286
-7.3131 -2.1093 2.1286
-7.2418 -2.3731 2.1286
-7.1609 -2.6345 2.1286
-7.0704 -2.8931 2.1286
-6.9705 -3.1485 2.1287
-6.8612 -3.4004 2.1287
-6.7427 -3.6483 2.1287
-6.6150 -3.8920 2.1287
-6.5322 -4.1654 2.1463
-6.5696 -4.5285 2.2082
-6.4782 -4.8168 2.2318
-6.3078 -5.0509 2.2318
-6.1288 -5.2789 2.2318
-5.9414 -5.5003 2.2318
-5.7458 -5.7149 2.2318
-5.5423 -5.9223 2.2318
-5.3311 -6.1222 2.2318
-5.1125 -6.3143 2.2318
-4.8868 -6.4983 2.2318
-4.6543 -6.6741 2.2318
-4.4154 -6.8412 2.2318
-4.1702 -6.9994 2.2318
-3.9193 -7.1486 2.2318
-3.6628 -7.2884 2.2318
-3.4013 -7.4188 2.2318
-3.1349 -7.5393 2.2318
-2.8642 -7.6500 2.2318
-2.5894 -7.7506 2.2318
-2.3110 -7.8409 2.2318
-2.0294 -7.9209 2.2318
-1.7449 -7.9904 2.2318
-1.4580 -8.0493 2.2318
-1.1691 -8.0974 2.2318
-0.8785 -8.1349 2.2318
-0.5868 -8.1615 2.2318
-0.2942 -8.1772 2.2318
-0.0013 -7.5115 2.2318
0.2676 -7.5060 2.2318
0.5360 -7.4906 2.2318
0.8036 -7.4652 2.2318
1.0701 -7.4300 2.2318
1.3350 -7.3849 2.2318
1.5980 -7.3301 2.2318
1.8586 -7.2656 2.2318
2.1167 -7.1915 2.2318
2.3717 -7.1079 2.2318
2.5020 -6.6905 2.1285
2.7385 -6.5932 2.1285
2.9711 -6.4872 2.1285
3.1995 -6.3728 2.1285
3.4234 -6.2501 2.1285
3.6425 -6.1193 2.1285
3.8566 -5.9806 2.1285
4.0652 -5.8342 2.1285
4.2681 -5.6804 2.1285
4.4652 -5.5193 2.1285
4.6560 -5.3512 2.1285
4.8404 -5.1764 2.1285
5.0181 -4.9951 2.1285
5.1889 -4.8075 2.1285
5.3526 -4.6140 2.1285
5.5090 -4.4148 2.1285
5.6664 -4.2166 2.1318
2.0172 -1.3916 0.7404
5.9413 -3.7918 2.1318
6.0667 -3.5725 2.1318
6.1840 -3.3490 2.1318
5.6609 -2.8080 1.9176
6.3935 -2.8906 2.1318
6.4855 -2.6564 2.1318
6.5688 -2.4193 2.1318
6.6435 -2.1795 2.1318
6.7093 -1.9375 2.1318
5.6918 -1.4246 1.7932
5.6824 -1.2074 1.7776
5.6827 -0.9958 1.7675
5.6833 -0.7869 1.7599
5.6848 -0.5801 1.7550
5.6861 -0.3746 1.7523
5.6872 -0.1700 1.7517
5.6880 0.0343 1.7534
5.6887 0.2387 1.7573
5.6898 0.4438 1.7635
5.6918 0.6503 1.7724
5.6940 0.8587 1.7837
5.7292 1.0758 1.8078
6.6981 1.5087 2.1318
5.6936 1.4993 1.8302
6.5572 1.9812 2.1318
6.4745 2.2130 2.1318
6.3836 2.4415 2.1318
6.2849 2.6665 2.1318
6.1783 2.8875 2.1318
6.0641 3.1045 2.1318
5.9424 3.3171 2.1318
5.8135 3.5250 2.1318
5.6774 3.7281 2.1318
5.5259 3.9201 2.1285
5.3764 4.1125 2.1285
5.2203 4.2993 2.1285
5.0579 4.4804 2.1285
4.8893 4.6556 2.1285
4.7149 4.8246 2.1285
4.5347 4.9872 2.1285
4.3491 5.1433 2.1285
4.1583 5.2928 2.1285
3.9625 5.4353 2.1285
3.7620 5.5709 2.1285
3.5569 5.6993 2.1285
3.3476 5.8204 2.1285
3.1343 5.9340 2.1285
2.9173 6.0401 2.1285
2.6968 6.1385 2.1285
2.4731 6.2291 2.1285
2.2465 6.3119 2.1285
2.0172 6.3867 2.1285
1.7854 6.4534 2.1285
1.6269 6.8279 2.2318
1.3797 6.8807 2.2318
1.1309 6.9249 2.2318
0.8808 6.9604 2.2318
0.6296 6.9872 2.2318
0.3776 7.0052 2.2318
0.1251 7.0144 2.2318
-0.1275 7.0148 2.2318
-0.3800 7.0065 2.2318
-0.6321 6.9893 2.2318
-0.8835 6.9634 2.2318
-1.1339 6.9287 2.2318
-1.3830 6.8853 2.2318
-1.6305 6.8333 2.2318
-1.8761 6.7727 2.2318
-2.1196 6.7034 2.2318
-2.3606 6.6257 2.2318
-2.5988 6.5396 2.2318
-2.8340 6.4453 2.2318
-3.0658 6.3427 2.2318
-3.2941 6.2320 2.2318
-3.5185 6.1133 2.2318
-3.7387 5.9867 2.2318
-3.9545 5.8525 2.2318
-4.1656 5.7107 2.2318
-4.3718 5.5614 2.2318
-4.5727 5.4049 2.2318
-4.7682 5.2414 2.2318
-4.9580 5.0709 2.2318
-5.1418 4.8937 2.2318
-5.3194 4.7100 2.2318
-5.4906 4.5200 2.2318
-5.6552 4.3240 2.2318
-5.8129 4.1220 2.2318
-5.9635 3.9144 2.2318
-6.1068 3.7015 2.2318
-6.2426 3.4833 2.2318
-6.3708 3.2603 2.2318
-6.4250 3.0018 2.2090
-6.4289 2.7266 2.1728
-6.4380 2.4615 2.1421
-6.4889 2.2172 2.1287
-6.5721 1.9850 2.1287
-6.6471 1.7498 2.1287
-6.7137 1.5118 2.1287
-6.7718 1.2712 2.1287
-6.6919 1.0090 2.0882
-6.6939 0.7646 2.0764
-6.8945 0.5377 2.1287
-6.9178 0.2902 2.1287
-6.9323 0.0418 2.1287
-6.9378 -0.2073 2.1287
-6.9344 -0.4566 2.1287
-6.9220 -0.7060 2.1287
-6.9006 -0.9550 2.1287
-6.8701 -1.2034 2.1287
-6.8308 -1.4508 2.1287
-6.7824 -1.6969 2.1287
-6.7251 -1.9413 2.1287
-6.6589 -2.1837 2.1287
-6.5838 -2.4239 2.1287
-6.5000 -2.6613 2.1287
-6.4929 -2.9344 2.1570
-6.4886 -3.2174 2.1901
-6.4939 -3.5154 2.2306
-6.3736 -3.7517 2.2318
-6.2415 -3.9818 2.2318
-6.1009 -4.2071 2.2318
-5.9520 -4.4273 2.2318
-5.7951 -4.6420 2.2318
-5.6302 -4.8511 2.2318
-5.4576 -5.0541 2.2318
-5.2776 -5.2509 2.2318
-5.0903 -5.4410 2.2318
-4.8961 -5.6242 2.2318
-4.6950 -5.8003 2.2318
-4.4875 -5.9690 2.2318
-4.2738 -6.1300 2.2318
-4.0542 -6.2831 2.2318
-3.8289 -6.4281 2.2318
-3.5983 -6.5648 2.2318
-3.3628 -6.6929 2.2318
-3.1225 -6.8122 2.2318
-2.8779 -6.9227 2.2318
-2.6293 -7.0240 2.2318
-2.3770 -7.1162 2.2318
-2.1214 -7.1989 2.2318
-1.8629 -7.2722 2.2318
-1.6017 -7.3358 2.2318
-1.3384 -7.3897 2.2318
-1.0731 -7.4339 2.2318
-0.8064 -7.4682 2.2318
-0.5386 -7.4926 2.2318
-0.2701 -7.5070 2.2318
-0.0013 -6.9355 2.2318
0.2469 -6.9305 2.2318
0.4947 -6.9163 2.2318
0.7417 -6.8929 2.2318
0.9877 -6.8605 2.2318
1.2323 -6.8190 2.2318
1.4751 -6.7686 2.2318
1.7158 -6.7092 2.2318
1.9541 -6.6410 2.2318
2.1896 -6.5640 2.2318
2.3100 -6.1788 2.1285
2.5284 -6.0891 2.1285
2.7433 -5.9915 2.1285
2.9543 -5.8861 2.1285
3.1612 -5.7731 2.1285
3.3637 -5.6526 2.1285
3.5615 -5.5248 2.1285
3.7544 -5.3899 2.1285
3.9421 -5.2481 2.1285
4.1243 -5.0997 2.1285
4.3008 -4.9447 2.1285
4.4714 -4.7835 2.1285
4.6359 -4.6163 2.1285
4.7940 -4.4433 2.1285
4.9456 -4.2648 2.1285
5.0904 -4.0810 2.1285
5.2283 -3.8923 2.1285
2.0169 -1.3920 0.8011
5.4827 -3.5008 2.1285
5.5989 -3.2986 2.1285
5.7163 -3.0973 2.1318
5.8175 -2.8873 2.1318
5.9109 -2.6740 2.1318
5.9964 -2.4577 2.1318
6.0740 -2.2386 2.1318
6.1435 -2.0171 2.1318
6.2049 -1.7934 2.1318
6.2582 -1.5679 2.1318
6.3032 -1.3408 2.1318
6.3400 -1.1125 2.1318
6.3685 -0.8833 2.1318
6.3887 -0.6534 2.1318
6.4007 -0.4232 2.1318
6.4044 -0.1930 2.1318
6.3998 0.0370 2.1318
6.3870 0.2665 2.1318
6.3661 0.4951 2.1318
6.3370 0.7226 2.1318
6.2998 0.9486 2.1318
6.2547 1.1730 2.1318
6.2017 1.3954 2.1318
6.1408 1.6155 2.1318
6.0722 1.8332 2.1318
5.9960 2.0480 2.1318
5.9124 2.2598 2.1318
5.8213 2.4683 2.1318
5.7230 2.6733 2.1318
5.6091 2.8701 2.1285
5.4969 3.0669 2.1285
5.3780 3.2595 2.1285
5.2524 3.4476 2.1285
5.1204 3.6310 2.1285
4.9822 3.8095 2.1285
4.8378 3.9829 2.1285
4.6876 4.1510 2.1285
4.5316 4.3135 2.1285
4.3702 4.4704 2.1285
4.2034 4.6214 2.1285
4.0316 4.7664 2.1285
3.8549 4.9051 2.1285
3.6735 5.0375 2.1285
3.4877 5.1634 2.1285
3.2977 5.2827 2.1285
3.1038 5.3951 2.1285
2.9062 5.5007 2.1285
2.7050 5.5992 2.1285
2.5006 5.6907 2.1285
2.2933 5.7748 2.1285
2.0831 5.8517 2.1285
1.8705 5.9212 2.1285
1.6557 5.9831 2.1285
1.5086 6.3304 2.2318
1.2794 6.3795 2.2318
1.0487 6.4206 2.2318
0.8168 6.4535 2.2318
0.5838 6.4784 2.2318
0.3501 6.4951 2.2318
0.1160 6.5037 2.2318
-0.1183 6.5040 2.2318
-0.3525 6.4962 2.2318
-0.5863 6.4803 2.2318
-0.8195 6.4561 2.2318
-1.0517 6.4239 2.2318
-1.2826 6.3835 2.2318
-1.5121 6.3351 2.2318
-1.7398 6.2787 2.2318
-1.9655 6.2144 2.2318
-2.1889 6.1422 2.2318
-2.4097 6.0621 2.2318
-2.6277 5.9744 2.2318
-2.8426 5.8791 2.2318
-3.0541 5.7762 2.2318
-3.2620 5.6659 2.2318
-3.4660 5.5483 2.2318
-3.6659 5.4236 2.2318
-3.8614 5.2919 2.2318
-4.0522 5.1533 2.2318
-4.2383 5.0080 2.2318
-4.4192 4.8561 2.2318
-4.5948 4.6978 2.2318
-4.7649 4.5334 2.2318
-4.9292 4.3629 2.2318
-5.0875 4.1866 2.2318
-5.2396 4.0046 2.2318
-5.3854 3.8173 2.2318
-5.5245 3.6247 2.2318
-5.6569 3.4271 2.2318
-5.7823 3.2248 2.2318
-5.9006 3.0180 2.2318
-6.0116 2.8070 2.2318
-6.1151 2.5919 2.2318
-6.2110 2.3731 2.2318
-6.2991 2.1508 2.2318
-6.3794 1.9252 2.2318
-6.4340 1.6921 2.2257
-6.4364 1.4477 2.2046
-6.4387 1.2071 2.1866
-6.4421 0.9698 2.1721
-6.4465 0.7348 2.1608
-6.4503 0.5015 2.1521
-6.4534 0.2692 2.1461
-6.4559 0.0374 2.1426
-6.4579 -0.1944 2.1417
-6.4592 -0.4269 2.1434
-6.4600 -0.6604 2.1477
-6.4601 -0.8956 2.1546
-6.4597 -1.1331 2.1641
-6.4586 -1.3733 2.1765
-6.4596 -1.6177 2.1925
-6.4610 -1.8666 2.2118
-6.4545 -2.1183 2.2318
-6.3813 -2.3509 2.2318
-6.2996 -2.5808 2.2318
-6.2095 -2.8079 2.2318
-6.1111 -3.0317 2.2318
-6.0046 -3.2521 2.2318
-5.8900 -3.4686 2.2318
-5.7674 -3.6809 2.2318
-5.6371 -3.8888 2.2318
-5.4992 -4.0920 2.2318
-5.3538 -4.2901 2.2318
-5.2012 -4.4830 2.2318
-5.0415 -4.6703 2.2318
-4.8749 -4.8517 2.2318
-4.7016 -5.0270 2.2318
-4.5219 -5.1960 2.2318
-4.3360 -5.3583 2.2318
-4.1442 -5.5138 2.2318
-3.9466 -5.6623 2.2318
-3.7437 -5.8034 2.2318
-3.5355 -5.9370 2.2318
-3.3225 -6.0630 2.2318
-3.1048 -6.1810 2.2318
-2.8829 -6.2910 2.2318
-2.6570 -6.3928 2.2318
-2.4274 -6.4862 2.2318
-2.1945 -6.5711 2.2318
-1.9585 -6.6473 2.2318
-1.7198 -6.7148 2.2318
-1.4787 -6.7734 2.2318
-1.2355 -6.8231 2.2318
-0.9907 -6.8638 2.2318
-0.7445 -6.8955 2.2318
-0.4973 -6.9179 2.2318
-0.2494 -6.9313 2.2318
-0.0012 -6.4348 2.2318
0.2289 -6.4302 2.2318
0.4588 -6.4171 2.2318
0.6880 -6.3955 2.2318
0.9161 -6.3655 2.2318
1.1430 -6.3272 2.2318
1.3683 -6.2804 2.2318
1.5916 -6.2255 2.2318
1.8127 -6.1624 2.2318
2.0313 -6.0912 2.2318
2.1430 -5.7339 2.1285
2.3457 -5.6509 2.1285
2.5452 -5.5605 2.1285
2.7411 -5.4629 2.1285
2.9332 -5.3582 2.1285
3.1212 -5.2467 2.1285
3.3049 -5.1283 2.1285
3.4840 -5.0034 2.1285
3.6584 -4.8720 2.1285
3.8277 -4.7344 2.1285
3.9917 -4.5909 2.1285
4.1503 -4.4415 2.1285
4.3032 -4.2865 2.1285
4.4502 -4.1262 2.1285
4.5912 -3.9607 2.1285
4.7259 -3.7903 2.1285
4.8543 -3.6153 2.1285
2.0165 -1.3924 0.8626
5.0912 -3.2523 2.1285
5.1994 -3.0647 2.1285
5.3007 -2.8736 2.1285
5.3949 -2.6790 2.1285
5.4819 -2.4814 2.1285
5.5616 -2.2809 2.1285
5.6425 -2.0810 2.1318
5.7075 -1.8754 2.1318
5.7650 -1.6677 2.1318
5.8148 -1.4583 2.1318
5.8571 -1.2474 2.1318
5.8917 -1.0353 2.1318
5.9186 -0.8224 2.1318
5.9379 -0.6088 2.1318
5.9494 -0.3948 2.1318
5.9533 -0.1808 2.1318
5.9495 0.0330 2.1318
5.9380 0.2463 2.1318
5.9190 0.4589 2.1318
5.8924 0.6704 2.1318
5.8583 0.8807 2.1318
5.8167 1.0894 2.1318
5.7678 1.2963 2.1318
5.7116 1.5012 2.1318
5.6482 1.7038 2.1318
5.5692 1.9008 2.1285
5.4918 2.0977 2.1285
5.4076 2.2915 2.1285
5.3166 2.4821 2.1285
5.2190 2.6691 2.1285
5.1150 2.8524 2.1285
5.0046 3.0318 2.1285
4.8881 3.2071 2.1285
4.7655 3.3780 2.1285
4.6370 3.5443 2.1285
4.5029 3.7058 2.1285
4.3633 3.8625 2.1285
4.2183 4.0140 2.1285
4.0682 4.1602 2.1285
3.9132 4.3010 2.1285
3.7533 4.4361 2.1285
3.5890 4.5655 2.1285
3.4203 4.6889 2.1285
3.2474 4.8064 2.1285
3.0706 4.9175 2.1285
2.8901 5.0224 2.1285
2.7062 5.1209 2.1285
2.5189 5.2128 2.1285
0.8574 1.9508 0.7837
2.1356 5.3766 2.1285
1.9399 5.4483 2.1285
1.7420 5.5131 2.1285
1.6167 5.8411 2.2318
1.4050 5.8943 2.2318
1.1915 5.9401 2.2318
0.9767 5.9784 2.2318
0.7606 6.0091 2.2318
0.5436 6.0323 2.2318
0.3260 6.0479 2.2318
0.1079 6.0558 2.2318
-0.1103 6.0562 2.2318
-0.3284 6.0489 2.2318
-0.5461 6.0339 2.2318
-0.7633 6.0114 2.2318
-0.9795 5.9813 2.2318
-1.1946 5.9436 2.2318
-1.4083 5.8984 2.2318
-1.6203 5.8458 2.2318
-1.8305 5.7857 2.2318
-2.0385 5.7183 2.2318
-2.2440 5.6436 2.2318
-0.8583 1.9508 0.7828
-0.9280 1.9187 0.7824
-2.8438 5.3768 2.2318
-3.0372 5.2739 2.2318
-3.2270 5.1643 2.2318
-3.4130 5.0479 2.2318
-3.5949 4.9251 2.2318
-3.7724 4.7958 2.2318
-3.9454 4.6603 2.2318
-4.1136 4.5187 2.2318
-4.2769 4.3712 2.2318
-4.4349 4.2179 2.2318
-4.5876 4.0590 2.2318
-4.7347 3.8947 2.2318
-4.8760 3.7251 2.2318
-5.0113 3.5505 2.2318
-5.1405 3.3712 2.2318
-5.2633 3.1871 2.2318
-5.3796 2.9987 2.2318
-5.4893 2.8062 2.2318
-5.5922 2.6096 2.2318
-5.6881 2.4094 2.2318
-5.7769 2.2057 2.2318
-5.8585 1.9988 2.2318
-5.9327 1.7889 2.2318
-5.9995 1.5763 2.2318
-6.0587 1.3612 2.2318
-6.1102 1.1440 2.2318
-6.1540 0.9249 2.2318
-6.1899 0.7041 2.2318
-6.2180 0.4819 2.2318
-6.2380 0.2587 2.2318
-6.2501 0.0347 2.2318
-6.2541 -0.1898 2.2318
-6.2500 -0.4146 2.2318
-6.2379 -0.6392 2.2318
-6.2176 -0.8635 2.2318
-6.1893 -1.0871 2.2318
-6.1528 -1.3098 2.2318
-6.1083 -1.5312 2.2318
-6.0557 -1.7511 2.2318
-5.9952 -1.9691 2.2318
-5.9268 -2.1849 2.2318
-5.8505 -2.3984 2.2318
-5.7665 -2.6091 2.2318
-5.6747 -2.8168 2.2318
-5.5754 -3.0212 2.2318
-5.4687 -3.2220 2.2318
-5.3546 -3.4189 2.2318
-5.2333 -3.6117 2.2318
-5.1050 -3.8001 2.2318
-4.9697 -3.9838 2.2318
-4.8278 -4.1626 2.2318
-4.6793 -4.3362 2.2318
-4.5244 -4.5044 2.2318
-4.3634 -4.6669 2.2318
-4.1965 -4.8234 2.2318
-4.0237 -4.9738 2.2318
-3.8456 -5.1179 2.2318
-3.6621 -5.2554 2.2318
-3.4736 -5.3862 2.2318
-3.2804 -5.5100 2.2318
-3.0826 -5.6266 2.2318
-2.8806 -5.7360 2.2318
-2.6746 -5.8378 2.2318
-2.4650 -5.9321 2.2318
-2.2519 -6.0186 2.2318
-2.0358 -6.0972 2.2318
-1.8168 -6.1678 2.2318
-1.5954 -6.2303 2.2318
-1.3717 -6.2847 2.2318
-1.1462 -6.3307 2.2318
-0.9190 -6.3684 2.2318
-0.6907 -6.3977 2.2318
-0.4614 -6.4185 2.2318
-0.2315 -6.4309 2.2318
-0.0013 -5.9952 2.2318
0.2132 -5.9909 2.2318
0.4273 -5.9787 2.2318
0.6407 -5.9587 2.2318
0.8533 -5.9309 2.2318
1.0646 -5.8952 2.2318
1.2745 -5.8518 2.2318
1.4826 -5.8007 2.2318
1.6885 -5.7420 2.2318
1.8922 -5.6759 2.2318
1.9963 -5.3431 2.1285
2.1852 -5.2659 2.1285
2.3711 -5.1819 2.1285
2.5537 -5.0911 2.1285
2.7328 -4.9938 2.1285
2.9081 -4.8900 2.1285
3.0794 -4.7799 2.1285
3.2464 -4.6637 2.1285
3.4090 -4.5414 2.1285
3.5670 -4.4135 2.1285
3.7200 -4.2799 2.1285
3.8680 -4.1408 2.1285
4.0107 -3.9966 2.1285
4.1479 -3.8474 2.1285
4.2796 -3.6933 2.1285
4.4054 -3.5347 2.1285
4.5253 -3.3717 2.1285
2.0162 -1.3928 0.9251
4.7466 -3.0336 2.1285
4.8478 -2.8589 2.1285
4.9425 -2.6809 2.1285
5.0307 -2.4996 2.1285
5.1121 -2.3155 2.1285
5.1868 -2.1286 2.1285
5.2546 -1.9394 2.1285
5.3154 -1.7480 2.1285
5.3693 -1.5546 2.1285
5.4161 -1.3597 2.1285
5.4558 -1.1633 2.1285
5.4884 -0.9659 2.1285
5.5138 -0.7675 2.1285
5.5321 -0.5685 2.1285
5.5432 -0.3693 2.1285
5.5472 -0.1699 2.1285
5.5440 0.0294 2.1285
5.5337 0.2282 2.1285
5.5163 0.4263 2.1285
5.4918 0.6235 2.1285
5.4604 0.8195 2.1285
5.4220 1.0142 2.1285
5.3767 1.2071 2.1285
5.3246 1.3982 2.1285
5.2658 1.5871 2.1285
5.2004 1.7736 2.1285
5.1285 1.9576 2.1285
5.0501 2.1387 2.1285
4.9654 2.3168 2.1285
4.8746 2.4916 2.1285
4.7776 2.6630 2.1285
4.6748 2.8307 2.1285
4.5661 2.9946 2.1285
4.4518 3.1543 2.1285
4.3321 3.3099 2.1285
4.2070 3.4610 2.1285
4.0767 3.6075 2.1285
3.9414 3.7492 2.1285
3.8013 3.8860 2.1285
3.6566 4.0177 2.1285
3.5073 4.1441 2.1285
3.3539 4.2652 2.1285
3.1963 4.3807 2.1285
3.0349 4.4906 2.1285
2.8698 4.5946 2.1285
2.7011 4.6928 2.1285
2.5293 4.7849 2.1285
0.8652 1.7900 0.7822
0.8001 1.8199 0.7824
0.7340 1.8475 0.7827
0.6669 1.8726 0.7829
0.5990 1.8954 0.7831
0.5303 1.9157 0.7832
0.4610 1.9335 0.7833
0.3910 1.9488 0.7835
0.9129 5.5872 2.2318
0.7109 5.6160 2.2318
0.5081 5.6376 2.2318
0.3047 5.6522 2.2318
0.1008 5.6596 2.2318
-0.1032 5.6599 2.2318
-0.3071 5.6530 2.2318
-0.5106 5.6390 2.2318
-0.7136 5.6179 2.2318
-0.9157 5.5897 2.2318
-0.3918 1.9488 0.7830
-0.4618 1.9335 0.7828
-0.5312 1.9157 0.7826
-0.5998 1.8954 0.7824
-0.6678 1.8726 0.7821
-0.7348 1.8475 0.7819
-0.8009 1.8199 0.7816
-0.8660 1.7900 0.7812
-0.9300 1.7578 0.7809
-2.8385 4.9273 2.2318
-3.0158 4.8247 2.2318
-3.1895 4.7158 2.2318
-3.3593 4.6008 2.2318
-3.5250 4.4799 2.2318
-3.6865 4.3531 2.2318
-3.8435 4.2206 2.2318
-3.9959 4.0825 2.2318
-4.1434 3.9391 2.2318
-4.2858 3.7905 2.2318
-4.4230 3.6368 2.2318
-4.5547 3.4782 2.2318
-4.6809 3.3150 2.2318
-4.8013 3.1472 2.2318
-4.9157 2.9752 2.2318
-5.0241 2.7991 2.2318
-5.1263 2.6191 2.2318
-5.2220 2.4354 2.2318
-5.3113 2.2483 2.2318
-5.3939 2.0580 2.2318
-5.4697 1.8647 2.2318
-5.5387 1.6686 2.2318
-5.6006 1.4701 2.2318
-5.6555 1.2692 2.2318
-5.7033 1.0664 2.2318
-5.7438 0.8618 2.2318
-5.7770 0.6557 2.2318
-5.8027 0.4483 2.2318
-5.8211 0.2400 2.2318
-5.8320 0.0309 2.2318
-5.8354 -0.1786 2.2318
-5.8312 -0.3882 2.2318
-5.8195 -0.5978 2.2318
-5.8002 -0.8070 2.2318
-5.7733 -1.0155 2.2318
-5.7390 -1.2231 2.2318
-5.6971 -1.4295 2.2318
-5.6478 -1.6345 2.2318
-5.5910 -1.8377 2.2318
-5.5268 -2.0389 2.2318
-5.4554 -2.2378 2.2318
-5.3767 -2.4341 2.2318
-5.2908 -2.6276 2.2318
-5.1980 -2.8180 2.2318
-5.0982 -3.0051 2.2318
-4.9915 -3.1885 2.2318
-4.8782 -3.3680 2.2318
-4.7583 -3.5435 2.2318
-4.6320 -3.7145 2.2318
-4.4995 -3.8810 2.2318
-4.3609 -4.0425 2.2318
-4.2164 -4.1991 2.2318
-4.0662 -4.3503 2.2318
-3.9104 -4.4960 2.2318
-3.7493 -4.6360 2.2318
-3.5832 -4.7701 2.2318
-3.4121 -4.8980 2.2318
-3.2364 -5.0196 2.2318
-3.0562 -5.1348 2.2318
-2.8719 -5.2434 2.2318
-2.6836 -5.3451 2.2318
-2.4917 -5.4398 2.2318
-2.2963 -5.5275 2.2318
-2.0978 -5.6080 2.2318
-1.8964 -5.6811 2.2318
-1.6924 -5.7468 2.2318
-1.4861 -5.8049 2.2318
-1.2778 -5.8554 2.2318
-1.0677 -5.8983 2.2318
-0.8561 -5.9333 2.2318
-0.6434 -5.9606 2.2318
-0.4298 -5.9800 2.2318
-0.2157 -5.9915 2.2318
-0.0012 -5.6057 2.2318
0.1992 -5.6017 2.2318
0.3993 -5.5904 2.2318
0.5989 -5.5718 2.2318
0.7976 -5.5458 2.2318
0.9952 -5.5125 2.2318
1.1914 -5.4720 2.2318
1.3859 -5.4244 2.2318
1.5785 -5.3696 2.2318
1.7690 -5.3078 2.2318
1.8664 -4.9967 2.1285
2.0431 -4.9247 2.1285
2.2169 -4.8463 2.1285
2.3877 -4.7616 2.1285
2.5552 -4.6707 2.1285
2.7192 -4.5738 2.1285
2.8795 -4.4710 2.1285
3.0358 -4.3625 2.1285
3.1880 -4.2484 2.1285
3.3358 -4.1288 2.1285
3.4791 -4.0040 2.1285
3.6176 -3.8742 2.1285
3.7512 -3.7395 2.1285
3.8798 -3.6000 2.1285
4.0031 -3.4561 2.1285
4.1210 -3.3079 2.1285
4.2333 -3.1556 2.1285
2.0159 -1.3932 0.9887
4.4409 -2.8395 2.1285
4.5358 -2.6763 2.1285
4.6247 -2.5098 2.1285
4.7074 -2.3403 2.1285
4.7838 -2.1681 2.1285
4.8539 -1.9934 2.1285
4.9177 -1.8164 2.1285
4.9749 -1.6373 2.1285
5.0256 -1.4564 2.1285
5.0697 -1.2740 2.1285
5.1072 -1.0903 2.1285
5.1380 -0.9055 2.1285
5.1621 -0.7199 2.1285
5.1795 -0.5336 2.1285
5.1902 -0.3470 2.1285
5.1942 -0.1604 2.1285
5.1915 0.0262 2.1285
5.1822 0.2124 2.1285
5.1661 0.3980 2.1285
5.1435 0.5827 2.1285
5.1144 0.7663 2.1285
5.0787 0.9487 2.1285
5.0365 1.1295 2.1285
4.9880 1.3085 2.1285
4.9332 1.4856 2.1285
4.8722 1.6604 2.1285
4.8050 1.8328 2.1285
4.7318 2.0027 2.1285
4.6527 2.1696 2.1285
4.5678 2.3336 2.1285
4.4772 2.4943 2.1285
4.3810 2.6516 2.1285
4.2794 2.8053 2.1285
4.1724 2.9551 2.1285
4.0603 3.1010 2.1285
3.9432 3.2428 2.1285
3.8213 3.3803 2.1285
3.6946 3.5133 2.1285
3.5634 3.6416 2.1285
3.4279 3.7652 2.1285
3.2881 3.8839 2.1285
3.1443 3.9975 2.1285
2.9967 4.1059 2.1285
2.8454 4.2091 2.1285
2.6907 4.3067 2.1285
2.5326 4.3989 2.1285
0.8700 1.6454 0.7808
0.8101 1.6756 0.7811
0.7491 1.7036 0.7813
0.6872 1.7294 0.7815
0.6244 1.7529 0.7817
0.5608 1.7742 0.7819
0.4965 1.7932 0.7820
0.4316 1.8099 0.7821
0.3661 1.8242 0.7822
0.3001 1.8362 0.7823
0.2337 1.8458 0.7824
0.1670 1.8530 0.7824
0.1001 1.8578 0.7824
0.0331 1.8603 0.7824
-0.0340 1.8603 0.7824
-0.1010 1.8578 0.7823
-0.1679 1.8530 0.7822
-0.2345 1.8458 0.7821
-0.3009 1.8362 0.7820
-0.3669 1.8243 0.7818
-0.4324 1.8099 0.7817
-0.4974 1.7932 0.7815
-0.5617 1.7742 0.7813
-0.6253 1.7529 0.7810
-0.6881 1.7294 0.7808
-0.7500 1.7036 0.7805
-0.8109 1.6756 0.7802
-0.8708 1.6454 0.7799
-0.9296 1.6131 0.7795
-2.8275 4.5219 2.2318
-2.9902 4.4197 2.2318
-3.1493 4.3118 2.2318
-3.3046 4.1982 2.2318
-3.4558 4.0792 2.2318
-3.6029 3.9549 2.2318
-3.7455 3.8253 2.2318
-3.8836 3.6907 2.2318
-4.0169 3.5513 2.2318
-4.1453 3.4071 2.2318
-4.2686 3.2583 2.2318
-4.3866 3.1052 2.2318
-4.4992 2.9479 2.2318
-4.6063 2.7865 2.2318
-4.7076 2.6214 2.2318
-4.8031 2.4526 2.2318
-4.8925 2.2804 2.2318
-4.9759 2.1050 2.2318
-5.0530 1.9266 2.2318
-5.1237 1.7454 2.2318
-5.1881 1.5616 2.2318
-5.2458 1.3756 2.2318
-5.2970 1.1874 2.2318
-5.3414 0.9973 2.2318
-5.3790 0.8057 2.2318
-5.4097 0.6126 2.2318
-5.4336 0.4184 2.2318
-5.4505 0.2233 2.2318
-5.4603 0.0276 2.2318
-5.4632 -0.1685 2.2318
-5.4590 -0.3648 2.2318
-5.4477 -0.5609 2.2318
-5.4293 -0.7567 2.2318
-5.4039 -0.9519 2.2318
-5.3714 -1.1461 2.2318
-5.3320 -1.3393 2.2318
-5.2855 -1.5310 2.2318
-5.2320 -1.7211 2.2318
-5.1717 -1.9092 2.2318
-5.1046 -2.0952 2.2318
-5.0307 -2.2788 2.2318
-4.9501 -2.4597 2.2318
-4.8630 -2.6378 2.2318
-4.7694 -2.8126 2.2318
-4.6694 -2.9840 2.2318
-4.5632 -3.1519 2.2318
-4.4508 -3.3158 2.2318
-4.3325 -3.4756 2.2318
-4.2084 -3.6312 2.2318
-4.0786 -3.7822 2.2318
-3.9433 -3.9284 2.2318
-3.8026 -4.0697 2.2318
-3.6568 -4.2058 2.2318
-3.5061 -4.3365 2.2318
-3.3506 -4.4617 2.2318
-3.1905 -4.5812 2.2318
-3.0261 -4.6948 2.2318
-2.8576 -4.8024 2.2318
-2.6852 -4.9037 2.2318
-2.5091 -4.9987 2.2318
-2.3296 -5.0872 2.2318
-2.1469 -5.1690 2.2318
-1.9613 -5.2441 2.2318
-1.7730 -5.3124 2.2318
-1.5823 -5.3737 2.2318
-1.3894 -5.4280 2.2318
