ply
format ascii 1.0
element vertex 2140
property float32 x
property float32 y
property float32 z
end_header
-14.7047 2.2480 1.4466
-14.7018 1.7101 1.4344
-14.7271 1.1791 1.4269
-14.7033 0.6472 1.4165
-13.7007 0.1108 1.3141
-13.7206 -0.3817 1.3118
-13.7400 -0.8766 1.3112
-13.7589 -1.3751 1.3122
-14.6514 -1.9977 1.3984
-13.5591 -2.3472 1.2968
-14.7918 -3.1111 1.4195
-14.9110 -3.6996 1.4377
-15.0378 -4.3094 1.4589
-15.5394 -5.0633 1.5190
-17.2492 -6.3136 1.7014
-13.2230 -5.3855 1.3180
-11.0717 -4.9797 1.1170
-12.3059 -6.0747 1.2585
-12.1121 -6.5297 1.2578
-11.9177 -6.9879 1.2589
-11.7219 -7.4509 1.2617
-14.2186 -9.7713 1.5624
-13.5868 -10.0734 1.5271
-17.7080 -14.1409 2.0402
-17.2849 -14.8491 2.0457
-16.5669 -15.2989 2.0189
-15.4161 -15.2967 1.9391
-14.3460 -15.2946 1.8675
-13.3459 -15.2926 1.8032
-12.4067 -15.2907 1.7452
-11.5210 -15.2890 1.6928
-10.6821 -15.2873 1.6455
-12.6282 -19.5287 2.0477
-10.1774 -17.0506 1.7451
-10.1769 -18.5290 1.8543
-10.1738 -20.2093 1.9813
-10.1601 -22.1241 2.1285
-9.3738 -22.5074 2.1285
-8.5721 -22.8600 2.1285
-7.7561 -23.1810 2.1285
-6.9272 -23.4698 2.1285
-6.1592 -24.0077 2.1538
-5.4899 -25.1084 2.2315
-4.5890 -25.3066 2.2315
-3.6804 -25.4689 2.2315
-2.7657 -25.5950 2.2315
-1.8464 -25.6848 2.2315
-0.9241 -25.7380 2.2315
-0.0004 -20.4009 2.2315
0.7310 -20.3855 2.2315
1.4612 -20.3416 2.2315
2.0950 -19.3992 2.1357
2.5806 -17.8666 1.9768
3.4644 -19.1132 2.1283
3.3921 -15.5203 1.7418
3.9456 -15.3853 1.7428
5.4844 -18.5878 2.1283
6.1508 -18.3893 2.1315
6.7989 -18.1373 2.1315
7.4362 -17.8608 2.1315
8.0616 -17.5601 2.1315
8.7505 -17.3876 2.1503
9.3547 -17.0375 2.1503
9.9441 -16.6650 2.1503
10.5180 -16.2707 2.1503
11.0755 -15.8554 2.1503
11.6158 -15.4198 2.1503
12.1381 -14.9647 2.1503
12.6419 -14.4909 2.1503
13.1264 -13.9992 2.1503
13.5910 -13.4905 2.1503
14.0351 -12.9657 2.1503
14.4583 -12.4256 2.1503
3.8814 -3.1008 0.5617
15.2397 -11.3034 2.1503
15.6061 -10.7293 2.1515
15.9410 -10.1371 2.1515
16.2528 -9.5343 2.1515
16.5413 -8.9218 2.1515
16.8063 -8.3006 2.1515
16.0621 -7.2283 2.0272
16.0608 -6.5453 2.0015
16.0595 -5.8821 1.9792
16.0582 -5.2362 1.9600
16.0569 -4.6053 1.9438
14.5471 -3.6127 1.7491
14.5460 -3.0627 1.7396
14.5449 -2.5211 1.7324
14.5439 -1.9863 1.7276
14.5428 -1.4567 1.7251
14.5418 -0.9310 1.7248
14.5408 -0.4077 1.7267
14.5397 0.1145 1.7309
14.5387 0.6369 1.7373
14.5377 1.1608 1.7459
14.5366 1.6878 1.7569
14.5356 2.2191 1.7702
14.5345 2.7562 1.7859
14.5334 3.3006 1.8041
14.5323 3.8539 1.8248
14.5312 4.4179 1.8484
14.5301 4.9941 1.8747
16.4164 6.3103 2.1515
16.1381 6.8782 2.1515
15.8412 7.4348 2.1515
15.5170 7.9748 2.1503
15.1842 8.5066 2.1503
14.8342 9.0253 2.1503
14.4675 9.5306 2.1503
14.0845 10.0218 2.1503
13.6859 10.4986 2.1503
13.2722 10.9605 2.1503
12.8439 11.4071 2.1503
12.4016 11.8380 2.1503
11.9458 12.2529 2.1503
11.4772 12.6512 2.1503
10.9962 13.0328 2.1503
10.5035 13.3973 2.1503
9.9996 13.7444 2.1503
9.4852 14.0738 2.1503
8.9607 14.3852 2.1503
8.4269 14.6784 2.1503
7.8155 14.8228 2.1315
3.7636 7.8057 1.1036
6.7158 15.3118 2.1315
6.1552 15.5281 2.1315
5.5798 15.7013 2.1283
5.0080 15.8790 2.1283
4.4310 16.0375 2.1283
3.8494 16.1764 2.1283
3.2639 16.2959 2.1283
2.2507 13.7948 1.7907
2.0836 16.4771 2.1285
1.5619 17.3384 2.2315
0.9377 17.3809 2.2315
0.3124 17.4026 2.2315
-0.3132 17.4034 2.2315
-0.9385 17.3835 2.2315
-1.5630 17.3427 2.2315
-2.1860 17.2811 2.2315
-2.8068 17.1987 2.2315
-3.4248 17.0957 2.2315
-4.0395 16.9720 2.2315
-4.6501 16.8278 2.2315
-5.2559 16.6631 2.2315
-5.8566 16.4782 2.2315
-6.2367 15.7320 2.1574
-6.7141 15.3065 2.1285
-7.2682 15.0728 2.1285
-7.8148 14.8203 2.1285
-8.3534 14.5493 2.1285
-8.8833 14.2599 2.1285
-9.4040 13.9524 2.1285
-9.9149 13.6270 2.1285
-10.5284 13.4282 2.1515
-11.0231 13.0639 2.1515
-11.5061 12.6824 2.1515
-11.9769 12.2840 2.1515
-12.4347 11.8690 2.1515
-12.8791 11.4378 2.1515
-13.3095 10.9908 2.1515
-13.6243 10.4508 2.1357
-13.7355 9.7730 2.0921
-13.7757 9.0745 2.0425
-13.7397 8.3590 1.9867
-13.6977 7.6735 1.9349
-13.6677 7.0241 1.8891
-13.6323 6.3978 1.8467
-13.6224 5.8058 1.8113
-13.6249 5.2371 1.7808
-13.6157 4.6797 1.7519
-13.6019 4.1352 1.7253
-13.5932 3.6048 1.7021
-13.6429 3.0983 1.6887
-13.6599 2.5903 1.6735
-13.6994 2.0914 1.6635
-13.7131 1.5922 1.6525
-13.7609 1.0988 1.6478
-13.8204 0.6054 1.6466
-13.5913 0.1070 1.6132
-13.6109 -0.3816 1.6115
-13.6298 -0.8725 1.6118
-13.6481 -1.3670 1.6141
-13.7342 -1.8756 1.6265
-13.6916 -2.3731 1.6259
-12.7615 -2.6868 1.5216
-13.6862 -3.3987 1.6408
-13.6791 -3.9231 1.6511
-13.7256 -4.4753 1.6704
-11.7449 -4.3016 1.4433
-13.8999 -5.6643 1.7272
-11.2776 -5.0749 1.4193
-12.4159 -6.1319 1.5851
-12.2206 -6.5911 1.5852
-12.0249 -7.0537 1.5876
-11.8280 -7.5212 1.5922
-14.1812 -9.7492 1.9500
-13.7647 -10.2088 1.9373
-13.4230 -10.7226 1.9376
-13.0638 -11.2265 1.9382
-12.7011 -11.7326 1.9414
-12.3369 -12.2449 1.9474
-12.4640 -13.2918 2.0373
-12.0813 -13.8473 2.0506
-11.6867 -14.4071 2.0661
-11.2556 -14.9406 2.0795
-10.6794 -15.2873 2.0695
-10.2696 -15.8852 2.0958
-9.8599 -16.5224 2.1285
-9.2746 -16.8902 2.1285
-8.6748 -17.2355 2.1285
-8.0614 -17.5579 2.1285
-7.4353 -17.8566 2.1285
-6.7975 -18.1313 2.1285
-6.1740 -18.4562 2.1371
-5.7565 -19.5071 2.2315
-5.0571 -19.7160 2.2315
-4.3497 -19.8977 2.2315
-3.6354 -20.0518 2.2315
-2.9153 -20.1781 2.2315
-2.1906 -20.2764 2.2315
-1.4624 -20.3463 2.2315
-0.7320 -20.3878 2.2315
-0.0004 -16.8757 2.2315
0.6045 -16.8632 2.2315
1.2085 -16.8276 2.2315
1.8105 -16.7688 2.2315
2.2981 -15.9149 2.1283
2.8659 -15.8150 2.1283
3.4292 -15.6935 2.1283
3.9871 -15.5505 2.1283
4.5387 -15.3864 2.1283
5.0833 -15.2014 2.1283
5.6200 -14.9959 2.1283
6.1574 -14.7928 2.1315
6.6767 -14.5470 2.1315
7.1858 -14.2819 2.1315
7.6838 -13.9979 2.1315
8.2420 -13.8160 2.1503
8.7201 -13.4930 2.1503
9.1850 -13.1525 2.1503
9.6360 -12.7952 2.1503
10.0726 -12.4216 2.1503
10.4942 -12.0325 2.1503
10.9001 -11.6283 2.1503
11.2900 -11.2099 2.1503
11.6632 -10.7779 2.1503
12.0194 -10.3330 2.1503
3.8749 -3.0966 0.6742
12.6789 -9.4074 2.1503
12.9815 -8.9283 2.1503
13.2656 -8.4392 2.1503
13.5308 -7.9409 2.1503
13.7769 -7.4341 2.1503
14.0037 -6.9198 2.1503
14.2109 -6.3985 2.1503
14.3985 -5.8712 2.1503
14.5663 -5.3385 2.1503
14.7142 -4.8012 2.1503
14.8421 -4.2601 2.1503
14.5471 -3.6159 2.0924
14.5460 -3.0659 2.0800
14.5450 -2.5243 2.0705
14.5439 -1.9894 2.0638
14.5428 -1.4598 2.0598
14.5418 -0.9341 2.0585
14.5408 -0.4108 2.0599
14.5397 0.1114 2.0639
14.5387 0.6338 2.0706
14.5377 1.1577 2.0800
14.5366 1.6847 2.0921
14.5356 2.2160 2.1070
14.5345 2.7531 2.1248
14.5334 3.2975 2.1455
14.4051 3.8170 2.1503
14.2267 4.3221 2.1503
14.0311 4.8195 2.1503
13.8187 5.3086 2.1503
13.5898 5.7890 2.1503
13.3449 6.2601 2.1503
13.0843 6.7214 2.1503
12.8084 7.1725 2.1503
12.5177 7.6129 2.1503
12.2125 8.0420 2.1503
11.8933 8.4596 2.1503
11.5605 8.8651 2.1503
11.2146 9.2583 2.1503
10.8561 9.6386 2.1503
10.4854 10.0058 2.1503
10.1029 10.3595 2.1503
9.7092 10.6994 2.1503
9.3047 11.0251 2.1503
8.8900 11.3363 2.1503
8.4656 11.6329 2.1503
7.9618 11.8105 2.1315
7.5232 12.0745 2.1315
4.5167 7.8656 1.3605
4.3425 8.2341 1.3978
3.7643 7.8053 1.3025
3.6897 8.4105 1.3817
3.1382 7.9150 1.2820
4.7305 13.3087 2.1283
4.2463 13.4611 2.1283
3.7574 13.5968 2.1283
3.2646 13.7159 2.1283
2.7682 13.8183 2.1283
2.2489 13.7813 2.1095
1.8168 14.3643 2.1880
1.3249 14.7045 2.2315
0.7954 14.7409 2.2315
0.2650 14.7594 2.2315
-0.2657 14.7600 2.2315
-0.7962 14.7427 2.2315
-1.3259 14.7076 2.2315
-1.8542 14.6546 2.2315
-2.3806 14.5838 2.2315
-2.9046 14.4953 2.2315
-3.4255 14.3891 2.2315
-3.9429 14.2653 2.2315
-4.4561 14.1240 2.2315
-4.9646 13.9653 2.2315
-5.4679 13.7894 2.2315
-5.9654 13.5963 2.2315
-6.2320 12.9207 2.1539
-6.6202 12.5517 2.1285
-7.0750 12.3196 2.1285
-7.5223 12.0719 2.1285
-7.9614 11.8089 2.1285
-8.3919 11.5307 2.1285
-8.8132 11.2375 2.1285
-9.2249 10.9297 2.1285
-9.6265 10.6075 2.1285
-10.0174 10.2712 2.1285
-10.5102 10.0289 2.1515
-10.8824 9.6614 2.1515
-11.2425 9.2807 2.1515
-11.5899 8.8871 2.1515
-11.9217 8.4793 2.1511
-12.1851 8.0235 2.1411
-12.3218 7.4934 2.1122
-12.4656 6.9802 2.0882
-12.5034 6.4227 2.0503
-12.5489 5.8864 2.0175
-12.5752 5.3565 1.9852
-12.6033 4.8415 1.9566
-12.6326 4.3389 1.9314
-12.6353 3.8385 1.9052
-12.6431 3.3500 1.8827
-12.6970 2.8807 1.8698
-12.7558 2.4161 1.8602
-12.8135 1.9534 1.8528
-12.8554 1.4898 1.8455
-12.8890 1.0265 1.8395
-12.9166 0.5631 1.8350
-12.9592 0.0993 1.8349
-12.9928 -0.3670 1.8359
-12.9960 -0.8347 1.8350
-12.9927 -1.3041 1.8356
-12.9580 -1.7723 1.8341
-12.9099 -2.2404 1.8331
-12.8733 -2.7132 1.8362
-12.8334 -3.1897 1.8413
-12.7940 -3.6720 1.8490
-12.7421 -4.1575 1.8575
-12.2581 -4.4923 1.8052
-10.5976 -4.3210 1.5789
-11.4925 -5.1742 1.7349
-12.5284 -6.1904 1.9193
-12.3317 -6.6539 1.9203
-12.1346 -7.1210 1.9241
-11.9365 -7.5931 1.9306
-11.7965 -8.1127 1.9497
-11.5672 -8.5820 1.9576
-11.3538 -9.0728 1.9714
-11.1775 -9.6086 1.9956
-10.9620 -10.1292 2.0170
-10.7074 -10.6307 2.0355
-10.4362 -11.1325 2.0550
-10.1456 -11.6318 2.0752
-9.9874 -12.3156 2.1285
-9.5539 -12.6851 2.1285
-9.1061 -13.0384 2.1285
-8.6446 -13.3749 2.1285
-8.1700 -13.6940 2.1285
-7.6210 -13.8821 2.1112
-7.1265 -14.1626 2.1112
-6.6752 -14.5419 2.1285
-6.1810 -14.8477 2.1373
-5.8989 -15.7380 2.2315
-5.3352 -15.9522 2.2315
-4.7633 -16.1449 2.2315
-4.1841 -16.3156 2.2315
-3.5984 -16.4641 2.2315
-3.0072 -16.5900 2.2315
-2.4113 -16.6933 2.2315
-1.8118 -16.7736 2.2315
-1.2095 -16.8308 2.2315
-0.6054 -16.8649 2.2315
-0.0004 -14.3766 2.2315
0.5148 -14.3662 2.2315
1.0293 -14.3362 2.2315
1.5421 -14.2867 2.2315
1.9576 -13.5599 2.1283
2.4414 -13.4757 2.1283
2.9215 -13.3733 2.1283
2.6536 -10.3521 1.6625
2.9419 -9.9754 1.6189
4.3321 -12.9582 2.1283
4.7902 -12.7847 2.1283
5.2410 -12.5941 2.1283
5.6838 -12.3869 2.1283
6.1276 -12.1817 2.1315
6.5534 -11.9417 2.1315
6.9696 -11.6860 2.1315
7.3753 -11.4151 2.1315
7.7701 -11.1294 2.1315
8.2252 -10.9248 2.1503
8.5998 -10.6083 2.1503
8.9618 -10.2785 2.1503
9.3108 -9.9358 2.1503
9.6463 -9.5808 2.1503
9.9678 -9.2142 2.1503
10.2750 -8.8363 2.1503
3.8684 -3.0925 0.7872
10.8449 -8.0496 2.1503
11.1070 -7.6420 2.1503
11.3534 -7.2256 2.1503
11.5839 -6.8012 2.1503
11.7982 -6.3693 2.1503
11.9962 -5.9307 2.1503
12.1776 -5.4859 2.1503
12.3423 -5.0356 2.1503
12.4901 -4.5804 2.1503
12.6210 -4.1211 2.1503
12.7349 -3.6582 2.1503
12.8317 -3.1923 2.1503
12.9114 -2.7242 2.1503
12.9740 -2.2545 2.1503
13.0195 -1.7837 2.1503
13.0480 -1.3126 2.1503
13.0595 -0.8417 2.1503
13.0541 -0.3716 2.1503
13.0320 0.0970 2.1503
12.9932 0.5636 2.1503
12.9378 1.0276 2.1503
12.8662 1.4883 2.1503
12.7784 1.9453 2.1503
12.6747 2.3980 2.1503
12.5552 2.8459 2.1503
12.4204 3.2884 2.1503
12.2702 3.7250 2.1503
12.1051 4.1552 2.1503
11.9254 4.5786 2.1503
11.7313 4.9946 2.1503
11.5231 5.4028 2.1503
11.3012 5.8028 2.1503
11.0659 6.1940 2.1503
10.8176 6.5762 2.1503
10.5566 6.9489 2.1503
10.2832 7.3117 2.1503
9.9979 7.6642 2.1503
9.7011 8.0061 2.1503
9.3930 8.3370 2.1503
9.0742 8.6566 2.1503
8.7451 8.9646 2.1503
8.4060 9.2606 2.1503
7.9871 9.4613 2.1315
7.6326 9.7303 2.1315
7.2694 9.9866 2.1315
6.8981 10.2301 2.1315
6.5191 10.4604 2.1315
4.1462 7.2186 1.4411
3.7778 7.1617 1.4030
3.5021 7.2601 1.3978
3.2891 7.4957 1.4206
4.5173 11.3911 2.1283
4.1022 11.5385 2.1283
3.6825 11.6716 2.1283
3.2588 11.7902 2.1283
2.8316 11.8944 2.1283
2.4012 11.9838 2.1283
1.9682 12.0586 2.1283
1.6074 12.7065 2.2315
1.1493 12.7538 2.2315
0.6900 12.7856 2.2315
0.2298 12.8017 2.2315
-0.2306 12.8022 2.2315
-0.6908 12.7870 2.2315
-1.1503 12.7562 2.2315
-1.6085 12.7097 2.2315
-2.0651 12.6477 2.2315
-2.5194 12.5702 2.2315
-2.9711 12.4772 2.2315
-3.4195 12.3689 2.2315
-3.8643 12.2452 2.2315
-4.3048 12.1064 2.2315
-4.7407 11.9526 2.2315
-5.1714 11.7838 2.2315
-5.5965 11.6003 2.2315
-6.0154 11.4022 2.2315
-6.2261 10.8387 2.1615
-6.5173 10.4565 2.1285
-6.8966 10.2269 2.1285
-7.2683 9.9841 2.1285
-7.6318 9.7284 2.1285
-7.9867 9.4600 2.1285
-8.3327 9.1792 2.1285
-8.6693 8.8862 2.1285
-8.9961 8.5814 2.1285
-9.3126 8.2650 2.1285
-9.6184 7.9373 2.1285
-9.9132 7.5988 2.1285
-10.1966 7.2496 2.1285
-10.5817 6.9650 2.1515
-10.8438 6.5917 2.1515
-11.0857 6.2047 2.1501
-11.2866 5.7949 2.1434
-11.4395 5.3633 2.1305
-11.5597 4.9213 2.1147
-11.6438 4.4702 2.0953
-11.7235 4.0241 2.0783
-11.7751 3.5745 2.0593
-11.8261 3.1309 2.0432
-11.8511 2.6862 2.0254
-11.9106 2.2534 2.0164
-11.9743 1.8229 2.0107
-12.0088 1.3891 2.0027
-12.0205 0.9547 1.9935
-12.0333 0.5220 1.9871
-12.0605 0.0898 1.9857
-12.0815 -0.3439 1.9857
-12.1044 -0.7800 1.9887
-12.1195 -1.2190 1.9929
-12.1137 -1.6595 1.9963
-12.1030 -2.1030 2.0016
-12.0754 -2.5476 2.0067
-12.0512 -2.9979 2.0152
-12.0178 -3.4519 2.0249
-11.9802 -3.9115 2.0368
-11.9196 -4.3709 2.0478
-10.7854 -4.4001 1.8752
-11.7172 -5.2781 2.0648
-11.6715 -5.7698 2.0879
-11.5009 -6.2084 2.0919
-11.2868 -6.6262 2.0910
-11.0414 -7.0265 2.0872
-10.7747 -7.4128 2.0820
-10.5776 -7.8506 2.0934
-10.3424 -8.2673 2.1007
-10.1342 -8.7145 2.1171
-9.8834 -9.1354 2.1285
-9.5641 -9.4984 2.1285
-9.2310 -9.8498 2.1285
-8.8846 -10.1889 2.1285
-8.5251 -10.5153 2.1285
-8.1533 -10.8283 2.1285
-7.7695 -11.1275 2.1285
-7.3743 -11.4123 2.1285
-6.9682 -11.6824 2.1285
-6.5518 -11.9372 2.1285
-6.1835 -12.2913 2.1486
-5.9660 -12.9999 2.2315
-5.5008 -13.2165 2.2315
-5.0273 -13.4155 2.2315
-4.5464 -13.5965 2.2315
-4.0586 -13.7592 2.2315
-3.5647 -13.9034 2.2315
-3.0655 -14.0288 2.2315
-2.5617 -14.1352 2.2315
-2.0540 -14.2223 2.2315
-1.5433 -14.2902 2.2315
-1.0303 -14.3385 2.2315
-0.5157 -14.3673 2.2315
-0.0004 -12.5108 2.2315
0.4479 -12.5020 2.2315
0.8955 -12.4761 2.2315
1.3417 -12.4334 2.2315
1.7859 -12.3739 2.2315
2.1244 -11.7287 2.1283
2.5423 -11.6402 2.1283
2.9564 -11.5361 2.1283
2.6665 -9.0439 1.6860
3.0205 -9.0369 1.7048
4.1698 -11.1318 2.1283
4.5627 -10.9671 2.1283
4.9489 -10.7878 2.1283
5.3278 -10.5944 2.1283
5.6988 -10.3870 2.1283
6.0708 -10.1816 2.1315
6.4251 -9.9471 2.1315
6.7702 -9.6998 2.1315
7.1053 -9.4400 2.1315
7.4303 -9.1682 2.1315
7.7445 -8.8848 2.1315
8.0475 -8.5903 2.1315
8.4124 -8.3579 2.1503
8.6946 -8.0397 2.1503
8.9643 -7.7117 2.1503
3.8619 -3.0884 0.9005
4.0010 -2.9708 0.9089
9.6964 -6.6740 2.1503
9.9138 -6.3119 2.1503
10.1173 -5.9427 2.1503
10.3069 -5.5668 2.1503
10.4823 -5.1848 2.1503
10.6433 -4.7973 2.1503
10.7899 -4.4048 2.1503
10.9218 -4.0078 2.1503
11.0390 -3.6070 2.1503
11.1413 -3.2029 2.1503
11.2288 -2.7961 2.1503
11.3014 -2.3870 2.1503
11.3591 -1.9763 2.1503
11.4018 -1.5646 2.1503
11.4296 -1.1522 2.1503
11.4425 -0.7399 2.1503
11.4407 -0.3281 2.1503
11.4241 0.0826 2.1503
11.3929 0.4917 2.1503
11.3472 0.8988 2.1503
11.2871 1.3032 2.1503
11.2128 1.7046 2.1503
11.1245 2.1023 2.1503
11.0223 2.4960 2.1503
10.9064 2.8852 2.1503
10.7771 3.2693 2.1503
10.6345 3.6480 2.1503
10.4790 4.0209 2.1503
10.3107 4.3874 2.1503
10.1299 4.7472 2.1503
9.9370 5.0999 2.1503
9.7321 5.4451 2.1503
9.5156 5.7823 2.1503
9.2878 6.1114 2.1503
9.0490 6.4318 2.1503
8.7996 6.7432 2.1503
8.5399 7.0454 2.1503
8.2701 7.3380 2.1503
7.9211 7.5543 2.1315
7.6350 7.8244 2.1315
7.3401 8.0841 2.1315
7.0368 8.3332 2.1315
6.7253 8.5714 2.1315
6.4062 8.7985 2.1315
6.0798 9.0142 2.1315
5.7377 9.2043 2.1283
5.3983 9.3964 2.1283
3.8253 7.2499 1.6112
3.5467 7.3507 1.6055
3.3623 7.6607 1.6468
3.9838 10.0436 2.1283
3.6180 10.1744 2.1283
3.2481 10.2925 2.1283
2.8746 10.3978 2.1283
2.4978 10.4902 2.1283
2.1183 10.5696 2.1283
1.8206 11.1519 2.2315
1.4180 11.2077 2.2315
1.0139 11.2497 2.2315
0.6087 11.2779 2.2315
0.2027 11.2921 2.2315
-0.2035 11.2925 2.2315
-0.6095 11.2789 2.2315
-1.0148 11.2515 2.2315
-1.4191 11.2102 2.2315
-1.8218 11.1551 2.2315
-2.2225 11.0862 2.2315
-2.6208 11.0036 2.2315
-3.0162 10.9074 2.2315
-3.4083 10.7976 2.2315
-3.7965 10.6744 2.2315
-4.1806 10.5378 2.2315
-4.5600 10.3880 2.2315
-4.9343 10.2252 2.2315
-5.3031 10.0495 2.2315
-5.6660 9.8610 2.2315
-6.0224 9.6600 2.2315
-6.2191 9.2197 2.1780
-6.4107 8.8036 2.1305
-6.7237 8.5685 2.1285
-7.0354 8.3308 2.1285
-7.3390 8.0822 2.1285
-7.6343 7.8229 2.1285
-7.9207 7.5532 2.1285
-8.1979 7.2733 2.1285
-8.4656 6.9836 2.1285
-8.7234 6.6844 2.1285
-8.9711 6.3759 2.1285
-9.2081 6.0585 2.1285
-9.4343 5.7325 2.1285
-9.6492 5.3983 2.1285
-9.8527 5.0563 2.1285
-10.0443 4.7068 2.1285
-10.2238 4.3502 2.1285
-10.5038 4.0301 2.1515
-10.6600 3.6565 2.1515
-10.8031 3.2770 2.1515
-10.9330 2.8920 2.1515
-11.0217 2.4957 2.1462
-11.0792 2.0937 2.1375
-11.1301 1.6919 2.1304
-11.1664 1.2892 2.1232
-11.1907 0.8864 2.1166
-11.2044 0.4836 2.1106
-11.2212 0.0812 2.1080
-11.2344 -0.3222 2.1074
-11.2366 -0.7265 2.1075
-11.2290 -1.1319 2.1085
-11.2286 -1.5406 2.1136
-11.2131 -1.9508 2.1186
-11.1886 -2.3630 2.1248
-11.1454 -2.7751 2.1303
-11.0923 -3.1886 2.1368
-11.0312 -3.6042 2.1448
-10.9484 -4.0173 2.1515
-10.8160 -4.4150 2.1515
-10.6688 -4.8083 2.1515
-10.5071 -5.1966 2.1515
-10.3310 -5.5794 2.1515
-10.0318 -5.8920 2.1285
-9.8297 -6.2579 2.1285
-9.6139 -6.6166 2.1285
-9.3846 -6.9677 2.1285
-9.1423 -7.3105 2.1285
-8.8870 -7.6445 2.1285
-8.6192 -7.9693 2.1285
-8.3392 -8.2844 2.1285
-8.0472 -8.5892 2.1285
-7.7438 -8.8832 2.1285
-7.4293 -9.1661 2.1285
-7.1041 -9.4373 2.1285
-6.7687 -9.6965 2.1285
-6.4234 -9.9432 2.1285
-6.1827 -10.3680 2.1684
-5.9817 -10.9011 2.2315
-5.5920 -11.1181 2.2315
-5.1940 -11.3204 2.2315
-4.7885 -11.5077 2.2315
-4.3760 -11.6798 2.2315
-3.9570 -11.8363 2.2315
-3.5322 -11.9770 2.2315
-3.1021 -12.1017 2.2315
-2.6676 -12.2101 2.2315
-2.2290 -12.3020 2.2315
-1.7872 -12.3774 2.2315
-1.3428 -12.4360 2.2315
-0.8964 -12.4779 2.2315
-0.4487 -12.5028 2.2315
-0.0004 -11.0635 2.2315
0.3959 -11.0557 2.2315
0.7917 -11.0331 2.2315
1.1863 -10.9956 2.2315
1.5791 -10.9433 2.2315
1.8784 -10.3731 2.1283
2.2480 -10.2954 2.1283
2.6143 -10.2038 2.1283
2.7386 -9.2904 1.9580
3.3349 -9.9801 2.1283
3.6882 -9.8483 2.1283
4.0360 -9.7034 2.1283
4.3780 -9.5457 2.1283
4.7136 -9.3755 2.1283
5.0424 -9.1930 2.1283
5.3639 -8.9985 2.1283
5.6777 -8.7923 2.1283
5.9924 -8.5879 2.1315
6.2899 -8.3590 2.1315
6.5784 -8.1195 2.1315
6.8576 -7.8697 2.1315
7.1269 -7.6099 2.1315
7.3863 -7.3407 2.1315
7.6351 -7.0624 2.1315
7.8733 -6.7754 2.1315
3.8553 -3.0842 1.0145
3.9945 -2.9670 1.0238
8.5955 -5.9185 2.1503
8.7897 -5.5986 2.1503
8.9718 -5.2721 2.1503
9.1415 -4.9396 2.1503
9.2988 -4.6017 2.1503
9.4434 -4.2587 2.1503
9.5753 -3.9112 2.1503
9.6942 -3.5596 2.1503
9.8001 -3.2045 2.1503
9.8929 -2.8462 2.1503
9.9725 -2.4855 2.1503
10.0389 -2.1226 2.1503
10.0921 -1.7581 2.1503
10.1321 -1.3926 2.1503
10.1588 -1.0264 2.1503
10.1723 -0.6600 2.1503
10.1727 -0.2940 2.1503
10.1599 0.0712 2.1503
10.1341 0.4352 2.1503
10.0955 0.7974 2.1503
10.0439 1.1575 2.1503
9.9798 1.5149 2.1503
9.9030 1.8693 2.1503
9.8139 2.2202 2.1503
9.7125 2.5671 2.1503
9.5991 2.9098 2.1503
9.4738 3.2477 2.1503
9.3369 3.5805 2.1503
9.1885 3.9077 2.1503
9.0290 4.2291 2.1503
8.8585 4.5442 2.1503
8.6772 4.8527 2.1503
8.4856 5.1543 2.1503
8.2837 5.4486 2.1503
8.0016 5.6852 2.1315
7.7822 5.9615 2.1315
7.5536 6.2296 2.1315
7.3160 6.4893 2.1315
7.0698 6.7403 2.1315
6.8154 6.9823 2.1315
6.5529 7.2150 2.1315
6.2828 7.4383 2.1315
6.0054 7.6518 2.1315
5.7123 7.8435 2.1283
5.4218 8.0366 2.1283
5.1250 8.2195 2.1283
4.8224 8.3918 2.1283
3.9657 7.5142 1.8697
3.6502 7.5636 1.8494
3.8825 8.8441 2.1283
3.5599 8.9727 2.1283
3.2332 9.0901 2.1283
2.9028 9.1962 2.1283
2.5691 9.2907 2.1283
2.2324 9.3737 2.1283
1.8933 9.4450 2.1283
1.6272 9.9657 2.2315
1.2675 10.0158 2.2315
0.9063 10.0535 2.2315
0.5440 10.0787 2.2315
0.1812 10.0915 2.2315
-0.1819 10.0918 2.2315
-0.5448 10.0796 2.2315
-0.9071 10.0549 2.2315
-1.2685 10.0178 2.2315
-1.6284 9.9682 2.2315
-1.9865 9.9063 2.2315
-2.3423 9.8320 2.2315
-2.6956 9.7456 2.2315
-3.0458 9.6469 2.2315
-3.3926 9.5362 2.2315
-3.7355 9.4136 2.2315
-4.0742 9.2791 2.2315
-4.4083 9.1329 2.2315
-4.7374 8.9751 2.2315
-5.0611 8.8059 2.2315
-5.3790 8.6255 2.2315
-5.6907 8.4341 2.2315
-5.9959 8.2317 2.2315
-6.2164 7.9198 2.2040
-6.2809 7.4352 2.1285
-6.5512 7.2123 2.1285
-6.8138 6.9800 2.1285
-7.0685 6.7384 2.1285
-7.3149 6.4877 2.1285
-7.5527 6.2284 2.1285
-7.7816 5.9605 2.1285
-8.0013 5.6845 2.1285
-8.2114 5.4005 2.1285
-8.4117 5.1090 2.1285
-8.6020 4.8103 2.1285
-8.7819 4.5046 2.1285
-8.9511 4.1923 2.1285
-9.1095 3.8739 2.1285
-9.2568 3.5495 2.1285
-9.3928 3.2197 2.1285
-9.5172 2.8848 2.1285
-9.6298 2.5451 2.1285
-9.7305 2.2012 2.1285
-9.8190 1.8533 2.1285
-9.8952 1.5020 2.1285
-9.9589 1.1476 2.1285
-10.0101 0.7907 2.1285
-10.0485 0.4315 2.1285
-10.0741 0.0707 2.1285
-10.0868 -0.2914 2.1285
-10.0864 -0.6543 2.1285
-10.0730 -1.0176 2.1285
-10.0465 -1.3806 2.1285
-10.0068 -1.7431 2.1285
-9.9540 -2.1044 2.1285
-9.8880 -2.4642 2.1285
-9.8089 -2.8219 2.1285
-9.7168 -3.1769 2.1285
-9.6116 -3.5290 2.1285
-6.5762 -2.6859 1.4744
-6.4930 -2.9279 1.4761
-9.2191 -4.5618 2.1285
-9.0629 -4.8967 2.1285
-8.8944 -5.2262 2.1285
-8.7136 -5.5496 2.1285
-8.5209 -5.8666 2.1285
-8.3163 -6.1767 2.1285
-8.1002 -6.4794 2.1285
-7.8728 -6.7743 2.1285
-7.6344 -7.0610 2.1285
-7.3853 -7.3389 2.1285
-7.1257 -7.6078 2.1285
-6.8561 -7.8671 2.1285
-6.5767 -8.1165 2.1285
-6.2881 -8.3555 2.1285
-6.1833 -8.8603 2.1970
-5.9595 -9.2274 2.2315
-5.6299 -9.4433 2.2315
-5.2922 -9.6469 2.2315
-4.9469 -9.8379 2.2315
-4.5945 -10.0160 2.2315
-4.2354 -10.1809 2.2315
-3.8702 -10.3323 2.2315
-3.4994 -10.4700 2.2315
-3.1236 -10.5938 2.2315
-2.7432 -10.7035 2.2315
-2.3588 -10.7988 2.2315
-1.9709 -10.8797 2.2315
-1.5803 -10.9460 2.2315
-1.1873 -10.9976 2.2315
-0.7926 -11.0344 2.2315
-0.3968 -11.0564 2.2315
-0.0004 -9.9069 2.2315
0.3544 -9.9000 2.2315
0.7087 -9.8799 2.2315
1.0620 -9.8465 2.2315
1.4137 -9.7999 2.2315
1.7634 -9.7403 2.2315
2.0128 -9.2203 2.1283
2.3409 -9.1388 2.1283
2.6656 -9.0451 2.1283
2.9864 -8.9394 2.1283
3.3030 -8.8218 2.1283
3.6147 -8.6927 2.1283
3.9213 -8.5521 2.1283
4.2222 -8.4002 2.1283
4.5171 -8.2374 2.1283
4.8056 -8.0639 2.1283
5.0871 -7.8799 2.1283
5.3615 -7.6858 2.1283
5.6282 -7.4817 2.1283
5.8960 -7.2793 2.1315
6.1469 -7.0562 2.1315
6.3891 -6.8242 2.1315
6.6223 -6.5836 2.1315
4.1176 -3.8100 1.2820
4.2833 -3.6873 1.2931
3.8487 -3.0800 1.1291
3.9879 -2.9633 1.1395
4.5976 -3.1670 1.2820
7.8181 -4.9818 2.1315
7.9812 -4.6921 2.1315
8.2050 -4.4356 2.1503
8.3474 -4.1329 2.1503
8.4785 -3.8256 2.1503
8.5981 -3.5141 2.1503
8.7062 -3.1989 2.1503
8.8027 -2.8804 2.1503
8.8874 -2.5590 2.1503
8.9604 -2.2353 2.1503
9.0215 -1.9095 2.1503
9.0707 -1.5822 2.1503
9.1081 -1.2538 2.1503
9.1335 -0.9248 2.1503
9.1472 -0.5955 2.1503
9.1489 -0.2664 2.1503
9.1389 0.0621 2.1503
9.1172 0.3895 2.1503
9.0838 0.7155 2.1503
9.0389 1.0397 2.1503
8.9825 1.3616 2.1503
8.9148 1.6808 2.1503
8.8359 1.9969 2.1503
8.7459 2.3097 2.1503
8.6450 2.6186 2.1503
8.5335 2.9234 2.1503
8.4114 3.2236 2.1503
8.2789 3.5189 2.1503
8.0653 3.7758 2.1315
7.9141 4.0578 2.1315
7.7532 4.3340 2.1315
7.5829 4.6041 2.1315
7.4035 4.8677 2.1315
7.2151 5.1245 2.1315
7.0181 5.3743 2.1315
6.8127 5.6167 2.1315
6.5992 5.8516 2.1315
6.3778 6.0787 2.1315
6.1489 6.2976 2.1315
5.9127 6.5083 2.1315
5.6609 6.7001 2.1283
5.4115 6.8932 2.1283
5.1557 7.0772 2.1283
4.8939 7.2522 2.1283
4.6263 7.4178 2.1283
4.3534 7.5739 2.1283
4.0755 7.7204 2.1283
3.6388 7.5381 2.0419
3.5056 7.9837 2.1283
3.2145 8.1004 2.1283
2.9196 8.2068 2.1283
2.6214 8.3029 2.1283
2.3201 8.3886 2.1283
2.0362 8.5481 2.1495
1.7928 8.9422 2.2315
1.4696 8.9988 2.2315
1.1448 9.0442 2.2315
0.8185 9.0784 2.2315
0.4914 9.1013 2.2315
0.1636 9.1129 2.2315
-0.1644 9.1131 2.2315
-0.4921 9.1020 2.2315
-0.8194 9.0796 2.2315
-1.1457 9.0459 2.2315
-1.4707 9.0009 2.2315
-1.7941 8.9447 2.2315
-2.1154 8.8774 2.2315
-2.4343 8.7989 2.2315
-2.7505 8.7095 2.2315
-3.0635 8.6091 2.2315
-3.3730 8.4979 2.2315
-3.6786 8.3759 2.2315
-3.9800 8.2434 2.2315
-4.2768 8.1004 2.2315
-4.5687 7.9471 2.2315
-4.8552 7.7836 2.2315
-5.1362 7.6102 2.2315
-5.4112 7.4269 2.2315
-5.6798 7.2340 2.2315
-5.9418 7.0317 2.2315
-6.1969 6.8202 2.2315
-6.2192 6.3689 2.1535
-6.3760 6.0762 2.1285
-6.5975 5.8495 2.1285
-6.8112 5.6149 2.1285
-7.0167 5.3727 2.1285
-7.2140 5.1231 2.1285
-7.4024 4.8665 2.1285
-7.5821 4.6032 2.1285
-7.7525 4.3333 2.1285
-7.9136 4.0572 2.1285
-8.0650 3.7753 2.1285
-8.2066 3.4879 2.1285
-8.3381 3.1952 2.1285
-8.4593 2.8977 2.1285
-8.5700 2.5957 2.1285
-8.6701 2.2895 2.1285
-8.7595 1.9795 2.1285
-8.8378 1.6661 2.1285
-8.9050 1.3497 2.1285
-8.9610 1.0307 2.1285
-9.0056 0.7093 2.1285
-9.0387 0.3862 2.1285
-9.0603 0.0616 2.1285
-9.0703 -0.2641 2.1285
-9.0685 -0.5903 2.1285
-9.0550 -0.9167 2.1285
-9.0297 -1.2429 2.1285
-8.9926 -1.5684 2.1285
-8.9437 -1.8929 2.1285
-8.8831 -2.2157 2.1285
-8.8107 -2.5367 2.1285
-8.7265 -2.8552 2.1285
-8.6308 -3.1709 2.1285
-6.5554 -2.6790 1.6370
-6.4859 -2.9263 1.6425
-8.2746 -4.0965 2.1285
-8.1332 -4.3964 2.1285
-7.9809 -4.6914 2.1285
-7.8176 -4.9809 2.1285
-7.6436 -5.2646 2.1285
-7.4591 -5.5420 2.1285
-7.2643 -5.8128 2.1285
-7.0595 -6.0765 2.1285
-6.8448 -6.3328 2.1285
-6.6207 -6.5812 2.1285
-6.3873 -6.8214 2.1285
-6.1944 -7.1098 2.1456
-6.1794 -7.6282 2.2315
-5.9075 -7.8520 2.2315
-5.6274 -8.0657 2.2315
-5.3392 -8.2691 2.2315
-5.0435 -8.4618 2.2315
-4.7406 -8.6434 2.2315
-4.4309 -8.8139 2.2315
-4.1150 -8.9727 2.2315
-3.7931 -9.1198 2.2315
-3.4659 -9.2548 2.2315
-3.1336 -9.3777 2.2315
-2.7969 -9.4880 2.2315
-2.4562 -9.5858 2.2315
-2.1120 -9.6709 2.2315
-1.7647 -9.7430 2.2315
-1.4148 -9.8021 2.2315
-1.0630 -9.8481 2.2315
-0.7096 -9.8809 2.2315
-0.3553 -9.9006 2.2315
-0.0004 -8.9606 2.2315
0.3205 -8.9544 2.2315
0.6409 -8.9363 2.2315
0.9604 -8.9062 2.2315
1.2784 -8.8643 2.2315
1.5947 -8.8106 2.2315
1.8622 -8.5326 2.1773
2.1171 -8.2671 2.1283
2.4108 -8.1827 2.1283
2.7011 -8.0874 2.1283
2.9876 -7.9815 2.1283
3.2698 -7.8651 2.1283
3.5473 -7.7384 2.1283
3.8198 -7.6015 2.1283
4.0868 -7.4547 2.1283
4.3481 -7.2982 2.1283
4.6032 -7.1323 2.1283
4.8519 -6.9572 2.1283
5.0937 -6.7731 2.1283
5.3284 -6.5804 2.1283
5.5556 -6.3793 2.1283
3.4786 -3.7167 1.2820
3.8064 -3.7854 1.3532
4.0634 -3.7611 1.3972
4.2639 -3.6719 1.4215
3.8420 -3.0758 1.2446
3.9813 -2.9595 1.2559
4.5311 -3.1224 1.3948
4.4669 -2.8475 1.3443
4.3493 -2.5580 1.2820
7.3703 -3.9863 2.1315
7.4991 -3.7148 2.1315
7.6178 -3.4391 2.1315
7.7263 -3.1596 2.1315
7.8244 -2.8767 2.1315
7.9121 -2.5908 2.1315
7.9893 -2.3023 2.1315
8.0559 -2.0115 2.1315
8.1119 -1.7188 2.1315
8.2290 -1.4373 2.1503
8.2640 -1.1395 2.1503
8.2882 -0.8410 2.1503
8.3016 -0.5423 2.1503
8.3043 -0.2437 2.1503
8.2963 0.0545 2.1503
8.2777 0.3518 2.1503
8.2484 0.6479 2.1503
8.2087 0.9424 2.1503
8.0874 1.2241 2.1315
8.0274 1.5117 2.1315
7.9574 1.7966 2.1315
7.8773 2.0785 2.1315
7.7875 2.3571 2.1315
7.6879 2.6319 2.1315
7.5788 2.9027 2.1315
7.4603 3.1692 2.1315
7.3326 3.4310 2.1315
7.1959 3.6878 2.1315
7.0504 3.9394 2.1315
6.8963 4.1854 2.1315
6.7338 4.4256 2.1315
6.5632 4.6597 2.1315
6.3846 4.8874 2.1315
6.1983 5.1084 2.1315
6.0046 5.3226 2.1315
5.7949 5.5213 2.1283
5.5873 5.7207 2.1283
5.3732 5.9126 2.1283
5.1526 6.0968 2.1283
4.9259 6.2729 2.1283
4.6934 6.4410 2.1283
4.4554 6.6007 2.1283
4.2121 6.7519 2.1283
3.9639 6.8945 2.1283
3.7110 7.0283 2.1283
3.4537 7.1531 2.1283
3.1924 7.2688 2.1283
2.9274 7.3753 2.1283
2.6590 7.4726 2.1283
2.3875 7.5604 2.1283
2.1131 7.6387 2.1283
1.8412 7.7278 2.1339
1.6330 8.1432 2.2315
1.3386 8.1950 2.2315
1.0427 8.2365 2.2315
0.7456 8.2677 2.2315
0.4476 8.2886 2.2315
0.1490 8.2991 2.2315
-0.1497 8.2993 2.2315
-0.4483 8.2891 2.2315
-0.7464 8.2686 2.2315
-1.0436 8.2378 2.2315
-1.3397 8.1967 2.2315
-1.6342 8.1453 2.2315
-1.9268 8.0838 2.2315
-2.2172 8.0120 2.2315
-2.5050 7.9303 2.2315
-2.7900 7.8385 2.2315
-3.0717 7.7369 2.2315
-3.3498 7.6254 2.2315
-3.6241 7.5044 2.2315
-3.8941 7.3737 2.2315
-4.1596 7.2337 2.2315
-4.4203 7.0844 2.2315
-4.6757 6.9260 2.2315
-4.9257 6.7587 2.2315
-5.1699 6.5826 2.2315
-5.4079 6.3980 2.2315
-5.6396 6.2050 2.2315
-5.8646 6.0038 2.2315
-6.0825 5.7947 2.2315
-6.2117 5.5056 2.2026
-6.2206 5.1262 2.1368
-6.4019 4.9001 2.1349
-6.5614 4.6579 2.1285
-6.7322 4.4241 2.1285
-6.8948 4.1841 2.1285
-7.0490 3.9383 2.1285
-7.1947 3.6869 2.1285
-7.3315 3.4302 2.1285
-7.4593 3.1685 2.1285
-7.5779 2.9021 2.1285
-7.6872 2.6314 2.1285
-7.7869 2.3567 2.1285
-7.8768 2.0782 2.1285
-7.9570 1.7964 2.1285
-8.0271 1.5115 2.1285
-8.0871 1.2239 2.1285
-8.1369 0.9341 2.1285
-8.1764 0.6422 2.1285
-8.2054 0.3487 2.1285
-8.2239 0.0541 2.1285
-8.2318 -0.2415 2.1285
-8.2291 -0.5375 2.1285
-8.2158 -0.8336 2.1285
-8.1918 -1.1294 2.1285
-8.1571 -1.4245 2.1285
-8.1117 -1.7186 2.1285
-8.0557 -2.0112 2.1285
-7.9889 -2.3019 2.1285
-7.9117 -2.5904 2.1285
-7.8239 -2.8762 2.1285
-6.5345 -2.6720 1.8003
-6.4788 -2.9246 1.8104
-7.4982 -3.7139 2.1285
-7.3693 -3.9853 2.1285
-7.2303 -4.2520 2.1285
-7.0816 -4.5138 2.1285
-6.9232 -4.7703 2.1285
-6.7554 -5.0210 2.1285
-6.5783 -5.2657 2.1285
-6.3921 -5.5039 2.1285
-6.2008 -5.7387 2.1297
-6.1887 -6.1536 2.1977
-6.0618 -6.4757 2.2315
-5.8312 -6.6949 2.2315
-5.5926 -6.9057 2.2315
-5.3461 -7.1076 2.2315
-5.0921 -7.3005 2.2315
-4.8310 -7.4839 2.2315
-4.5631 -7.6577 2.2315
-4.2888 -7.8216 2.2315
-4.0084 -7.9753 2.2315
-3.7224 -8.1185 2.2315
-3.4310 -8.2511 2.2315
-3.1349 -8.3728 2.2315
-2.8343 -8.4835 2.2315
-2.5296 -8.5830 2.2315
-2.2214 -8.6712 2.2315
-1.9100 -8.7478 2.2315
-1.5959 -8.8128 2.2315
-1.2795 -8.8661 2.2315
-0.9613 -8.9076 2.2315
-0.6418 -8.9372 2.2315
-0.3213 -8.9549 2.2315
-0.0004 -8.1713 2.2315
0.2921 -8.1657 2.2315
0.5843 -8.1492 2.2315
0.8755 -8.1219 2.2315
1.1656 -8.0839 2.2315
1.4539 -8.0351 2.2315
1.7402 -7.9756 2.2315
1.9304 -7.5398 2.1283
2.1983 -7.4631 2.1283
2.4631 -7.3765 2.1283
2.7244 -7.2802 2.1283
2.9819 -7.1744 2.1283
3.2351 -7.0592 2.1283
3.4838 -6.9347 2.1283
3.7276 -6.8012 2.1283
3.9661 -6.6589 2.1283
4.1991 -6.5079 2.1283
4.4262 -6.3486 2.1283
4.6472 -6.1811 2.1283
4.8616 -6.0058 2.1283
5.0693 -5.8227 2.1283
3.1744 -3.3927 1.2820
3.7729 -3.7533 1.4698
4.0415 -3.7421 1.5226
3.6976 -3.1853 1.3505
3.8353 -3.0715 1.3610
3.9746 -2.9557 1.3734
4.5014 -3.1032 1.5176
3.8898 -2.4807 1.2820
6.6039 -3.8858 2.1315
6.7313 -3.6424 2.1315
6.8496 -3.3948 2.1315
6.9588 -3.1433 2.1315
7.0586 -2.8883 2.1315
7.1490 -2.6301 2.1315
7.2299 -2.3691 2.1315
7.3012 -2.1057 2.1315
7.3629 -1.8401 2.1315
7.4149 -1.5728 2.1315
7.4572 -1.3042 2.1315
7.4897 -1.0344 2.1315
7.5124 -0.7640 2.1315
7.5254 -0.4933 2.1315
7.5287 -0.2226 2.1315
7.5223 0.0477 2.1315
7.5062 0.3173 2.1315
7.4805 0.5859 2.1315
7.4453 0.8530 2.1315
7.4006 1.1184 2.1315
7.3465 1.3818 2.1315
7.2831 1.6427 2.1315
7.2106 1.9009 2.1315
7.1291 2.1561 2.1315
7.0386 2.4080 2.1315
6.9394 2.6562 2.1315
6.8316 2.9005 2.1315
6.7153 3.1405 2.1315
6.5908 3.3760 2.1315
6.4581 3.6068 2.1315
6.3175 3.8325 2.1315
6.1692 4.0529 2.1315
6.0134 4.2677 2.1315
5.8413 4.4699 2.1283
5.6714 4.6725 2.1283
5.4946 4.8689 2.1283
5.3111 5.0588 2.1283
5.1213 5.2420 2.1283
4.9254 5.4182 2.1283
4.7235 5.5874 2.1283
4.5160 5.7493 2.1283
4.3031 5.9037 2.1283
4.0851 6.0505 2.1283
3.8622 6.1895 2.1283
3.6348 6.3205 2.1283
3.4031 6.4435 2.1283
3.1673 6.5583 2.1283
2.9278 6.6647 2.1283
2.6849 6.7626 2.1283
2.4387 6.8520 2.1283
2.1898 6.9328 2.1283
1.9382 7.0048 2.1283
1.7661 7.4109 2.2315
1.4979 7.4679 2.2315
1.2279 7.5154 2.2315
0.9564 7.5536 2.2315
0.6839 7.5823 2.2315
0.4105 7.6015 2.2315
0.1366 7.6112 2.2315
-0.1374 7.6113 2.2315
-0.4113 7.6020 2.2315
-0.6847 7.5831 2.2315
-0.9573 7.5547 2.2315
-1.2289 7.5169 2.2315
-1.4990 7.4696 2.2315
-1.7673 7.4130 2.2315
-2.0336 7.3470 2.2315
-2.2976 7.2717 2.2315
-2.5588 7.1873 2.2315
-2.8171 7.0939 2.2315
-3.0721 6.9914 2.2315
-3.3234 6.8800 2.2315
-3.5709 6.7599 2.2315
-3.8142 6.6311 2.2315
-4.0529 6.4939 2.2315
-4.2869 6.3483 2.2315
-4.5158 6.1945 2.2315
-4.7394 6.0327 2.2315
-4.9572 5.8630 2.2315
-5.1692 5.6857 2.2315
-5.3750 5.5009 2.2315
-5.5744 5.3089 2.2315
-5.7671 5.1097 2.2315
-5.9528 4.9038 2.2315
-6.1314 4.6913 2.2315
-6.2095 4.4064 2.1986
-6.2165 4.0835 2.1455
-6.3156 3.8310 2.1285
-6.4563 3.6054 2.1285
-6.5891 3.3748 2.1285
-6.7137 3.1394 2.1285
-6.8301 2.8995 2.1285
-6.9380 2.6554 2.1285
-7.0373 2.4073 2.1285
-7.1278 2.1555 2.1285
-7.2094 1.9005 2.1285
-7.2820 1.6423 2.1285
-7.3454 1.3815 2.1285
-7.3995 1.1182 2.1285
-7.4443 0.8529 2.1285
-7.4796 0.5858 2.1285
-7.5053 0.3173 2.1285
-7.5214 0.0478 2.1285
-7.5278 -0.2225 2.1285
-7.5246 -0.4932 2.1285
-7.5116 -0.7638 2.1285
-7.4888 -1.0342 2.1285
-7.4562 -1.3038 2.1285
-7.4139 -1.5725 2.1285
-7.3619 -1.8397 2.1285
-7.3001 -2.1052 2.1285
-7.2288 -2.3685 2.1285
-7.1478 -2.6294 2.1285
-6.5136 -2.6650 1.9645
-6.4716 -2.9229 1.9799
-6.8481 -3.3937 2.1285
-6.7297 -3.6411 2.1285
-6.6022 -3.8843 2.1285
-6.4657 -4.1230 2.1285
-6.3205 -4.3567 2.1285
-6.2006 -4.6104 2.1401
-6.1910 -4.9575 2.1946
-6.1167 -5.2685 2.2315
-5.9296 -5.4895 2.2315
-5.7344 -5.7037 2.2315
-5.5313 -5.9107 2.2315
-5.3205 -6.1103 2.2315
-5.1024 -6.3021 2.2315
-4.8771 -6.4859 2.2315
-4.6451 -6.6614 2.2315
-4.4067 -6.8283 2.2315
-4.1621 -6.9865 2.2315
-3.9116 -7.1355 2.2315
-3.6557 -7.2753 2.2315
-3.3947 -7.4056 2.2315
-3.1289 -7.5261 2.2315
-2.8587 -7.6368 2.2315
-2.5844 -7.7375 2.2315
-2.3066 -7.8280 2.2315
-2.0255 -7.9081 2.2315
-1.7415 -7.9778 2.2315
-1.4551 -8.0369 2.2315
-1.1666 -8.0853 2.2315
-0.8765 -8.1231 2.2315
-0.5851 -8.1500 2.2315
-0.2930 -8.1661 2.2315
-0.0004 -7.5023 2.2315
0.2681 -7.4972 2.2315
0.5363 -7.4821 2.2315
0.8037 -7.4571 2.2315
1.0699 -7.4223 2.2315
1.3346 -7.3776 2.2315
1.5975 -7.3232 2.2315
1.8580 -7.2591 2.2315
2.0181 -6.8530 2.1283
2.2612 -6.7737 2.1283
2.5012 -6.6856 2.1283
2.7377 -6.5887 2.1283
2.9704 -6.4831 2.1283
3.1988 -6.3691 2.1283
3.4228 -6.2468 2.1283
3.6421 -6.1165 2.1283
3.8562 -5.9782 2.1283
4.0650 -5.8322 2.1283
4.2682 -5.6787 2.1283
4.4654 -5.5180 2.1283
4.6565 -5.3502 2.1283
4.8412 -5.1757 2.1283
3.2032 -3.1876 1.3583
3.1707 -2.9368 1.3002
3.2252 -2.7793 1.2820
3.3226 -2.6619 1.2832
3.4314 -2.5527 1.2903
3.5777 -2.4674 1.3124
3.8843 -2.4782 1.3928
6.0702 -3.5734 2.1315
6.1879 -3.3500 2.1315
6.2972 -3.1226 2.1315
6.3981 -2.8917 2.1315
6.4905 -2.6575 2.1315
6.5742 -2.4203 2.1315
6.6492 -2.1805 2.1315
6.7154 -1.9384 2.1315
6.7728 -1.6943 2.1315
6.8213 -1.4485 2.1315
6.8608 -1.2014 2.1315
6.8913 -0.9534 2.1315
6.9129 -0.7046 2.1315
6.9255 -0.4555 2.1315
6.9292 -0.2064 2.1315
6.9239 0.0424 2.1315
6.9098 0.2906 2.1315
6.8867 0.5378 2.1315
6.8550 0.7838 2.1315
6.8144 1.0283 2.1315
6.7652 1.2709 2.1315
6.7075 1.5113 2.1315
6.6413 1.7493 2.1315
6.5668 1.9845 2.1315
6.4840 2.2167 2.1315
6.3932 2.4456 2.1315
6.2944 2.6708 2.1315
6.1878 2.8922 2.1315
6.0735 3.1095 2.1315
5.9517 3.3224 2.1315
5.8137 3.5253 2.1283
5.6777 3.7284 2.1283
5.5346 3.9264 2.1283
5.3849 4.1191 2.1283
5.2286 4.3062 2.1283
5.0659 4.4875 2.1283
4.8971 4.6629 2.1283
4.7224 4.8321 2.1283
4.5419 4.9950 2.1283
4.3561 5.1513 2.1283
4.1649 5.3008 2.1283
3.9688 5.4435 2.1283
3.7679 5.5792 2.1283
3.5625 5.7077 2.1283
3.3529 5.8288 2.1283
3.1392 5.9425 2.1283
2.9219 6.0486 2.1283
2.7010 6.1470 2.1283
2.4770 6.2375 2.1283
2.2500 6.3202 2.1283
2.0404 6.4583 2.1494
1.8321 6.6197 2.1804
1.6295 6.8362 2.2315
1.3820 6.8889 2.2315
1.1329 6.9329 2.2315
0.8825 6.9682 2.2315
0.6310 6.9947 2.2315
0.3788 7.0125 2.2315
0.1260 7.0214 2.2315
-0.1268 7.0216 2.2315
-0.3795 7.0129 2.2315
-0.6318 6.9954 2.2315
-0.8834 6.9692 2.2315
-1.1339 6.9341 2.2315
-1.3831 6.8904 2.2315
-1.6307 6.8380 2.2315
-1.8763 6.7770 2.2315
-2.1198 6.7074 2.2315
-2.3608 6.6293 2.2315
-2.5990 6.5428 2.2315
-2.8341 6.4481 2.2315
-3.0658 6.3451 2.2315
-3.2940 6.2340 2.2315
-3.5182 6.1150 2.2315
-3.7383 5.9881 2.2315
-3.9539 5.8535 2.2315
-4.1648 5.7114 2.2315
-4.3707 5.5618 2.2315
-4.5714 5.4051 2.2315
-4.7666 5.2412 2.2315
-4.9561 5.0705 2.2315
-5.1396 4.8931 2.2315
-5.3169 4.7092 2.2315
-5.4877 4.5190 2.2315
-5.6519 4.3228 2.2315
-5.8092 4.1207 2.2315
-5.9594 3.9130 2.2315
-6.1023 3.6999 2.2315
-6.2077 3.4649 2.2208
-6.2076 3.1779 2.1762
-6.2157 2.9050 2.1388
-6.2925 2.6697 2.1285
-6.3981 2.4472 2.1307
-6.4823 2.2159 2.1285
-6.5651 1.9838 2.1285
-6.6397 1.7487 2.1285
-6.7059 1.5108 2.1285
-6.7637 1.2705 2.1285
-6.8129 1.0280 2.1285
-6.8535 0.7836 2.1285
-6.8853 0.5377 2.1285
-6.9083 0.2905 2.1285
-6.9225 0.0424 2.1285
-6.9278 -0.2063 2.1285
-6.9241 -0.4554 2.1285
-6.9115 -0.7044 2.1285
-6.8899 -0.9530 2.1285
-6.8593 -1.2010 2.1285
-6.8197 -1.4480 2.1285
-6.7712 -1.6937 2.1285
-6.7138 -1.9377 2.1285
-6.6476 -2.1797 2.1285
-6.5725 -2.4194 2.1285
-6.4887 -2.6564 2.1285
-6.3963 -2.8905 2.1285
-6.2953 -3.1213 2.1285
-6.2043 -3.3584 2.1348
-6.1949 -3.6463 2.1729
-6.1930 -3.9507 2.2182
-6.0898 -4.1993 2.2315
-5.9411 -4.4191 2.2315
-5.7844 -4.6335 2.2315
-5.6198 -4.8422 2.2315
-5.4475 -5.0449 2.2315
-5.2678 -5.2413 2.2315
-5.0809 -5.4311 2.2315
-4.8870 -5.6141 2.2315
-4.6863 -5.7899 2.2315
-4.4792 -5.9584 2.2315
-4.2659 -6.1192 2.2315
-4.0467 -6.2721 2.2315
-3.8219 -6.4170 2.2315
-3.5917 -6.5536 2.2315
-3.3566 -6.6816 2.2315
-3.1168 -6.8009 2.2315
-2.8726 -6.9114 2.2315
-2.6245 -7.0128 2.2315
-2.3726 -7.1050 2.2315
-2.1175 -7.1878 2.2315
-1.8594 -7.2612 2.2315
-1.5987 -7.3250 2.2315
-1.3357 -7.3791 2.2315
-1.0709 -7.4235 2.2315
-0.8046 -7.4581 2.2315
-0.5371 -7.4827 2.2315
-0.2690 -7.4975 2.2315
-0.0004 -6.9274 2.2315
0.2475 -6.9227 2.2315
0.4951 -6.9089 2.2315
0.7419 -6.8859 2.2315
0.9877 -6.8538 2.2315
1.2321 -6.8127 2.2315
1.4748 -6.7626 2.2315
1.7154 -6.7035 2.2315
1.8688 -6.3477 2.1347
2.0878 -6.2557 2.1283
2.3094 -6.1744 2.1283
2.5278 -6.0852 2.1283
2.7427 -5.9879 2.1283
2.9538 -5.8829 2.1283
3.1608 -5.7702 2.1283
3.3634 -5.6500 2.1283
3.5614 -5.5226 2.1283
3.7544 -5.3880 2.1283
3.9422 -5.2465 2.1283
4.1246 -5.0984 2.1283
4.3013 -4.9437 2.1283
4.4722 -4.7827 2.1283
3.2847 -3.2697 1.5076
3.2716 -3.0313 1.4520
3.3079 -2.8516 1.4231
3.4095 -2.7326 1.4250
3.5239 -2.6225 1.4339
3.7067 -2.5574 1.4714
4.0911 -2.6113 1.5873
5.6020 -3.2993 2.1283
5.7110 -3.0933 2.1283
5.8123 -2.8837 2.1283
5.9149 -2.6748 2.1315
6.0008 -2.4584 2.1315
6.0787 -2.2394 2.1315
6.1485 -2.0178 2.1315
6.2102 -1.7940 2.1315
6.2638 -1.5684 2.1315
6.3091 -1.3412 2.1315
6.3462 -1.1128 2.1315
6.3749 -0.8834 2.1315
6.3954 -0.6534 2.1315
6.4076 -0.4230 2.1315
6.4115 -0.1925 2.1315
6.4072 0.0377 2.1315
6.3946 0.2674 2.1315
6.3738 0.4963 2.1315
6.3449 0.7240 2.1315
6.3078 0.9504 2.1315
6.2628 1.1750 2.1315
6.2099 1.3977 2.1315
6.1490 1.6182 2.1315
6.0805 1.8361 2.1315
6.0043 2.0512 2.1315
5.9206 2.2633 2.1315
5.8206 2.4684 2.1283
5.7225 2.6733 2.1283
5.6172 2.8745 2.1283
5.5049 3.0716 2.1283
5.3859 3.2645 2.1283
5.2602 3.4528 2.1283
5.1280 3.6365 2.1283
4.9896 3.8153 2.1283
4.8450 3.9889 2.1283
4.6946 4.1572 2.1283
4.5384 4.3199 2.1283
4.3767 4.4770 2.1283
4.2097 4.6281 2.1283
4.0376 4.7732 2.1283
3.8606 4.9121 2.1283
3.6790 5.0446 2.1283
3.4929 5.1706 2.1283
3.3026 5.2899 2.1283
3.1084 5.4024 2.1283
2.9104 5.5080 2.1283
2.7090 5.6066 2.1283
2.5043 5.6980 2.1283
2.2967 5.7821 2.1283
2.0862 5.8589 2.1283
1.8733 5.9283 2.1283
1.7386 6.2808 2.2315
1.5110 6.3377 2.2315
1.2815 6.3866 2.2315
1.0506 6.4275 2.2315
0.8183 6.4603 2.2315
0.5851 6.4849 2.2315
0.3512 6.5014 2.2315
0.1169 6.5097 2.2315
-0.1176 6.5099 2.2315
-0.3520 6.5018 2.2315
-0.5859 6.4855 2.2315
-0.8192 6.4611 2.2315
-1.0515 6.4286 2.2315
-1.2825 6.3879 2.2315
-1.5121 6.3392 2.2315
-1.7399 6.2825 2.2315
-1.9656 6.2178 2.2315
-2.1890 6.1453 2.2315
-2.4097 6.0649 2.2315
-2.6277 5.9769 2.2315
-2.8425 5.8812 2.2315
-3.0539 5.7780 2.2315
-3.2616 5.6674 2.2315
-3.4655 5.5496 2.2315
-3.6652 5.4246 2.2315
-3.8605 5.2926 2.2315
-4.0512 5.1537 2.2315
-4.2370 5.0082 2.2315
-4.4177 4.8560 2.2315
-4.5931 4.6976 2.2315
-4.7629 4.5329 2.2315
-4.9269 4.3622 2.2315
-5.0849 4.1857 2.2315
-5.2367 4.0036 2.2315
-5.3821 3.8162 2.2315
-5.5209 3.6235 2.2315
-5.6529 3.4259 2.2315
-5.7780 3.2236 2.2315
-5.8959 3.0167 2.2315
-6.0065 2.8057 2.2315
-6.1097 2.5906 2.2315
-6.2052 2.3718 2.2315
-6.2050 2.1196 2.2003
-6.2058 1.8737 2.1730
-6.2105 1.6342 2.1504
-6.2146 1.3986 2.1308
-6.2609 1.1746 2.1285
-6.3059 0.9500 2.1285
-6.3430 0.7238 2.1285
-6.3931 0.4978 2.1355
-6.3942 0.2674 2.1289
-6.4053 0.0377 2.1285
-6.4097 -0.1924 2.1285
-6.4058 -0.4228 2.1285
-6.3936 -0.6531 2.1285
-6.3906 -0.8855 2.1343
-6.3443 -1.1123 2.1285
-6.3072 -1.3407 2.1285
-6.2619 -1.5677 2.1285
-6.2088 -1.7934 2.1286
-6.2038 -2.0356 2.1483
-6.1980 -2.2830 2.1710
-6.1958 -2.5380 2.1984
-6.1953 -2.8012 2.2301
-6.1009 -3.0264 2.2315
-5.9945 -3.2464 2.2315
-5.8800 -3.4625 2.2315
-5.7576 -3.6745 2.2315
-5.6274 -3.8820 2.2315
-5.4897 -4.0849 2.2315
-5.3445 -4.2827 2.2315
-5.1921 -4.4753 2.2315
-5.0327 -4.6622 2.2315
-4.8664 -4.8434 2.2315
-4.6934 -5.0185 2.2315
-4.5140 -5.1872 2.2315
-4.3284 -5.3493 2.2315
-4.1369 -5.5046 2.2315
-3.9397 -5.6529 2.2315
-3.7371 -5.7939 2.2315
-3.5293 -5.9274 2.2315
-3.3167 -6.0533 2.2315
-3.0994 -6.1713 2.2315
-2.8779 -6.2812 2.2315
-2.6524 -6.3830 2.2315
-2.4232 -6.4764 2.2315
-2.1906 -6.5614 2.2315
-1.9550 -6.6377 2.2315
-1.7167 -6.7053 2.2315
-1.4759 -6.7641 2.2315
-1.2331 -6.8140 2.2315
-0.9886 -6.8549 2.2315
-0.7428 -6.8867 2.2315
-0.4959 -6.9094 2.2315
-0.2483 -6.9230 2.2315
-0.0004 -6.4277 2.2315
0.2296 -6.4234 2.2315
0.4592 -6.4106 2.2315
0.6882 -6.3893 2.2315
0.9162 -6.3596 2.2315
1.1430 -6.3215 2.2315
1.3681 -6.2751 2.2315
1.5914 -6.2205 2.2315
1.8124 -6.1577 2.2315
1.9369 -5.8052 2.1283
2.1426 -5.7300 2.1283
2.3453 -5.6473 2.1283
2.5448 -5.5573 2.1283
2.7408 -5.4600 2.1283
2.9329 -5.3556 2.1283
3.1210 -5.2443 2.1283
3.3048 -5.1263 2.1283
3.4841 -5.0016 2.1283
3.6586 -4.8705 2.1283
3.8280 -4.7332 2.1283
3.9922 -4.5899 2.1283
4.1510 -4.4407 2.1283
4.3041 -4.2860 2.1283
3.3252 -3.0820 1.5898
3.3517 -2.8904 1.5532
3.4492 -2.7654 1.5528
3.5678 -2.6562 1.5636
3.7882 -2.6147 1.6195
5.0936 -3.2526 2.1283
5.2021 -3.0652 2.1283
5.3037 -2.8741 2.1283
5.3981 -2.6796 2.1283
5.4854 -2.4820 2.1283
5.5654 -2.2815 2.1283
5.6380 -2.0784 2.1283
5.7032 -1.8730 2.1283
5.7608 -1.6656 2.1283
5.8109 -1.4564 2.1283
5.8533 -1.2458 2.1283
5.8971 -1.0355 2.1315
5.9243 -0.8224 2.1315
5.9438 -0.6086 2.1315
5.9555 -0.3945 2.1315
5.9595 -0.1803 2.1315
5.9559 0.0337 2.1315
5.9446 0.2472 2.1315
5.9257 0.4600 2.1315
5.8993 0.6718 2.1315
5.8563 0.8810 2.1283
5.8149 1.0896 2.1283
5.7661 1.2965 2.1283
5.7100 1.5013 2.1283
5.6467 1.7037 2.1283
5.5764 1.9037 2.1283
5.4990 2.1008 2.1283
5.4148 2.2949 2.1283
5.3237 2.4857 2.1283
5.2261 2.6730 2.1283
5.1220 2.8566 2.1283
5.0115 3.0362 2.1283
4.8948 3.2117 2.1283
4.7721 3.3828 2.1283
4.6435 3.5493 2.1283
4.5092 3.7111 2.1283
4.3694 3.8679 2.1283
4.2243 4.0196 2.1283
4.0740 4.1660 2.1283
3.9187 4.3069 2.1283
3.7586 4.4421 2.1283
3.5940 4.5716 2.1283
3.4251 4.6952 2.1283
3.2520 4.8126 2.1283
3.0749 4.9239 2.1283
2.8942 5.0288 2.1283
2.7100 5.1273 2.1283
2.5225 5.2192 2.1283
0.8577 1.9510 0.7828
2.1386 5.3829 2.1283
1.9427 5.4546 2.1283
1.8291 5.7871 2.2315
1.6191 5.8476 2.2315
1.4071 5.9007 2.2315
1.1934 5.9463 2.2315
0.9783 5.9845 2.2315
0.7621 6.0151 2.2315
0.5449 6.0380 2.2315
0.3271 6.0534 2.2315
0.1088 6.0612 2.2315
-0.1096 6.0613 2.2315
-0.3278 6.0537 2.2315
-0.5457 6.0386 2.2315
-0.7629 6.0158 2.2315
-0.9793 5.9854 2.2315
-1.1944 5.9474 2.2315
-1.4082 5.9020 2.2315
-1.6203 5.8491 2.2315
-1.8304 5.7887 2.2315
-2.0384 5.7210 2.2315
-2.2439 5.6461 2.2315
-0.8580 1.9510 0.7825
-0.9277 1.9190 0.7822
-2.8435 5.3784 2.2315
-3.0368 5.2753 2.2315
-3.2265 5.1654 2.2315
-3.4123 5.0488 2.2315
-3.5940 4.9257 2.2315
-3.7714 4.7963 2.2315
-3.9442 4.6605 2.2315
-4.1122 4.5187 2.2315
-4.2752 4.3710 2.2315
-4.4330 4.2175 2.2315
-4.5855 4.0585 2.2315
-4.7323 3.8940 2.2315
-4.8733 3.7243 2.2315
-5.0083 3.5497 2.2315
-5.1372 3.3702 2.2315
-5.2597 3.1861 2.2315
-5.3758 2.9977 2.2315
-5.4851 2.8051 2.2315
-5.5877 2.6086 2.2315
-5.6833 2.4084 2.2315
-5.7718 2.2047 2.2315
-5.8531 1.9979 2.2315
-5.9270 1.7881 2.2315
-5.9934 1.5756 2.2315
-6.0523 1.3607 2.2315
-6.1036 1.1436 2.2315
-6.1471 0.9246 2.2315
-6.1828 0.7040 2.2315
-6.2018 0.4814 2.2284
-6.2013 0.2579 2.2211
-6.2009 0.0351 2.2168
-6.2005 -0.1876 2.2153
-6.2000 -0.4106 2.2166
-6.1996 -0.6347 2.2208
-6.1991 -0.8604 2.2280
-6.1805 -1.0851 2.2315
-6.1440 -1.3074 2.2315
-6.0994 -1.5285 2.2315
-6.0468 -1.7480 2.2315
-5.9862 -1.9657 2.2315
-5.9178 -2.1812 2.2315
-5.8415 -2.3943 2.2315
-5.7575 -2.6047 2.2315
-5.6658 -2.8121 2.2315
-5.5666 -3.0161 2.2315
-5.4599 -3.2166 2.2315
-5.3460 -3.4133 2.2315
-5.2248 -3.6058 2.2315
-5.0966 -3.7939 2.2315
-4.9616 -3.9773 2.2315
-4.8198 -4.1558 2.2315
-4.6715 -4.3292 2.2315
-4.5169 -4.4971 2.2315
-4.3562 -4.6593 2.2315
-4.1895 -4.8157 2.2315
-4.0171 -4.9660 2.2315
-3.8392 -5.1099 2.2315
-3.6560 -5.2472 2.2315
-3.4679 -5.3779 2.2315
-3.2749 -5.5016 2.2315
-3.0775 -5.6181 2.2315
-2.8758 -5.7274 2.2315
-2.6702 -5.8293 2.2315
-2.4609 -5.9236 2.2315
-2.2481 -6.0101 2.2315
-2.0323 -6.0887 2.2315
-1.8137 -6.1594 2.2315
-1.5926 -6.2220 2.2315
-1.3692 -6.2765 2.2315
-1.1440 -6.3226 2.2315
-0.9172 -6.3605 2.2315
-0.6891 -6.3900 2.2315
-0.4600 -6.4110 2.2315
-0.2304 -6.4236 2.2315
-0.0004 -5.9889 2.2315
0.2138 -5.9849 2.2315
0.4277 -5.9730 2.2315
0.6410 -5.9532 2.2315
0.8535 -5.9256 2.2315
1.0647 -5.8902 2.2315
1.2745 -5.8470 2.2315
1.4824 -5.7962 2.2315
1.6884 -5.7378 2.2315
1.8561 -5.5644 2.1892
1.9961 -5.3396 2.1283
2.1850 -5.2627 2.1283
2.3709 -5.1789 2.1283
2.5535 -5.0884 2.1283
2.7327 -4.9914 2.1283
2.9080 -4.8878 2.1283
3.0794 -4.7780 2.1283
3.2466 -4.6620 2.1283
3.4093 -4.5400 2.1283
3.5673 -4.4123 2.1283
3.7205 -4.2789 2.1283
3.8687 -4.1401 2.1283
4.0116 -3.9960 2.1283
3.4105 -3.1622 1.7495
3.4355 -2.9638 1.7080
3.5242 -2.8266 1.7020
3.6471 -2.7164 1.7146
4.6410 -3.2047 2.1283
4.7488 -3.0338 2.1283
4.8502 -2.8592 2.1283
4.9452 -2.6812 2.1283
5.0336 -2.5000 2.1283
5.1153 -2.3158 2.1283
5.1901 -2.1290 2.1283
5.2582 -1.9397 2.1283
5.3193 -1.7483 2.1283
5.3734 -1.5549 2.1283
5.4204 -1.3599 2.1283
5.4603 -1.1634 2.1283
5.4931 -0.9659 2.1283
5.5188 -0.7674 2.1283
5.5373 -0.5683 2.1283
5.5486 -0.3689 2.1283
5.5527 -0.1693 2.1283
5.5496 0.0301 2.1283
5.5395 0.2291 2.1283
5.5222 0.4274 2.1283
5.4978 0.6248 2.1283
5.4665 0.8210 2.1283
5.4282 1.0158 2.1283
5.3830 1.2090 2.1283
5.3309 1.4003 2.1283
5.2722 1.5894 2.1283
5.2068 1.7762 2.1283
5.1348 1.9604 2.1283
5.0564 2.1417 2.1283
4.9717 2.3200 2.1283
4.8808 2.4951 2.1283
4.7838 2.6667 2.1283
4.6808 2.8346 2.1283
4.5721 2.9986 2.1283
4.4577 3.1586 2.1283
4.3378 3.3143 2.1283
4.2125 3.4656 2.1283
3.1051 2.7477 1.6189
3.0020 2.8556 1.6189
3.8064 3.8911 2.1283
3.6615 4.0229 2.1283
3.5121 4.1495 2.1283
3.3584 4.2706 2.1283
3.2006 4.3862 2.1283
3.0389 4.4961 2.1283
2.8736 4.6002 2.1283
2.7048 4.6984 2.1283
2.5327 4.7906 2.1283
0.8655 1.7902 0.7813
0.8004 1.8201 0.7816
0.7343 1.8477 0.7818
0.6672 1.8729 0.7820
0.5993 1.8956 0.7822
0.5306 1.9159 0.7824
0.4612 1.9337 0.7826
0.3913 1.9490 0.7827
0.9145 5.5925 2.2315
0.7123 5.6212 2.2315
0.5093 5.6427 2.2315
0.3057 5.6571 2.2315
0.1017 5.6643 2.2315
-0.1024 5.6644 2.2315
-0.3065 5.6573 2.2315
-0.5101 5.6431 2.2315
-0.7132 5.6218 2.2315
-0.9154 5.5933 2.2315
-0.3915 1.9490 0.7826
-0.4615 1.9337 0.7824
-0.5309 1.9159 0.7822
-0.5996 1.8956 0.7820
-0.6675 1.8729 0.7818
-0.7345 1.8477 0.7816
-0.8006 1.8202 0.7813
-0.8657 1.7902 0.7810
-0.9297 1.7580 0.7807
-2.8380 4.9286 2.2315
-3.0152 4.8257 2.2315
-3.1887 4.7166 2.2315
-3.3584 4.6014 2.2315
-3.5240 4.4803 2.2315
-3.6853 4.3533 2.2315
-3.8422 4.2206 2.2315
-3.9943 4.0824 2.2315
-4.1416 3.9389 2.2315
-4.2838 3.7901 2.2315
-4.4207 3.6363 2.2315
-4.5522 3.4776 2.2315
-4.6782 3.3143 2.2315
-4.7983 3.1465 2.2315
-4.9125 2.9744 2.2315
-5.0206 2.7983 2.2315
-5.1224 2.6182 2.2315
-5.2179 2.4346 2.2315
-5.3069 2.2475 2.2315
-5.3892 2.0572 2.2315
-5.4648 1.8640 2.2315
-5.5335 1.6680 2.2315
-5.5952 1.4695 2.2315
-5.6499 1.2688 2.2315
-5.6974 1.0661 2.2315
-5.7376 0.8616 2.2315
-5.7706 0.6557 2.2315
-5.7961 0.4485 2.2315
-5.8143 0.2404 2.2315
-5.8250 0.0316 2.2315
-5.8282 -0.1777 2.2315
-5.8238 -0.3871 2.2315
-5.8120 -0.5964 2.2315
-5.7926 -0.8053 2.2315
-5.7656 -1.0136 2.2315
-5.7312 -1.2210 2.2315
-5.6892 -1.4271 2.2315
-5.6398 -1.6318 2.2315
-5.5830 -1.8347 2.2315
-5.5188 -2.0356 2.2315
-5.4474 -2.2342 2.2315
-5.3687 -2.4302 2.2315
-5.2829 -2.6234 2.2315
-5.1901 -2.8135 2.2315
-5.0904 -3.0003 2.2315
-4.9839 -3.1835 2.2315
-4.8707 -3.3627 2.2315
-4.7509 -3.5379 2.2315
-4.6248 -3.7087 2.2315
-4.4925 -3.8749 2.2315
-4.3540 -4.0363 2.2315
-4.2097 -4.1926 2.2315
-4.0597 -4.3437 2.2315
-3.9042 -4.4892 2.2315
-3.7434 -4.6290 2.2315
-3.5775 -4.7629 2.2315
-3.4067 -4.8908 2.2315
-3.2312 -5.0123 2.2315
-3.0514 -5.1274 2.2315
-2.8673 -5.2359 2.2315
-2.6794 -5.3375 2.2315
-2.4877 -5.4323 2.2315
-2.2926 -5.5200 2.2315
-2.0944 -5.6005 2.2315
-1.8933 -5.6736 2.2315
