ply
format ascii 1.0
element vertex 2158
property float32 x
property float32 y
property float32 z
end_header
12.9825 7.9173 2.1510
12.6921 8.3796 2.1510
12.3851 8.8312 2.1510
12.0621 9.2716 2.1510
11.7233 9.7001 2.1510
11.3694 10.1162 2.1510
11.0006 10.5194 2.1510
10.6175 10.9090 2.1510
10.2205 11.2847 2.1510
9.8103 11.6460 2.1510
9.3872 11.9923 2.1510
8.9519 12.3231 2.1510
8.5049 12.6381 2.1510
8.0468 12.9368 2.1510
7.5782 13.2189 2.1510
7.0996 13.4839 2.1510
6.6118 13.7316 2.1510
6.1153 13.9615 2.1510
5.5994 14.1445 2.1466
5.0575 14.2503 2.1335
4.5432 14.4240 2.1335
4.0229 14.5790 2.1335
3.4973 14.7151 2.1335
2.0904 10.4498 1.5031
2.1361 13.1088 1.8732
1.8956 15.0087 2.1335
1.3557 15.0679 2.1335
0.8534 15.8376 2.2366
0.2844 15.8613 2.2370
-0.2851 15.8648 2.2374
-0.8546 15.8478 2.2378
-1.4231 15.8103 2.2382
-1.9901 15.7523 2.2387
-2.5547 15.6738 2.2391
-3.1162 15.5750 2.2395
-3.6732 15.4529 2.2395
-4.2247 15.3084 2.2391
-4.7706 15.1441 2.2387
-5.3101 14.9604 2.2384
-5.8426 14.7574 2.2380
-6.3672 14.5353 2.2376
-6.8834 14.2945 2.2373
-7.3905 14.0353 2.2369
-7.5244 13.1242 2.1335
-6.4409 10.3543 1.7198
-8.4455 12.5490 2.1335
-6.9183 9.5230 1.6603
-9.3227 11.9091 2.1335
-9.7433 11.5658 2.1335
-10.1513 11.2076 2.1335
-9.3898 9.6471 1.8996
-10.3367 9.8840 2.0182
-9.4455 8.4040 1.7843
-10.3394 8.5546 1.8941
-10.3407 7.9480 1.8411
-10.3418 7.3739 1.7932
-10.3430 6.8284 1.7500
-10.3341 6.3019 1.7093
-10.5494 5.9245 1.7088
-13.5718 6.9934 2.1566
-13.8122 6.5008 2.1566
-10.7485 4.5952 1.6517
-10.8540 4.1861 1.6439
-10.9956 3.7933 1.6439
-11.1230 3.3956 1.6439
-14.6864 3.9130 2.1488
-14.8533 3.3915 2.1543
-14.9670 2.8565 2.1549
-14.9975 2.3078 2.1463
-15.0413 1.7645 2.1425
-15.0874 1.2229 2.1418
-15.1160 0.6803 2.1414
-15.1270 0.1372 2.1412
-15.1388 -0.4063 2.1439
-15.1417 -0.9512 2.1482
-15.1259 -1.4969 2.1526
-15.0881 -2.0423 2.1566
-15.0024 -2.5822 2.1566
-14.8682 -3.1124 2.1524
-14.6033 -3.6086 2.1318
-14.4340 -4.1218 2.1277
-11.0289 -3.5823 1.6439
-10.8913 -3.9752 1.6439
-10.7731 -4.3764 1.6491
-13.4789 -6.0480 2.0955
-13.3578 -6.5795 2.1124
-10.6058 -5.7059 1.7088
-10.3924 -6.0820 1.7088
-10.3605 -6.5736 1.7416
-10.3715 -7.1154 1.7855
-10.3727 -7.6779 1.8323
-10.3739 -8.2714 1.8841
-10.3752 -8.9000 1.9414
-10.3765 -9.5688 2.0050
-10.3780 -10.2836 2.0757
-10.2794 -10.9447 2.1335
-9.8785 -11.3051 2.1335
-9.4650 -11.6508 2.1335
-9.0394 -11.9815 2.1335
-6.5485 -9.3607 1.6241
-8.1544 -12.5960 2.1335
-6.7377 -11.2754 1.8678
-7.2279 -13.1455 2.1335
-6.7506 -13.3950 2.1335
-6.3018 -13.7079 2.1461
-6.0497 -14.5108 2.2366
-5.5243 -14.7172 2.2366
-4.9920 -14.9047 2.2366
-4.4533 -15.0730 2.2366
-3.9090 -15.2220 2.2366
-3.3598 -15.3513 2.2366
-2.8064 -15.4610 2.2366
-2.2493 -15.5508 2.2366
-1.6895 -15.6207 2.2366
-1.1276 -15.6705 2.2366
-0.5643 -15.7001 2.2366
-0.0003 -13.5203 2.2366
0.4851 -13.5112 2.2366
0.9698 -13.4848 2.2366
1.4532 -13.4410 2.2366
1.8455 -12.7624 2.1333
2.3025 -12.6878 2.1333
2.7565 -12.5970 2.1333
2.4055 -9.3687 1.6002
3.6533 -12.3669 2.1333
4.0950 -12.2280 2.1333
4.5314 -12.0733 2.1333
4.9621 -11.9032 2.1333
5.3864 -11.7177 2.1333
5.8517 -11.6124 2.1510
6.2651 -11.3953 2.1510
6.6705 -11.1636 2.1510
7.0674 -10.9175 2.1510
2.7481 -3.9285 0.7929
7.8334 -10.3835 2.1510
8.2017 -10.0963 2.1510
8.5595 -9.7960 2.1510
8.9063 -9.4832 2.1510
9.2418 -9.1581 2.1510
9.5655 -8.8212 2.1510
9.8769 -8.4729 2.1510
10.1756 -8.1136 2.1510
10.4614 -7.7438 2.1510
10.7338 -7.3641 2.1510
10.9924 -6.9747 2.1510
11.2370 -6.5764 2.1510
11.4671 -6.1694 2.1510
11.6826 -5.7545 2.1510
11.8831 -5.3320 2.1510
12.0683 -4.9026 2.1510
12.2381 -4.4668 2.1510
12.3922 -4.0251 2.1510
12.5304 -3.5782 2.1510
12.6525 -3.1265 2.1510
12.7583 -2.6706 2.1510
12.8478 -2.2112 2.1510
12.9207 -1.7488 2.1510
12.9771 -1.2841 2.1510
13.0167 -0.8175 2.1510
13.0396 -0.3498 2.1510
13.0457 0.1185 2.1510
13.0350 0.5869 2.1510
13.0075 1.0546 2.1510
12.9632 1.5210 2.1510
12.9022 1.9857 2.1510
12.8246 2.4479 2.1510
12.7304 2.9071 2.1510
12.6198 3.3628 2.1510
12.4928 3.8142 2.1510
12.3497 4.2608 2.1510
12.1907 4.7020 2.1510
12.0158 5.1374 2.1510
11.8254 5.5662 2.1510
11.6197 5.9880 2.1510
11.3990 6.4021 2.1510
11.1634 6.8082 2.1510
10.9134 7.2055 2.1510
10.6493 7.5937 2.1510
10.3713 7.9721 2.1510
10.0798 8.3404 2.1510
9.7752 8.6980 2.1510
9.4580 9.0445 2.1510
9.1284 9.3793 2.1510
8.7870 9.7021 2.1510
8.4341 10.0125 2.1510
8.0702 10.3100 2.1510
7.6958 10.5942 2.1510
7.3114 10.8649 2.1510
6.9175 11.1215 2.1510
6.5145 11.3638 2.1510
6.1030 11.5914 2.1510
5.6374 11.7083 2.1335
5.2140 11.9042 2.1335
4.7838 12.0847 2.1335
4.3473 12.2496 2.1335
3.9051 12.3987 2.1335
3.4579 12.5318 2.1335
3.0060 12.6486 2.1335
2.5503 12.7492 2.1335
2.0911 12.8332 2.1335
1.6787 13.2924 2.1983
1.2216 13.5785 2.2368
0.7336 13.6163 2.2372
0.2445 13.6366 2.2375
-0.2452 13.6392 2.2379
-0.7347 13.6242 2.2383
-1.2234 13.5916 2.2386
-1.7108 13.5414 2.2390
-2.1961 13.4736 2.2394
-2.6786 13.3878 2.2396
-3.1569 13.2809 2.2393
-3.6309 13.1568 2.2389
-4.1001 13.0158 2.2386
-4.5638 12.8579 2.2382
-5.0215 12.6836 2.2379
-5.4725 12.4929 2.2375
-5.9162 12.2861 2.2372
-6.3522 12.0635 2.2368
-6.7172 11.7163 2.2159
-6.8679 11.0409 2.1335
-7.2594 10.7866 2.1335
-6.9069 9.5075 1.9284
-8.0135 10.2368 2.1335
-8.3751 9.9419 2.1335
-8.7259 9.6341 2.1335
-9.0654 9.3139 2.1335
-9.3930 8.9818 2.1335
-9.4576 8.4148 2.0784
-10.0113 8.2833 2.1335
-10.3407 7.9482 2.1417
-10.3418 7.3741 2.0859
-10.3430 6.8285 2.0356
-10.3440 6.3081 1.9902
-10.3450 5.8099 1.9492
-10.3460 5.3313 1.9123
-10.3470 4.8700 1.8791
-10.3479 4.4240 1.8495
-10.3488 3.9914 1.8231
-10.3496 3.5706 1.7997
-10.3505 3.1599 1.7792
-10.3513 2.7581 1.7614
-10.3521 2.3639 1.7462
-10.3430 1.9741 1.7319
-10.3438 1.5918 1.7215
-10.3445 1.2137 1.7136
-10.3512 0.8392 1.7088
-10.3731 0.4670 1.7088
-10.3816 0.0943 1.7088
-10.3768 -0.2783 1.7088
-10.3585 -0.6505 1.7088
-10.3491 -1.0240 1.7125
-10.3499 -1.4008 1.7201
-10.3507 -1.7814 1.7300
-10.3614 -2.1688 1.7440
-10.3622 -2.5604 1.7587
-10.3630 -2.9591 1.7760
-10.3638 -3.3661 1.7960
-10.3647 -3.7828 1.8188
-10.3656 -4.2107 1.8446
-10.3665 -4.6513 1.8735
-10.3674 -5.1064 1.9059
-10.3684 -5.5780 1.9419
-10.3694 -6.0683 1.9820
-10.3704 -6.5797 2.0263
-10.3715 -7.1151 2.0754
-10.3727 -7.6777 2.1298
-10.1067 -8.0581 2.1335
-9.8096 -8.4146 2.1335
-9.4999 -8.7602 2.1335
-9.1781 -9.0944 2.1335
-8.8446 -9.4168 2.1335
-8.4998 -9.7271 2.1335
-8.1442 -10.0247 2.1335
-7.7782 -10.3095 2.1335
-6.5374 -9.3447 1.8842
-7.0169 -10.8386 2.1335
-6.6225 -11.0823 2.1335
-6.2942 -11.4470 2.1590
-6.0898 -12.0836 2.2366
-5.6516 -12.2933 2.2366
-5.2062 -12.4872 2.2366
-4.7541 -12.6650 2.2366
-4.2961 -12.8265 2.2366
-3.8325 -12.9715 2.2366
-3.3642 -13.0998 2.2366
-2.8915 -13.2113 2.2366
-2.4152 -13.3058 2.2366
-1.9359 -13.3832 2.2366
-1.4541 -13.4434 2.2366
-0.9705 -13.4864 2.2366
-0.4857 -13.5120 2.2366
-0.0003 -11.8556 2.2366
0.4253 -11.8477 2.2366
0.8504 -11.8246 2.2366
1.2743 -11.7863 2.2366
1.6966 -11.7328 2.2366
2.0190 -11.1258 2.1333
2.4171 -11.0461 2.1333
2.4031 -9.3592 1.8230
3.2036 -10.8444 2.1333
3.5909 -10.7225 2.1333
3.9736 -10.5869 2.1333
4.3512 -10.4376 2.1333
4.7232 -10.2750 2.1333
5.0892 -10.0991 2.1333
5.4487 -9.9103 2.1333
5.8492 -9.7889 2.1510
6.1971 -9.5731 2.1510
2.7476 -3.9278 0.9041
6.8688 -9.1047 2.1510
7.1916 -8.8528 2.1510
7.5053 -8.5894 2.1510
7.8094 -8.3150 2.1510
8.1034 -8.0299 2.1510
8.3871 -7.7344 2.1510
8.6601 -7.4289 2.1510
8.9220 -7.1138 2.1510
9.1724 -6.7895 2.1510
9.4111 -6.4564 2.1510
9.6377 -6.1150 2.1510
9.8520 -5.7657 2.1510
10.0537 -5.4088 2.1510
10.2424 -5.0449 2.1510
10.4180 -4.6745 2.1510
10.5803 -4.2980 2.1510
10.7290 -3.9158 2.1510
10.8639 -3.5286 2.1510
10.9849 -3.1367 2.1510
11.0917 -2.7406 2.1510
11.1843 -2.3410 2.1510
11.2626 -1.9382 2.1510
11.3263 -1.5329 2.1510
11.3755 -1.1254 2.1510
11.4101 -0.7164 2.1510
11.4299 -0.3064 2.1510
11.4350 0.1041 2.1510
11.4254 0.5146 2.1510
11.4011 0.9245 2.1510
11.3621 1.3333 2.1510
11.3085 1.7406 2.1510
11.2402 2.1457 2.1510
11.1575 2.5481 2.1510
11.0603 2.9474 2.1510
10.9488 3.3430 2.1510
10.8232 3.7343 2.1510
10.6836 4.1210 2.1510
10.5302 4.5024 2.1510
10.3632 4.8781 2.1510
10.1827 5.2476 2.1510
9.9891 5.6105 2.1510
9.7825 5.9662 2.1510
9.5633 6.3143 2.1510
9.3316 6.6543 2.1510
9.0879 6.9858 2.1510
8.8323 7.3084 2.1510
8.5653 7.6216 2.1510
8.2872 7.9251 2.1510
7.9983 8.2184 2.1510
7.6990 8.5011 2.1510
7.3897 8.7729 2.1510
7.0708 9.0334 2.1510
6.7427 9.2823 2.1510
6.4058 9.5193 2.1510
6.0606 9.7440 2.1510
5.6611 9.8753 2.1335
5.3035 10.0731 2.1335
4.9389 10.2578 2.1335
4.5679 10.4293 2.1335
4.1909 10.5873 2.1335
3.8085 10.7317 2.1335
2.3726 7.5330 1.4796
3.0292 10.9787 2.1335
2.6334 11.0810 2.1335
2.2341 11.1690 2.1335
1.8319 11.2425 2.1335
1.4963 11.8481 2.2367
1.0703 11.8964 2.2370
0.6427 11.9293 2.2373
0.2142 11.9468 2.2377
-0.2148 11.9489 2.2380
-0.6436 11.9355 2.2383
-1.0717 11.9060 2.2385
-1.4985 11.8608 2.2387
-1.9234 11.8003 2.2388
-2.3458 11.7243 2.2390
-2.7648 11.6312 2.2387
-3.1800 11.5227 2.2384
-3.5909 11.3993 2.2380
-3.9970 11.2611 2.2377
-4.3978 11.1084 2.2373
-4.7932 10.9423 2.2372
-5.1824 10.7622 2.2370
-5.5648 10.5682 2.2369
-5.9399 10.3606 2.2367
-6.3073 10.1397 2.2366
-6.3595 9.4497 2.1335
-6.6942 9.2149 2.1335
-7.0202 8.9681 2.1335
-7.3372 8.7098 2.1335
-7.6445 8.4403 2.1335
-7.9420 8.1599 2.1335
-8.2291 7.8690 2.1335
-8.5056 7.5680 2.1335
-8.7710 7.2572 2.1335
-9.0251 6.9371 2.1335
-9.2674 6.6081 2.1335
-9.4977 6.2706 2.1335
-9.7157 5.9251 2.1335
-9.9212 5.5720 2.1335
-10.1137 5.2118 2.1335
-10.2931 4.8449 2.1335
-10.3479 4.4242 2.1108
-10.3488 3.9916 2.0806
-10.3496 3.5707 2.0539
-10.3505 3.1601 2.0305
-10.3513 2.7583 2.0102
-10.3521 2.3641 1.9928
-10.3529 1.9762 1.9782
-10.3537 1.5935 1.9664
-10.3544 1.2150 1.9573
-10.3552 0.8396 1.9507
-10.3560 0.4664 1.9467
-10.3567 0.0943 1.9452
-10.3575 -0.2777 1.9462
-10.3583 -0.6504 1.9498
-10.3590 -1.0248 1.9558
-10.3598 -1.4020 1.9645
-10.3606 -1.7829 1.9758
-10.3614 -2.1686 1.9898
-10.3622 -2.5602 2.0066
-10.3630 -2.9589 2.0263
-10.3638 -3.3660 2.0490
-10.3647 -3.7827 2.0750
-10.3656 -4.2105 2.1044
-10.3665 -4.6511 2.1374
-10.1731 -5.0105 2.1335
-9.9853 -5.3718 2.1335
-9.7848 -5.7260 2.1335
-9.5717 -6.0728 2.1335
-9.3464 -6.4117 2.1335
-9.1091 -6.7422 2.1335
-8.8601 -7.0640 2.1335
-8.5998 -7.3767 2.1335
-8.3285 -7.6798 2.1335
-8.0465 -7.9729 2.1335
-7.7542 -8.2557 2.1335
-7.4521 -8.5278 2.1335
-7.1404 -8.7889 2.1335
-6.8195 -9.0386 2.1335
-6.4900 -9.2767 2.1335
-6.2858 -9.7091 2.1798
-6.0871 -10.1862 2.2366
-5.7170 -10.3972 2.2366
-5.3396 -10.5948 2.2366
-4.9554 -10.7788 2.2366
-4.5649 -10.9489 2.2366
-4.1686 -11.1049 2.2366
-3.7670 -11.2466 2.2366
-3.3606 -11.3739 2.2366
-2.9499 -11.4865 2.2366
-2.5355 -11.5843 2.2366
-2.1179 -11.6673 2.2366
-1.6976 -11.7352 2.2366
-1.2751 -11.7881 2.2366
-0.8511 -11.8258 2.2366
-0.4259 -11.8483 2.2366
-0.0003 -10.5461 2.2366
0.3783 -10.5391 2.2366
0.7564 -10.5185 2.2366
1.1335 -10.4845 2.2366
1.5092 -10.4369 2.2366
1.7960 -9.8970 2.1333
2.1502 -9.8261 2.1333
2.4007 -9.3497 2.0473
2.8497 -9.6466 2.1333
3.1943 -9.5382 2.1333
3.5347 -9.4175 2.1333
3.8706 -9.2847 2.1333
4.2015 -9.1400 2.1333
4.5271 -8.9835 2.1333
4.8469 -8.8155 2.1333
5.1604 -8.6362 2.1333
5.4674 -8.4457 2.1333
2.7472 -3.9270 1.0162
6.1099 -8.0987 2.1510
6.3971 -7.8746 2.1510
6.6761 -7.6403 2.1510
6.9465 -7.3961 2.1510
7.2080 -7.1424 2.1510
7.4603 -6.8796 2.1510
7.7030 -6.6078 2.1510
7.9359 -6.3274 2.1510
8.1586 -6.0389 2.1510
8.3708 -5.7426 2.1510
8.5723 -5.4389 2.1510
8.7628 -5.1281 2.1510
8.9421 -4.8106 2.1510
9.1098 -4.4869 2.1510
9.2660 -4.1574 2.1510
9.4102 -3.8225 2.1510
9.5423 -3.4825 2.1510
9.6622 -3.1381 2.1510
9.7696 -2.7895 2.1510
9.8645 -2.4372 2.1510
9.9468 -2.0818 2.1510
10.0162 -1.7236 2.1510
10.0728 -1.3630 2.1510
10.1164 -1.0007 2.1510
10.1469 -0.6370 2.1510
10.1645 -0.2723 2.1510
10.1689 0.0927 2.1510
10.1602 0.4578 2.1510
10.1384 0.8223 2.1510
10.1036 1.1858 2.1510
10.0557 1.5479 2.1510
9.9949 1.9081 2.1510
9.9212 2.2660 2.1510
9.8346 2.6209 2.1510
9.7354 2.9726 2.1510
9.6236 3.3206 2.1510
9.4993 3.6643 2.1510
9.3628 4.0034 2.1510
9.2141 4.3374 2.1510
9.0535 4.6659 2.1510
8.8813 4.9885 2.1510
8.6975 5.3046 2.1510
8.5024 5.6141 2.1510
8.2964 5.9163 2.1510
8.0795 6.2109 2.1510
7.8523 6.4976 2.1510
7.6148 6.7760 2.1510
7.3674 7.0457 2.1510
7.1105 7.3064 2.1510
6.8444 7.5576 2.1510
6.5693 7.7991 2.1510
6.2857 8.0307 2.1510
5.9940 8.2518 2.1510
5.6482 8.3937 2.1335
5.3437 8.5918 2.1335
5.0323 8.7787 2.1335
4.7144 8.9544 2.1335
4.3903 9.1185 2.1335
4.0605 9.2709 2.1335
3.7253 9.4113 2.1335
3.3854 9.5396 2.1335
2.3701 7.5252 1.6628
2.6926 9.7590 2.1335
2.3407 9.8499 2.1335
1.9858 9.9280 2.1335
1.7069 10.4762 2.2366
1.3300 10.5317 2.2367
0.9512 10.5737 2.2368
0.5711 10.6020 2.2370
0.1903 10.6166 2.2371
-0.1909 10.6175 2.2373
-0.5719 10.6047 2.2374
-0.9522 10.5782 2.2375
-1.3313 10.5376 2.2376
-1.7086 10.4828 2.2375
-2.0837 10.4143 2.2374
-2.4560 10.3324 2.2374
-2.8251 10.2370 2.2372
-3.1905 10.1283 2.2371
-3.5517 10.0065 2.2370
-3.9082 9.8717 2.2368
-4.2596 9.7241 2.2366
-4.6056 9.5645 2.2366
-4.9458 9.3927 2.2366
-5.2795 9.2089 2.2366
-5.6064 9.0131 2.2366
-5.9260 8.8056 2.2366
-6.2379 8.5869 2.2366
-6.2860 8.0302 2.1491
-6.5220 7.7423 2.1335
-6.7953 7.5028 2.1335
-7.0597 7.2536 2.1335
-7.3150 6.9950 2.1335
-7.5608 6.7275 2.1335
-7.7969 6.4513 2.1335
-8.0228 6.1668 2.1335
-8.2383 5.8744 2.1335
-8.4431 5.5745 2.1335
-8.6370 5.2674 2.1335
-8.8197 4.9535 2.1335
-8.9910 4.6333 2.1335
-9.1506 4.3072 2.1335
-9.2984 3.9756 2.1335
-9.4341 3.6389 2.1335
-9.5577 3.2976 2.1335
-9.6689 2.9521 2.1335
-9.7676 2.6029 2.1335
-9.8536 2.2504 2.1335
-9.9269 1.8950 2.1335
-9.9874 1.5373 2.1335
-10.0350 1.1777 2.1335
-10.0697 0.8167 2.1335
-10.0913 0.4546 2.1335
-10.0999 0.0921 2.1335
-10.0955 -0.2705 2.1335
-10.0781 -0.6326 2.1335
-10.0477 -0.9938 2.1335
-10.0043 -1.3537 2.1335
-9.9481 -1.7118 2.1335
-9.8791 -2.0675 2.1335
-9.7973 -2.4205 2.1335
-9.7029 -2.7703 2.1335
-9.5961 -3.1164 2.1335
-9.4769 -3.4585 2.1335
-9.3455 -3.7960 2.1335
-9.2021 -4.1285 2.1335
-9.0469 -4.4557 2.1335
-8.8801 -4.7770 2.1335
-8.7019 -5.0921 2.1335
-8.5125 -5.4006 2.1335
-8.3122 -5.7021 2.1335
-8.1013 -5.9961 2.1335
-7.8800 -6.2824 2.1335
-7.6485 -6.5605 2.1335
-7.4073 -6.8302 2.1335
-7.1566 -7.0910 2.1335
-6.8968 -7.3426 2.1335
-6.6281 -7.5847 2.1335
-6.3509 -7.8170 2.1335
-6.2821 -8.3261 2.2096
-6.0515 -8.6497 2.2366
-5.7366 -8.8606 2.2366
-5.4144 -9.0601 2.2366
-5.0852 -9.2479 2.2366
-4.7496 -9.4238 2.2366
-4.4079 -9.5875 2.2366
-4.0606 -9.7389 2.2366
-3.7081 -9.8778 2.2366
-3.3508 -10.0039 2.2366
-2.9894 -10.1172 2.2366
-2.6241 -10.2174 2.2366
-2.2555 -10.3045 2.2366
-1.8840 -10.3783 2.2366
-1.5101 -10.4388 2.2366
-1.1343 -10.4859 2.2366
-0.7571 -10.5195 2.2366
-0.3789 -10.5396 2.2366
-0.0003 -9.4880 2.2366
0.3403 -9.4818 2.2366
0.6805 -9.4633 2.2366
1.0198 -9.4326 2.2366
1.3578 -9.3899 2.2366
1.6940 -9.3350 2.2366
1.9345 -8.8403 2.1333
2.2506 -8.7652 2.1333
2.5638 -8.6788 2.1333
2.8738 -8.5813 2.1333
3.1801 -8.4727 2.1333
3.4823 -8.3532 2.1333
3.7800 -8.2230 2.1333
4.0729 -8.0822 2.1333
4.3606 -7.9310 2.1333
4.6427 -7.7696 2.1333
4.9188 -7.5982 2.1333
2.7467 -3.9263 1.1293
5.4518 -7.2263 2.1333
5.7080 -7.0263 2.1333
6.0061 -6.8735 2.1510
6.2494 -6.6538 2.1510
6.4846 -6.4255 2.1510
6.7115 -6.1889 2.1510
6.9298 -5.9444 2.1510
7.1393 -5.6922 2.1510
7.3395 -5.4326 2.1510
7.5304 -5.1660 2.1510
7.7116 -4.8927 2.1510
7.8829 -4.6131 2.1510
8.0441 -4.3274 2.1510
8.1950 -4.0362 2.1510
8.3353 -3.7397 2.1510
8.4650 -3.4384 2.1510
8.5838 -3.1326 2.1510
8.6915 -2.8227 2.1510
8.7881 -2.5091 2.1510
8.8734 -2.1922 2.1510
8.9472 -1.8725 2.1510
9.0096 -1.5502 2.1510
9.0604 -1.2259 2.1510
9.0995 -0.9000 2.1510
9.1269 -0.5728 2.1510
9.1426 -0.2448 2.1510
9.1464 0.0835 2.1510
9.1385 0.4119 2.1510
9.1189 0.7397 2.1510
9.0874 1.0667 2.1510
9.0443 1.3924 2.1510
8.9894 1.7163 2.1510
8.9230 2.0381 2.1510
8.8451 2.3574 2.1510
8.7557 2.6736 2.1510
8.6550 2.9865 2.1510
8.5432 3.2957 2.1510
8.4203 3.6006 2.1510
8.2865 3.9009 2.1510
8.1420 4.1963 2.1510
7.9870 4.4863 2.1510
7.8216 4.7706 2.1510
7.6461 5.0488 2.1510
7.4607 5.3205 2.1510
7.2657 5.5855 2.1510
7.0612 5.8432 2.1510
6.8476 6.0935 2.1510
6.6251 6.3360 2.1510
6.3940 6.5703 2.1510
6.1546 6.7961 2.1510
5.9072 7.0133 2.1510
5.6063 7.1628 2.1335
5.3460 7.3600 2.1335
5.0788 7.5477 2.1335
4.8050 7.7257 2.1335
4.5249 7.8938 2.1335
4.2390 8.0517 2.1335
3.9476 8.1992 2.1335
3.6510 8.3362 2.1335
3.3496 8.4624 2.1335
3.0439 8.5776 2.1335
2.3675 7.5174 1.8474
2.4210 8.7748 2.1335
2.1046 8.8565 2.1335
1.8040 9.0193 2.1556
1.5347 9.4196 2.2366
1.1957 9.4690 2.2366
0.8551 9.5061 2.2366
0.5134 9.5310 2.2366
0.1710 9.5435 2.2366
-0.1716 9.5437 2.2366
-0.5141 9.5316 2.2366
-0.8558 9.5071 2.2366
-1.1965 9.4704 2.2366
-1.5356 9.4214 2.2366
-1.8728 9.3602 2.2366
-2.2075 9.2869 2.2366
-2.5394 9.2017 2.2366
-2.8680 9.1045 2.2366
-3.1929 8.9956 2.2366
-3.5136 8.8751 2.2366
-3.8298 8.7431 2.2366
-4.1410 8.5998 2.2366
-4.4469 8.4454 2.2366
-4.7470 8.2800 2.2366
-5.0409 8.1040 2.2366
-5.3283 7.9176 2.2366
-5.6088 7.7209 2.2366
-5.8820 7.5143 2.2366
-6.1476 7.2979 2.2366
-6.2793 6.9332 2.1926
-6.3478 6.5222 2.1335
-6.5774 6.2898 2.1335
-6.7985 6.0493 2.1335
-7.0107 5.8010 2.1335
-7.2139 5.5452 2.1335
-7.4078 5.2823 2.1335
-7.5920 5.0127 2.1335
-7.7664 4.7366 2.1335
-7.9308 4.4544 2.1335
-8.0848 4.1665 2.1335
-8.2285 3.8733 2.1335
-8.3615 3.5752 2.1335
-8.4836 3.2724 2.1335
-8.5948 2.9656 2.1335
-8.6949 2.6549 2.1335
-8.7837 2.3409 2.1335
-8.8612 2.0239 2.1335
-8.9272 1.7043 2.1335
-8.9817 1.3826 2.1335
-9.0246 1.0593 2.1335
-9.0559 0.7346 2.1335
-9.0754 0.4090 2.1335
-9.0833 0.0830 2.1335
-9.0794 -0.2431 2.1335
-9.0639 -0.5688 2.1335
-9.0366 -0.8937 2.1335
-8.9978 -1.2174 2.1335
-8.9473 -1.5394 2.1335
-8.8853 -1.8594 2.1335
-8.8118 -2.1769 2.1335
-8.7271 -2.4915 2.1335
-8.6310 -2.8029 2.1335
-8.5239 -3.1106 2.1335
-8.4059 -3.4142 2.1335
-8.2770 -3.7133 2.1335
-8.1375 -4.0076 2.1335
-7.9876 -4.2967 2.1335
-7.8273 -4.5802 2.1335
-7.6571 -4.8577 2.1335
-7.4770 -5.1289 2.1335
-7.2873 -5.3935 2.1335
-7.0883 -5.6511 2.1335
-6.8802 -5.9013 2.1335
-6.6633 -6.1439 2.1335
-6.4378 -6.3786 2.1335
-6.2840 -6.6900 2.1610
-6.2506 -7.1525 2.2366
-5.9893 -7.3717 2.2366
-5.7203 -7.5813 2.2366
-5.4440 -7.7812 2.2366
-5.1607 -7.9710 2.2366
-4.8709 -8.1505 2.2366
-4.5748 -8.3195 2.2366
-4.2729 -8.4778 2.2366
-3.9655 -8.6251 2.2366
-3.6531 -8.7614 2.2366
-3.3360 -8.8864 2.2366
-3.0146 -8.9999 2.2366
-2.6894 -9.1018 2.2366
-2.3608 -9.1921 2.2366
-2.0292 -9.2705 2.2366
-1.6950 -9.3369 2.2366
-1.3586 -9.3914 2.2366
-1.0205 -9.4338 2.2366
-0.6812 -9.4641 2.2366
-0.3410 -9.4821 2.2366
-0.0003 -8.6145 2.2366
0.3090 -8.6088 2.2366
0.6178 -8.5921 2.2366
0.9259 -8.5642 2.2366
1.2328 -8.5254 2.2366
1.5381 -8.4756 2.2366
1.7722 -8.0988 2.1526
2.0434 -7.9583 2.1333
2.3278 -7.8798 2.1333
2.6093 -7.7913 2.1333
2.8873 -7.6927 2.1333
3.1617 -7.5842 2.1333
3.4320 -7.4659 2.1333
3.6980 -7.3381 2.1333
3.9592 -7.2008 2.1333
4.2153 -7.0542 2.1333
4.4660 -6.8986 2.1333
2.7462 -3.9255 1.2436
4.9499 -6.5609 2.1333
5.1824 -6.3792 2.1333
5.4084 -6.1893 2.1333
5.6274 -5.9915 2.1333
5.8874 -5.8337 2.1510
6.0934 -5.6189 2.1510
6.2916 -5.3968 2.1510
6.4817 -5.1678 2.1510
6.6635 -4.9321 2.1510
6.8367 -4.6900 2.1510
7.0012 -4.4418 2.1510
7.1567 -4.1879 2.1510
7.3030 -3.9286 2.1510
7.4399 -3.6642 2.1510
7.5673 -3.3950 2.1510
7.6849 -3.1214 2.1510
7.7927 -2.8438 2.1510
7.8904 -2.5624 2.1510
7.9780 -2.2777 2.1510
8.0554 -1.9900 2.1510
8.1224 -1.6997 2.1510
8.1789 -1.4072 2.1510
8.2249 -1.1127 2.1510
8.2604 -0.8168 2.1510
8.2852 -0.5198 2.1510
8.2993 -0.2221 2.1510
8.3027 0.0760 2.1510
8.2955 0.3740 2.1510
8.2775 0.6716 2.1510
8.2489 0.9684 2.1510
8.2097 1.2640 2.1510
8.1598 1.5581 2.1510
8.0995 1.8502 2.1510
8.0286 2.1399 2.1510
7.9474 2.4270 2.1510
7.8560 2.7110 2.1510
7.7544 2.9915 2.1510
7.6428 3.2682 2.1510
7.5213 3.5408 2.1510
7.3901 3.8089 2.1510
7.2493 4.0721 2.1510
7.0991 4.3301 2.1510
6.9398 4.5825 2.1510
6.7715 4.8291 2.1510
6.5944 5.0695 2.1510
6.4087 5.3034 2.1510
6.2148 5.5306 2.1510
6.0128 5.7506 2.1510
5.7559 5.9147 2.1335
5.5403 6.1180 2.1335
5.3176 6.3134 2.1335
5.0880 6.5008 2.1335
4.8517 6.6797 2.1335
4.6092 6.8500 2.1335
4.3607 7.0115 2.1335
4.1065 7.1640 2.1335
3.8470 7.3073 2.1335
3.5825 7.4411 2.1335
3.3133 7.5653 2.1335
3.0398 7.6798 2.1335
2.7623 7.7844 2.1335
2.3650 7.5095 2.0335
2.1970 7.9633 2.1335
1.9099 8.0373 2.1335
1.6986 8.4925 2.2366
1.3927 8.5483 2.2366
1.0851 8.5931 2.2366
0.7760 8.6267 2.2366
0.4659 8.6493 2.2366
0.1552 8.6606 2.2366
-0.1558 8.6608 2.2366
-0.4665 8.6498 2.2366
-0.7767 8.6275 2.2366
-1.0858 8.5942 2.2366
-1.3936 8.5497 2.2366
-1.6995 8.4942 2.2366
-2.0033 8.4278 2.2366
-2.3045 8.3504 2.2366
-2.6026 8.2622 2.2366
-2.8975 8.1634 2.2366
-3.1885 8.0540 2.2366
-3.4755 7.9342 2.2366
-3.7579 7.8042 2.2366
-4.0355 7.6641 2.2366
-4.3078 7.5141 2.2366
-4.5746 7.3544 2.2366
-4.8354 7.1852 2.2366
-5.0899 7.0068 2.2366
-5.3379 6.8193 2.2366
-5.5790 6.6230 2.2366
-5.8128 6.4182 2.2366
-6.0391 6.2051 2.2366
-6.2575 5.9840 2.2366
-6.2827 5.5905 2.1726
-6.3624 5.2647 2.1335
-6.5469 5.0326 2.1335
-6.7228 4.7940 2.1335
-6.8901 4.5493 2.1335
-7.0484 4.2988 2.1335
-7.1976 4.0428 2.1335
-7.3375 3.7815 2.1335
-7.4679 3.5154 2.1335
-7.5887 3.2449 2.1335
-7.6996 2.9701 2.1335
-7.8006 2.6916 2.1335
-7.8915 2.4097 2.1335
-7.9722 2.1247 2.1335
-8.0425 1.8370 2.1335
-8.1025 1.5470 2.1335
-8.1521 1.2551 2.1335
-8.1911 0.9616 2.1335
-8.2196 0.6669 2.1335
-8.2374 0.3714 2.1335
-8.2446 0.0754 2.1335
-8.2412 -0.2205 2.1335
-8.2271 -0.5162 2.1335
-8.2025 -0.8111 2.1335
-8.1673 -1.1049 2.1335
-8.1215 -1.3972 2.1335
-8.0653 -1.6877 2.1335
-7.9987 -1.9759 2.1335
-7.9218 -2.2615 2.1335
-7.8348 -2.5442 2.1335
-7.7376 -2.8235 2.1335
-7.6305 -3.0991 2.1335
-7.5136 -3.3707 2.1335
-7.3870 -3.6379 2.1335
-7.2510 -3.9003 2.1335
-7.1056 -4.1577 2.1335
-6.9511 -4.4097 2.1335
-6.7877 -4.6560 2.1335
-6.6156 -4.8962 2.1335
-6.4350 -5.1300 2.1335
-6.2846 -5.3903 2.1467
-6.2769 -5.7875 2.2138
-6.1270 -6.0704 2.2366
-5.9046 -6.2860 2.2366
-5.6747 -6.4934 2.2366
-5.4375 -6.6924 2.2366
-5.1933 -6.8827 2.2366
-4.9425 -7.0642 2.2366
-4.6854 -7.2366 2.2366
-4.4223 -7.3996 2.2366
-4.1535 -7.5531 2.2366
-3.8794 -7.6969 2.2366
-3.6003 -7.8307 2.2366
-3.3167 -7.9544 2.2366
-3.0288 -8.0679 2.2366
-2.7371 -8.1711 2.2366
-2.4418 -8.2637 2.2366
-2.1435 -8.3456 2.2366
-1.8424 -8.4168 2.2366
-1.5390 -8.4772 2.2366
-1.2336 -8.5267 2.2366
-0.9266 -8.5652 2.2366
-0.6185 -8.5927 2.2366
-0.3096 -8.6092 2.2366
-0.0003 -7.8805 2.2366
0.2826 -7.8753 2.2366
0.5652 -7.8600 2.2366
0.8470 -7.8345 2.2366
1.1277 -7.7990 2.2366
1.4070 -7.7534 2.2366
1.6845 -7.6979 2.2366
1.8693 -7.2802 2.1333
2.1295 -7.2084 2.1333
2.3869 -7.1274 2.1333
2.6413 -7.0372 2.1333
2.8923 -6.9379 2.1333
3.1396 -6.8297 2.1333
3.3829 -6.7128 2.1333
3.6218 -6.5872 2.1333
3.8561 -6.4530 2.1333
4.0854 -6.3107 2.1333
2.7457 -3.9248 1.3592
4.5281 -6.0017 2.1333
4.7408 -5.8355 2.1333
4.9475 -5.6618 2.1333
5.1478 -5.4807 2.1333
5.3415 -5.2926 2.1333
5.5284 -5.0978 2.1333
5.7082 -4.8962 2.1333
5.9292 -4.7272 2.1510
6.0955 -4.5115 2.1510
6.2539 -4.2901 2.1510
6.4043 -4.0630 2.1510
6.5465 -3.8308 2.1510
6.6803 -3.5935 2.1510
6.8055 -3.3516 2.1510
6.9219 -3.1054 2.1510
7.0295 -2.8551 2.1510
7.1280 -2.6011 2.1510
7.2174 -2.3437 2.1510
7.2975 -2.0833 2.1510
7.3682 -1.8201 2.1510
7.4294 -1.5546 2.1510
7.4810 -1.2870 2.1510
7.5231 -1.0177 2.1510
7.5554 -0.7470 2.1510
7.5781 -0.4753 2.1510
7.5909 -0.2030 2.1510
7.5940 0.0696 2.1510
7.5873 0.3422 2.1510
7.5708 0.6144 2.1510
7.5446 0.8859 2.1510
7.5087 1.1562 2.1510
7.4630 1.4252 2.1510
7.4077 1.6923 2.1510
7.3429 1.9573 2.1510
7.2686 2.2198 2.1510
7.1849 2.4795 2.1510
7.0919 2.7361 2.1510
6.9898 2.9891 2.1510
6.8786 3.2384 2.1510
6.7585 3.4835 2.1510
6.6297 3.7242 2.1510
6.4924 3.9601 2.1510
6.3466 4.1910 2.1510
6.1926 4.4165 2.1510
6.0306 4.6363 2.1510
5.8608 4.8502 2.1510
5.6372 5.0167 2.1335
5.4540 5.2162 2.1335
5.2637 5.4091 2.1335
5.0665 5.5949 2.1335
4.8628 5.7736 2.1335
4.6528 5.9449 2.1335
4.4367 6.1084 2.1335
4.2149 6.2642 2.1335
3.9876 6.4119 2.1335
3.7552 6.5513 2.1335
3.5178 6.6822 2.1335
3.2759 6.8046 2.1335
3.0298 6.9181 2.1335
2.7797 7.0228 2.1335
2.5259 7.1184 2.1335
2.2689 7.2048 2.1335
2.0389 7.3905 2.1653
1.7793 7.4878 2.1736
1.5532 7.7658 2.2366
1.2735 7.8168 2.2366
0.9922 7.8577 2.2366
0.7095 7.8885 2.2366
0.4260 7.9090 2.2366
0.1419 7.9194 2.2366
-0.1425 7.9195 2.2366
-0.4266 7.9095 2.2366
-0.7102 7.8891 2.2366
-0.9929 7.8587 2.2366
-1.2743 7.8180 2.2366
-1.5541 7.7672 2.2366
-1.8318 7.7064 2.2366
-2.1072 7.6357 2.2366
-2.3799 7.5551 2.2366
-2.6495 7.4647 2.2366
-2.9156 7.3647 2.2366
-3.1780 7.2552 2.2366
-3.4363 7.1363 2.2366
-3.6901 7.0082 2.2366
-3.9391 6.8711 2.2366
-4.1830 6.7251 2.2366
-4.4216 6.5704 2.2366
-4.6544 6.4072 2.2366
-4.8811 6.2358 2.2366
-5.1015 6.0564 2.2366
-5.3154 5.8691 2.2366
-5.5223 5.6743 2.2366
-5.7221 5.4721 2.2366
-5.9145 5.2629 2.2366
-6.0992 5.0470 2.2366
-6.2761 4.8245 2.2366
-6.2829 4.4804 2.1804
-6.3007 4.1603 2.1335
-6.4455 3.9312 2.1335
-6.5820 3.6971 2.1335
-6.7100 3.4582 2.1335
-6.8293 3.2149 2.1335
-6.9398 2.9675 2.1335
-7.0412 2.7163 2.1335
-7.1336 2.4616 2.1335
-7.2168 2.2038 2.1335
-7.2907 1.9432 2.1335
-7.3551 1.6801 2.1335
-7.4100 1.4149 2.1335
-7.4554 1.1479 2.1335
-7.4911 0.8795 2.1335
-7.5172 0.6100 2.1335
-7.5335 0.3397 2.1335
-7.5402 0.0691 2.1335
-7.5371 -0.2016 2.1335
-7.5244 -0.4719 2.1335
-7.5019 -0.7417 2.1335
-7.4697 -1.0104 2.1335
-7.4279 -1.2777 2.1335
-7.3766 -1.5434 2.1335
-7.3158 -1.8070 2.1335
-7.2455 -2.0683 2.1335
-7.1659 -2.3268 2.1335
-7.0771 -2.5823 2.1335
-6.9792 -2.8344 2.1335
-6.8723 -3.0829 2.1335
-6.7566 -3.3273 2.1335
-6.6322 -3.5674 2.1335
-6.4993 -3.8028 2.1335
-6.3581 -4.0333 2.1335
-6.2798 -4.3074 2.1580
-6.2746 -4.6436 2.2122
-6.1705 -4.9191 2.2366
-5.9894 -5.1370 2.2366
-5.8007 -5.3483 2.2366
-5.6045 -5.5526 2.2366
-5.4011 -5.7498 2.2366
-5.1908 -5.9395 2.2366
-4.9739 -6.1216 2.2366
-4.7506 -6.2958 2.2366
-4.5212 -6.4618 2.2366
-4.2860 -6.6195 2.2366
-4.0453 -6.7687 2.2366
-3.7995 -6.9092 2.2366
-3.5488 -7.0407 2.2366
-3.2935 -7.1632 2.2366
-3.0341 -7.2764 2.2366
-2.7707 -7.3802 2.2366
-2.5039 -7.4746 2.2366
-2.2338 -7.5593 2.2366
-1.9609 -7.6343 2.2366
-1.6854 -7.6995 2.2366
-1.4079 -7.7548 2.2366
-1.1285 -7.8001 2.2366
-0.8477 -7.8353 2.2366
-0.5658 -7.8605 2.2366
-0.2833 -7.8756 2.2366
-0.0003 -7.2544 2.2366
0.2601 -7.2496 2.2366
0.5203 -7.2355 2.2366
0.7797 -7.2121 2.2366
1.0381 -7.1794 2.2366
1.2952 -7.1375 2.2366
1.5507 -7.0864 2.2366
1.7668 -6.8809 2.1904
1.9762 -6.6895 2.1506
2.1973 -6.5611 2.1333
2.4315 -6.4781 2.1333
2.6626 -6.3867 2.1333
2.8902 -6.2871 2.1333
3.1141 -6.1794 2.1333
3.3341 -6.0638 2.1333
3.5497 -5.9403 2.1333
3.7608 -5.8092 2.1333
2.7452 -3.9240 1.4762
4.1683 -5.5247 2.1333
4.3641 -5.3717 2.1333
4.5544 -5.2118 2.1333
4.7388 -5.0451 2.1333
4.9171 -4.8720 2.1333
5.0891 -4.6926 2.1333
5.2545 -4.5070 2.1333
5.4132 -4.3157 2.1333
5.5650 -4.1188 2.1333
5.7096 -3.9166 2.1333
5.8952 -3.7400 2.1510
6.0261 -3.5262 2.1510
6.1492 -3.3078 2.1510
6.2644 -3.0851 2.1510
6.3716 -2.8584 2.1510
6.4706 -2.6280 2.1510
6.5612 -2.3942 2.1510
6.6434 -2.1572 2.1510
6.7171 -1.9175 2.1510
6.7821 -1.6753 2.1510
6.8384 -1.4308 2.1510
6.8860 -1.1845 2.1510
6.9246 -0.9366 2.1510
6.9543 -0.6875 2.1510
6.9751 -0.4374 2.1510
6.9869 -0.1867 2.1510
6.9897 0.0642 2.1510
6.9835 0.3151 2.1510
6.9683 0.5656 2.1510
6.9441 0.8155 2.1510
6.9110 1.0643 2.1510
6.8689 1.3118 2.1510
6.8180 1.5577 2.1510
6.7582 1.8016 2.1510
6.6898 2.0432 2.1510
6.6127 2.2822 2.1510
6.5271 2.5183 2.1510
6.4331 2.7512 2.1510
6.3307 2.9806 2.1510
6.2202 3.2062 2.1510
6.1016 3.4277 2.1510
5.9751 3.6448 2.1510
5.8409 3.8572 2.1510
5.6529 4.0317 2.1335
5.5050 4.2323 2.1335
5.3499 4.4275 2.1335
5.1880 4.6170 2.1335
5.0193 4.8006 2.1335
4.8441 4.9780 2.1335
4.6626 5.1491 2.1335
4.4751 5.3135 2.1335
4.2818 5.4710 2.1335
4.0830 5.6216 2.1335
3.8788 5.7648 2.1335
3.6696 5.9007 2.1335
3.4557 6.0290 2.1335
3.2373 6.1495 2.1335
3.0146 6.2620 2.1335
2.7881 6.3665 2.1335
2.5579 6.4628 2.1335
2.3245 6.5507 2.1335
2.0879 6.6302 2.1335
1.8487 6.7012 2.1335
1.6847 7.0903 2.2366
1.4292 7.1464 2.2366
1.1719 7.1933 2.2366
0.9130 7.2310 2.2366
0.6529 7.2593 2.2366
0.3920 7.2782 2.2366
0.1305 7.2877 2.2366
-0.1311 7.2878 2.2366
-0.3926 7.2786 2.2366
-0.6536 7.2598 2.2366
-0.9137 7.2318 2.2366
-1.1727 7.1943 2.2366
-1.4301 7.1476 2.2366
-1.6857 7.0917 2.2366
-1.9391 7.0266 2.2366
-2.1900 6.9524 2.2366
-2.4381 6.8693 2.2366
-2.6830 6.7773 2.2366
-2.9245 6.6765 2.2366
-3.1621 6.5671 2.2366
-3.3957 6.4493 2.2366
-3.6249 6.3231 2.2366
-3.8494 6.1887 2.2366
-4.0689 6.0464 2.2366
-4.2831 5.8963 2.2366
-4.4918 5.7385 2.2366
-4.6947 5.5734 2.2366
-4.8915 5.4011 2.2366
-5.0819 5.2218 2.2366
-5.2658 5.0358 2.2366
-5.4429 4.8433 2.2366
-5.6129 4.6446 2.2366
-5.7756 4.4399 2.2366
-5.9309 4.2295 2.2366
-6.0785 4.0137 2.2366
-6.2183 3.7927 2.2366
-6.2804 3.5278 2.2121
-6.2850 3.2393 2.1715
-6.2895 2.9609 2.1350
-6.3866 2.7311 2.1335
-6.4801 2.4999 2.1335
-6.5651 2.2656 2.1335
-6.6417 2.0283 2.1335
-6.7097 1.7885 2.1335
-6.7690 1.5464 2.1335
-6.8196 1.3023 2.1335
-6.8614 1.0566 2.1335
-6.8944 0.8095 2.1335
-6.9184 0.5615 2.1335
-6.9335 0.3128 2.1335
-6.9397 0.0637 2.1335
-6.9369 -0.1854 2.1335
-6.9252 -0.4342 2.1335
-6.9045 -0.6825 2.1335
-6.8750 -0.9298 2.1335
-6.8366 -1.1759 2.1335
-6.7894 -1.4204 2.1335
-6.7334 -1.6631 2.1335
-6.6688 -1.9036 2.1335
-6.5956 -2.1415 2.1335
-6.5139 -2.3767 2.1335
-6.4239 -2.6088 2.1335
-6.3255 -2.8375 2.1335
-6.2783 -3.0916 2.1538
-6.2720 -3.3735 2.1920
-6.2714 -3.6693 2.2366
-6.1351 -3.8918 2.2366
-5.9910 -4.1092 2.2366
-5.8391 -4.3213 2.2366
-5.6798 -4.5277 2.2366
-5.5132 -4.7284 2.2366
-5.3394 -4.9229 2.2366
-5.1589 -5.1110 2.2366
-4.9717 -5.2925 2.2366
-4.7782 -5.4672 2.2366
-4.5785 -5.6349 2.2366
-4.3730 -5.7952 2.2366
-4.1618 -5.9481 2.2366
-3.9454 -6.0933 2.2366
-3.7238 -6.2306 2.2366
-3.4975 -6.3599 2.2366
-3.2668 -6.4811 2.2366
-3.0318 -6.5938 2.2366
-2.7930 -6.6981 2.2366
-2.5506 -6.7937 2.2366
-2.3049 -6.8806 2.2366
-2.0563 -6.9586 2.2366
-1.8051 -7.0277 2.2366
-1.5516 -7.0877 2.2366
-1.2960 -7.1386 2.2366
-1.0389 -7.1803 2.2366
-0.7804 -7.2128 2.2366
-0.5209 -7.2360 2.2366
-0.2608 -7.2498 2.2366
-0.0003 -6.7135 2.2366
0.2407 -6.7091 2.2366
0.4815 -6.6961 2.2366
0.7216 -6.6744 2.2366
0.9607 -6.6441 2.2366
1.1987 -6.6054 2.2366
1.4351 -6.5580 2.2366
1.6696 -6.5023 2.2366
1.8142 -6.1410 2.1333
2.0335 -6.0720 2.1333
2.2502 -5.9951 2.1333
2.4641 -5.9105 2.1333
2.6747 -5.8183 2.1333
2.8820 -5.7187 2.1333
3.0855 -5.6116 2.1333
3.2851 -5.4974 2.1333
3.4805 -5.3760 2.1333
2.7447 -3.9232 1.5949
3.8575 -5.1128 2.1333
4.0387 -4.9711 2.1333
4.2148 -4.8231 2.1333
4.3854 -4.6689 2.1333
4.5504 -4.5086 2.1333
4.7096 -4.3425 2.1333
4.8627 -4.1709 2.1333
5.0095 -3.9938 2.1333
5.1500 -3.8116 2.1333
5.2838 -3.6244 2.1333
5.4108 -3.4326 2.1333
5.5309 -3.2363 2.1333
5.6439 -3.0358 2.1333
5.7496 -2.8314 2.1333
5.8962 -2.6450 2.1510
5.9878 -2.4318 2.1510
6.0717 -2.2154 2.1510
6.1477 -1.9962 2.1510
6.2159 -1.7743 2.1510
6.2760 -1.5501 2.1510
6.3281 -1.3239 2.1510
6.3720 -1.0960 2.1510
6.4077 -0.8666 2.1510
6.4352 -0.6360 2.1510
6.4544 -0.4047 2.1510
6.4653 -0.1727 2.1510
6.4678 0.0595 2.1510
6.4621 0.2917 2.1510
6.4479 0.5235 2.1510
6.4255 0.7547 2.1510
6.3948 0.9849 2.1510
6.3558 1.2139 2.1510
6.3087 1.4414 2.1510
6.2534 1.6671 2.1510
6.1900 1.8906 2.1510
6.1187 2.1118 2.1510
6.0394 2.3302 2.1510
5.9524 2.5457 2.1510
5.8576 2.7580 2.1510
5.7086 2.9426 2.1335
5.5997 3.1458 2.1335
5.4836 3.3451 2.1335
5.3604 3.5400 2.1335
5.2303 3.7304 2.1335
5.0934 3.9160 2.1335
4.9499 4.0966 2.1335
4.8001 4.2719 2.1335
4.6440 4.4418 2.1335
4.4819 4.6059 2.1335
4.3139 4.7641 2.1335
4.1404 4.9162 2.1335
3.9616 5.0620 2.1335
3.7776 5.2012 2.1335
3.5887 5.3338 2.1335
3.3951 5.4594 2.1335
3.1972 5.5781 2.1335
2.9951 5.6895 2.1335
2.7891 5.7937 2.1335
2.5795 5.8903 2.1335
2.3665 5.9794 2.1335
2.1505 6.0607 2.1335
1.9317 6.1342 2.1335
1.7656 6.4002 2.2025
1.5587 6.5598 2.2366
1.3223 6.6117 2.2366
1.0842 6.6551 2.2366
0.8446 6.6899 2.2366
0.6040 6.7161 2.2366
0.3626 6.7336 2.2366
0.1207 6.7424 2.2366
-0.1213 6.7425 2.2366
-0.3632 6.7339 2.2366
-0.6047 6.7166 2.2366
-0.8453 6.6907 2.2366
-1.0849 6.6560 2.2366
-1.3231 6.6128 2.2366
-1.5596 6.5611 2.2366
-1.7940 6.5009 2.2366
-2.0261 6.4322 2.2366
-2.2557 6.3553 2.2366
-2.4822 6.2702 2.2366
-2.7056 6.1770 2.2366
-2.9255 6.0758 2.2366
-3.1416 5.9667 2.2366
-3.3536 5.8500 2.2366
-3.5613 5.7257 2.2366
-3.7644 5.5940 2.2366
-3.9626 5.4552 2.2366
-4.1557 5.3093 2.2366
-4.3434 5.1565 2.2366
-4.5255 4.9971 2.2366
-4.7017 4.8312 2.2366
-4.8719 4.6592 2.2366
-5.0357 4.4811 2.2366
-5.1930 4.2973 2.2366
-5.3436 4.1079 2.2366
-5.4873 3.9133 2.2366
-5.6239 3.7136 2.2366
-5.7532 3.5092 2.2366
-5.8751 3.3002 2.2366
-5.9894 3.0870 2.2366
-6.0959 2.8699 2.2366
-6.1946 2.6491 2.2366
-6.2799 2.4228 2.2347
-6.2834 2.1684 2.2069
-6.2865 1.9199 2.1826
-6.2893 1.6765 2.1614
-6.2917 1.4374 2.1433
-6.3099 1.2051 2.1335
-6.3486 0.9777 2.1335
-6.3791 0.7492 2.1335
-6.4014 0.5197 2.1335
-6.4154 0.2895 2.1335
-6.4212 0.0591 2.1335
-6.4186 -0.1715 2.1335
-6.4078 -0.4017 2.1335
-6.3888 -0.6314 2.1335
-6.3615 -0.8603 2.1335
-6.3260 -1.0880 2.1335
-6.2823 -1.3142 2.1335
-6.2762 -1.5500 2.1491
-6.2722 -1.7902 2.1685
-6.2692 -2.0354 2.1916
-6.2697 -2.2875 2.2192
-6.2315 -2.5305 2.2366
-6.1362 -2.7524 2.2366
-6.0329 -2.9706 2.2366
-5.9219 -3.1851 2.2366
-5.8033 -3.3953 2.2366
-5.6772 -3.6012 2.2366
-5.5439 -3.8024 2.2366
-5.4034 -3.9987 2.2366
-5.2560 -4.1898 2.2366
-5.1018 -4.3754 2.2366
-4.9411 -4.5555 2.2366
-4.7740 -4.7296 2.2366
-4.6009 -4.8976 2.2366
-4.4218 -5.0593 2.2366
-4.2370 -5.2144 2.2366
-4.0468 -5.3628 2.2366
-3.8514 -5.5044 2.2366
-3.6511 -5.6387 2.2366
-3.4461 -5.7659 2.2366
-3.2367 -5.8856 2.2366
-3.0232 -5.9977 2.2366
-2.8058 -6.1020 2.2366
-2.5848 -6.1985 2.2366
-2.3604 -6.2871 2.2366
-2.1331 -6.3675 2.2366
-1.9030 -6.4397 2.2366
-1.6705 -6.5036 2.2366
-1.4359 -6.5592 2.2366
-1.1994 -6.6063 2.2366
-0.9615 -6.6449 2.2366
-0.7222 -6.6750 2.2366
-0.4821 -6.6965 2.2366
-0.2414 -6.7093 2.2366
-0.0003 -6.2412 2.2366
0.2238 -6.2371 2.2366
0.4476 -6.2250 2.2366
0.6708 -6.2048 2.2366
0.8931 -6.1767 2.2366
1.1143 -6.1406 2.2366
1.3341 -6.0967 2.2366
1.5521 -6.0448 2.2366
1.7682 -5.9853 2.2366
1.8905 -5.6448 2.1333
2.0919 -5.5733 2.1333
2.2907 -5.4947 2.1333
2.4866 -5.4090 2.1333
2.6792 -5.3163 2.1333
2.8684 -5.2168 2.1333
3.0540 -5.1106 2.1333
3.2356 -4.9977 2.1333
2.7442 -3.9224 1.7153
3.5861 -4.7530 2.1333
3.7546 -4.6213 2.1333
3.9182 -4.4837 2.1333
4.0768 -4.3403 2.1333
4.2302 -4.1913 2.1333
4.3782 -4.0369 2.1333
4.5205 -3.8773 2.1333
4.6570 -3.7126 2.1333
4.7875 -3.5432 2.1333
4.9119 -3.3692 2.1333
5.0300 -3.1909 2.1333
5.1416 -3.0084 2.1333
5.2466 -2.8221 2.1333
5.3449 -2.6320 2.1333
5.4362 -2.4386 2.1333
5.5206 -2.2420 2.1333
5.5979 -2.0425 2.1333
5.6680 -1.8403 2.1333
5.7308 -1.6358 2.1333
5.7862 -1.4291 2.1333
5.8824 -1.2306 2.1510
5.9232 -1.0187 2.1510
5.9564 -0.8054 2.1510
5.9819 -0.5912 2.1510
5.9998 -0.3761 2.1510
6.0098 -0.1604 2.1510
6.0122 0.0554 2.1510
6.0068 0.2712 2.1510
5.9936 0.4867 2.1510
5.9727 0.7016 2.1510
5.9442 0.9156 2.1510
5.9079 1.1285 2.1510
5.8641 1.3400 2.1510
5.7654 1.5371 2.1335
5.7070 1.7432 2.1335
5.6412 1.9471 2.1335
5.5681 2.1485 2.1335
5.4878 2.3471 2.1335
5.4004 2.5428 2.1335
5.3060 2.7352 2.1335
5.2048 2.9241 2.1335
5.0969 3.1093 2.1335
4.9824 3.2905 2.1335
4.8614 3.4674 2.1335
4.7342 3.6399 2.1335
4.6008 3.8078 2.1335
4.4614 3.9707 2.1335
4.3163 4.1285 2.1335
4.1656 4.2811 2.1335
4.0096 4.4281 2.1335
3.8483 4.5694 2.1335
3.6820 4.7049 2.1335
3.5110 4.8343 2.1335
3.3354 4.9575 2.1335
3.1555 5.0743 2.1335
2.9715 5.1845 2.1335
2.7837 5.2881 2.1335
2.5922 5.3848 2.1335
0.8577 1.9587 0.7633
2.1995 5.5574 2.1335
2.0320 5.7268 2.1690
1.7953 5.7013 2.1335
1.6664 6.0407 2.2366
1.4486 6.0968 2.2366
1.2289 6.1451 2.2366
1.0076 6.1854 2.2366
0.7850 6.2177 2.2366
0.5614 6.2421 2.2366
0.3370 6.2583 2.2366
0.1122 6.2665 2.2366
-0.1128 6.2666 2.2366
-0.3376 6.2586 2.2366
-0.5620 6.2425 2.2366
-0.7857 6.2183 2.2366
-1.0083 6.1862 2.2366
-1.2297 6.1460 2.2366
-1.4495 6.0979 2.2366
-1.6674 6.0419 2.2366
-1.8831 5.9782 2.2366
-2.0964 5.9067 2.2366
-2.3070 5.8276 2.2366
-0.8579 1.9587 0.7631
-0.9277 1.9266 0.7631
-2.9198 5.5456 2.2366
-3.1169 5.4371 2.2366
-3.3099 5.3216 2.2366
-3.4987 5.1992 2.2366
-3.6829 5.0702 2.2366
-3.8624 4.9346 2.2366
-4.0368 4.7926 2.2366
-4.2061 4.6445 2.2366
-4.3699 4.4903 2.2366
-4.5280 4.3304 2.2366
-4.6803 4.1649 2.2366
-4.8265 3.9941 2.2366
-4.9665 3.8181 2.2366
-5.1001 3.6372 2.2366
-5.2271 3.4516 2.2366
-5.3473 3.2616 2.2366
-5.4606 3.0675 2.2366
-5.5668 2.8693 2.2366
-5.6659 2.6675 2.2366
-5.7576 2.4623 2.2366
-5.8419 2.2539 2.2366
-5.9186 2.0426 2.2366
-5.9877 1.8288 2.2366
-6.0491 1.6126 2.2366
-6.1026 1.3943 2.2366
-6.1483 1.1743 2.2366
-6.1861 0.9528 2.2366
-6.2158 0.7301 2.2366
-6.2376 0.5065 2.2366
-6.2513 0.2822 2.2366
-6.2569 0.0577 2.2366
-6.2545 -0.1670 2.2366
-6.2440 -0.3913 2.2366
-6.2254 -0.6151 2.2366
-6.1988 -0.8382 2.2366
-6.1643 -1.0600 2.2366
-6.1218 -1.2805 2.2366
-6.0714 -1.4994 2.2366
-6.0132 -1.7162 2.2366
-5.9473 -1.9308 2.2366
-5.8737 -2.1429 2.2366
-5.7925 -2.3522 2.2366
-5.7039 -2.5584 2.2366
-5.6080 -2.7613 2.2366
-5.5048 -2.9606 2.2366
-5.3946 -3.1561 2.2366
-5.2774 -3.3475 2.2366
-5.1535 -3.5345 2.2366
-5.0229 -3.7170 2.2366
-4.8859 -3.8947 2.2366
-4.7426 -4.0673 2.2366
-4.5932 -4.2346 2.2366
-4.4380 -4.3965 2.2366
-4.2770 -4.5527 2.2366
-4.1105 -4.7030 2.2366
-3.9388 -4.8473 2.2366
-3.7620 -4.9853 2.2366
-3.5804 -5.1168 2.2366
-3.3942 -5.2418 2.2366
-3.2036 -5.3600 2.2366
-3.0090 -5.4713 2.2366
-2.8105 -5.5755 2.2366
-2.6084 -5.6726 2.2366
-2.4029 -5.7623 2.2366
-2.1944 -5.8446 2.2366
-1.9830 -5.9194 2.2366
-1.7692 -5.9865 2.2366
-1.5530 -6.0460 2.2366
-1.3349 -6.0977 2.2366
-1.1151 -6.1415 2.2366
-0.8938 -6.1774 2.2366
-0.6715 -6.2053 2.2366
-0.4482 -6.2253 2.2366
-0.2244 -6.2373 2.2366
-0.0003 -5.8247 2.2366
0.2088 -5.8209 2.2366
0.4177 -5.8096 2.2366
0.6260 -5.7908 2.2366
0.8335 -5.7646 2.2366
1.0400 -5.7309 2.2366
1.2451 -5.6898 2.2366
1.4486 -5.6415 2.2366
1.6502 -5.5859 2.2366
1.7784 -5.3103 2.1504
1.9524 -5.2014 2.1333
2.1379 -5.1280 2.1333
2.3207 -5.0480 2.1333
2.5005 -4.9615 2.1333
2.6771 -4.8686 2.1333
2.8502 -4.7695 2.1333
3.0197 -4.6642 2.1333
2.7436 -3.9216 1.8375
3.3468 -4.4357 2.1333
3.5040 -4.3128 2.1333
3.6567 -4.1844 2.1333
3.8048 -4.0506 2.1333
3.9479 -3.9115 2.1333
4.0860 -3.7674 2.1333
4.2188 -3.6184 2.1333
4.3462 -3.4648 2.1333
4.4680 -3.3067 2.1333
4.5841 -3.1443 2.1333
4.6942 -2.9778 2.1333
4.7984 -2.8075 2.1333
4.8963 -2.6336 2.1333
4.9880 -2.4562 2.1333
5.0733 -2.2757 2.1333
5.1520 -2.0922 2.1333
5.2241 -1.9060 2.1333
5.2895 -1.7173 2.1333
5.3481 -1.5264 2.1333
5.3998 -1.3335 2.1333
5.4446 -1.1389 2.1333
5.4823 -0.9428 2.1333
5.5134 -0.7455 2.1335
5.5370 -0.5471 2.1335
5.5535 -0.3480 2.1335
5.5628 -0.1484 2.1335
5.5649 0.0514 2.1335
5.5599 0.2511 2.1335
5.5477 0.4506 2.1335
5.5284 0.6495 2.1335
5.5019 0.8476 2.1335
5.4683 1.0446 2.1335
5.4277 1.2403 2.1335
5.3801 1.4345 2.1335
5.3255 1.6268 2.1335
5.2641 1.8170 2.1335
5.1958 2.0050 2.1335
5.1209 2.1903 2.1335
5.0393 2.3729 2.1335
4.9512 2.5524 2.1335
4.8568 2.7287 2.1335
4.7560 2.9014 2.1335
4.6492 3.0705 2.1335
4.5363 3.2356 2.1335
4.4175 3.3966 2.1335
4.2930 3.5532 2.1335
4.1630 3.7052 2.1335
4.0276 3.8525 2.1335
3.8869 3.9948 2.1335
3.7413 4.1320 2.1335
3.5908 4.2638 2.1335
3.4356 4.3902 2.1335
3.2760 4.5109 2.1335
3.1122 4.6258 2.1335
2.9443 4.7348 2.1335
2.7726 4.8377 2.1335
2.5974 4.9343 2.1335
0.8655 1.7979 0.7634
0.8004 1.8278 0.7634
0.7343 1.8554 0.7634
0.6672 1.8806 0.7633
0.5993 1.9033 0.7633
0.5306 1.9236 0.7633
0.4613 1.9414 0.7633
0.3913 1.9567 0.7633
0.9401 5.7714 2.2366
0.7324 5.8016 2.2366
0.5238 5.8243 2.2366
0.3144 5.8394 2.2366
0.1046 5.8471 2.2366
-0.1053 5.8471 2.2366
-0.3150 5.8397 2.2366
-0.5244 5.8247 2.2366
-0.7331 5.8021 2.2366
-0.9408 5.7721 2.2366
-0.3915 1.9567 0.7632
-0.4615 1.9414 0.7632
-0.5308 1.9236 0.7632
-0.5995 1.9033 0.7632
-0.6675 1.8806 0.7632
-0.7345 1.8554 0.7632
-0.8006 1.8278 0.7632
-0.8657 1.7979 0.7632
-0.9297 1.7657 0.7632
-2.9083 5.0732 2.2366
-3.0884 4.9655 2.2366
-3.2645 4.8513 2.2366
-3.4364 4.7309 2.2366
-3.6039 4.6044 2.2366
-3.7666 4.4719 2.2366
-3.9246 4.3337 2.2366
-4.0774 4.1899 2.2366
-4.2250 4.0407 2.2366
-4.3671 3.8863 2.2366
-4.5035 3.7269 2.2366
-4.6342 3.5627 2.2366
-4.7588 3.3939 2.2366
-4.8773 3.2208 2.2366
-4.9895 3.0435 2.2366
-5.0952 2.8623 2.2366
-5.1944 2.6774 2.2366
-5.2868 2.4891 2.2366
-5.3724 2.2977 2.2366
-5.4511 2.1032 2.2366
-5.5227 1.9061 2.2366
-5.5872 1.7066 2.2366
-5.6445 1.5048 2.2366
-5.6945 1.3012 2.2366
-5.7372 1.0959 2.2366
-5.7724 0.8892 2.2366
-5.8002 0.6814 2.2366
-5.8205 0.4727 2.2366
-5.8333 0.2634 2.2366
-5.8386 0.0539 2.2366
-5.8364 -0.1557 2.2366
-5.8266 -0.3651 2.2366
-5.8093 -0.5739 2.2366
-5.7845 -0.7820 2.2366
-5.7523 -0.9891 2.2366
-5.7127 -1.1949 2.2366
-5.6657 -1.3990 2.2366
-5.6114 -1.6014 2.2366
-5.5499 -1.8017 2.2366
-5.4813 -1.9996 2.2366
-5.4056 -2.1949 2.2366
-5.3229 -2.3874 2.2366
-5.2334 -2.5767 2.2366
-5.1372 -2.7628 2.2366
-5.0343 -2.9452 2.2366
-4.9250 -3.1238 2.2366
-4.8093 -3.2984 2.2366
-4.6875 -3.4687 2.2366
-4.5597 -3.6345 2.2366
-4.4260 -3.7956 2.2366
-4.2866 -3.9518 2.2366
-4.1417 -4.1029 2.2366
-3.9915 -4.2487 2.2366
-3.8361 -4.3890 2.2366
-3.6759 -4.5236 2.2366
-3.5109 -4.6524 2.2366
-3.3414 -4.7752 2.2366
-3.1677 -4.8918 2.2366
-2.9898 -5.0022 2.2366
-2.8082 -5.1060 2.2366
-2.6229 -5.2033 2.2366
-2.4343 -5.2939 2.2366
-2.2426 -5.3777 2.2366
-2.0480 -5.4545 2.2366
-1.8507 -5.5243 2.2366
-1.6511 -5.5870 2.2366
-1.4494 -5.6425 2.2366
-1.2459 -5.6907 2.2366
-1.0407 -5.7316 2.2366
-0.8342 -5.7651 2.2366
-0.6267 -5.7912 2.2366
-0.4183 -5.8099 2.2366
-0.2094 -5.8210 2.2366
-0.0003 -5.4544 2.2366
0.1955 -5.4508 2.2366
0.3911 -5.4402 2.2366
0.5862 -5.4226 2.2366
0.7805 -5.3981 2.2366
0.9739 -5.3665 2.2366
1.1659 -5.3281 2.2366
1.3565 -5.2828 2.2366
1.5453 -5.2307 2.2366
1.7321 -5.1719 2.2366
1.8282 -4.8707 2.1333
2.0020 -4.8020 2.1333
2.1731 -4.7271 2.1333
2.3415 -4.6461 2.1333
2.5069 -4.5591 2.1333
2.6690 -4.4662 2.1333
2.8277 -4.3676 2.1333
2.7431 -3.9208 1.9619
3.1340 -4.1537 2.1333
3.2813 -4.0386 2.1333
3.4243 -3.9183 2.1333
3.5629 -3.7929 2.1333
3.6969 -3.6627 2.1333
3.8262 -3.5278 2.1333
3.9505 -3.3883 2.1333
4.0698 -3.2444 2.1333
4.1839 -3.0963 2.1333
4.2925 -2.9442 2.1333
4.3957 -2.7884 2.1333
4.4932 -2.6289 2.1333
4.5849 -2.4660 2.1333
4.6708 -2.2999 2.1333
4.7506 -2.1309 2.1333
4.8243 -1.9590 2.1333
4.8918 -1.7847 2.1333
4.9530 -1.6080 2.1333
5.0079 -1.4292 2.1333
5.0563 -1.2486 2.1333
5.0982 -1.0664 2.1333
5.1335 -0.8827 2.1333
5.1626 -0.6979 2.1335
5.1847 -0.5122 2.1335
5.2001 -0.3257 2.1335
5.2087 -0.1389 2.1335
5.2107 0.0482 2.1335
5.2060 0.2352 2.1335
5.1946 0.4220 2.1335
5.1764 0.6082 2.1335
5.1516 0.7937 2.1335
5.1202 0.9782 2.1335
5.0821 1.1615 2.1335
5.0375 1.3432 2.1335
4.9864 1.5233 2.1335
4.9288 1.7014 2.1335
4.8649 1.8773 2.1335
4.7947 2.0509 2.1335
4.7183 2.2218 2.1335
4.6359 2.3899 2.1335
4.5474 2.5550 2.1335
4.4531 2.7167 2.1335
4.3530 2.8750 2.1335
4.2472 3.0296 2.1335
4.1360 3.1803 2.1335
4.0195 3.3269 2.1335
3.8977 3.4692 2.1335
3.7709 3.6071 2.1335
3.6392 3.7403 2.1335
3.5028 3.8687 2.1335
3.3619 3.9922 2.1335
3.2167 4.1105 2.1335
3.0672 4.2235 2.1335
2.9138 4.3311 2.1335
2.7566 4.4331 2.1335
2.5959 4.5294 2.1335
0.8703 1.6533 0.7635
0.8104 1.6835 0.7635
0.7494 1.7115 0.7635
0.6875 1.7373 0.7634
0.6247 1.7609 0.7634
0.5612 1.7822 0.7634
0.4968 1.8012 0.7634
0.4319 1.8178 0.7634
0.3664 1.8322 0.7633
0.3004 1.8442 0.7633
0.2340 1.8537 0.7633
0.1673 1.8610 0.7633
0.1005 1.8658 0.7633
0.0334 1.8682 0.7633
-0.0336 1.8682 0.7633
-0.1007 1.8658 0.7633
-0.1675 1.8610 0.7632
-0.2342 1.8537 0.7632
-0.3006 1.8442 0.7632
-0.3666 1.8322 0.7632
-0.4321 1.8178 0.7632
-0.4971 1.8012 0.7632
-0.5614 1.7822 0.7632
-0.6250 1.7609 0.7633
-0.6877 1.7373 0.7633
-0.7497 1.7115 0.7633
-0.8106 1.6835 0.7633
-0.8705 1.6533 0.7633
-0.9292 1.6210 0.7633
-2.8915 4.6489 2.2366
-3.0564 4.5420 2.2366
-3.2173 4.4293 2.2366
-3.3741 4.3109 2.2366
-3.5265 4.1869 2.2366
-3.6744 4.0575 2.2366
-3.8175 3.9229 2.2366
-3.9556 3.7832 2.2366
-4.0887 3.6386 2.2366
-4.2165 3.4894 2.2366
-4.3388 3.3357 2.2366
-4.4555 3.1777 2.2366
-4.5664 3.0156 2.2366
-4.6715 2.8496 2.2366
-4.7705 2.6800 2.2366
-4.8634 2.5069 2.2366
-4.9499 2.3306 2.2366
-5.0301 2.1513 2.2366
-5.1038 1.9693 2.2366
-5.1708 1.7847 2.2366
-5.2313 1.5979 2.2366
-5.2849 1.4090 2.2366
-5.3317 1.2184 2.2366
-5.3717 1.0262 2.2366
-5.4047 0.8326 2.2366
-5.4308 0.6381 2.2366
-5.4498 0.4427 2.2366
-5.4618 0.2468 2.2366
-5.4668 0.0506 2.2366
-5.4647 -0.1457 2.2366
-5.4556 -0.3417 2.2366
-5.4394 -0.5373 2.2366
-5.4162 -0.7321 2.2366
-5.3861 -0.9260 2.2366
-5.3490 -1.1187 2.2366
-5.3050 -1.3099 2.2366
-5.2542 -1.4994 2.2366
-5.1966 -1.6869 2.2366
-5.1324 -1.8722 2.2366
-5.0615 -2.0551 2.2366
-4.9841 -2.2353 2.2366
-4.9004 -2.4127 2.2366
-4.8103 -2.5869 2.2366
-4.7140 -2.7577 2.2366
-4.6116 -2.9249 2.2366
-4.5034 -3.0884 2.2366
-4.3893 -3.2479 2.2366
-4.2696 -3.4032 2.2366
-4.1444 -3.5540 2.2366
-4.0139 -3.7003 2.2366
-3.8783 -3.8418 2.2366
-3.7376 -3.9783 2.2366
-3.5922 -4.1097 2.2366
-3.4421 -4.2358 2.2366
-3.2876 -4.3564 2.2366
-3.1290 -4.4714 2.2366
-2.9663 -4.5807 2.2366
-2.7998 -4.6840 2.2366
-2.6296 -4.7813 2.2366
-2.4562 -4.8724 2.2366
-2.2796 -4.9572 2.2366
-2.1000 -5.0357 2.2366
-1.9178 -5.1076 2.2366
-1.7331 -5.1730 2.2366
-1.5462 -5.2317 2.2366
-1.3573 -5.2837 2.2366
-1.1667 -5.3289 2.2366
-0.9746 -5.3672 2.2366
-0.7812 -5.3986 2.2366
-0.5869 -5.4230 2.2366
-0.3918 -5.4405 2.2366
-0.1962 -5.4509 2.2366
-0.0003 -5.1226 2.2366
0.1836 -5.1193 2.2366
0.3673 -5.1093 2.2366
0.5505 -5.0928 2.2366
0.7331 -5.0697 2.2366
0.9146 -5.0401 2.2366
1.0950 -5.0040 2.2366
1.2740 -4.9615 2.2366
1.4513 -4.9126 2.2366
1.6268 -4.8573 2.2366
1.7712 -4.7188 2.2007
1.8802 -4.5099 2.1333
2.0410 -4.4395 2.1333
2.1991 -4.3634 2.1333
2.3544 -4.2817 2.1333
2.5067 -4.1945 2.1333
2.6557 -4.1019 2.1333
2.7426 -3.9200 2.0886
2.9434 -3.9010 2.1333
3.0817 -3.7929 2.1333
3.2160 -3.6799 2.1333
3.3462 -3.5622 2.1333
3.4720 -3.4398 2.1333
3.5934 -3.3131 2.1333
3.7102 -3.1821 2.1333
3.8222 -3.0469 2.1333
3.9293 -2.9079 2.1333
4.0314 -2.7650 2.1333
4.1283 -2.6186 2.1333
4.2198 -2.4688 2.1333
4.3060 -2.3159 2.1333
4.3866 -2.1599 2.1333
4.4615 -2.0011 2.1333
4.5307 -1.8397 2.1333
4.5941 -1.6760 2.1333
4.6516 -1.5101 2.1333
4.7031 -1.3422 2.1333
4.7485 -1.1725 2.1333
4.7878 -1.0014 2.1333
4.8213 -0.8289 2.1335
4.8483 -0.6554 2.1335
4.8690 -0.4809 2.1335
4.8835 -0.3058 2.1335
4.8916 -0.1303 2.1335
4.8935 0.0454 2.1335
4.8890 0.2210 2.1335
4.8783 0.3964 2.1335
4.8612 0.5713 2.1335
4.8379 0.7455 2.1335
4.8083 0.9187 2.1335
4.7726 1.0908 2.1335
4.7306 1.2615 2.1335
4.6826 1.4306 2.1335
4.6286 1.5979 2.1335
4.5685 1.7631 2.1335
4.5026 1.9261 2.1335
4.4309 2.0866 2.1335
4.3534 2.2444 2.1335
4.2703 2.3994 2.1335
4.1817 2.5513 2.1335
4.0877 2.6999 2.1335
3.9884 2.8450 2.1335
3.8839 2.9865 2.1335
3.7745 3.1242 2.1335
3.6601 3.2578 2.1335
3.5410 3.3873 2.1335
3.4174 3.5124 2.1335
3.2893 3.6330 2.1335
3.1570 3.7489 2.1335
3.0205 3.8600 2.1335
2.8802 3.9661 2.1335
2.7361 4.0671 2.1335
2.5885 4.1629 2.1335
0.8724 1.5223 0.7636
0.8173 1.5526 0.7636
0.7610 1.5810 0.7636
0.7038 1.6073 0.7635
0.6457 1.6315 0.7635
0.5867 1.6537 0.7635
0.5270 1.6737 0.7635
0.4666 1.6915 0.7634
0.4056 1.7072 0.7634
0.3441 1.7206 0.7634
0.2821 1.7319 0.7634
0.2198 1.7409 0.7634
0.1571 1.7477 0.7634
0.0943 1.7522 0.7634
0.0314 1.7544 0.7633
-0.0316 1.7544 0.7633
-0.0945 1.7522 0.7633
-0.1574 1.7476 0.7633
-0.2200 1.7409 0.7633
-0.2823 1.7319 0.7633
-0.3443 1.7206 0.7633
-0.4058 1.7072 0.7633
-0.4668 1.6915 0.7633
-0.5272 1.6737 0.7633
-0.5869 1.6537 0.7633
-0.6459 1.6315 0.7633
-0.7040 1.6073 0.7633
-0.7612 1.5810 0.7634
-0.8175 1.5527 0.7634
-0.8727 1.5223 0.7634
-0.9267 1.4900 0.7634
-0.9796 1.4558 0.7634
-3.0211 4.1593 2.2366
-3.1683 4.0481 2.2366
-3.3115 3.9316 2.2366
-3.4503 3.8101 2.2366
-3.5847 3.6837 2.2366
-3.7144 3.5526 2.2366
-3.8394 3.4169 2.2366
-3.9594 3.2767 2.2366
-4.0743 3.1324 2.2366
-4.1839 2.9840 2.2366
-4.2880 2.8318 2.2366
-4.3867 2.6760 2.2366
