ply
format ascii 1.0
element vertex 2146
property float32 x
property float32 y
property float32 z
end_header
7.2060 -21.5184 2.1813
7.9739 -21.2462 2.1813
8.5177 -20.4336 2.1279
8.6792 -18.8822 1.9975
8.6795 -17.2249 1.8539
8.6797 -15.7882 1.7317
8.6799 -14.5275 1.6266
8.6801 -13.4098 1.5353
8.6544 -12.3728 1.4512
8.6803 -11.5071 1.3853
8.6211 -10.6135 1.3141
2.3983 -2.7450 0.3503
8.6818 -9.2450 1.2188
8.6818 -8.6041 1.1746
8.6819 -8.0073 1.1349
8.6820 -7.4488 1.0992
8.6821 -6.9236 1.0670
8.6822 -6.4277 1.0380
8.6822 -5.9575 1.0117
8.6823 -5.5098 0.9880
8.6823 -5.0822 0.9665
8.6824 -4.6721 0.9472
8.6825 -4.2776 0.9298
8.6825 -3.8968 0.9142
8.6826 -3.5280 0.9003
8.6568 -3.1605 0.8852
8.6569 -2.8127 0.8743
8.6569 -2.4729 0.8647
8.6570 -2.1400 0.8565
8.6828 -1.8184 0.8520
8.6829 -1.4952 0.8461
8.6829 -1.1761 0.8414
8.6819 -0.8599 0.8378
8.6820 -0.5461 0.8353
8.6820 -0.2337 0.8339
8.6820 0.0780 0.8336
8.6821 0.3900 0.8344
8.6821 0.7030 0.8362
8.6822 1.0178 0.8392
8.6822 1.3353 0.8432
8.6823 1.6563 0.8484
8.6823 1.9818 0.8548
8.6824 2.3126 0.8624
8.6824 2.6499 0.8713
8.6825 2.9946 0.8815
8.6825 3.3479 0.8931
8.6826 3.7112 0.9061
8.6826 4.0859 0.9208
8.6827 4.4734 0.9372
8.6828 4.8755 0.9555
8.6828 5.2942 0.9758
8.6829 5.7317 0.9982
8.6830 6.1904 1.0231
8.6572 6.6534 1.0475
8.6573 7.1621 1.0779
8.6099 7.6598 1.1055
8.6833 8.3022 1.1524
11.2264 11.5330 1.5439
10.4470 11.5332 1.4926
9.7166 11.5333 1.4465
9.0292 11.5334 1.4049
8.3794 11.5334 1.3673
7.7626 11.5335 1.3334
7.6255 12.2578 1.3845
7.6256 13.2999 1.4703
7.6258 14.4813 1.5696
7.6260 15.8358 1.6855
7.6262 17.4086 1.8226
7.6007 19.1974 1.9800
7.4349 20.9459 2.1313
6.6783 21.1997 2.1313
5.9131 21.4261 2.1313
5.1449 21.6442 2.1332
4.3647 21.8152 2.1332
3.5788 21.9581 2.1332
2.7884 22.0727 2.1332
1.9943 22.1587 2.1332
1.1976 22.2161 2.1332
0.4009 22.3286 2.1413
-0.4187 23.3200 2.2363
-1.2558 23.2954 2.2368
-2.0917 23.2408 2.2374
-2.9253 23.1563 2.2379
-3.7555 23.0417 2.2384
-4.5812 22.8970 2.2389
-5.4012 22.7221 2.2394
-6.2120 22.5090 2.2389
-7.0146 22.2671 2.2385
-7.8078 21.9966 2.2381
-8.5909 21.6984 2.2378
-9.3624 21.3718 2.2373
-10.1215 21.0177 2.2369
-10.3654 19.6838 2.1332
-11.0651 19.2986 2.1332
-11.7504 18.8886 2.1332
-12.4206 18.4542 2.1332
-13.0747 17.9961 2.1332
-13.7120 17.5147 2.1332
-14.3314 17.0108 2.1332
-12.1932 13.4609 1.7419
-15.6819 16.1103 2.1563
-16.2496 15.5365 2.1563
-16.7963 14.9427 2.1563
-17.3213 14.3297 2.1563
-17.8239 13.6982 2.1563
-18.3035 13.0491 2.1563
-18.7594 12.3832 2.1563
-19.1912 11.7015 2.1563
-19.5981 11.0046 2.1563
-19.9797 10.2936 2.1563
-20.3355 9.5694 2.1563
-20.6651 8.8329 2.1563
-20.9679 8.0851 2.1563
-15.1024 5.2088 1.5329
-15.2109 4.6424 1.5261
-15.3184 4.0802 1.5213
-15.4250 3.5208 1.5184
-15.6705 2.9895 1.5311
-14.9265 2.2957 1.4495
-16.6148 1.9478 1.6056
-14.1583 1.1464 1.3635
-14.5900 0.6554 1.4019
-15.0478 0.1353 1.4446
-14.0980 -0.3796 1.3539
-14.8621 -0.9349 1.4296
-14.6549 -1.4515 1.4139
-15.9553 -2.1611 1.5459
-15.7339 -2.7095 1.5330
-15.5159 -3.2493 1.5222
-21.7994 -5.3888 2.1563
-21.5910 -6.1676 2.1563
-21.3547 -6.9383 2.1563
-20.0696 -7.3272 2.0519
-19.7928 -8.0425 2.0519
-19.4905 -8.7474 2.0519
-19.1631 -9.4410 2.0519
-19.7683 -10.6375 2.1563
-18.6113 -10.8940 2.0716
-18.2075 -11.5546 2.0716
-17.1503 -11.7679 1.9981
-15.8957 -11.7681 1.9001
-15.3771 -12.2625 1.8896
-15.3786 -13.1941 1.9468
-15.3802 -14.1850 2.0103
-15.3819 -15.2441 2.0808
-15.1840 -16.1691 2.1313
-10.3231 -11.8155 1.5077
-13.9839 -17.2157 2.1313
-13.3565 -17.7060 2.1313
-12.7119 -18.1735 2.1313
-12.0511 -18.6176 2.1313
-11.3747 -19.0377 2.1313
-10.6837 -19.4332 2.1313
-8.7029 -17.2714 1.8588
-9.2690 -20.1653 2.1331
-8.5390 -20.4846 2.1331
-6.6994 -17.8503 1.8326
-7.0470 -21.0436 2.1331
-6.2870 -21.2826 2.1331
-5.7860 -22.5347 2.2363
-4.9733 -22.7276 2.2363
-4.1542 -22.8911 2.2363
-3.3298 -23.0253 2.2363
-2.5011 -23.1298 2.2363
-1.6692 -23.2045 2.2363
-0.8351 -23.2493 2.2363
-0.0000 -18.8071 2.2363
0.6751 -18.7949 2.2363
1.3493 -18.7585 2.2363
2.0218 -18.6980 2.2363
2.5677 -17.7554 2.1332
3.2034 -17.6519 2.1332
3.8350 -17.5256 2.1332
4.4616 -17.3767 2.1332
5.0826 -17.2055 2.1332
5.6970 -17.0121 2.1332
6.4461 -17.1755 2.1813
7.0586 -16.9332 2.1813
7.6620 -16.6691 2.1813
8.2555 -16.3835 2.1813
8.6797 -15.7881 2.1421
8.6799 -14.5275 2.0121
8.6801 -13.4098 1.8992
8.6544 -12.3727 1.7952
8.6803 -11.5071 1.7137
8.6211 -10.6135 1.6256
2.3980 -2.7447 0.4333
8.6818 -9.2450 1.5077
8.6818 -8.6041 1.4531
8.6819 -8.0073 1.4040
8.6820 -7.4487 1.3598
8.6821 -6.9236 1.3200
8.6822 -6.4277 1.2841
8.6822 -5.9574 1.2516
8.6823 -5.5098 1.2222
8.6823 -5.0821 1.1957
8.6824 -4.6721 1.1718
8.6825 -4.2775 1.1503
8.6825 -3.8967 1.1310
8.6826 -3.5280 1.1138
8.6568 -3.1605 1.0952
8.6569 -2.8127 1.0816
8.6569 -2.4729 1.0698
8.6570 -2.1400 1.0596
8.6828 -1.8183 1.0541
8.6829 -1.4952 1.0468
8.6829 -1.1761 1.0410
8.6819 -0.8599 1.0365
8.6820 -0.5461 1.0335
8.6820 -0.2337 1.0318
8.6820 0.0781 1.0314
8.6821 0.3900 1.0324
8.6821 0.7030 1.0347
8.6822 1.0179 1.0383
8.6822 1.3353 1.0434
8.6823 1.6564 1.0498
8.6823 1.9818 1.0577
8.6824 2.3127 1.0671
8.6824 2.6499 1.0781
8.6825 2.9946 1.0907
8.6825 3.3480 1.1050
8.6826 3.7113 1.1213
8.6826 4.0859 1.1394
8.6827 4.4734 1.1597
8.6828 4.8755 1.1823
8.6828 5.2942 1.2074
8.6829 5.7317 1.2352
8.6830 6.1904 1.2660
8.6572 6.6534 1.2962
8.6573 7.1621 1.3339
8.6101 7.6599 1.3680
8.6833 8.3023 1.4261
11.2263 11.5330 1.9105
10.4469 11.5332 1.8471
9.7166 11.5333 1.7900
9.0292 11.5334 1.7386
8.3794 11.5334 1.6921
7.7626 11.5335 1.6501
7.6255 12.2579 1.7134
7.6256 13.2999 1.8195
7.6258 14.4814 1.9424
7.6260 15.8358 2.0859
7.2062 16.4500 2.1313
6.6112 16.6983 2.1313
6.0076 16.9251 2.1313
5.4011 17.1455 2.1332
4.7823 17.3285 2.1332
4.1572 17.4892 2.1332
3.5268 17.6274 2.1332
2.8918 17.7428 2.1332
2.2531 17.8353 2.1332
1.6893 18.7700 2.2363
1.0146 18.8223 2.2368
0.3384 18.8509 2.2373
-0.3385 18.8552 2.2378
-1.0154 18.8352 2.2383
-1.6912 18.7909 2.2388
-2.3652 18.7224 2.2393
-3.0354 18.6233 2.2391
-3.7011 18.4984 2.2386
-4.3618 18.3496 2.2381
-5.0166 18.1773 2.2376
-5.6646 17.9816 2.2372
-6.3050 17.7627 2.2367
-6.6175 16.7142 2.1332
-7.2131 16.4657 2.1332
-6.3902 13.2696 1.7478
-8.3756 15.9053 2.1332
-8.9410 15.5941 2.1332
-9.4949 15.2629 2.1332
-10.0365 14.9119 2.1332
-10.6794 14.6991 2.1563
-11.1999 14.3060 2.1563
-11.7060 13.8945 2.1563
-12.1969 13.4650 2.1563
-12.6721 13.0182 2.1563
-13.1309 12.5546 2.1563
-13.5727 12.0749 2.1563
-13.9971 11.5796 2.1563
-14.4033 11.0694 2.1563
-14.7909 10.5450 2.1563
-15.1595 10.0069 2.1563
-15.5084 9.4560 2.1563
-15.8374 8.8930 2.1563
-16.1459 8.3185 2.1563
-16.4336 7.7333 2.1563
-16.7000 7.1382 2.1563
-16.9449 6.5339 2.1563
-15.0531 5.1918 1.8907
-15.1615 4.6273 1.8823
-15.2688 4.0670 1.8763
-15.3751 3.5095 1.8728
-15.9953 3.0515 1.9338
-15.1066 2.3234 1.8151
-16.4910 1.9333 1.9719
-14.2306 1.1523 1.6957
-14.6667 0.6589 1.7437
-15.1293 0.1360 1.7971
-14.1913 -0.3820 1.6863
-14.9659 -0.9414 1.7812
-14.7505 -1.4609 1.7608
-15.9379 -2.1587 1.9106
-15.7169 -2.7065 1.8946
-15.4992 -3.2458 1.8813
-17.6194 -4.3555 2.1563
-17.4511 -4.9849 2.1563
-17.2410 -5.6017 2.1539
-17.0472 -6.2237 2.1563
-16.8122 -6.8314 2.1563
-15.9565 -7.1613 2.0783
-15.4541 -7.6137 2.0472
-15.1603 -8.1578 2.0459
-14.8538 -8.6945 2.0454
-14.5294 -9.2204 2.0451
-14.9603 -10.2652 2.1563
-14.5817 -10.7952 2.1563
-14.1843 -11.3113 2.1563
-13.7687 -11.8129 2.1563
-13.3354 -12.2992 2.1563
-12.7357 -12.6216 2.1313
-12.2740 -13.0702 2.1313
-10.2741 -11.7594 1.8563
-11.3040 -13.9164 2.1313
-10.7970 -14.3129 2.1313
-10.2759 -14.6909 2.1313
-9.7498 -15.0623 2.1331
-9.2026 -15.4022 2.1331
-8.6436 -15.7223 2.1331
-8.0735 -16.0222 2.1331
-7.4930 -16.3013 2.1331
-6.9029 -16.5595 2.1331
-6.3039 -16.7964 2.1331
-5.9726 -17.8350 2.2363
-5.3284 -18.0377 2.2363
-4.6774 -18.2171 2.2363
-4.0204 -18.3730 2.2363
-3.3583 -18.5054 2.2363
-2.6918 -18.6138 2.2363
-2.0219 -18.6983 2.2363
-1.3494 -18.7587 2.2363
-0.6751 -18.7950 2.2363
-0.0000 -15.7696 2.2363
0.5661 -15.7594 2.2363
1.1314 -15.7289 2.2363
1.6953 -15.6782 2.2363
2.1530 -14.8877 2.1332
2.6860 -14.8009 2.1332
3.2156 -14.6950 2.1332
3.7410 -14.5702 2.1332
4.2617 -14.4266 2.1332
4.7768 -14.2644 2.1332
5.2858 -14.0839 2.1332
5.7881 -13.8852 2.1332
6.4245 -13.9767 2.1813
6.9221 -13.7373 2.1813
7.4109 -13.4801 2.1813
7.8901 -13.2056 2.1813
8.3592 -12.9140 2.1813
8.6544 -12.3727 2.1410
8.6803 -11.5070 2.0438
8.6211 -10.6135 1.9388
2.3977 -2.7443 0.5167
8.6818 -9.2449 1.7982
8.6818 -8.6041 1.7330
8.6819 -8.0073 1.6745
8.6820 -7.4487 1.6218
8.6821 -6.9235 1.5743
8.6822 -6.4276 1.5315
8.6822 -5.9574 1.4927
8.6823 -5.5098 1.4577
8.6823 -5.0821 1.4261
8.6824 -4.6720 1.3977
8.6825 -4.2775 1.3720
8.6825 -3.8967 1.3490
8.6826 -3.5280 1.3284
8.6568 -3.1605 1.3062
8.6569 -2.8126 1.2901
8.6569 -2.4728 1.2760
8.6570 -2.1399 1.2639
8.6828 -1.8183 1.2572
8.6828 -1.4952 1.2486
8.6829 -1.1760 1.2417
8.6819 -0.8599 1.2363
8.6820 -0.5461 1.2327
8.6820 -0.2337 1.2307
8.6820 0.0781 1.2303
8.6821 0.3901 1.2314
8.6821 0.7031 1.2342
8.6822 1.0179 1.2385
8.6822 1.3354 1.2446
8.6823 1.6564 1.2522
8.6823 1.9819 1.2617
8.6824 2.3127 1.2729
8.6824 2.6499 1.2860
8.6825 2.9946 1.3010
8.6825 3.3480 1.3182
8.6826 3.7113 1.3375
8.6826 4.0859 1.3592
8.6827 4.4734 1.3834
8.6828 4.8756 1.4104
8.6828 5.2943 1.4403
8.6829 5.7317 1.4735
8.6830 6.1904 1.5102
8.6572 6.6534 1.5463
8.6573 7.1622 1.5912
8.6102 7.6601 1.6320
8.6833 8.3023 1.7012
10.4983 10.7852 2.1313
10.1047 11.1554 2.1313
9.6979 11.5111 2.1313
9.0292 11.5334 2.0740
8.3793 11.5334 2.0186
7.7626 11.5335 1.9685
7.6255 12.2579 2.0440
7.4875 13.0590 2.1313
7.0140 13.3196 2.1313
6.5315 13.5630 2.1313
6.0405 13.7889 2.1313
5.5417 13.9971 2.1313
5.0403 14.1999 2.1332
4.5274 14.3718 2.1332
4.0086 14.5252 2.1332
3.4847 14.6599 2.1332
2.9562 14.7757 2.1332
2.4240 14.8724 2.1332
1.9798 15.6724 2.2363
1.4161 15.7346 2.2365
0.8505 15.7768 2.2367
0.2836 15.7987 2.2369
-0.2837 15.8001 2.2371
-0.8507 15.7813 2.2373
-1.4168 15.7420 2.2375
-1.9811 15.6825 2.2377
-2.5427 15.6004 2.2376
-3.1007 15.4975 2.2374
-3.6547 15.3748 2.2372
-4.2038 15.2322 2.2370
-4.7474 15.0700 2.2368
-5.2847 14.8884 2.2366
-5.8152 14.6877 2.2364
-6.0727 13.8623 2.1426
-6.3761 13.2403 2.0805
-7.0207 13.3323 2.1332
-7.4946 13.0715 2.1332
-7.9589 12.7939 2.1332
-8.4129 12.4998 2.1332
-8.8560 12.1895 2.1332
-9.2877 11.8636 2.1332
-9.7074 11.5223 2.1332
-10.2240 11.2870 2.1563
-10.6224 10.9126 2.1563
-11.0070 10.5240 2.1563
-11.3774 10.1219 2.1563
-11.7331 9.7067 2.1563
-12.0737 9.2791 2.1563
-12.3987 8.8395 2.1563
-12.7077 8.3886 2.1563
-13.0003 7.9268 2.1563
-13.2761 7.4548 2.1563
-13.5348 6.9733 2.1563
-13.7760 6.4828 2.1563
-13.9995 5.9839 2.1563
-14.2049 5.4774 2.1563
-14.3919 4.9638 2.1563
-14.5604 4.4439 2.1563
-14.7101 3.9183 2.1563
-14.8408 3.3876 2.1563
-14.8711 2.8371 2.1446
-15.0447 2.3139 2.1563
-15.1176 1.7723 2.1563
-14.3041 1.1583 2.0331
-14.7446 0.6624 2.0910
-15.2121 0.1368 2.1553
-14.2863 -0.3845 2.0249
-15.0718 -0.9480 2.1397
-14.8479 -1.4706 2.1141
-15.0801 -2.0425 2.1563
-14.9966 -2.5824 2.1563
-14.8938 -3.1190 2.1563
-14.7718 -3.6515 2.1563
-14.6307 -4.1792 2.1563
-14.4708 -4.7016 2.1563
-14.2923 -5.2178 2.1563
-14.0954 -5.7274 2.1563
-13.8803 -6.2295 2.1563
-13.6473 -6.7235 2.1563
-13.3092 -7.1617 2.1422
-12.5897 -7.3692 2.0678
-12.3498 -7.8372 2.0733
-12.0991 -8.3019 2.0800
-11.8331 -8.7604 2.0871
-11.5520 -9.2122 2.0946
-11.5443 -9.9043 2.1563
-11.1810 -10.3121 2.1563
-10.8034 -10.7065 2.1563
-10.4118 -11.0872 2.1563
-9.8991 -11.3301 2.1331
-9.4857 -11.6779 2.1331
-9.0602 -12.0106 2.1331
-8.6231 -12.3278 2.1331
-8.1749 -12.6292 2.1331
-7.7161 -12.9143 2.1331
-7.2474 -13.1827 2.1331
-6.7694 -13.4341 2.1331
-6.2827 -13.6683 2.1331
-6.0121 -14.4226 2.2157
-5.5416 -14.7651 2.2363
-5.0079 -14.9543 2.2363
-4.4678 -15.1243 2.2363
-3.9220 -15.2748 2.2363
-3.3711 -15.4056 2.2363
-2.8159 -15.5165 2.2363
-2.2571 -15.6075 2.2363
-1.6954 -15.6784 2.2363
-1.1314 -15.7290 2.2363
-0.5661 -15.7594 2.2363
-0.0000 -13.5647 2.2363
0.4869 -13.5560 2.2363
0.9732 -13.5297 2.2363
1.4583 -13.4861 2.2363
1.9414 -13.4251 2.2363
2.3105 -12.7315 2.1332
2.7660 -12.6404 2.1332
3.2180 -12.5330 2.1332
3.6658 -12.4095 2.1332
4.1089 -12.2700 2.1332
4.5468 -12.1147 2.1332
4.9788 -11.9437 2.1332
5.4043 -11.7574 2.1332
5.8178 -11.5456 2.1313
6.2285 -11.3295 2.1313
6.6313 -11.0987 2.1313
7.0255 -10.8536 2.1313
7.4107 -10.5946 2.1313
7.7864 -10.3219 2.1313
8.1520 -10.0359 2.1313
2.3974 -2.7440 0.6006
8.6818 -9.2449 2.0905
8.6818 -8.6040 2.0148
8.6819 -8.0072 1.9468
8.6820 -7.4487 1.8855
8.6821 -6.9235 1.8303
8.6822 -6.4276 1.7805
8.6822 -5.9574 1.7354
8.6823 -5.5098 1.6948
8.6823 -5.0821 1.6580
8.6824 -4.6720 1.6249
8.6825 -4.2775 1.5951
8.6825 -3.8967 1.5684
8.6826 -3.5280 1.5444
8.6568 -3.1604 1.5187
8.6569 -2.8126 1.4999
8.6569 -2.4728 1.4836
8.6570 -2.1399 1.4694
8.6828 -1.8183 1.4617
8.6829 -1.4952 1.4517
8.6829 -1.1760 1.4437
8.6819 -0.8598 1.4374
8.6820 -0.5461 1.4332
8.6820 -0.2337 1.4309
8.6820 0.0781 1.4304
8.6821 0.3901 1.4318
8.6821 0.7031 1.4350
8.6822 1.0179 1.4400
8.6822 1.3354 1.4470
8.6823 1.6564 1.4560
8.6823 1.9819 1.4669
8.6824 2.3127 1.4800
8.6824 2.6499 1.4952
8.6825 2.9947 1.5127
8.6825 3.3480 1.5327
8.6826 3.7113 1.5552
8.6826 4.0859 1.5804
8.6827 4.4735 1.6086
8.6828 4.8756 1.6399
8.6828 5.2943 1.6748
8.6829 5.7318 1.7133
8.6830 6.1905 1.7560
8.6572 6.6535 1.7980
8.6573 7.1622 1.8502
8.6103 7.6602 1.8977
8.6833 8.3023 1.9782
9.0287 9.2755 2.1313
8.6901 9.5938 2.1313
8.3403 9.8997 2.1313
7.9797 10.1929 2.1313
7.6088 10.4730 2.1313
7.2281 10.7395 2.1313
6.8381 10.9922 2.1313
6.4392 11.2308 2.1313
6.0320 11.4548 2.1313
5.6170 11.6641 2.1313
5.1994 11.8690 2.1332
4.7701 12.0482 2.1332
4.3346 12.2118 2.1332
3.8935 12.3596 2.1332
3.4474 12.4915 2.1332
2.9968 12.6073 2.1332
2.5423 12.7069 2.1332
2.0846 12.7900 2.1332
1.7026 13.4780 2.2363
1.2177 13.5305 2.2363
0.7313 13.5655 2.2363
0.2438 13.5831 2.2363
-0.2439 13.5831 2.2363
-0.7313 13.5656 2.2363
-1.2178 13.5306 2.2363
-1.7027 13.4782 2.2363
-2.1854 13.4083 2.2363
-2.6653 13.3212 2.2363
-3.1417 13.2169 2.2363
-3.6141 13.0955 2.2363
-4.0818 12.9573 2.2363
-4.5442 12.8023 2.2363
-5.0008 12.6309 2.2363
-5.4509 12.4431 2.2363
-5.8940 12.2393 2.2363
-6.0427 11.4751 2.1350
-6.4453 11.2414 2.1332
-6.8446 11.0027 2.1332
-7.2350 10.7497 2.1332
-7.6161 10.4830 2.1332
-7.9874 10.2027 2.1332
-8.3484 9.9092 2.1332
-8.6985 9.6030 2.1332
-9.0375 9.2844 2.1332
-9.3648 8.9539 2.1332
-9.6799 8.6118 2.1332
-9.9826 8.2586 2.1332
-10.3836 7.9802 2.1563
-10.6631 7.6022 2.1563
-10.9289 7.2144 2.1563
-11.1806 6.8173 2.1563
-11.4178 6.4114 2.1563
-11.6403 5.9973 2.1563
-11.8478 5.5754 2.1563
-12.0400 5.1464 2.1563
-12.2167 4.7108 2.1563
-12.3776 4.2691 2.1563
-12.5226 3.8220 2.1563
-12.6514 3.3699 2.1563
-12.7639 2.9135 2.1563
-12.8599 2.4534 2.1563
-12.9393 1.9902 2.1563
-13.0021 1.5244 2.1563
-13.0481 1.0566 2.1563
-13.0772 0.5876 2.1563
-13.0895 0.1178 2.1563
-13.0850 -0.3522 2.1563
-13.0636 -0.8216 2.1563
-13.0253 -1.2900 2.1563
-12.9702 -1.7567 2.1563
-12.8984 -2.2211 2.1563
-12.8101 -2.6826 2.1563
-12.7052 -3.1406 2.1563
-12.5839 -3.5945 2.1563
-12.4465 -4.0438 2.1563
-12.2930 -4.4879 2.1563
-12.1236 -4.9261 2.1563
-11.9387 -5.3580 2.1563
-11.7383 -5.7830 2.1563
-11.5229 -6.2005 2.1563
-11.2926 -6.6099 2.1563
-11.0478 -7.0109 2.1563
-10.6171 -7.2850 2.1220
-10.3814 -7.6855 2.1288
-10.1318 -8.0796 2.1358
-9.8227 -8.4273 2.1331
-9.5136 -8.7743 2.1331
-9.1924 -9.1099 2.1331
-8.8592 -9.4339 2.1331
-8.5147 -9.7456 2.1331
-8.1592 -10.0448 2.1331
-7.7933 -10.3310 2.1331
-7.4173 -10.6039 2.1331
-7.0317 -10.8631 2.1331
-6.6371 -11.1084 2.1331
-6.2340 -11.3393 2.1331
-6.0117 -11.9305 2.2023
-5.6658 -12.3261 2.2363
-5.2196 -12.5214 2.2363
-4.7667 -12.7006 2.2363
-4.3077 -12.8633 2.2363
-3.8431 -13.0096 2.2363
-3.3736 -13.1390 2.2363
-2.8998 -13.2515 2.2363
-2.4222 -13.3470 2.2363
-1.9415 -13.4253 2.2363
-1.4583 -13.4862 2.2363
-0.9733 -13.5298 2.2363
-0.4869 -13.5560 2.2363
-0.0000 -11.8899 2.2363
0.4268 -11.8822 2.2363
0.8531 -11.8592 2.2363
1.2782 -11.8210 2.2363
1.7017 -11.7675 2.2363
2.0418 -11.2511 2.1507
2.4245 -11.0797 2.1332
2.8207 -10.9856 2.1332
3.2132 -10.8773 2.1332
3.6016 -10.7550 2.1332
3.9854 -10.6189 2.1332
4.3640 -10.4690 2.1332
4.7371 -10.3057 2.1332
5.1040 -10.1291 2.1332
5.4644 -9.9395 2.1332
5.8125 -9.7283 2.1313
6.1580 -9.5134 2.1313
6.4957 -9.2864 2.1313
6.8249 -9.0473 2.1313
7.1454 -8.7966 2.1313
2.3971 -2.7437 0.6852
7.7583 -8.2615 2.1313
8.0500 -7.9778 2.1313
8.3313 -7.6838 2.1313
8.6019 -7.3800 2.1313
8.6821 -6.9235 2.0882
8.6822 -6.4276 2.0313
8.6822 -5.9573 1.9800
8.6823 -5.5097 1.9336
8.6823 -5.0821 1.8917
8.6824 -4.6720 1.8539
8.6825 -4.2775 1.8199
8.6825 -3.8967 1.7894
8.6826 -3.5279 1.7621
8.6568 -3.1604 1.7327
8.6569 -2.8126 1.7113
8.6569 -2.4728 1.6926
8.6570 -2.1399 1.6765
8.6828 -1.8183 1.6677
8.6829 -1.4951 1.6563
8.6829 -1.1760 1.6472
8.6819 -0.8598 1.6400
8.6820 -0.5460 1.6352
8.6820 -0.2336 1.6326
8.6820 0.0781 1.6320
8.6821 0.3901 1.6336
8.6821 0.7031 1.6372
8.6822 1.0179 1.6430
8.6822 1.3354 1.6510
8.6823 1.6564 1.6612
8.6823 1.9819 1.6737
8.6824 2.3127 1.6886
8.6824 2.6500 1.7060
8.6825 2.9947 1.7260
8.6825 3.3481 1.7488
8.6826 3.7113 1.7744
8.6826 4.0860 1.8032
8.6827 4.4735 1.8354
8.6828 4.8756 1.8712
8.6828 5.2943 1.9109
8.6829 5.7318 1.9549
8.6830 6.1905 2.0037
8.6572 6.6535 2.0515
8.6573 7.1622 2.1111
8.4753 7.5401 2.1313
8.1993 7.8396 2.1313
7.9128 8.1291 2.1313
7.6160 8.4080 2.1313
7.3094 8.6761 2.1313
6.9934 8.9330 2.1313
6.6683 9.1785 2.1313
6.3347 9.4121 2.1313
5.9928 9.6335 2.1313
5.6432 9.8426 2.1313
5.2911 10.0479 2.1332
4.9271 10.2315 2.1332
4.5567 10.4019 2.1332
4.1804 10.5588 2.1332
3.7987 10.7022 2.1332
3.4122 10.8318 2.1332
3.0212 10.9473 2.1332
2.6263 11.0488 2.1332
2.2280 11.1360 2.1332
1.9151 11.7506 2.2363
1.4921 11.8118 2.2363
1.0672 11.8578 2.2363
0.6408 11.8885 2.2363
0.2137 11.9039 2.2363
-0.2137 11.9039 2.2363
-0.6409 11.8886 2.2363
-1.0672 11.8579 2.2363
-1.4922 11.8120 2.2363
-1.9152 11.7508 2.2363
-2.3358 11.6744 2.2363
-2.7533 11.5830 2.2363
-3.1673 11.4767 2.2363
-3.5772 11.3555 2.2363
-3.9825 11.2197 2.2363
-4.3826 11.0695 2.2363
-4.7771 10.9049 2.2363
-5.1654 10.7263 2.2363
-5.5471 10.5339 2.2363
-5.9215 10.3279 2.2363
-6.0396 9.7086 2.1479
-6.3407 9.4209 2.1332
-6.6747 9.1872 2.1332
-7.0001 8.9415 2.1332
-7.3164 8.6844 2.1332
-7.6233 8.4160 2.1332
-7.9204 8.1368 2.1332
-8.2072 7.8472 2.1332
-8.4835 7.5474 2.1332
-8.7488 7.2379 2.1332
-9.0028 6.9190 2.1332
-9.2452 6.5913 2.1332
-9.4756 6.2551 2.1332
-9.6939 5.9108 2.1332
-9.8996 5.5589 2.1332
-10.2018 5.2561 2.1563
-10.3836 4.8864 2.1563
-10.5521 4.5105 2.1563
-10.7070 4.1287 2.1563
-10.8481 3.7416 2.1563
-10.9751 3.3497 2.1563
-11.0880 2.9535 2.1563
-11.1867 2.5535 2.1563
-11.2709 2.1503 2.1563
-11.3405 1.7443 2.1563
-11.3956 1.3360 2.1563
-11.4359 0.9261 2.1563
-11.4615 0.5150 2.1563
-11.4723 0.1032 2.1563
-11.4684 -0.3086 2.1563
-11.4496 -0.7201 2.1563
-11.4161 -1.1306 2.1563
-11.3679 -1.5396 2.1563
-11.3050 -1.9466 2.1563
-11.2276 -2.3511 2.1563
-11.1357 -2.7526 2.1563
-11.0295 -3.1505 2.1563
-10.9090 -3.5443 2.1563
-10.7745 -3.9335 2.1563
-10.6261 -4.3176 2.1563
-10.4640 -4.6962 2.1563
-10.2885 -5.0687 2.1563
-9.9908 -5.3760 2.1331
-9.7912 -5.7311 2.1331
-9.5789 -6.0787 2.1331
-9.3544 -6.4185 2.1331
-9.1178 -6.7500 2.1331
-8.8694 -7.0728 2.1331
-8.6096 -7.3865 2.1331
-8.3388 -7.6907 2.1331
-8.0572 -7.9849 2.1331
-7.7652 -8.2688 2.1331
-7.4633 -8.5421 2.1331
-7.1517 -8.8044 2.1331
-6.8309 -9.0552 2.1331
-6.5014 -9.2945 2.1331
-6.1634 -9.5217 2.1331
-6.0115 -10.0612 2.2042
-5.7287 -10.4202 2.2363
-5.3509 -10.6190 2.2363
-4.9662 -10.8041 2.2363
-4.5751 -10.9753 2.2363
-4.1782 -11.1324 2.2363
-3.7758 -11.2751 2.2363
-3.3686 -11.4032 2.2363
-2.9571 -11.5167 2.2363
-2.5417 -11.6154 2.2363
-2.1231 -11.6990 2.2363
-1.7018 -11.7676 2.2363
-1.2783 -11.8211 2.2363
-0.8531 -11.8593 2.2363
-0.4268 -11.8823 2.2363
-0.0000 -10.5733 2.2363
0.3795 -10.5665 2.2363
0.7586 -10.5461 2.2363
1.1367 -10.5120 2.2363
1.5133 -10.4645 2.2363
1.8880 -10.4034 2.2363
2.1560 -9.8528 2.1332
2.5083 -9.7691 2.1332
2.8574 -9.6728 2.1332
3.2028 -9.5641 2.1332
3.5441 -9.4430 2.1332
3.8808 -9.3097 2.1332
4.2125 -9.1645 2.1332
4.5388 -9.0074 2.1332
4.8593 -8.8388 2.1332
5.1735 -8.6587 2.1332
5.4768 -8.4609 2.1316
5.7764 -8.2580 2.1313
6.0691 -8.0454 2.1313
6.3541 -7.8225 2.1313
2.3968 -2.7433 0.7704
6.8992 -7.3466 2.1313
7.1585 -7.0943 2.1313
7.4087 -6.8329 2.1313
7.6493 -6.5626 2.1313
7.8801 -6.2839 2.1313
8.1007 -5.9971 2.1313
8.3109 -5.7025 2.1313
8.5104 -5.4006 2.1313
8.6823 -5.0820 2.1273
8.6824 -4.6719 2.0848
8.6825 -4.2774 2.0466
8.6825 -3.8966 2.0122
8.6826 -3.5279 1.9816
8.6568 -3.1604 1.9485
8.6569 -2.8126 1.9245
8.6569 -2.4728 1.9035
8.6570 -2.1399 1.8853
8.6828 -1.8182 1.8755
8.6829 -1.4951 1.8627
8.6829 -1.1760 1.8524
8.6819 -0.8598 1.8443
8.6820 -0.5460 1.8390
8.6820 -0.2336 1.8360
8.6820 0.0781 1.8354
8.6821 0.3901 1.8371
8.6821 0.7031 1.8412
8.6822 1.0180 1.8478
8.6822 1.3355 1.8567
8.6823 1.6565 1.8682
8.6823 1.9819 1.8823
8.6824 2.3128 1.8991
8.6824 2.6500 1.9186
8.6825 2.9947 1.9411
8.6825 3.3481 1.9667
8.6826 3.7114 1.9956
8.6826 4.0860 2.0280
8.6827 4.4735 2.0641
8.6828 4.8757 2.1044
8.6112 5.2507 2.1313
8.4173 5.5565 2.1313
8.2126 5.8552 2.1313
7.9973 6.1463 2.1313
7.7716 6.4295 2.1313
7.5360 6.7045 2.1313
7.2906 6.9708 2.1313
7.0358 7.2281 2.1313
6.7719 7.4761 2.1313
6.4992 7.7145 2.1313
6.2182 7.9429 2.1313
5.9292 8.1611 2.1313
5.6325 8.3688 2.1313
5.3333 8.5734 2.1332
5.0222 8.7594 2.1332
4.7046 8.9342 2.1332
4.3809 9.0974 2.1332
4.0516 9.2489 2.1332
3.7170 9.3884 2.1332
3.3777 9.5159 2.1332
3.0339 9.6311 2.1332
2.6863 9.7338 2.1332
2.3352 9.8241 2.1332
2.0198 10.0956 2.1750
1.7028 10.4480 2.2363
1.3267 10.5025 2.2363
0.9489 10.5434 2.2363
0.5698 10.5707 2.2363
0.1900 10.5843 2.2363
-0.1900 10.5843 2.2363
-0.5698 10.5707 2.2363
-0.9489 10.5434 2.2363
-1.3268 10.5026 2.2363
-1.7029 10.4482 2.2363
-2.0768 10.3803 2.2363
-2.4481 10.2990 2.2363
-2.8162 10.2044 2.2363
-3.1807 10.0967 2.2363
-3.5410 9.9760 2.2363
-3.8968 9.8424 2.2363
-4.2475 9.6961 2.2363
-4.5928 9.5373 2.2363
-4.9322 9.3662 2.2363
-5.2652 9.1831 2.2363
-5.5913 8.9881 2.2363
-5.9103 8.7815 2.2363
-6.0359 8.3079 2.1696
-6.2242 7.9504 2.1332
-6.5055 7.7218 2.1332
-6.7784 7.4832 2.1332
-7.0425 7.2350 2.1332
-7.2976 6.9774 2.1332
-7.5432 6.7109 2.1332
-7.7791 6.4357 2.1332
-8.0050 6.1522 2.1332
-8.2205 5.8608 2.1332
-8.4255 5.5619 2.1332
-8.6195 5.2557 2.1332
-8.8025 4.9429 2.1332
-8.9741 4.6236 2.1332
-9.1341 4.2984 2.1332
-9.2823 3.9677 2.1332
-9.4179 3.6316 2.1331
-9.5420 3.2911 2.1331
-9.6538 2.9464 2.1331
-9.7531 2.5980 2.1331
-9.8399 2.2461 2.1331
-9.9139 1.8914 2.1331
-9.9752 1.5343 2.1331
-10.0237 1.1752 2.1331
-10.1688 0.8235 2.1563
-10.1916 0.4580 2.1563
-10.2012 0.0918 2.1563
-10.1977 -0.2744 2.1563
-10.1811 -0.6403 2.1563
-10.1513 -1.0053 2.1563
-9.9995 -1.3543 2.1331
-9.9443 -1.7123 2.1331
-9.8762 -2.0681 2.1331
-9.7954 -2.4213 2.1331
-9.7019 -2.7713 2.1331
-9.5960 -3.1177 2.1331
-9.4777 -3.4600 2.1331
-6.5098 -2.6451 1.4856
-9.2046 -4.1309 2.1331
-9.0503 -4.4586 2.1331
-8.8842 -4.7805 2.1331
-8.7067 -5.0963 2.1331
-8.5180 -5.4054 2.1331
-8.3183 -5.7076 2.1331
-8.1079 -6.0024 2.1331
-7.8871 -6.2894 2.1331
-7.6561 -6.5684 2.1331
-7.4152 -6.8389 2.1331
-7.1648 -7.1005 2.1331
-6.9052 -7.3530 2.1331
-6.6367 -7.5961 2.1331
-6.3597 -7.8293 2.1331
-6.0744 -8.0524 2.1331
-6.0112 -8.5938 2.2179
-5.7462 -8.8771 2.2363
-5.4238 -9.0775 2.2363
-5.0944 -9.2663 2.2363
-4.7584 -9.4431 2.2363
-4.4163 -9.6077 2.2363
-4.0685 -9.7599 2.2363
-3.7155 -9.8996 2.2363
-3.3577 -10.0265 2.2363
-2.9956 -10.1405 2.2363
-2.6296 -10.2414 2.2363
-2.2603 -10.3292 2.2363
-1.8880 -10.4036 2.2363
-1.5134 -10.4646 2.2363
-1.1367 -10.5121 2.2363
-0.7586 -10.5461 2.2363
-0.3796 -10.5665 2.2363
-0.0000 -9.5102 2.2363
0.3414 -9.5040 2.2363
0.6823 -9.4857 2.2363
1.0224 -9.4551 2.2363
1.3611 -9.4123 2.2363
1.6981 -9.3574 2.2363
2.0330 -9.2904 2.2363
2.2561 -8.7868 2.1332
2.5701 -8.7002 2.1332
2.8808 -8.6024 2.1332
3.1877 -8.4935 2.1332
3.4906 -8.3736 2.1332
3.7890 -8.2430 2.1332
4.0824 -8.1017 2.1332
4.3707 -7.9500 2.1332
4.6533 -7.7881 2.1332
4.9299 -7.6161 2.1332
5.2002 -7.4343 2.1332
5.4637 -7.2429 2.1332
5.7152 -7.0358 2.1313
2.3965 -2.7430 0.8564
6.2054 -6.6078 2.1313
6.4387 -6.3809 2.1313
6.6637 -6.1457 2.1313
6.8801 -5.9026 2.1313
7.0876 -5.6519 2.1313
7.2860 -5.3939 2.1313
7.4751 -5.1290 2.1313
7.6545 -4.8575 2.1313
7.8241 -4.5796 2.1313
7.9836 -4.2959 2.1313
8.1327 -4.0066 2.1313
8.2715 -3.7121 2.1313
8.3995 -3.4129 2.1313
8.5168 -3.1092 2.1313
8.6231 -2.8015 2.1313
8.6569 -2.4727 2.1163
8.6570 -2.1398 2.0962
8.6828 -1.8182 2.0852
8.6829 -1.4951 2.0710
8.6829 -1.1759 2.0595
8.6819 -0.8598 2.0506
8.6820 -0.5460 2.0446
8.6820 -0.2336 2.0413
8.6820 0.0782 2.0406
8.6821 0.3902 2.0426
8.6821 0.7032 2.0472
8.6822 1.0180 2.0544
8.6822 1.3355 2.0644
8.6823 1.6565 2.0772
8.6823 1.9819 2.0929
8.6824 2.3128 2.1115
8.6747 2.6477 2.1313
8.5742 2.9574 2.1313
8.4627 3.2633 2.1313
8.3402 3.5651 2.1313
8.2070 3.8622 2.1313
8.0633 4.1544 2.1313
7.9091 4.4412 2.1313
7.7447 4.7224 2.1313
7.5703 4.9974 2.1313
7.3862 5.2660 2.1313
7.1925 5.5278 2.1313
6.9896 5.7826 2.1313
6.7776 6.0298 2.1313
6.5569 6.2693 2.1313
6.3277 6.5007 2.1313
6.0904 6.7238 2.1313
5.8452 6.9382 2.1313
5.5924 7.1436 2.1313
5.3373 7.3464 2.1332
5.0702 7.5334 2.1332
4.7966 7.7106 2.1332
4.5168 7.8779 2.1332
4.2311 8.0350 2.1332
3.9400 8.1818 2.1332
3.6438 8.3180 2.1332
3.3429 8.4435 2.1332
3.0377 8.5582 2.1332
2.7286 8.6617 2.1332
2.4159 8.7542 2.1332
2.1001 8.8353 2.1332
1.8677 9.3354 2.2363
1.5314 9.3965 2.2363
1.1932 9.4454 2.2363
0.8534 9.4822 2.2363
0.5125 9.5067 2.2363
0.1709 9.5190 2.2363
-0.1709 9.5190 2.2363
-0.5125 9.5068 2.2363
-0.8534 9.4823 2.2363
-1.1932 9.4455 2.2363
-1.5315 9.3966 2.2363
-1.8678 9.3355 2.2363
-2.2017 9.2624 2.2363
-2.5327 9.1774 2.2363
-2.8605 9.0805 2.2363
-3.1846 8.9720 2.2363
-3.5046 8.8518 2.2363
-3.8200 8.7203 2.2363
-4.1306 8.5774 2.2363
-4.4358 8.4236 2.2363
-4.7352 8.2589 2.2363
-5.0286 8.0835 2.2363
-5.3155 7.8977 2.2363
-5.5955 7.7018 2.2363
-5.8683 7.4958 2.2363
-6.0324 7.1604 2.1995
-6.0962 6.7301 2.1332
-6.3338 6.5069 2.1332
-6.5631 6.2752 2.1332
-6.7841 6.0355 2.1332
-6.9963 5.7880 2.1332
-7.1994 5.5331 2.1332
-7.3933 5.2710 2.1332
-7.5776 5.0022 2.1332
-7.7522 4.7269 2.1332
-7.9167 4.4455 2.1332
-8.0710 4.1584 2.1332
-8.2143 3.8656 2.1331
-8.3477 3.5682 2.1331
-8.4702 3.2662 2.1331
-8.5818 2.9600 2.1331
-8.6824 2.6500 2.1331
-8.7718 2.3366 2.1331
-8.8498 2.0202 2.1331
-8.9165 1.7012 2.1331
-8.9716 1.3800 2.1331
-9.0152 1.0570 2.1331
-9.0472 0.7327 2.1331
-9.0675 0.4075 2.1331
-9.0761 0.0817 2.1331
-9.0730 -0.2441 2.1331
-9.0582 -0.5696 2.1331
-9.0317 -0.8944 2.1331
-8.9936 -1.2180 2.1331
-8.9439 -1.5400 2.1331
-8.8827 -1.8601 2.1331
-8.8100 -2.1777 2.1331
-8.7260 -2.4925 2.1331
-8.6308 -2.8040 2.1331
-8.5244 -3.1120 2.1331
-6.4930 -2.6382 1.6474
-6.4551 -2.8970 1.6632
-8.1400 -4.0101 2.1331
-7.9906 -4.2997 2.1331
-7.8310 -4.5837 2.1331
-7.6613 -4.8617 2.1331
-7.4817 -5.1335 2.1331
-7.2925 -5.3987 2.1331
-7.0939 -5.6569 2.1331
-6.8861 -5.9078 2.1331
-6.6695 -6.1511 2.1331
-6.4443 -6.3864 2.1331
-6.2234 -6.6270 2.1374
-6.0192 -6.8893 2.1509
-5.9970 -7.3828 2.2363
-5.7281 -7.5932 2.2363
-5.4517 -7.7938 2.2363
-5.1684 -7.9844 2.2363
-4.8784 -8.1647 2.2363
-4.5821 -8.3345 2.2363
-4.2799 -8.4935 2.2363
-3.9722 -8.6416 2.2363
-3.6594 -8.7785 2.2363
-3.3419 -8.9042 2.2363
-3.0201 -9.0183 2.2363
-2.6944 -9.1208 2.2363
-2.3652 -9.2116 2.2363
-2.0330 -9.2905 2.2363
-1.6982 -9.3575 2.2363
-1.3612 -9.4124 2.2363
-1.0224 -9.4551 2.2363
-0.6824 -9.4857 2.2363
-0.3414 -9.5041 2.2363
-0.0000 -8.6329 2.2363
0.3099 -8.6273 2.2363
0.6194 -8.6106 2.2363
0.9281 -8.5829 2.2363
1.2356 -8.5440 2.2363
1.5415 -8.4942 2.2363
1.8454 -8.4334 2.2363
2.0480 -7.9763 2.1332
2.3330 -7.8976 2.1332
2.6150 -7.8088 2.1332
2.8937 -7.7100 2.1332
3.1686 -7.6012 2.1332
3.4394 -7.4826 2.1332
3.7058 -7.3543 2.1332
3.9675 -7.2166 2.1332
4.2240 -7.0696 2.1332
4.4751 -6.9135 2.1332
4.7204 -6.7484 2.1332
4.9597 -6.5747 2.1332
5.1926 -6.3925 2.1332
2.3962 -2.7426 0.9433
5.6329 -5.9982 2.1313
5.8447 -5.7922 2.1313
6.0489 -5.5787 2.1313
6.2453 -5.3580 2.1313
6.4337 -5.1305 2.1313
6.6138 -4.8963 2.1313
6.7854 -4.6558 2.1313
6.9483 -4.4093 2.1313
7.1022 -4.1571 2.1313
7.2470 -3.8995 2.1313
7.3824 -3.6369 2.1313
7.5083 -3.3696 2.1313
7.6245 -3.0980 2.1313
7.7309 -2.8223 2.1313
7.8274 -2.5430 2.1313
7.9138 -2.2604 2.1313
7.9900 -1.9749 2.1313
8.0558 -1.6869 2.1313
8.1113 -1.3966 2.1313
8.1564 -1.1046 2.1313
8.1909 -0.8111 2.1313
8.2149 -0.5166 2.1313
8.2283 -0.2214 2.1313
8.2311 0.0742 2.1313
8.2233 0.3696 2.1313
8.2049 0.6645 2.1313
8.1759 0.9587 2.1313
8.1363 1.2515 2.1313
8.0863 1.5428 2.1313
8.0259 1.8321 2.1313
7.9551 2.1191 2.1313
7.8740 2.4033 2.1313
7.7828 2.6845 2.1313
7.6816 2.9621 2.1313
7.5704 3.2360 2.1313
7.4495 3.5057 2.1313
7.3190 3.7710 2.1313
7.1790 4.0313 2.1313
7.0298 4.2865 2.1313
6.8715 4.5361 2.1313
6.7044 4.7799 2.1313
6.5286 5.0176 2.1313
6.3443 5.2488 2.1313
6.1519 5.4732 2.1313
5.9516 5.6906 2.1313
5.7436 5.9006 2.1313
5.5281 6.1031 2.1313
5.3103 6.3033 2.1332
5.0807 6.4899 2.1332
4.8445 6.6682 2.1332
4.6021 6.8379 2.1332
4.3537 6.9988 2.1332
4.0998 7.1506 2.1332
3.8405 7.2932 2.1332
3.5762 7.4264 2.1332
3.3074 7.5501 2.1332
3.0343 7.6640 2.1332
2.7572 7.7680 2.1332
2.4766 7.8621 2.1332
2.1929 7.9459 2.1332
1.9983 8.4071 2.2363
1.6953 8.4735 2.2363
1.3900 8.5289 2.2363
1.0830 8.5733 2.2363
0.7746 8.6067 2.2363
0.4651 8.6290 2.2363
0.1551 8.6402 2.2363
-0.1551 8.6402 2.2363
-0.4652 8.6290 2.2363
-0.7746 8.6068 2.2363
-1.0831 8.5734 2.2363
-1.3901 8.5290 2.2363
-1.6954 8.4736 2.2363
-1.9984 8.4072 2.2363
-2.2989 8.3301 2.2363
-2.5964 8.2422 2.2363
-2.8906 8.1436 2.2363
-3.1810 8.0346 2.2363
-3.4673 7.9152 2.2363
-3.7492 7.7855 2.2363
-4.0262 7.6459 2.2363
-4.2980 7.4964 2.2363
-4.5643 7.3372 2.2363
-4.8247 7.1686 2.2363
-5.0789 6.9907 2.2363
-5.3265 6.8038 2.2363
-5.5672 6.6082 2.2363
-5.8008 6.4040 2.2363
-6.0268 6.1916 2.2363
-6.0367 5.7719 2.1617
-6.1578 5.4784 2.1332
-6.3504 5.2537 2.1332
-6.5348 5.0223 2.1332
-6.7108 4.7845 2.1332
-6.8781 4.5404 2.1332
-7.0365 4.2906 2.1332
-7.1859 4.0351 2.1332
-7.3255 3.7743 2.1331
-7.4561 3.5088 2.1331
-7.5771 3.2389 2.1331
-7.6884 2.9647 2.1331
-7.7897 2.6868 2.1331
-7.8810 2.4054 2.1331
-7.9621 2.1209 2.1331
-8.0330 1.8337 2.1331
-8.0935 1.5442 2.1331
-8.1436 1.2526 2.1331
-8.1831 0.9595 2.1331
-8.2122 0.6651 2.1331
-8.2306 0.3699 2.1331
-8.2384 0.0742 2.1331
-8.2356 -0.2216 2.1331
-8.2222 -0.5170 2.1331
-8.1982 -0.8118 2.1331
-8.1637 -1.1056 2.1331
-8.1186 -1.3979 2.1331
-8.0630 -1.6884 2.1331
-7.9971 -1.9767 2.1331
-7.9208 -2.2624 2.1331
-7.8343 -2.5453 2.1331
-7.7378 -2.8248 2.1331
-6.4760 -2.6313 1.8102
-6.4480 -2.8937 1.8302
-7.3889 -3.6401 2.1331
-7.2534 -3.9029 2.1331
-7.1085 -4.1607 2.1331
-6.9544 -4.4131 2.1331
-6.7914 -4.6599 2.1331
-6.6197 -4.9006 2.1331
-6.4394 -5.1350 2.1331
-6.2508 -5.3627 2.1331
-6.0542 -5.5836 2.1331
-6.0109 -5.9569 2.1918
-5.9107 -6.2940 2.2363
-5.6809 -6.5020 2.2363
-5.4438 -6.7017 2.2363
-5.1996 -6.8927 2.2363
-4.9488 -7.0748 2.2363
-4.6916 -7.2478 2.2363
-4.4283 -7.4115 2.2363
-4.1594 -7.5656 2.2363
-3.8851 -7.7100 2.2363
-3.6058 -7.8444 2.2363
-3.3218 -7.9687 2.2363
-3.0336 -8.0827 2.2363
-2.7415 -8.1864 2.2363
-2.4459 -8.2795 2.2363
-2.1471 -8.3619 2.2363
-1.8455 -8.4335 2.2363
-1.5416 -8.4943 2.2363
-1.2356 -8.5441 2.2363
-0.9281 -8.5829 2.2363
-0.6194 -8.6107 2.2363
-0.3099 -8.6273 2.2363
-0.0000 -7.8960 2.2363
0.2834 -7.8909 2.2363
0.5665 -7.8756 2.2363
0.8488 -7.8502 2.2363
1.1301 -7.8147 2.2363
1.4099 -7.7691 2.2363
1.6879 -7.7135 2.2363
1.9637 -7.6479 2.2363
2.1339 -7.2235 2.1332
2.3918 -7.1422 2.1332
2.6467 -7.0518 2.1332
2.8981 -6.9523 2.1332
3.1458 -6.8438 2.1332
3.3895 -6.7265 2.1332
3.6288 -6.6006 2.1332
3.8634 -6.4661 2.1332
4.0931 -6.3233 2.1332
4.3175 -6.1723 2.1332
4.5363 -6.0134 2.1332
4.7493 -5.8468 2.1332
2.3959 -2.7423 1.0313
5.1567 -5.4910 2.1332
5.3505 -5.3025 2.1332
5.5325 -5.1024 2.1313
5.7122 -4.9006 2.1313
5.8845 -4.6925 2.1313
6.0492 -4.4783 2.1313
6.2061 -4.2583 2.1313
6.3551 -4.0328 2.1313
6.4958 -3.8021 2.1313
6.6282 -3.5665 2.1313
6.7521 -3.3264 2.1313
6.8672 -3.0819 2.1313
6.9735 -2.8334 2.1313
7.0709 -2.5813 2.1313
7.1591 -2.3259 2.1313
7.2381 -2.0674 2.1313
7.3077 -1.8063 2.1313
7.3680 -1.5428 2.1313
7.4187 -1.2774 2.1313
7.4599 -1.0103 2.1313
7.4915 -0.7418 2.1313
7.5134 -0.4724 2.1313
7.5257 -0.2024 2.1313
7.5282 0.0678 2.1313
7.5211 0.3380 2.1313
7.5042 0.6078 2.1313
7.4777 0.8768 2.1313
7.4415 1.1447 2.1313
7.3957 1.4111 2.1313
7.3404 1.6757 2.1313
7.2757 1.9381 2.1313
7.2015 2.1981 2.1313
7.1181 2.4552 2.1313
7.0255 2.7092 2.1313
6.9238 2.9597 2.1313
6.8132 3.2063 2.1313
6.6939 3.4489 2.1313
6.5658 3.6870 2.1313
6.4294 3.9204 2.1313
6.2846 4.1487 2.1313
6.1317 4.3717 2.1313
5.9709 4.5890 2.1313
5.8024 4.8005 2.1313
5.6264 5.0057 2.1313
5.4481 5.2092 2.1332
5.2577 5.4015 2.1332
5.0604 5.5868 2.1332
4.8567 5.7649 2.1332
4.6467 5.9356 2.1332
4.4307 6.0986 2.1332
4.2090 6.2538 2.1332
3.9818 6.4009 2.1332
3.7495 6.5398 2.1332
3.5124 6.6702 2.1332
3.2707 6.7920 2.1332
3.0248 6.9051 2.1332
2.7751 7.0093 2.1332
2.5217 7.1044 2.1332
2.2865 7.2586 2.1535
2.0269 7.3447 2.1560
1.8276 7.6889 2.2363
1.5505 7.7496 2.2363
1.2713 7.8003 2.2363
0.9905 7.8409 2.2363
0.7084 7.8715 2.2363
0.4254 7.8918 2.2363
0.1418 7.9020 2.2363
-0.1419 7.9020 2.2363
-0.4254 7.8918 2.2363
-0.7084 7.8715 2.2363
-0.9905 7.8410 2.2363
-1.2713 7.8004 2.2363
-1.5505 7.7497 2.2363
-1.8277 7.6890 2.2363
-2.1025 7.6184 2.2363
-2.3746 7.5380 2.2363
-2.6436 7.4479 2.2363
-2.9093 7.3482 2.2363
-3.1711 7.2390 2.2363
-3.4289 7.1204 2.2363
-3.6823 6.9927 2.2363
-3.9309 6.8560 2.2363
-4.1744 6.7104 2.2363
-4.4126 6.5562 2.2363
-4.6450 6.3935 2.2363
-4.8715 6.2226 2.2363
-5.0916 6.0437 2.2363
-5.3052 5.8570 2.2363
-5.5120 5.6627 2.2363
-5.7117 5.4612 2.2363
-5.9039 5.2526 2.2363
-6.0303 4.9889 2.2149
-6.0372 4.6399 2.1549
-6.1375 4.3758 2.1332
-6.2906 4.1526 2.1332
-6.4350 3.9238 2.1331
-6.5716 3.6902 2.1331
-6.6997 3.4519 2.1331
-6.8192 3.2091 2.1331
-6.9299 2.9622 2.1331
-7.0317 2.7115 2.1331
-7.1244 2.4574 2.1331
-7.2079 2.2000 2.1331
-7.2821 1.9398 2.1331
-7.3469 1.6771 2.1331
-7.4023 1.4123 2.1331
-7.4481 1.1457 2.1331
-7.4843 0.8776 2.1331
-7.5108 0.6083 2.1331
-7.5277 0.3383 2.1331
-7.5349 0.0679 2.1331
-7.5323 -0.2026 2.1331
-7.5201 -0.4729 2.1331
-7.4981 -0.7425 2.1331
-7.4665 -1.0112 2.1331
-7.4253 -1.2785 2.1331
-7.3745 -1.5442 2.1331
-7.3142 -1.8079 2.1331
-7.2445 -2.0692 2.1331
-7.1654 -2.3279 2.1331
-7.0771 -2.5836 2.1331
-6.4590 -2.6243 1.9739
-6.4408 -2.8905 1.9989
-6.7580 -3.3293 2.1331
-6.6341 -3.5697 2.1331
-6.5015 -3.8055 2.1331
-6.3606 -4.0363 2.1331
-6.2231 -4.2699 2.1371
-6.0545 -4.4822 2.1331
-6.0121 -4.7942 2.1774
-5.9939 -5.1423 2.2363
-5.8053 -5.3541 2.2363
-5.6093 -5.5589 2.2363
-5.4061 -5.7566 2.2363
-5.1959 -5.9469 2.2363
-4.9790 -6.1295 2.2363
-4.7557 -6.3042 2.2363
-4.5263 -6.4708 2.2363
-4.2911 -6.6291 2.2363
-4.0503 -6.7788 2.2363
-3.8043 -6.9197 2.2363
-3.5534 -7.0518 2.2363
-3.2980 -7.1747 2.2363
-3.0383 -7.2884 2.2363
-2.7747 -7.3928 2.2363
-2.5075 -7.4875 2.2363
-2.2371 -7.5727 2.2363
-1.9638 -7.6481 2.2363
-1.6880 -7.7136 2.2363
-1.4100 -7.7692 2.2363
-1.1302 -7.8148 2.2363
-0.8489 -7.8503 2.2363
-0.5665 -7.8756 2.2363
-0.2835 -7.8909 2.2363
-0.0000 -7.2676 2.2363
0.2609 -7.2629 2.2363
0.5214 -7.2489 2.2363
0.7813 -7.2255 2.2363
1.0402 -7.1928 2.2363
1.2977 -7.1508 2.2363
1.5536 -7.0997 2.2363
1.8074 -7.0393 2.2363
2.0349 -6.8885 2.2102
2.2015 -6.5739 2.1332
2.4361 -6.4906 2.1332
2.6675 -6.3990 2.1332
2.8955 -6.2992 2.1332
3.1198 -6.1912 2.1332
3.3400 -6.0753 2.1332
3.5560 -5.9515 2.1332
3.7674 -5.8200 2.1332
3.9739 -5.6811 2.1332
4.1753 -5.5348 2.1332
4.3713 -5.3814 2.1332
2.3956 -2.7419 1.1203
4.7463 -5.0540 2.1332
4.9247 -4.8804 2.1332
5.0968 -4.7006 2.1332
5.2623 -4.5146 2.1332
5.4210 -4.3229 2.1332
5.5678 -4.1218 2.1313
5.7122 -3.9194 2.1313
5.8493 -3.7118 2.1313
5.9788 -3.4995 2.1313
6.1007 -3.2827 2.1313
6.2147 -3.0616 2.1313
6.3207 -2.8366 2.1313
6.4185 -2.6079 2.1313
6.5081 -2.3758 2.1313
6.5892 -2.1407 2.1313
6.6619 -1.9028 2.1313
6.7261 -1.6625 2.1313
6.7815 -1.4200 2.1313
6.8282 -1.1757 2.1313
6.8661 -0.9298 2.1313
6.8952 -0.6828 2.1313
6.9153 -0.4348 2.1313
6.9266 -0.1863 2.1313
6.9289 0.0625 2.1313
6.9223 0.3111 2.1313
6.9068 0.5594 2.1313
6.8824 0.8070 2.1313
6.8491 1.0536 2.1313
6.8070 1.2988 2.1313
6.7560 1.5423 2.1313
6.6964 1.7838 2.1313
6.6282 2.0231 2.1313
6.5514 2.2598 2.1313
6.4662 2.4935 2.1313
6.3726 2.7240 2.1313
6.2708 2.9511 2.1313
6.1609 3.1743 2.1313
6.0431 3.3935 2.1313
5.9174 3.6083 2.1313
5.7842 3.8184 2.1313
5.6435 4.0236 2.1313
5.4955 4.2236 2.1313
5.3452 4.4222 2.1332
5.1831 4.6113 2.1332
5.0143 4.7944 2.1332
4.8390 4.9714 2.1332
4.6575 5.1419 2.1332
4.4700 5.3058 2.1332
4.2767 5.4629 2.1332
4.0779 5.6130 2.1332
3.8738 5.7558 2.1332
3.6647 5.8912 2.1332
3.4509 6.0190 2.1332
3.2327 6.1390 2.1332
3.0103 6.2512 2.1332
2.7840 6.3552 2.1332
2.5541 6.4511 2.1332
2.3209 6.5387 2.1332
2.0847 6.6178 2.1332
1.9350 7.0116 2.2363
1.6821 7.0766 2.2363
1.4270 7.1325 2.2363
1.1700 7.1791 2.2363
0.9116 7.2165 2.2363
0.6520 7.2446 2.2363
0.3915 7.2634 2.2363
0.1305 7.2727 2.2363
-0.1306 7.2727 2.2363
-0.3916 7.2634 2.2363
-0.6520 7.2446 2.2363
-0.9116 7.2166 2.2363
-1.1701 7.1792 2.2363
-1.4270 7.1325 2.2363
-1.6821 7.0767 2.2363
-1.9351 7.0117 2.2363
-2.1855 6.9377 2.2363
-2.4331 6.8548 2.2363
-2.6776 6.7630 2.2363
-2.9186 6.6625 2.2363
-3.1558 6.5534 2.2363
-3.3890 6.4359 2.2363
-3.6178 6.3100 2.2363
-3.8420 6.1761 2.2363
-4.0612 6.0341 2.2363
-4.2751 5.8844 2.2363
-4.4835 5.7271 2.2363
-4.6862 5.5625 2.2363
-4.8828 5.3906 2.2363
-5.0731 5.2118 2.2363
-5.2568 5.0263 2.2363
-5.4338 4.8343 2.2363
-5.6038 4.6361 2.2363
-5.7665 4.4319 2.2363
-5.9218 4.2220 2.2363
-6.0322 3.9821 2.2226
-6.0138 3.6670 2.1659
-6.0484 3.3964 2.1331
-6.1663 3.1771 2.1331
-6.2763 2.9536 2.1331
-6.3782 2.7264 2.1331
-6.4718 2.4957 2.1331
-6.5571 2.2617 2.1331
-6.6340 2.0249 2.1331
-6.7023 1.7854 2.1331
-6.7620 1.5436 2.1331
-6.8129 1.2999 2.1331
-6.8551 1.0545 2.1331
-6.8884 0.8077 2.1331
-6.9129 0.5599 2.1331
-6.9284 0.3114 2.1331
-6.9350 0.0625 2.1331
-6.9327 -0.1865 2.1331
-6.9214 -0.4352 2.1331
-6.9012 -0.6834 2.1331
-6.8722 -0.9306 2.1331
-6.8342 -1.1767 2.1331
-6.7875 -1.4212 2.1331
-6.7320 -1.6640 2.1331
-6.6678 -1.9045 2.1331
-6.5950 -2.1426 2.1331
-6.5138 -2.3779 2.1331
-6.4241 -2.6102 2.1331
-6.3262 -2.8390 2.1331
-6.2237 -3.0660 2.1343
-6.1060 -3.2855 2.1331
-6.0200 -3.5236 2.1459
-6.0105 -3.8141 2.1900
-5.9939 -4.1126 2.2363
-5.8424 -4.3251 2.2363
-5.6833 -4.5320 2.2363
-5.5168 -4.7330 2.2363
-5.3433 -4.9279 2.2363
-5.1629 -5.1165 2.2363
-4.9759 -5.2985 2.2363
-4.7824 -5.4736 2.2363
-4.5828 -5.6417 2.2363
-4.3773 -5.8025 2.2363
-4.1661 -5.9558 2.2363
-3.9496 -6.1015 2.2363
-3.7280 -6.2393 2.2363
-3.5016 -6.3690 2.2363
-3.2707 -6.4906 2.2363
-3.0355 -6.6037 2.2363
-2.7965 -6.7084 2.2363
-2.5539 -6.8044 2.2363
-2.3079 -6.8917 2.2363
-2.0590 -6.9700 2.2363
-1.8075 -7.0394 2.2363
-1.5536 -7.0997 2.2363
-1.2978 -7.1509 2.2363
-1.0402 -7.1929 2.2363
-0.7813 -7.2255 2.2363
-0.5215 -7.2489 2.2363
-0.2609 -7.2629 2.2363
-0.0000 -6.7250 2.2363
0.2414 -6.7207 2.2363
0.4825 -6.7076 2.2363
0.7230 -6.6860 2.2363
0.9625 -6.6558 2.2363
1.2008 -6.6169 2.2363
1.4376 -6.5696 2.2363
1.6725 -6.5137 2.2363
1.9052 -6.4495 2.2363
2.0448 -6.1059 2.1413
2.2542 -6.0060 2.1332
2.4683 -5.9212 2.1332
2.6793 -5.8288 2.1332
2.8868 -5.7289 2.1332
3.0907 -5.6216 2.1332
3.2905 -5.5071 2.1332
3.4861 -5.3855 2.1332
3.6772 -5.2569 2.1332
3.8636 -5.1216 2.1332
4.0449 -4.9796 2.1332
2.3953 -2.7415 1.2105
4.3919 -4.6766 2.1332
4.5570 -4.5160 2.1332
4.7162 -4.3496 2.1332
4.8693 -4.1775 2.1332
5.0162 -4.0000 2.1332
5.1566 -3.8174 2.1332
5.2904 -3.6299 2.1332
5.4174 -3.4377 2.1332
5.5324 -3.2382 2.1313
5.6451 -3.0375 2.1313
5.7506 -2.8330 2.1313
5.8487 -2.6247 2.1313
5.9392 -2.4131 2.1313
6.0221 -2.1984 2.1313
6.0972 -1.9808 2.1313
6.1644 -1.7607 2.1313
6.2237 -1.5383 2.1313
6.2750 -1.3139 2.1313
6.3183 -1.0878 2.1313
6.3533 -0.8604 2.1313
6.3802 -0.6318 2.1313
6.3989 -0.4023 2.1313
6.4093 -0.1724 2.1313
6.4114 0.0578 2.1313
6.4053 0.2879 2.1313
6.3909 0.5177 2.1313
6.3683 0.7468 2.1313
6.3375 0.9749 2.1313
6.2985 1.2018 2.1313
6.2514 1.4271 2.1313
6.1962 1.6506 2.1313
6.1331 1.8720 2.1313
6.0620 2.0910 2.1313
5.9832 2.3073 2.1313
5.8966 2.5206 2.1313
5.8024 2.7307 2.1313
5.7007 2.9372 2.1313
5.5916 3.1400 2.1313
5.4785 3.3406 2.1325
5.3569 3.5363 2.1332
5.2266 3.7264 2.1332
5.0894 3.9116 2.1332
4.9458 4.0918 2.1332
4.7958 4.2668 2.1332
4.6397 4.4362 2.1332
4.4775 4.6000 2.1332
4.3095 4.7578 2.1332
4.1360 4.9095 2.1332
3.9572 5.0548 2.1332
3.7732 5.1937 2.1332
3.5844 5.3258 2.1332
3.3909 5.4511 2.1332
3.1931 5.5693 2.1332
2.9912 5.6804 2.1332
2.7854 5.7841 2.1332
2.5760 5.8804 2.1332
2.3632 5.9692 2.1332
2.1475 6.0502 2.1332
2.0038 6.3611 2.2160
1.7904 6.4878 2.2363
1.5564 6.5479 2.2363
1.3204 6.5996 2.2363
1.0826 6.6427 2.2363
0.8435 6.6773 2.2363
0.6033 6.7033 2.2363
0.3623 6.7207 2.2363
0.1208 6.7294 2.2363
-0.1208 6.7294 2.2363
-0.3623 6.7207 2.2363
-0.6033 6.7034 2.2363
-0.8435 6.6774 2.2363
-1.0827 6.6428 2.2363
-1.3204 6.5996 2.2363
-1.5565 6.5480 2.2363
-1.7905 6.4879 2.2363
-2.0222 6.4194 2.2363
-2.2513 6.3427 2.2363
-2.4775 6.2577 2.2363
-2.7005 6.1647 2.2363
-2.9201 6.0638 2.2363
-3.1358 5.9550 2.2363
-3.3475 5.8386 2.2363
-3.5549 5.7146 2.2363
-3.7577 5.5833 2.2363
-3.9557 5.4448 2.2363
-4.1486 5.2993 2.2363
-4.3361 5.1469 2.2363
-4.5180 4.9879 2.2363
-4.6941 4.8225 2.2363
-4.8641 4.6508 2.2363
-5.0279 4.4732 2.2363
-5.1851 4.2898 2.2363
-5.3357 4.1008 2.2363
-5.4794 3.9066 2.2363
-5.6160 3.7074 2.2363
-5.7454 3.5034 2.2363
-5.8674 3.2948 2.2363
-5.9818 3.0820 2.2363
-6.0096 2.8281 2.2073
-6.0122 2.5700 2.1730
-6.0196 2.3213 2.1442
-6.0673 2.0928 2.1331
-6.1385 1.8736 2.1331
-6.2215 1.6573 2.1399
-6.2569 1.4283 2.1331
-6.3040 1.2028 2.1331
-6.3431 0.9757 2.1331
-6.3739 0.7474 2.1331
-6.3965 0.5181 2.1331
-6.4109 0.2882 2.1331
-6.4170 0.0579 2.1331
-6.4149 -0.1725 2.1331
-6.4045 -0.4027 2.1331
-6.3858 -0.6323 2.1331
-6.3589 -0.8611 2.1331
-6.3238 -1.0888 2.1331
-6.2805 -1.3151 2.1331
-6.2292 -1.5397 2.1331
-6.1698 -1.7623 2.1331
-6.1025 -1.9826 2.1331
-6.0273 -2.2003 2.1331
-6.0165 -2.4445 2.1590
-6.0104 -2.6973 2.1901
-6.0104 -2.9609 2.2275
-5.9235 -3.1873 2.2363
-5.8052 -3.3978 2.2363
-5.6794 -3.6040 2.2363
-5.5463 -3.8055 2.2363
-5.4061 -4.0021 2.2363
-5.2589 -4.1935 2.2363
-5.1049 -4.3795 2.2363
-4.9443 -4.5599 2.2363
-4.7774 -4.7344 2.2363
-4.6043 -4.9028 2.2363
-4.4253 -5.0649 2.2363
-4.2406 -5.2204 2.2363
-4.0504 -5.3692 2.2363
-3.8550 -5.5111 2.2363
-3.6547 -5.6459 2.2363
-3.4496 -5.7734 2.2363
-3.2401 -5.8935 2.2363
-3.0265 -6.0059 2.2363
-2.8089 -6.1107 2.2363
-2.5877 -6.2075 2.2363
-2.3632 -6.2964 2.2363
-2.1356 -6.3771 2.2363
-1.9053 -6.4496 2.2363
-1.6726 -6.5138 2.2363
-1.4376 -6.5696 2.2363
-1.2009 -6.6170 2.2363
-0.9626 -6.6558 2.2363
-0.7230 -6.6860 2.2363
-0.4825 -6.7077 2.2363
-0.2414 -6.7207 2.2363
-0.0000 -6.2512 2.2363
0.2244 -6.2472 2.2363
0.4485 -6.2351 2.2363
0.6720 -6.2150 2.2363
0.8947 -6.1868 2.2363
1.1162 -6.1508 2.2363
1.3363 -6.1067 2.2363
1.5547 -6.0548 2.2363
1.7710 -5.9951 2.2363
1.9851 -5.9277 2.2363
2.0954 -5.5829 2.1332
2.2944 -5.5041 2.1332
2.4905 -5.4182 2.1332
2.6835 -5.3253 2.1332
2.8729 -5.2256 2.1332
3.0587 -5.1191 2.1332
3.2405 -5.0060 2.1332
3.4181 -4.8865 2.1332
3.5914 -4.7607 2.1332
3.7600 -4.6288 2.1332
2.3950 -2.7412 1.3021
4.0824 -4.3471 2.1332
4.2359 -4.1978 2.1332
4.3839 -4.0431 2.1332
4.5263 -3.8831 2.1332
4.6628 -3.7182 2.1332
4.7933 -3.5485 2.1332
4.9176 -3.3741 2.1332
5.0356 -3.1955 2.1332
5.1472 -3.0127 2.1332
5.2521 -2.8260 2.1332
5.3502 -2.6357 2.1332
5.4414 -2.4420 2.1332
5.5207 -2.2431 2.1313
5.5977 -2.0435 2.1313
5.6675 -1.8412 2.1313
5.7301 -1.6366 2.1313
5.7852 -1.4299 2.1313
5.8329 -1.2213 2.1313
5.8730 -1.0112 2.1313
5.9056 -0.7997 2.1313
5.9306 -0.5872 2.1313
5.9479 -0.3739 2.1313
5.9576 -0.1602 2.1313
5.9596 0.0538 2.1313
5.9539 0.2677 2.1313
5.9405 0.4812 2.1313
5.9195 0.6942 2.1313
5.8909 0.9062 2.1313
5.8546 1.1171 2.1313
5.8108 1.3266 2.1313
5.7596 1.5343 2.1313
5.7008 1.7401 2.1313
5.6348 1.9436 2.1313
5.5615 2.1447 2.1313
5.4810 2.3429 2.1313
5.3982 2.5405 2.1332
5.3036 2.7327 2.1332
5.2022 2.9213 2.1332
5.0940 3.1062 2.1332
4.9793 3.2871 2.1332
4.8582 3.4637 2.1332
4.7308 3.6359 2.1332
4.5973 3.8035 2.1332
4.4577 3.9660 2.1332
4.3125 4.1235 2.1332
4.1618 4.2757 2.1332
4.0057 4.4224 2.1332
3.8444 4.5634 2.1332
3.6782 4.6985 2.1332
3.5072 4.8275 2.1332
3.3317 4.9504 2.1332
3.1519 5.0668 2.1332
2.9680 5.1767 2.1332
2.7803 5.2800 2.1332
2.5890 5.3764 2.1332
0.8578 1.9583 0.7643
2.1966 5.5484 2.1332
2.0239 5.7022 2.1630
1.8796 5.9668 2.2363
1.6642 6.0304 2.2363
1.4467 6.0863 2.2363
1.2273 6.1343 2.2363
1.0063 6.1745 2.2363
0.7840 6.2066 2.2363
0.5607 6.2308 2.2363
0.3367 6.2469 2.2363
0.1123 6.2550 2.2363
-0.1123 6.2550 2.2363
-0.3368 6.2469 2.2363
-0.5608 6.2308 2.2363
-0.7841 6.2067 2.2363
-1.0063 6.1745 2.2363
-1.2273 6.1344 2.2363
-1.4467 6.0864 2.2363
-1.6643 6.0305 2.2363
-1.8796 5.9669 2.2363
-2.0926 5.8955 2.2363
-2.3029 5.8166 2.2363
-0.8578 1.9583 0.7643
-0.9276 1.9262 0.7643
-2.9148 5.5353 2.2363
-3.1116 5.4270 2.2363
-3.3043 5.3118 2.2363
-3.4928 5.1898 2.2363
-3.6769 5.0610 2.2363
-3.8561 4.9257 2.2363
-4.0304 4.7841 2.2363
-4.1995 4.6363 2.2363
-4.3632 4.4825 2.2363
-4.5212 4.3230 2.2363
-4.6734 4.1579 2.2363
-4.8196 3.9874 2.2363
-4.9596 3.8118 2.2363
-5.0932 3.6313 2.2363
-5.2202 3.4461 2.2363
-5.3405 3.2564 2.2363
-5.4538 3.0626 2.2363
-5.5602 2.8648 2.2363
-5.6594 2.6634 2.2363
-5.7513 2.4585 2.2363
-5.8357 2.2504 2.2363
-5.9127 2.0395 2.2363
-5.9820 1.8259 2.2363
-6.0097 1.6009 2.2238
-6.0098 1.3720 2.2042
-6.0098 1.1467 2.1877
-6.0119 0.9248 2.1750
-6.0144 0.7053 2.1654
-6.0162 0.4873 2.1584
-6.0174 0.2705 2.1539
-6.0179 0.0543 2.1521
-6.0178 -0.1618 2.1527
-6.0170 -0.3783 2.1560
-6.0155 -0.5956 2.1617
-6.0134 -0.8143 2.1701
-6.0106 -1.0349 2.1812
-6.0102 -1.2584 2.1960
-6.0102 -1.4855 2.2141
-6.0102 -1.7166 2.2354
-5.9470 -1.9320 2.2363
-5.8738 -2.1442 2.2363
-5.7930 -2.3537 2.2363
-5.7047 -2.5601 2.2363
-5.6090 -2.7632 2.2363
-5.5061 -2.9627 2.2363
-5.3962 -3.1584 2.2363
-5.2792 -3.3500 2.2363
-5.1555 -3.5373 2.2363
-5.0252 -3.7201 2.2363
-4.8883 -3.8980 2.2363
-4.7452 -4.0709 2.2363
-4.5960 -4.2386 2.2363
-4.4408 -4.4008 2.2363
-4.2799 -4.5573 2.2363
-4.1135 -4.7080 2.2363
-3.9418 -4.8526 2.2363
-3.7651 -4.9909 2.2363
-3.5834 -5.1228 2.2363
-3.3972 -5.2481 2.2363
-3.2066 -5.3666 2.2363
-3.0119 -5.4782 2.2363
-2.8132 -5.5828 2.2363
-2.6110 -5.6801 2.2363
-2.4054 -5.7702 2.2363
-2.1967 -5.8528 2.2363
-1.9852 -5.9278 2.2363
-1.7711 -5.9952 2.2363
-1.5547 -6.0549 2.2363
-1.3364 -6.1068 2.2363
-1.1163 -6.1508 2.2363
-0.8947 -6.1869 2.2363
-0.6721 -6.2150 2.2363
-0.4485 -6.2351 2.2363
-0.2244 -6.2472 2.2363
-0.0000 -5.8335 2.2363
0.2094 -5.8298 2.2363
0.4185 -5.8185 2.2363
0.6271 -5.7997 2.2363
0.8349 -5.7735 2.2363
1.0417 -5.7398 2.2363
1.2470 -5.6987 2.2363
1.4508 -5.6503 2.2363
1.6527 -5.5946 2.2363
1.8525 -5.5317 2.2363
2.0352 -5.4224 2.2203
2.1411 -5.1363 2.1332
2.3241 -5.0562 2.1332
2.5042 -4.9695 2.1332
2.6810 -4.8764 2.1332
2.8543 -4.7771 2.1332
3.0240 -4.6716 2.1332
3.1897 -4.5600 2.1332
3.3514 -4.4426 2.1332
3.5087 -4.3195 2.1332
2.3947 -2.7408 1.3952
3.8097 -4.0567 2.1332
3.9529 -3.9173 2.1332
4.0910 -3.7729 2.1332
4.2238 -3.6237 2.1332
4.3512 -3.4697 2.1332
4.4730 -3.3113 2.1332
4.5891 -3.1487 2.1332
4.6992 -2.9819 2.1332
4.8032 -2.8114 2.1332
4.9011 -2.6372 2.1332
4.9927 -2.4595 2.1332
5.0778 -2.2788 2.1332
5.1564 -2.0950 2.1332
5.2283 -1.9086 2.1332
5.2936 -1.7197 2.1332
5.3519 -1.5286 2.1332
5.4034 -1.3355 2.1332
5.4480 -1.1407 2.1332
5.4805 -0.9436 2.1313
5.5110 -0.7462 2.1313
5.5343 -0.5480 2.1313
5.5504 -0.3489 2.1313
5.5595 -0.1495 2.1313
5.5613 0.0502 2.1313
5.5560 0.2498 2.1313
5.5435 0.4491 2.1313
5.5239 0.6478 2.1313
5.4972 0.8457 2.1313
5.4682 1.0434 2.1332
5.4273 1.2390 2.1332
5.3794 1.4331 2.1332
5.3246 1.6253 2.1332
5.2629 1.8154 2.1332
5.1944 2.0031 2.1332
