ply
format ascii 1.0
element vertex 2133
property float32 x
property float32 y
property float32 z
end_header
-14.0902 -4.5771 0.7550
-14.8230 -5.4107 0.8050
-15.2899 -6.2118 0.8427
-14.7815 -6.6330 0.8281
-14.4693 -7.1275 0.8252
-15.7384 -8.4679 0.9152
-15.4963 -9.0695 0.9203
-27.3970 -17.3842 1.6645
-25.3457 -17.3894 1.5783
-23.4975 -17.3940 1.5024
-21.8195 -17.3983 1.4354
-20.2854 -17.4021 1.3758
-18.8740 -17.4057 1.3228
-17.5680 -17.4090 1.2752
-16.3528 -17.4120 1.2326
-15.4176 -17.6449 1.2100
-15.4229 -18.9856 1.2640
-15.4287 -20.4513 1.3248
-15.4352 -22.0648 1.3935
-15.4423 -23.8546 1.4715
-10.4247 -17.4462 1.0531
-15.4592 -28.1174 1.6636
-15.4695 -30.6974 1.7832
-13.3894 -29.1269 1.6638
-15.5309 -37.2544 2.0960
-13.7293 -36.5777 2.0298
-13.0259 -38.8939 2.1320
-8.8504 -29.9573 1.6243
-10.1935 -39.6965 2.1320
-8.7660 -40.0556 2.1337
-7.3200 -40.3316 2.1337
-6.1147 -42.2779 2.2242
-4.6181 -42.7020 2.2370
-3.0815 -42.8310 2.2370
-1.5417 -42.9060 2.2370
-0.0004 -29.9370 2.2370
1.0742 -29.9153 2.2370
2.0484 -28.4799 2.1339
3.0694 -28.3871 2.1339
4.0865 -28.2584 2.1339
5.0984 -28.0939 2.1339
6.2415 -28.5226 2.1820
7.2620 -28.2820 2.1820
8.2734 -28.0056 2.1820
8.6190 -25.7366 2.0278
8.6260 -22.9822 1.8337
8.6317 -20.7057 1.6755
8.6365 -18.7881 1.5441
8.6407 -17.1467 1.4335
8.6454 -15.7244 1.3394
8.6485 -14.4738 1.2582
8.6513 -13.3642 1.1877
8.6538 -12.3708 1.1259
8.6560 -11.4738 1.0716
8.6581 -10.6580 1.0234
8.6600 -9.9110 0.9806
8.6617 -9.2227 0.9423
8.6376 -8.5593 0.9052
8.6391 -7.9669 0.8745
8.6662 -7.4343 0.8493
8.6675 -6.9111 0.8242
8.6677 -6.4161 0.8014
8.6689 -5.9474 0.7808
8.6700 -5.5012 0.7622
8.6711 -5.0747 0.7454
8.6721 -4.6657 0.7302
8.6731 -4.2722 0.7165
8.6741 -3.8922 0.7042
8.6750 -3.5242 0.6932
8.6759 -3.1667 0.6833
8.6768 -2.8184 0.6745
8.6776 -2.4780 0.6668
8.6785 -2.1445 0.6601
8.6793 -1.8168 0.6544
8.6801 -1.4940 0.6496
8.6809 -1.1750 0.6456
8.6817 -0.8591 0.6425
8.6825 -0.5454 0.6403
8.6833 -0.2330 0.6389
8.6841 0.0788 0.6383
8.6849 0.3909 0.6386
8.6497 0.7012 0.6370
8.6607 1.0161 0.6396
8.6615 1.3329 0.6424
8.6623 1.6533 0.6460
8.6275 1.9701 0.6478
8.6897 2.3154 0.6578
8.6906 2.6532 0.6642
8.6915 2.9985 0.6716
13.5543 5.2278 1.0605
13.5557 5.7956 1.0755
12.3668 5.8208 0.9964
11.3009 5.8235 0.9262
10.3731 5.8259 0.8662
9.5563 5.8279 0.8144
8.8299 5.8297 0.7693
8.1780 5.8314 0.7299
7.5884 5.8328 0.6951
7.6414 6.3227 0.7198
7.6426 6.8003 0.7420
7.6439 7.3096 0.7667
7.6453 7.8553 0.7942
7.6468 8.4430 0.8249
7.6484 9.0796 0.8592
7.6501 9.7731 0.8978
7.6520 10.5337 0.9414
7.6541 11.3738 0.9908
7.6565 12.3093 1.0471
7.5983 13.2539 1.1031
7.6057 14.4450 1.1782
7.9169 16.4420 1.3165
7.9210 18.0840 1.4238
7.9259 20.0216 1.5524
7.9318 22.3489 1.7090
7.9390 25.2051 1.9038
7.3304 26.5654 1.9849
6.5148 27.4116 2.0288
6.2714 31.3503 2.3015
4.4604 27.3718 1.9960
4.0070 31.7259 2.3011
2.3491 26.1075 1.8859
1.4140 26.2395 1.8903
0.4686 26.1269 1.8795
-0.4740 26.3844 1.8978
-1.7271 32.0327 2.3070
-2.8579 31.7525 2.2926
-3.5324 27.9619 2.0267
-4.4523 27.3169 1.9903
-5.4951 27.4656 2.0143
-6.5429 27.5261 2.0347
-7.5430 27.3329 2.0393
-8.5081 27.0093 2.0369
-9.7756 27.5418 2.1024
-10.7141 27.0627 2.0942
-11.6498 26.5950 2.0894
-12.5447 26.0515 2.0812
-12.3298 23.4158 1.9052
-14.7382 25.7068 2.1339
-15.6470 25.1543 2.1339
-16.5349 24.5691 2.1339
-17.4005 23.9521 2.1339
-18.2427 23.3041 2.1339
-6.4486 7.6549 0.7219
-20.6990 22.8533 2.2248
-21.6143 22.2070 2.2370
-22.3878 21.4077 2.2370
-23.1315 20.5812 2.2370
-23.8442 19.7284 2.2370
-24.5251 18.8507 2.2370
-25.1733 17.9493 2.2370
-12.1876 8.0463 1.0572
-13.3889 8.1649 1.1359
-25.6733 14.4184 2.1339
-26.1596 13.4799 2.1339
-26.6111 12.5250 2.1339
-27.0276 11.5549 2.1339
-27.7049 10.6854 2.1570
-28.0533 9.6781 2.1570
-28.3647 8.6594 2.1570
-28.6391 7.6308 2.1570
-28.8758 6.5936 2.1570
-29.0747 5.5492 2.1570
-29.1443 4.4849 2.1502
-28.8254 3.3818 2.1178
-28.0782 2.2761 2.0569
-18.8847 0.8500 1.3812
-18.5491 0.1684 1.3563
-15.1588 -0.4067 1.1095
-15.2634 -0.9587 1.1198
-15.3698 -1.5209 1.1316
-15.4782 -2.0950 1.1452
-15.7880 -2.7173 1.1754
-15.0854 -3.1577 1.1316
-14.4337 -3.5666 1.0924
-16.9300 -4.8345 1.2945
-14.2011 -4.6126 1.0985
-14.9475 -5.4556 1.1715
-15.3737 -6.2453 1.2225
-14.9554 -6.7105 1.2084
-14.5469 -7.1652 1.1962
-15.7220 -8.4584 1.3178
-15.4800 -9.0593 1.3248
-23.4489 -14.8780 2.0525
-23.9955 -16.4620 2.1521
-22.8142 -16.8872 2.1005
-21.8207 -17.3983 2.0664
-20.2865 -17.4021 1.9802
-18.8750 -17.4057 1.9033
-17.5688 -17.4090 1.8345
-16.3536 -17.4120 1.7727
-15.4176 -17.6440 1.7398
-15.4229 -18.9846 1.8171
-15.4287 -20.4503 1.9040
-15.4352 -22.0638 2.0023
-15.4423 -23.8535 2.1139
-10.4065 -17.4150 1.5099
-13.7959 -25.0910 2.1320
-12.8811 -25.5599 2.1320
-11.9507 -25.9961 2.1320
-9.3210 -22.3576 1.8056
-10.0477 -26.7681 2.1320
-9.0849 -27.1254 2.1337
-8.1029 -27.4261 2.1337
-7.1112 -27.6917 2.1337
-6.1110 -27.9224 2.1337
-5.3505 -29.4781 2.2370
-4.2879 -29.6453 2.2370
-3.2203 -29.7748 2.2370
-2.1490 -29.8667 2.2370
-1.0753 -29.9207 2.2370
-0.0004 -22.9643 2.2370
0.8240 -22.9481 2.2370
1.6472 -22.9027 2.2370
2.3546 -21.7762 2.1339
3.1348 -21.6775 2.1339
3.9111 -21.5513 2.1339
4.6825 -21.3976 2.1339
5.4479 -21.2168 2.1339
6.3464 -21.4825 2.1820
7.1142 -21.2427 2.1820
7.8731 -20.9758 2.1820
8.6221 -20.6822 2.1820
8.6366 -18.7876 2.0132
8.6407 -17.1463 1.8691
8.6454 -15.7240 1.7465
8.6485 -14.4734 1.6407
8.6513 -13.3638 1.5488
8.6538 -12.3704 1.4684
8.6560 -11.4735 1.3976
8.6581 -10.6577 1.3349
8.6600 -9.9106 1.2791
8.6617 -9.2223 1.2293
8.6376 -8.5590 1.1811
8.6391 -7.9665 1.1411
8.6662 -7.4340 1.1083
8.6675 -6.9108 1.0756
8.6677 -6.4158 1.0460
8.6689 -5.9471 1.0193
8.6700 -5.5009 0.9952
8.6711 -5.0744 0.9733
8.6721 -4.6654 0.9536
8.6731 -4.2719 0.9359
8.6741 -3.8919 0.9199
8.6750 -3.5239 0.9056
8.6759 -3.1664 0.8928
8.6768 -2.8181 0.8815
8.6776 -2.4778 0.8715
8.6785 -2.1443 0.8629
8.6793 -1.8166 0.8555
8.6801 -1.4937 0.8494
8.6809 -1.1748 0.8443
8.6817 -0.8588 0.8404
8.6825 -0.5451 0.8376
8.6833 -0.2327 0.8359
8.6841 0.0791 0.8353
8.6849 0.3912 0.8358
8.6494 0.7014 0.8338
8.6607 1.0164 0.8374
8.6615 1.3332 0.8411
8.6623 1.6536 0.8460
8.6278 1.9705 0.8485
8.6897 2.3157 0.8618
8.6906 2.6535 0.8703
8.6915 2.9989 0.8802
13.5543 5.2283 1.3900
13.5557 5.7961 1.4099
12.3658 5.8209 1.3063
11.3001 5.8235 1.2144
10.3724 5.8259 1.1359
9.5557 5.8279 1.0682
8.8293 5.8297 1.0093
8.1775 5.8314 0.9576
7.5879 5.8329 0.9121
7.6414 6.3230 0.9448
7.6426 6.8006 0.9741
7.6439 7.3099 1.0066
7.6453 7.8557 1.0428
7.6468 8.4434 1.0832
7.6484 9.0800 1.1285
7.6501 9.7735 1.1793
7.6520 10.5342 1.2367
7.6541 11.3744 1.3017
7.6565 12.3098 1.3759
7.5980 13.2541 1.4496
7.6053 14.4450 1.5484
7.9169 16.4428 1.7305
7.9210 18.0849 1.8716
7.9259 20.0225 2.0408
7.5259 21.2061 2.1320
6.7615 21.4677 2.1320
5.9879 21.7014 2.1320
5.2429 22.0609 2.1470
4.4485 22.2389 2.1470
3.6481 22.3881 2.1470
2.8426 22.5079 2.1470
2.0332 22.5984 2.1470
1.2209 22.6593 2.1470
0.4051 22.5888 2.1373
-0.4057 22.5772 2.1361
-1.2150 22.5336 2.1346
-2.0224 22.4687 2.1339
-2.8275 22.3820 2.1339
-3.6290 22.2660 2.1339
-4.4257 22.1209 2.1339
-5.2166 21.9469 2.1339
-6.1088 22.1363 2.1724
-7.0605 22.4142 2.2233
-7.9086 22.2821 2.2371
-8.7034 21.9844 2.2374
-9.4868 21.6576 2.2377
-10.2562 21.2995 2.2377
-11.0118 20.9134 2.2376
-11.7513 20.4976 2.2373
-12.4751 20.0556 2.2370
-13.1839 19.5905 2.2370
-13.8751 19.1000 2.2370
-14.5479 18.5848 2.2370
-6.4478 7.6542 0.9488
-12.5457 13.8519 1.7723
-16.4468 16.8984 2.2370
-17.0371 16.2919 2.2370
-17.6049 15.6645 2.2370
-17.3129 14.3251 2.1339
-17.8093 13.6894 2.1339
-18.2822 13.0364 2.1339
-12.1913 8.0491 1.3889
-19.1549 11.6818 2.1339
-19.5536 10.9821 2.1339
-20.1422 10.3799 2.1570
-20.4927 9.6459 2.1570
-20.8163 8.9001 2.1570
-21.1126 8.1435 2.1570
-21.3812 7.3769 2.1570
-21.6218 6.6015 2.1570
-21.8342 5.8184 2.1570
-22.0180 5.0284 2.1570
-22.1732 4.2327 2.1570
-22.2995 3.4323 2.1570
-22.3968 2.6283 2.1570
-22.4651 1.8218 2.1570
-18.9748 0.8547 1.8187
-18.6360 0.1698 1.7854
-15.1086 -0.4049 1.4487
-15.2125 -0.9550 1.4618
-15.3180 -1.5153 1.4770
-15.4255 -2.0874 1.4944
-15.7170 -2.7045 1.5319
-15.2135 -3.1840 1.4938
-14.5519 -3.5953 1.4413
-15.5647 -4.4441 1.5572
-14.3142 -4.6489 1.4487
-15.0744 -5.5014 1.5454
-15.4588 -6.2793 1.6077
-15.0371 -6.7466 1.5889
-14.6256 -7.2034 1.5725
-15.7055 -8.4489 1.7210
-18.5239 -10.8400 2.0722
-18.8552 -11.9627 2.1570
-18.4048 -12.6258 2.1570
-17.2973 -12.8028 2.0807
-16.5846 -13.2226 2.0517
-16.0820 -13.7947 2.0504
-15.5524 -14.3410 2.0482
-15.0064 -14.8691 2.0461
-15.2398 -16.2253 2.1570
-14.6416 -16.7552 2.1570
-14.0252 -17.2633 2.1570
-13.3914 -17.7490 2.1570
-12.6223 -18.0421 2.1369
-11.9348 -18.4347 2.1320
-11.2615 -18.8450 2.1320
-10.5743 -19.2310 2.1320
-9.8822 -19.6083 2.1337
-9.1692 -19.9447 2.1337
-8.4450 -20.2554 2.1337
-7.7104 -20.5403 2.1337
-6.9663 -20.7988 2.1337
-6.2138 -21.0308 2.1337
-5.7175 -22.2636 2.2370
-4.9136 -22.4502 2.2370
-4.1038 -22.6083 2.2370
-3.2890 -22.7376 2.2370
-2.4702 -22.8379 2.2370
-1.6485 -22.9091 2.2370
-0.8249 -22.9513 2.2370
-0.0004 -18.6106 2.2370
0.6677 -18.5976 2.2370
1.3349 -18.5610 2.2370
1.9914 -18.4172 2.2269
2.5406 -17.5682 2.1339
3.1697 -17.4658 2.1339
3.7948 -17.3412 2.1339
4.4152 -17.1945 2.1339
5.0299 -17.0259 2.1339
5.6333 -16.8204 2.1320
6.2341 -16.6088 2.1320
6.8271 -16.3759 2.1320
7.4114 -16.1222 2.1320
7.9865 -15.8478 2.1320
8.5516 -15.5531 2.1320
8.6485 -14.4730 2.0249
8.6513 -13.3635 1.9115
8.6538 -12.3700 1.8124
8.6560 -11.4731 1.7251
8.6581 -10.6573 1.6478
8.6600 -9.9103 1.5790
8.6617 -9.2220 1.5176
8.6376 -8.5586 1.4582
8.6391 -7.9662 1.4088
8.6662 -7.4336 1.3684
8.6675 -6.9105 1.3282
8.6677 -6.4155 1.2917
8.6689 -5.9468 1.2588
8.6700 -5.5006 1.2291
8.6711 -5.0742 1.2022
8.6721 -4.6652 1.1780
8.6731 -4.2716 1.1561
8.6741 -3.8916 1.1365
8.6750 -3.5236 1.1189
8.6759 -3.1661 1.1032
8.6768 -2.8178 1.0893
8.6776 -2.4775 1.0771
8.6785 -2.1440 1.0666
8.6793 -1.8163 1.0576
8.6801 -1.4934 1.0500
8.6809 -1.1745 1.0439
8.6817 -0.8586 1.0392
8.6825 -0.5448 1.0358
8.6833 -0.2324 1.0338
8.6841 0.0794 1.0332
8.6849 0.3915 1.0338
8.6492 0.7017 1.0315
8.6607 1.0167 1.0361
8.6615 1.3335 1.0408
8.6623 1.6539 1.0469
8.6281 1.9708 1.0502
8.6897 2.3160 1.0667
8.6906 2.6538 1.0773
8.6915 2.9992 1.0896
13.5543 5.2288 1.7210
13.5557 5.7966 1.7457
12.3648 5.8209 1.6176
11.2992 5.8235 1.5039
10.3717 5.8259 1.4069
9.5551 5.8279 1.3231
8.8288 5.8297 1.2502
8.1770 5.8314 1.1864
7.5875 5.8329 1.1301
7.6414 6.3234 1.1707
7.6426 6.8010 1.2071
7.6439 7.3103 1.2475
7.6453 7.8561 1.2925
7.6468 8.4438 1.3427
7.6484 9.0804 1.3989
7.6501 9.7740 1.4620
7.6520 10.5347 1.5333
7.6541 11.3749 1.6140
7.6565 12.3104 1.7062
7.5978 13.2544 1.7975
7.6050 14.4450 1.9202
7.8644 16.3346 2.1320
7.2748 16.6102 2.1320
6.6755 16.8643 2.1320
6.0671 17.0966 2.1320
5.4890 17.4284 2.1470
4.8608 17.6173 2.1470
4.2003 17.6749 2.1339
3.5638 17.8170 2.1339
2.9224 17.9358 2.1339
2.2771 18.0313 2.1339
1.6286 18.1034 2.1339
0.9779 18.1518 2.1339
0.3259 18.1779 2.1340
-0.3286 18.2803 2.1459
-1.0077 18.6879 2.1965
-1.7088 18.9848 2.2371
-2.3895 18.9147 2.2375
-3.0674 18.8199 2.2379
-3.7414 18.7007 2.2383
-4.4109 18.5573 2.2387
-5.0747 18.3894 2.2391
-5.7321 18.1974 2.2395
-6.3821 17.9818 2.2399
-7.0225 17.7388 2.2398
-7.6527 17.4710 2.2395
-8.2726 17.1805 2.2392
-8.8813 16.8675 2.2389
-9.4781 16.5330 2.2385
-10.0617 16.1762 2.2381
-10.6303 15.7965 2.2374
-11.1873 15.4005 2.2372
-11.1886 14.2938 2.1339
-6.4469 7.6535 1.1766
-12.1795 13.4481 2.1339
-12.6511 12.9990 2.1339
-13.1061 12.5333 2.1339
-13.5437 12.0515 2.1339
-13.9635 11.5543 2.1339
-14.3649 11.0423 2.1339
-14.9070 10.6301 2.1570
-12.1949 8.0520 1.7221
-15.6209 9.5271 2.1570
-15.9474 8.9573 2.1570
-16.2529 8.3762 2.1570
-16.5371 7.7846 2.1570
-16.7997 7.1834 2.1570
-17.0403 6.5733 2.1570
-17.2587 5.9551 2.1570
-17.4545 5.3298 2.1570
-17.6276 4.6980 2.1570
-17.7777 4.0606 2.1570
-17.9047 3.4184 2.1570
-18.0085 2.7724 2.1570
-18.0888 2.1233 2.1570
-18.1458 1.4721 2.1570
-18.1792 0.8194 2.1570
-18.1892 0.1663 2.1570
-15.0585 -0.4031 1.7870
-15.1616 -0.9514 1.8029
-15.2663 -1.5097 1.8214
-15.3728 -2.0798 1.8427
-16.1755 -2.7829 1.9505
-15.3443 -3.2109 1.8637
-14.6726 -3.6246 1.7976
-15.8359 -4.5210 1.9596
-14.4297 -4.6859 1.8060
-15.2041 -5.5482 1.9274
-15.5452 -6.3138 1.9990
-15.1201 -6.7833 1.9752
-14.7054 -7.2422 1.9545
-15.6890 -8.4394 2.1250
-15.6006 -9.1287 2.1570
-15.2569 -9.6791 2.1570
-14.8938 -10.2166 2.1570
-14.5120 -10.7406 2.1570
-14.1118 -11.2505 2.1570
-13.6938 -11.7455 2.1570
-13.2586 -12.2252 2.1570
-12.8067 -12.6889 2.1570
-12.0383 -12.8161 2.1044
-11.5246 -13.1876 2.0968
-11.1055 -13.6688 2.1092
-10.6692 -14.1403 2.1221
-10.2137 -14.5987 2.1350
-9.6743 -14.9424 2.1337
-9.1291 -15.2759 2.1337
-8.5725 -15.5897 2.1337
-8.0053 -15.8835 2.1337
-7.4282 -16.1568 2.1337
-6.8418 -16.4095 2.1337
-6.2624 -16.6821 2.1390
-5.9175 -17.6667 2.2370
-5.2785 -17.8645 2.2370
-4.6330 -18.0395 2.2370
-3.9817 -18.1914 2.2370
-3.3256 -18.3200 2.2370
-2.6654 -18.4253 2.2370
-2.0020 -18.5071 2.2370
-1.3361 -18.5653 2.2370
-0.6686 -18.5998 2.2370
-0.0004 -15.6310 2.2370
0.5608 -15.6203 2.2370
1.1212 -15.5896 2.2370
1.6802 -15.5391 2.2370
2.1339 -14.7558 2.1339
2.6623 -14.6698 2.1339
3.1874 -14.5651 2.1339
3.7084 -14.4418 2.1339
4.2247 -14.3000 2.1339
4.7357 -14.1399 2.1339
5.2407 -13.9618 2.1339
5.7339 -13.7535 2.1320
6.2246 -13.5401 2.1320
6.7075 -13.3094 2.1320
7.1819 -13.0616 2.1320
7.6473 -12.7971 2.1320
8.1030 -12.5161 2.1320
8.5484 -12.2190 2.1320
8.6560 -11.4727 2.0543
8.6581 -10.6570 1.9623
8.6600 -9.9099 1.8805
8.6617 -9.2216 1.8074
8.6376 -8.5583 1.7367
8.6391 -7.9659 1.6780
8.6662 -7.4333 1.6300
8.6675 -6.9101 1.5821
8.6677 -6.4152 1.5387
8.6689 -5.9465 1.4996
8.6700 -5.5003 1.4643
8.6711 -5.0739 1.4324
8.6721 -4.6649 1.4036
8.6731 -4.2713 1.3776
8.6741 -3.8913 1.3543
8.6750 -3.5233 1.3334
8.6759 -3.1658 1.3148
8.6768 -2.8175 1.2983
8.6776 -2.4772 1.2839
8.6785 -2.1437 1.2713
8.6793 -1.8160 1.2607
8.6801 -1.4932 1.2518
8.6809 -1.1742 1.2446
8.6817 -0.8583 1.2390
8.6825 -0.5446 1.2351
8.6833 -0.2322 1.2328
8.6841 0.0797 1.2321
8.6849 0.3918 1.2329
8.6490 0.7020 1.2302
8.6607 1.0170 1.2358
8.6615 1.3338 1.2415
8.6623 1.6542 1.2489
8.6284 1.9712 1.2529
8.6897 2.3163 1.2726
8.6906 2.6541 1.2854
8.6915 2.9995 1.3002
13.5543 5.2293 2.0537
13.5557 5.7971 2.0834
12.3638 5.8209 1.9304
11.2984 5.8235 1.7949
10.3710 5.8259 1.6792
9.5544 5.8279 1.5793
8.8282 5.8297 1.4924
8.1765 5.8314 1.4163
7.5870 5.8329 1.3492
7.6414 6.3237 1.3979
7.6426 6.8014 1.4414
7.6439 7.3107 1.4898
7.6453 7.8565 1.5436
7.6468 8.4443 1.6036
7.6484 9.0809 1.6708
7.6501 9.7745 1.7463
7.6520 10.5352 1.8314
7.6541 11.3754 1.9280
7.6565 12.3110 2.0382
7.5432 13.1596 2.1320
7.0676 13.4248 2.1320
6.5825 13.6727 2.1320
6.0888 13.9028 2.1320
5.5869 14.1150 2.1320
5.0822 14.3217 2.1339
4.5656 14.4973 2.1339
4.0430 14.6540 2.1339
3.5150 14.7917 2.1339
2.9822 14.9102 2.1339
2.4454 15.0093 2.1339
1.9054 15.0890 2.1339
1.3627 15.1490 2.1339
0.8513 15.8033 2.2201
0.2858 15.9463 2.2372
-0.2867 15.9498 2.2376
-0.8592 15.9327 2.2380
-1.4307 15.8948 2.2384
-2.0006 15.8363 2.2388
-2.5682 15.7572 2.2392
-3.1326 15.6575 2.2396
-3.6930 15.5373 2.2400
-4.2475 15.3921 2.2397
-4.7962 15.2265 2.2394
-5.3383 15.0412 2.2390
-5.8733 14.8363 2.2387
-6.4004 14.6123 2.2383
-6.9189 14.3694 2.2380
-7.4281 14.1080 2.2376
-7.9273 13.8283 2.2373
-8.0446 12.9337 2.1382
-8.4851 12.6091 2.1339
-8.9307 12.2944 2.1339
-9.3645 11.9638 2.1339
-6.4461 7.6527 1.4056
-10.1946 11.2568 2.1339
-10.5898 10.8814 2.1339
-10.9710 10.4920 2.1339
-11.4606 10.1983 2.1570
-11.8163 9.7780 2.1570
-12.1566 9.3452 2.1570
-12.4809 8.9006 2.1570
-12.1986 8.0548 2.0574
-13.0801 7.9779 2.1570
-13.3541 7.5012 2.1570
-13.6107 7.0149 2.1570
-13.8496 6.5199 2.1570
-14.0703 6.0168 2.1570
-14.2727 5.5061 2.1570
-14.4564 4.9887 2.1570
-14.6214 4.4651 2.1570
-14.7673 3.9361 2.1570
-14.8940 3.4024 2.1570
-15.0014 2.8646 2.1570
-15.0893 2.3235 2.1570
-15.1576 1.7797 2.1570
-15.2064 1.2341 2.1570
-15.2354 0.6872 2.1570
-15.2448 0.1399 2.1570
-15.0085 -0.4013 2.1250
-15.1109 -0.9477 2.1437
-15.1550 -1.4982 2.1570
-15.0860 -2.0405 2.1570
-14.9976 -2.5798 2.1570
-14.8899 -3.1153 2.1570
-14.7631 -3.6465 2.1570
-14.6175 -4.1726 2.1570
-14.4531 -4.6930 2.1570
-14.2702 -5.2069 2.1570
-14.0691 -5.7138 2.1570
-13.8501 -6.2130 2.1570
-13.6135 -6.7039 2.1570
-13.3595 -7.1858 2.1570
-13.0885 -7.6582 2.1570
-12.8009 -8.1204 2.1570
-12.4970 -8.5719 2.1570
-12.1773 -9.0122 2.1570
-11.8423 -9.4406 2.1570
-11.4922 -9.8566 2.1570
-11.1276 -10.2597 2.1570
-10.7489 -10.6495 2.1570
-10.3567 -11.0254 2.1570
-9.8442 -11.2642 2.1337
-9.4309 -11.6072 2.1337
-9.0058 -11.9353 2.1337
-8.5694 -12.2478 2.1337
-8.1222 -12.5446 2.1337
-7.6648 -12.8251 2.1337
-7.1979 -13.0892 2.1337
-6.7219 -13.3363 2.1337
-6.2545 -13.6033 2.1395
-6.0233 -14.4458 2.2370
-5.4999 -14.6501 2.2370
-4.9695 -14.8357 2.2370
-4.4330 -15.0022 2.2370
-3.8910 -15.1495 2.2370
-3.3441 -15.2775 2.2370
-2.7931 -15.3859 2.2370
-2.2387 -15.4746 2.2370
-1.6815 -15.5435 2.2370
-1.1222 -15.5926 2.2370
-0.5617 -15.6218 2.2370
-0.0004 -13.4619 2.2370
0.4829 -13.4527 2.2370
0.9656 -13.4264 2.2370
1.4470 -13.3828 2.2370
1.9266 -13.3222 2.2370
2.2929 -12.6342 2.1339
2.7451 -12.5440 2.1339
3.1938 -12.4377 2.1339
2.4826 -8.4031 1.4560
4.0785 -12.1776 2.1339
4.5134 -12.0240 2.1339
4.9426 -11.8551 2.1339
5.3655 -11.6710 2.1339
5.7764 -11.4617 2.1320
6.1849 -11.2481 2.1320
6.5855 -11.0200 2.1320
6.9778 -10.7779 2.1320
7.3613 -10.5218 2.1320
7.7355 -10.2523 2.1320
8.0999 -9.9695 2.1320
8.4540 -9.6739 2.1320
8.6617 -9.2213 2.0991
8.6376 -8.5580 2.0170
8.6391 -7.9656 1.9489
8.6662 -7.4330 1.8932
8.6675 -6.9098 1.8377
8.6677 -6.4149 1.7873
8.6689 -5.9462 1.7420
8.6700 -5.5000 1.7010
8.6711 -5.0736 1.6640
8.6721 -4.6646 1.6306
8.6731 -4.2710 1.6005
8.6741 -3.8910 1.5734
8.6750 -3.5230 1.5492
8.6759 -3.1656 1.5277
8.6768 -2.8173 1.5086
8.6776 -2.4769 1.4919
8.6785 -2.1434 1.4774
8.6793 -1.8157 1.4651
8.6801 -1.4929 1.4548
8.6809 -1.1739 1.4465
8.6817 -0.8580 1.4401
8.6825 -0.5443 1.4356
8.6833 -0.2319 1.4330
8.6841 0.0800 1.4323
8.6849 0.3921 1.4333
8.6487 0.7022 1.4302
8.6607 1.0172 1.4368
8.6615 1.3341 1.4435
8.6623 1.6545 1.4521
8.6287 1.9716 1.4570
8.6897 2.3166 1.4799
8.6906 2.6544 1.4949
8.6915 2.9998 1.5121
13.9425 5.3796 2.4570
13.7446 5.8784 2.4570
11.7393 5.5273 2.1320
11.2976 5.8235 2.0878
10.3703 5.8259 1.9532
9.5538 5.8279 1.8371
8.8277 5.8297 1.7362
8.1760 5.8314 1.6477
7.5866 5.8329 1.5696
7.6414 6.3241 1.6265
7.6426 6.8017 1.6772
7.6439 7.3111 1.7336
7.6453 7.8569 1.7963
7.6468 8.4447 1.8662
7.6484 9.0813 1.9445
7.6501 9.7750 2.0324
7.6520 10.5357 2.1316
7.2719 10.8079 2.1320
6.8808 11.0642 2.1320
6.4805 11.3062 2.1320
6.0717 11.5337 2.1320
5.6549 11.7463 2.1320
5.2352 11.9544 2.1339
4.8036 12.1366 2.1339
4.3656 12.3030 2.1339
3.9218 12.4535 2.1339
3.4728 12.5879 2.1339
3.0192 12.7059 2.1339
2.5615 12.8075 2.1339
2.1146 12.9797 2.1483
1.6959 13.4308 2.2113
1.2271 13.6418 2.2371
0.7369 13.6802 2.2375
0.2455 13.7008 2.2379
-0.2464 13.7036 2.2382
-0.7382 13.6886 2.2386
-1.2292 13.6558 2.2390
-1.7188 13.6053 2.2394
-2.2063 13.5371 2.2397
-2.6910 13.4506 2.2400
-3.1714 13.3430 2.2396
-3.6475 13.2181 2.2393
-4.1187 13.0760 2.2390
-4.5844 12.9170 2.2386
-5.0438 12.7414 2.2383
-5.4966 12.5492 2.2379
-5.9420 12.3409 2.2376
-6.3794 12.1166 2.2373
-6.8085 11.8769 2.2370
-6.8962 11.0878 2.1339
-7.2888 10.8317 2.1339
-7.6717 10.5616 2.1339
-8.0445 10.2779 2.1339
-6.3768 7.5708 1.6186
-8.7581 9.6710 2.1339
-9.0979 9.3488 2.1339
-9.4257 9.0145 2.1339
-9.7412 8.6687 2.1339
-10.0440 8.3117 2.1339
-10.4453 8.0301 2.1570
-10.7244 7.6483 2.1570
-10.9894 7.2568 2.1570
-11.2401 6.8560 2.1570
-11.4760 6.4466 2.1570
-11.6970 6.0290 2.1570
-11.9028 5.6038 2.1570
-12.0930 5.1716 2.1570
-12.2674 4.7329 2.1570
-12.4259 4.2884 2.1570
-12.5683 3.8386 2.1570
-12.6943 3.3840 2.1570
-12.8038 2.9253 2.1570
-12.8967 2.4631 2.1570
-12.9729 1.9980 2.1570
-13.0323 1.5306 2.1570
-13.0749 1.0615 2.1570
-13.1005 0.5913 2.1570
-13.1092 0.1207 2.1570
-13.1010 -0.3498 2.1570
-13.0759 -0.8196 2.1570
-13.0340 -1.2881 2.1570
-12.9752 -1.7545 2.1570
-12.8998 -2.2185 2.1570
-12.8079 -2.6793 2.1570
-12.6994 -3.1363 2.1570
-12.5747 -3.5891 2.1570
-12.4340 -4.0369 2.1570
-12.2772 -4.4793 2.1570
-12.1048 -4.9156 2.1570
-11.9170 -5.3454 2.1570
-11.7139 -5.7680 2.1570
-11.4959 -6.1830 2.1570
-11.2632 -6.5898 2.1570
-11.0162 -6.9878 2.1570
-10.7552 -7.3767 2.1570
-10.4805 -7.7559 2.1570
-10.1926 -8.1250 2.1570
-9.7851 -8.3920 2.1337
-9.4750 -8.7356 2.1337
-9.1530 -9.0678 2.1337
-8.8193 -9.3883 2.1337
-8.4746 -9.6965 2.1337
-6.7438 -8.2996 1.7723
-6.4695 -8.5735 1.7804
-7.3779 -10.5444 2.1337
-6.9931 -10.8002 2.1337
-6.5995 -11.0421 2.1337
-6.1977 -11.2698 2.1337
-6.0384 -11.9797 2.2260
-5.6310 -12.2466 2.2370
-5.1868 -12.4389 2.2370
-4.7361 -12.6151 2.2370
-4.2795 -12.7752 2.2370
-3.8176 -12.9189 2.2370
-3.3509 -13.0460 2.2370
-2.8800 -13.1564 2.2370
-2.4055 -13.2500 2.2370
-1.9280 -13.3266 2.2370
-1.4482 -13.3862 2.2370
-0.9666 -13.4286 2.2370
-0.4838 -13.4538 2.2370
-0.0004 -11.8106 2.2370
0.4236 -11.8026 2.2370
0.8471 -11.7795 2.2370
1.2695 -11.7413 2.2370
1.6903 -11.6881 2.2370
2.0194 -11.1271 2.1421
2.4084 -11.0053 2.1339
2.8021 -10.9120 2.1339
2.4605 -8.3282 1.6448
3.5783 -10.6837 2.1339
3.9598 -10.5489 2.1339
4.3363 -10.4006 2.1339
4.7073 -10.2390 2.1339
5.0723 -10.0642 2.1339
5.4309 -9.8765 2.1339
5.7774 -9.6675 2.1320
6.1215 -9.4549 2.1320
6.4578 -9.2301 2.1320
6.7860 -8.9935 2.1320
7.1055 -8.7453 2.1320
7.4160 -8.4858 2.1320
7.7171 -8.2153 2.1320
8.0084 -7.9342 2.1320
8.2895 -7.6429 2.1320
8.5601 -7.3417 2.1320
8.6675 -6.9095 2.0951
8.6677 -6.4146 2.0378
8.6689 -5.9459 1.9861
8.6700 -5.4997 1.9395
8.6711 -5.0733 1.8973
8.6721 -4.6643 1.8593
8.6731 -4.2707 1.8250
8.6741 -3.8907 1.7942
8.6750 -3.5228 1.7667
8.6759 -3.1653 1.7422
8.6768 -2.8170 1.7205
8.6776 -2.4766 1.7015
8.6785 -2.1432 1.6850
8.6793 -1.8155 1.6710
8.6801 -1.4926 1.6593
8.6809 -1.1737 1.6499
8.6817 -0.8577 1.6427
8.6825 -0.5440 1.6377
8.6833 -0.2316 1.6348
8.6841 0.0802 1.6339
8.6849 0.3923 1.6352
8.6485 0.7025 1.6316
8.6607 1.0175 1.6393
8.6615 1.3344 1.6470
8.6623 1.6548 1.6569
8.6291 1.9719 1.6626
8.6897 2.3169 1.6888
8.6906 2.6547 1.7059
8.6915 3.0001 1.7256
10.6009 4.0907 2.1320
10.4501 4.4697 2.1320
10.2856 4.8432 2.1320
10.1078 5.2107 2.1320
9.9169 5.5716 2.1320
9.5532 5.8279 2.0969
8.8271 5.8297 1.9817
8.1756 5.8314 1.8807
7.5862 5.8329 1.7918
7.6414 6.3244 1.8568
7.6426 6.8021 1.9148
7.6439 7.3115 1.9792
7.6453 7.8573 2.0508
7.6468 8.4451 2.1307
7.3446 8.7210 2.1320
7.0283 8.9808 2.1320
6.7028 9.2291 2.1320
6.3684 9.4655 2.1320
6.0257 9.6897 2.1320
5.6751 9.9015 2.1320
5.3217 10.1095 2.1339
4.9562 10.2956 2.1339
4.5842 10.4684 2.1339
4.2062 10.6277 2.1339
3.8226 10.7732 2.1339
3.4339 10.9048 2.1339
3.0407 11.0223 2.1339
2.6435 11.1255 2.1339
2.2646 11.3235 2.1546
1.9278 11.8339 2.2370
1.5022 11.8977 2.2372
1.0745 11.9465 2.2375
0.6452 11.9798 2.2379
0.2149 11.9976 2.2382
-0.2158 11.9997 2.2385
-0.6464 11.9863 2.2388
-1.0763 11.9573 2.2392
-1.5050 11.9128 2.2395
-1.9318 11.8528 2.2398
-2.3561 11.7766 2.2400
-2.7767 11.6826 2.2397
-3.1936 11.5734 2.2393
-3.6063 11.4493 2.2390
-4.0140 11.3103 2.2387
-4.4164 11.1567 2.2384
-4.8129 10.9886 2.2381
-5.2030 10.8064 2.2377
-5.5862 10.6102 2.2374
-5.9619 10.4003 2.2371
-6.2241 10.0074 2.1995
-6.3822 9.4848 2.1339
-6.7176 9.2485 2.1339
-7.0443 9.0002 2.1339
-6.3672 7.5596 1.8456
-7.6694 8.4692 2.1339
-7.9671 8.1872 2.1339
-8.2544 7.8946 2.1339
-8.5309 7.5919 2.1339
-8.7963 7.2795 2.1339
-9.0501 6.9578 2.1339
-9.2921 6.6272 2.1339
-9.5220 6.2881 2.1339
-9.7395 5.9411 2.1339
-9.9443 5.5865 2.1339
-10.2457 5.2813 2.1570
-10.4263 4.9090 2.1570
-10.5932 4.5306 2.1570
-10.7464 4.1465 2.1570
-10.8856 3.7572 2.1570
-11.0107 3.3632 2.1570
-11.1215 2.9651 2.1570
-11.2178 2.5633 2.1570
-11.2996 2.1585 2.1570
-11.3668 1.7510 2.1570
-11.4193 1.3415 2.1570
-11.4570 0.9305 2.1570
-11.4798 0.5186 2.1570
-11.4879 0.1061 2.1570
-11.4812 -0.3062 2.1570
-11.4596 -0.7179 2.1570
-11.4233 -1.1285 2.1570
-11.3722 -1.5374 2.1570
-11.3066 -1.9441 2.1570
-11.2264 -2.3481 2.1570
-11.1318 -2.7488 2.1570
-11.0229 -3.1457 2.1570
-10.8999 -3.5385 2.1570
-10.7629 -3.9264 2.1570
-10.6121 -4.3091 2.1570
-10.4478 -4.6860 2.1570
-10.2701 -5.0567 2.1570
-9.9707 -5.3623 2.1337
-9.7693 -5.7153 2.1337
-9.5554 -6.0608 2.1337
-9.3293 -6.3983 2.1337
-9.0913 -6.7275 2.1337
-8.8418 -7.0478 2.1337
-8.5811 -7.3590 2.1337
-8.3094 -7.6606 2.1337
-8.0273 -7.9522 2.1337
-7.7349 -8.2334 2.1337
-7.4328 -8.5040 2.1337
-6.7357 -8.2892 2.0182
-6.4590 -8.5592 2.0265
-6.4714 -9.2484 2.1337
-6.1341 -9.4731 2.1337
-6.0336 -10.0948 2.2239
-5.6997 -10.3638 2.2370
-5.3230 -10.5600 2.2370
-4.9397 -10.7427 2.2370
-4.5501 -10.9116 2.2370
-4.1549 -11.0664 2.2370
-3.7544 -11.2070 2.2370
-3.3492 -11.3332 2.2370
-2.9398 -11.4449 2.2370
-2.5267 -11.5420 2.2370
-2.1105 -11.6242 2.2370
-1.6916 -11.6915 2.2370
-1.2706 -11.7439 2.2370
-0.8481 -11.7812 2.2370
-0.4245 -11.8034 2.2370
-0.0004 -10.5103 2.2370
0.3770 -10.5032 2.2370
0.7538 -10.4827 2.2370
1.1297 -10.4487 2.2370
1.5042 -10.4014 2.2370
1.8767 -10.3408 2.2370
2.1433 -9.7937 2.1339
2.4936 -9.7107 2.1339
2.4580 -8.3197 1.8464
3.1844 -9.5074 2.1339
3.5238 -9.3874 2.1339
3.8589 -9.2553 2.1339
4.1890 -9.1114 2.1339
4.5138 -8.9558 2.1339
4.8329 -8.7887 2.1339
5.1458 -8.6103 2.1339
5.4522 -8.4209 2.1339
5.7465 -8.2132 2.1320
6.0384 -8.0025 2.1320
6.3226 -7.7815 2.1320
6.5988 -7.5505 2.1320
6.8667 -7.3097 2.1320
7.1257 -7.0595 2.1320
7.3757 -6.8001 2.1320
7.6164 -6.5320 2.1320
7.8473 -6.2554 2.1320
8.0682 -5.9706 2.1320
8.2789 -5.6781 2.1320
8.4790 -5.3782 2.1320
8.6683 -5.0713 2.1320
8.6721 -4.6640 2.0899
8.6731 -4.2704 2.0514
8.6741 -3.8905 2.0169
8.6750 -3.5225 1.9860
8.6759 -3.1650 1.9585
8.6768 -2.8167 1.9341
8.6776 -2.4764 1.9128
8.6785 -2.1429 1.8944
8.6793 -1.8152 1.8787
8.6801 -1.4923 1.8656
8.6809 -1.1734 1.8551
8.6817 -0.8575 1.8471
8.6825 -0.5437 1.8414
8.6833 -0.2313 1.8382
8.6841 0.0805 1.8373
8.6849 0.3926 1.8388
8.6483 0.7028 1.8348
8.6607 1.0178 1.8435
8.6615 1.3347 1.8523
8.6623 1.6551 1.8635
8.6294 1.9723 1.8700
8.6897 2.3172 1.8994
8.6906 2.6550 1.9187
8.6915 3.0004 1.9410
9.4246 3.6371 2.1320
9.2902 3.9740 2.1320
9.1438 4.3059 2.1320
8.9855 4.6324 2.1320
8.8155 4.9531 2.1320
8.6340 5.2675 2.1320
8.4413 5.5753 2.1320
8.1750 5.8314 2.1158
7.5857 5.8329 2.0157
7.6414 6.3248 2.0891
7.5631 6.7317 2.1320
7.3182 7.0003 2.1320
7.0636 7.2599 2.1320
6.7998 7.5101 2.1320
6.5272 7.7508 2.1320
6.2459 7.9815 2.1320
5.9565 8.2020 2.1320
5.6593 8.4119 2.1320
5.3594 8.6187 2.1339
5.0475 8.8069 2.1339
4.7288 8.9837 2.1339
4.4040 9.1489 2.1339
4.0734 9.3023 2.1339
3.7374 9.4437 2.1339
3.3965 9.5729 2.1339
3.0511 9.6897 2.1339
2.7017 9.7940 2.1339
2.3487 9.8855 2.1339
2.0413 10.2078 2.1860
1.7129 10.5154 2.2371
1.3347 10.5721 2.2374
0.9546 10.6149 2.2376
0.5732 10.6440 2.2378
0.1909 10.6592 2.2380
-0.1918 10.6604 2.2382
-0.5743 10.6478 2.2384
-0.9561 10.6213 2.2386
-1.3367 10.5809 2.2387
-1.7157 10.5267 2.2388
-2.0924 10.4587 2.2390
-2.4660 10.3755 2.2387
-2.8363 10.2787 2.2384
-3.2028 10.1686 2.2381
-3.5651 10.0456 2.2379
-3.9228 9.9100 2.2377
-4.2754 9.7616 2.2376
-4.6224 9.6007 2.2375
-4.9632 9.4273 2.2373
-5.2975 9.2417 2.2372
-5.6249 9.0442 2.2371
-5.9449 8.8351 2.2370
-6.0523 8.3327 2.1636
-6.2594 7.9976 2.1339
-6.3575 7.5484 2.0739
-6.8151 7.5260 2.1339
-7.0797 7.2755 2.1339
-7.3352 7.0157 2.1339
-7.5810 6.7469 2.1339
-7.8170 6.4694 2.1339
-8.0427 6.1836 2.1339
-8.2580 5.8899 2.1339
-8.4625 5.5887 2.1339
-8.6559 5.2804 2.1339
-8.8381 4.9654 2.1339
-9.0088 4.6440 2.1339
-9.1678 4.3168 2.1339
-9.3148 3.9841 2.1339
-9.4498 3.6465 2.1339
-9.5725 3.3042 2.1339
-9.6827 2.9579 2.1339
-9.7804 2.6078 2.1339
-9.8654 2.2546 2.1339
-9.9376 1.8986 2.1339
-9.9970 1.5403 2.1339
-10.0434 1.1802 2.1339
-10.1859 0.8276 2.1570
-10.2065 0.4614 2.1570
-10.2140 0.0947 2.1570
-10.2083 -0.2719 2.1570
-10.1894 -0.6380 2.1570
-10.0487 -0.9924 2.1339
-10.0041 -1.3521 2.1339
-9.9459 -1.7098 2.1337
-9.8756 -2.0652 2.1337
-9.7927 -2.4178 2.1337
-9.6972 -2.7671 2.1337
-9.5893 -3.1127 2.1337
-9.4690 -3.4540 2.1337
-9.3367 -3.7908 2.1337
-9.1924 -4.1226 2.1337
-9.0363 -4.4488 2.1337
-8.8687 -4.7692 2.1337
-8.6897 -5.0834 2.1337
-8.4997 -5.3909 2.1337
-8.2988 -5.6912 2.1337
-8.0874 -5.9842 2.1337
-7.8656 -6.2693 2.1337
-7.6338 -6.5463 2.1337
-7.3924 -6.8147 2.1337
-7.1415 -7.0743 2.1337
-6.8816 -7.3247 2.1337
-6.6129 -7.5656 2.1337
-6.3358 -7.7967 2.1337
-6.0507 -8.0178 2.1337
-6.0299 -8.6170 2.2345
-5.7220 -8.8363 2.2370
-5.4002 -9.0346 2.2370
-5.0716 -9.2213 2.2370
-4.7365 -9.3961 2.2370
-4.3955 -9.5588 2.2370
-4.0489 -9.7092 2.2370
-3.6973 -9.8471 2.2370
-3.3409 -9.9724 2.2370
-2.9804 -10.0848 2.2370
-2.6161 -10.1844 2.2370
-2.2486 -10.2708 2.2370
-1.8782 -10.3441 2.2370
-1.5054 -10.4041 2.2370
-1.1308 -10.4508 2.2370
-0.7548 -10.4840 2.2370
-0.3778 -10.5039 2.2370
-0.0004 -9.4589 2.2370
0.3392 -9.4525 2.2370
0.6784 -9.4341 2.2370
1.0167 -9.4035 2.2370
1.3537 -9.3610 2.2370
1.6890 -9.3064 2.2370
2.0146 -9.2054 2.2286
2.2442 -8.7393 2.1339
2.4555 -8.3110 2.0495
2.8658 -8.5562 2.1339
3.1714 -8.4482 2.1339
3.4729 -8.3293 2.1339
3.7699 -8.1998 2.1339
4.0622 -8.0597 2.1339
4.3493 -7.9092 2.1339
4.6309 -7.7486 2.1339
4.9066 -7.5780 2.1339
5.1761 -7.3977 2.1339
5.4389 -7.2078 2.1339
5.6898 -7.0024 2.1320
5.9383 -6.7944 2.1320
6.1792 -6.5776 2.1320
6.4122 -6.3524 2.1320
6.6371 -6.1189 2.1320
6.8535 -5.8775 2.1320
7.0612 -5.6285 2.1320
7.2599 -5.3722 2.1320
7.4493 -5.1089 2.1320
7.6293 -4.8390 2.1320
7.7995 -4.5627 2.1320
7.9597 -4.2805 2.1320
8.1097 -3.9927 2.1320
8.2494 -3.6997 2.1320
8.3785 -3.4018 2.1320
8.4970 -3.0994 2.1320
8.6045 -2.7929 2.1320
8.6776 -2.4761 2.1262
8.6785 -2.1426 2.1058
8.6793 -1.8149 2.0884
8.6801 -1.4920 2.0739
8.6809 -1.1731 2.0622
8.6817 -0.8572 2.0533
8.6825 -0.5434 2.0471
8.6833 -0.2310 2.0436
8.6841 0.0808 2.0427
8.6849 0.3929 2.0444
8.6480 0.7030 2.0399
8.6607 1.0181 2.0497
8.6615 1.3350 2.0595
8.6623 1.6554 2.0720
8.6297 1.9727 2.0793
8.6897 2.3175 2.1120
8.6841 2.6534 2.1320
8.5852 2.9640 2.1320
8.4751 3.2710 2.1320
8.3541 3.5739 2.1320
8.2222 3.8723 2.1320
8.0797 4.1658 2.1320
7.9266 4.4540 2.1320
7.7633 4.7367 2.1320
7.5899 5.0133 2.1320
7.4065 5.2835 2.1320
7.2136 5.5471 2.1320
7.0112 5.8035 2.1320
6.7997 6.0526 2.1320
6.5793 6.2939 2.1320
6.3504 6.5271 2.1320
6.1131 6.7520 2.1320
5.8679 6.9683 2.1320
5.6149 7.1755 2.1320
5.3594 7.3802 2.1339
5.0919 7.5690 2.1339
4.8177 7.7480 2.1339
4.5372 7.9170 2.1339
4.2508 8.0758 2.1339
3.9587 8.2242 2.1339
3.6615 8.3620 2.1339
3.3594 8.4890 2.1339
3.0530 8.6050 2.1339
2.7425 8.7099 2.1339
2.4284 8.8035 2.1339
2.1111 8.8858 2.1339
1.8775 9.3892 2.2370
1.5396 9.4518 2.2371
1.1996 9.5020 2.2372
0.8579 9.5400 2.2373
0.5151 9.5656 2.2375
0.1715 9.5789 2.2376
-0.1724 9.5797 2.2377
-0.5161 9.5681 2.2378
-0.8591 9.5438 2.2379
-1.2010 9.5067 2.2379
-1.5413 9.4572 2.2378
-1.8796 9.3954 2.2377
-2.2155 9.3214 2.2376
-2.5483 9.2352 2.2375
-2.8779 9.1371 2.2374
-3.2036 9.0270 2.2373
-3.5250 8.9052 2.2371
-3.8418 8.7719 2.2370
-4.1538 8.6277 2.2370
-4.4604 8.4724 2.2370
-4.7612 8.3062 2.2370
-5.0557 8.1293 2.2370
-5.3437 7.9418 2.2370
-5.6246 7.7442 2.2370
-5.8983 7.5365 2.2370
-6.0251 7.1539 2.1865
-6.1261 6.7654 2.1339
-6.3641 6.5404 2.1339
-6.5938 6.3069 2.1339
-6.8149 6.0653 2.1339
-7.0271 5.8160 2.1339
-7.2302 5.5592 2.1339
-7.4238 5.2953 2.1339
-7.6078 5.0246 2.1339
-7.7819 4.7475 2.1339
-7.9458 4.4644 2.1339
-8.0995 4.1755 2.1339
-8.2426 3.8814 2.1339
-8.3749 3.5824 2.1339
-8.4964 3.2789 2.1339
-8.6069 2.9712 2.1339
-8.7062 2.6599 2.1339
-8.7943 2.3452 2.1339
-8.8709 2.0276 2.1339
-8.9360 1.7075 2.1339
-8.9896 1.3854 2.1339
-9.0316 1.0616 2.1339
-9.0619 0.7366 2.1339
-9.0805 0.4108 2.1339
-9.0873 0.0845 2.1339
-9.0824 -0.2417 2.1339
-9.0659 -0.5674 2.1339
-9.0376 -0.8922 2.1339
-8.9977 -1.2158 2.1339
-8.9463 -1.5377 2.1339
-8.8826 -1.8573 2.1337
-8.8082 -2.1744 2.1337
-8.7225 -2.4887 2.1337
-8.6257 -2.7996 2.1337
-8.5177 -3.1067 2.1337
-8.3988 -3.4097 2.1337
-8.2692 -3.7082 2.1337
-8.1290 -4.0018 2.1337
-7.9784 -4.2902 2.1337
-7.8176 -4.5729 2.1337
-7.6468 -4.8496 2.1337
-7.4662 -5.1199 2.1337
-7.2762 -5.3836 2.1337
-7.0768 -5.6403 2.1337
-6.8684 -5.8896 2.1337
-6.6513 -6.1312 2.1337
-6.4257 -6.3649 2.1337
-6.1919 -6.5903 2.1337
-6.0310 -6.8995 2.1626
-5.9770 -7.3548 2.2370
-5.7081 -7.5634 2.2370
-5.4320 -7.7623 2.2370
-5.1490 -7.9511 2.2370
-4.8595 -8.1297 2.2370
-4.5639 -8.2978 2.2370
-4.2624 -8.4552 2.2370
-3.9556 -8.6017 2.2370
-3.6438 -8.7372 2.2370
-3.3273 -8.8614 2.2370
-3.0067 -8.9742 2.2370
-2.6822 -9.0755 2.2370
-2.3544 -9.1652 2.2370
-2.0237 -9.2430 2.2370
-1.6903 -9.3090 2.2370
-1.3549 -9.3631 2.2370
-1.0177 -9.4052 2.2370
-0.6793 -9.4352 2.2370
-0.3401 -9.4531 2.2370
-0.0004 -8.5903 2.2370
0.3080 -8.5846 2.2370
0.6161 -8.5678 2.2370
0.9234 -8.5401 2.2370
1.2294 -8.5014 2.2370
1.5339 -8.4518 2.2370
1.8365 -8.3914 2.2370
2.0382 -7.9368 2.1339
2.3219 -7.8587 2.1339
2.6027 -7.7705 2.1339
2.8802 -7.6724 2.1339
3.1540 -7.5644 2.1339
3.4238 -7.4467 2.1339
3.6892 -7.3194 2.1339
3.9499 -7.1827 2.1339
4.2056 -7.0368 2.1339
4.4560 -6.8818 2.1339
4.7006 -6.7180 2.1339
4.9393 -6.5455 2.1339
5.1717 -6.3646 2.1339
5.3975 -6.1754 2.1339
5.6114 -5.9730 2.1320
5.8230 -5.7684 2.1320
6.0271 -5.5563 2.1320
6.2236 -5.3370 2.1320
6.4121 -5.1108 2.1320
6.5924 -4.8780 2.1320
6.7643 -4.6389 2.1320
6.9276 -4.3937 2.1320
7.0820 -4.1428 2.1320
7.2274 -3.8865 2.1320
7.3635 -3.6251 2.1320
7.4902 -3.3590 2.1320
7.6074 -3.0884 2.1320
7.7147 -2.8138 2.1320
7.8122 -2.5355 2.1320
7.8997 -2.2538 2.1320
7.9771 -1.9691 2.1320
8.0442 -1.6818 2.1320
8.1010 -1.3922 2.1320
8.1473 -1.1007 2.1320
8.1833 -0.8077 2.1320
8.2086 -0.5135 2.1320
8.2235 -0.2185 2.1320
8.2277 0.0768 2.1320
8.2213 0.3722 2.1320
8.2044 0.6672 2.1320
8.1768 0.9615 2.1320
8.1387 1.2547 2.1320
8.0901 1.5463 2.1320
8.0311 1.8361 2.1320
7.9617 2.1236 2.1320
7.8819 2.4086 2.1320
7.7920 2.6905 2.1320
7.6920 2.9690 2.1320
7.5820 3.2438 2.1320
7.4621 3.5146 2.1320
7.3326 3.7809 2.1320
7.1936 4.0424 2.1320
7.0452 4.2989 2.1320
6.8877 4.5498 2.1320
6.7212 4.7950 2.1320
6.5460 5.0340 2.1320
6.3623 5.2667 2.1320
6.1702 5.4926 2.1320
5.9702 5.7114 2.1320
5.7623 5.9230 2.1320
5.5469 6.1270 2.1320
5.3291 6.3288 2.1339
5.0993 6.5169 2.1339
4.8629 6.6967 2.1339
4.6201 6.8679 2.1339
4.3712 7.0302 2.1339
4.1167 7.1835 2.1339
3.8567 7.3275 2.1339
3.5917 7.4621 2.1339
3.3220 7.5870 2.1339
3.0479 7.7021 2.1339
2.7698 7.8073 2.1339
2.4881 7.9024 2.1339
2.2031 7.9873 2.1339
2.0078 8.4513 2.2370
1.7033 8.5185 2.2370
1.3966 8.5747 2.2370
1.0881 8.6198 2.2370
0.7781 8.6537 2.2370
0.4671 8.6765 2.2370
0.1555 8.6880 2.2370
-0.1564 8.6882 2.2370
-0.4680 8.6772 2.2370
-0.7791 8.6549 2.2370
-1.0892 8.6214 2.2370
-1.3978 8.5768 2.2370
-1.7047 8.5210 2.2370
-2.0093 8.4542 2.2370
-2.3113 8.3765 2.2370
-2.6103 8.2879 2.2370
-2.9059 8.1885 2.2370
-3.1977 8.0786 2.2370
-3.4854 7.9583 2.2370
-3.7685 7.8276 2.2370
-4.0467 7.6868 2.2370
-4.3196 7.5361 2.2370
-4.5869 7.3756 2.2370
-4.8481 7.2056 2.2370
-5.1031 7.0263 2.2370
-5.3514 6.8380 2.2370
-5.5927 6.6408 2.2370
-5.8268 6.4351 2.2370
-6.0180 6.1849 2.2239
-6.0265 5.7646 2.1495
-6.1834 5.5035 2.1339
-6.3761 5.2774 2.1339
-6.5604 5.0444 2.1339
-6.7362 4.8050 2.1339
-6.9032 4.5595 2.1339
-7.0613 4.3081 2.1339
-7.2102 4.0513 2.1339
-7.3497 3.7893 2.1339
-7.4797 3.5224 2.1339
-7.5999 3.2512 2.1339
-7.7103 2.9758 2.1339
-7.8107 2.6966 2.1339
-7.9010 2.4141 2.1339
-7.9810 2.1286 2.1339
-8.0507 1.8404 2.1339
-8.1100 1.5500 2.1339
-8.1588 1.2576 2.1339
-8.1970 0.9638 2.1339
-8.2246 0.6688 2.1339
-8.2417 0.3731 2.1339
-8.2480 0.0770 2.1339
-8.2438 -0.2191 2.1339
-8.2289 -0.5147 2.1339
-8.2034 -0.8096 2.1339
-8.1674 -1.1033 2.1339
-8.1208 -1.3955 2.1339
-8.0638 -1.6858 2.1339
-7.9959 -1.9736 2.1337
-7.9182 -2.2589 2.1337
-7.8304 -2.5412 2.1337
-7.7326 -2.8200 2.1337
-7.6248 -3.0952 2.1337
-7.5073 -3.3662 2.1337
-7.3801 -3.6329 2.1337
-7.2435 -3.8947 2.1337
-7.0977 -4.1515 2.1337
-6.9427 -4.4028 2.1337
-6.7789 -4.6483 2.1337
-6.6064 -4.8878 2.1337
-6.4255 -5.1209 2.1337
-6.2364 -5.3474 2.1337
-6.0394 -5.5669 2.1337
-6.0232 -5.9659 2.2027
-5.8945 -6.2735 2.2370
-5.6646 -6.4801 2.2370
-5.4274 -6.6782 2.2370
-5.1834 -6.8678 2.2370
-4.9327 -7.0485 2.2370
-4.6758 -7.2200 2.2370
-4.4130 -7.3823 2.2370
-4.1446 -7.5350 2.2370
-3.8708 -7.6781 2.2370
-3.5922 -7.8112 2.2370
-3.3091 -7.9343 2.2370
-3.0217 -8.0472 2.2370
-2.7306 -8.1497 2.2370
-2.4360 -8.2418 2.2370
-2.1383 -8.3233 2.2370
-1.8379 -8.3941 2.2370
-1.5352 -8.4541 2.2370
-1.2305 -8.5032 2.2370
-0.9244 -8.5415 2.2370
-0.6170 -8.5687 2.2370
-0.3089 -8.5850 2.2370
-0.0004 -7.8601 2.2370
0.2818 -7.8548 2.2370
0.5637 -7.8395 2.2370
0.8449 -7.8142 2.2370
1.1249 -7.7788 2.2370
1.4035 -7.7334 2.2370
1.6804 -7.6781 2.2370
1.9550 -7.6129 2.2370
2.1246 -7.1906 2.1339
2.3815 -7.1099 2.1339
2.6354 -7.0201 2.1339
2.8859 -6.9212 2.1339
3.1328 -6.8135 2.1339
3.3756 -6.6970 2.1339
3.6141 -6.5719 2.1339
3.8481 -6.4383 2.1339
4.0771 -6.2965 2.1339
4.3010 -6.1465 2.1339
4.5193 -5.9887 2.1339
4.7319 -5.8231 2.1339
4.9385 -5.6500 2.1339
5.1387 -5.4696 2.1339
5.3324 -5.2822 2.1339
5.5143 -5.0833 2.1320
5.6940 -4.8827 2.1320
5.8664 -4.6757 2.1320
6.0314 -4.4626 2.1320
6.1886 -4.2438 2.1320
6.3379 -4.0194 2.1320
6.4791 -3.7898 2.1320
6.6120 -3.5553 2.1320
6.7364 -3.3161 2.1320
6.8522 -3.0726 2.1320
6.9593 -2.8251 2.1320
7.0574 -2.5738 2.1320
7.1465 -2.3192 2.1320
7.2264 -2.0615 2.1320
7.2971 -1.8010 2.1320
7.3583 -1.5382 2.1320
7.4102 -1.2733 2.1320
7.4525 -1.0066 2.1320
7.4852 -0.7385 2.1320
7.5083 -0.4694 2.1320
7.5217 -0.1996 2.1320
7.5255 0.0705 2.1320
7.5195 0.3407 2.1320
7.5039 0.6105 2.1320
7.4786 0.8797 2.1320
7.4436 1.1478 2.1320
7.3991 1.4145 2.1320
7.3449 1.6795 2.1320
7.2813 1.9424 2.1320
7.2083 2.2030 2.1320
7.1259 2.4607 2.1320
7.0343 2.7154 2.1320
6.9336 2.9667 2.1320
6.8239 3.2143 2.1320
6.7054 3.4578 2.1320
6.5782 3.6969 2.1320
6.4424 3.9313 2.1320
6.2982 4.1607 2.1320
6.1459 4.3848 2.1320
5.9856 4.6033 2.1320
5.8175 4.8160 2.1320
5.6418 5.0225 2.1320
5.4637 5.2272 2.1339
5.2734 5.4208 2.1339
5.0762 5.6074 2.1339
4.8724 5.7868 2.1339
4.6623 5.9587 2.1339
4.4461 6.1230 2.1339
4.2240 6.2795 2.1339
3.9965 6.4278 2.1339
3.7637 6.5679 2.1339
3.5260 6.6995 2.1339
3.2837 6.8224 2.1339
3.0370 6.9366 2.1339
2.7864 7.0418 2.1339
2.5322 7.1379 2.1339
2.3068 7.3270 2.1641
2.0479 7.4250 2.1697
1.8355 7.7265 2.2370
1.5571 7.7879 2.2370
1.2768 7.8392 2.2370
0.9947 7.8804 2.2370
0.7113 7.9114 2.2370
0.4270 7.9322 2.2370
0.1421 7.9426 2.2370
-0.1430 7.9428 2.2370
-0.4279 7.9328 2.2370
-0.7123 7.9124 2.2370
-0.9957 7.8818 2.2370
-1.2779 7.8410 2.2370
-1.5584 7.7900 2.2370
-1.8369 7.7289 2.2370
-2.1130 7.6579 2.2370
-2.3864 7.5769 2.2370
-2.6566 7.4861 2.2370
-2.9234 7.3857 2.2370
-3.1864 7.2757 2.2370
-3.4452 7.1562 2.2370
-3.6995 7.0276 2.2370
-3.9490 6.8898 2.2370
-4.1934 6.7432 2.2370
-4.4323 6.5878 2.2370
-4.6654 6.4239 2.2370
-4.8925 6.2518 2.2370
-5.1132 6.0716 2.2370
-5.3272 5.8836 2.2370
-5.5343 5.6880 2.2370
-5.7341 5.4851 2.2370
-5.9265 5.2751 2.2370
-6.0218 4.9844 2.2042
-6.0286 4.6358 2.1447
-6.1590 4.3936 2.1339
-6.3118 4.1691 2.1339
-6.4564 3.9393 2.1339
-6.5926 3.7045 2.1339
-6.7203 3.4650 2.1339
-6.8392 3.2211 2.1339
-6.9493 2.9731 2.1339
-7.0503 2.7213 2.1339
-7.1422 2.4661 2.1339
-7.2249 2.2078 2.1339
-7.2982 1.9467 2.1339
-7.3620 1.6832 2.1339
-7.4163 1.4176 2.1339
-7.4611 1.1503 2.1339
-7.4962 0.8816 2.1339
-7.5216 0.6119 2.1339
-7.5373 0.3414 2.1339
-7.5432 0.0707 2.1339
-7.5395 -0.2001 2.1339
-7.5260 -0.4705 2.1339
-7.5028 -0.7402 2.1339
-7.4699 -1.0088 2.1339
-7.4275 -1.2761 2.1339
-7.3755 -1.5416 2.1339
-7.3134 -1.8049 2.1337
-7.2425 -2.0659 2.1337
-7.1623 -2.3241 2.1337
-7.0730 -2.5792 2.1337
-6.9745 -2.8309 2.1337
-6.8671 -3.0789 2.1337
-6.7509 -3.3229 2.1337
-6.6261 -3.5624 2.1337
-6.4927 -3.7974 2.1337
-6.3511 -4.0273 2.1337
-6.2013 -4.2520 2.1337
-6.0437 -4.4711 2.1337
-6.0203 -4.7976 2.1853
-5.9814 -5.1284 2.2370
-5.7925 -5.3390 2.2370
-5.5962 -5.5427 2.2370
-5.3928 -5.7392 2.2370
-5.1825 -5.9282 2.2370
-4.9656 -6.1096 2.2370
-4.7423 -6.2831 2.2370
-4.5131 -6.4485 2.2370
-4.2781 -6.6055 2.2370
-4.0376 -6.7540 2.2370
-3.7921 -6.8939 2.2370
-3.5417 -7.0248 2.2370
-3.2868 -7.1467 2.2370
-3.0277 -7.2594 2.2370
-2.7649 -7.3627 2.2370
-2.4985 -7.4566 2.2370
-2.2289 -7.5409 2.2370
-1.9565 -7.6155 2.2370
-1.6817 -7.6803 2.2370
-1.4047 -7.7352 2.2370
-1.1260 -7.7803 2.2370
-0.8458 -7.8153 2.2370
-0.5646 -7.8403 2.2370
-0.2827 -7.8552 2.2370
-0.0004 -7.2369 2.2370
0.2595 -7.2321 2.2370
0.5190 -7.2180 2.2370
0.7779 -7.1947 2.2370
1.0357 -7.1621 2.2370
1.2923 -7.1203 2.2370
1.5472 -7.0694 2.2370
1.8001 -7.0094 2.2370
2.0205 -6.8384 2.2041
2.2101 -6.5980 2.1507
2.4265 -6.4635 2.1339
2.6571 -6.3724 2.1339
2.8844 -6.2732 2.1339
3.1080 -6.1659 2.1339
3.3276 -6.0507 2.1339
3.5430 -5.9277 2.1339
3.7539 -5.7971 2.1339
3.9599 -5.6590 2.1339
4.1609 -5.5136 2.1339
4.3566 -5.3611 2.1339
4.5468 -5.2017 2.1339
4.7311 -5.0356 2.1339
4.9094 -4.8630 2.1339
5.0814 -4.6841 2.1339
5.2469 -4.4991 2.1339
5.4058 -4.3083 2.1339
5.5527 -4.1083 2.1320
5.6974 -3.9068 2.1320
5.8348 -3.7002 2.1320
5.9647 -3.4887 2.1320
6.0870 -3.2728 2.1320
6.2015 -3.0526 2.1320
6.3080 -2.8284 2.1320
6.4065 -2.6005 2.1320
6.4968 -2.3691 2.1320
6.5787 -2.1347 2.1320
6.6522 -1.8974 2.1320
6.7171 -1.6577 2.1320
6.7734 -1.4157 2.1320
6.8211 -1.1718 2.1320
6.8599 -0.9263 2.1320
6.8899 -0.6796 2.1320
6.9111 -0.4319 2.1320
6.9234 -0.1835 2.1320
6.9267 0.0652 2.1320
6.9212 0.3138 2.1320
6.9067 0.5622 2.1320
6.8833 0.8099 2.1320
6.8510 1.0566 2.1320
6.8099 1.3021 2.1320
6.7600 1.5460 2.1320
6.7013 1.7880 2.1320
6.6340 2.0277 2.1320
6.5581 2.2649 2.1320
6.4737 2.4993 2.1320
6.3809 2.7305 2.1320
6.2799 2.9583 2.1320
6.1707 3.1823 2.1320
6.0536 3.4023 2.1320
5.9285 3.6180 2.1320
5.7958 3.8290 2.1320
5.6556 4.0352 2.1320
5.5080 4.2363 2.1320
5.3580 4.4359 2.1339
5.1962 4.6260 2.1339
5.0276 4.8102 2.1339
4.8524 4.9882 2.1339
4.6709 5.1599 2.1339
4.4833 5.3249 2.1339
4.2899 5.4831 2.1339
4.0909 5.6342 2.1339
3.8866 5.7781 2.1339
3.6772 5.9145 2.1339
3.4629 6.0434 2.1339
3.2442 6.1644 2.1339
3.0212 6.2775 2.1339
2.7943 6.3825 2.1339
2.5637 6.4792 2.1339
2.3298 6.5676 2.1339
2.0928 6.6475 2.1339
1.9426 7.0434 2.2370
1.6887 7.1090 2.2370
1.4326 7.1655 2.2370
1.1746 7.2127 2.2370
0.9151 7.2506 2.2370
0.6544 7.2790 2.2370
0.3928 7.2981 2.2370
0.1307 7.3077 2.2370
-0.1316 7.3079 2.2370
-0.3937 7.2986 2.2370
-0.6554 7.2799 2.2370
-0.9161 7.2517 2.2370
-1.1757 7.2141 2.2370
-1.4338 7.1673 2.2370
-1.6900 7.1111 2.2370
-1.9441 7.0457 2.2370
-2.1956 6.9712 2.2370
-2.4442 6.8878 2.2370
-2.6897 6.7953 2.2370
-2.9316 6.6941 2.2370
-3.1698 6.5843 2.2370
-3.4038 6.4660 2.2370
-3.6334 6.3392 2.2370
-3.8582 6.2044 2.2370
-4.0780 6.0614 2.2370
-4.2926 5.9107 2.2370
-4.5015 5.7524 2.2370
-4.7046 5.5866 2.2370
-4.9015 5.4137 2.2370
-5.0921 5.2338 2.2370
-5.2761 5.0471 2.2370
-5.4531 4.8540 2.2370
-5.6231 4.6546 2.2370
-5.7858 4.4493 2.2370
-5.9410 4.2383 2.2370
-6.0223 3.9781 2.2126
-6.0278 3.6780 2.1650
-6.0664 3.4090 2.1339
-6.1839 3.1887 2.1339
-6.2934 2.9642 2.1339
-6.3948 2.7361 2.1339
-6.4878 2.5044 2.1339
-6.5725 2.2696 2.1339
-6.6486 2.0319 2.1339
-6.7162 1.7917 2.1339
-6.7750 1.5492 2.1339
-6.8251 1.3048 2.1339
-6.8664 1.0589 2.1339
-6.8988 0.8116 2.1339
-6.9222 0.5634 2.1339
-6.9368 0.3145 2.1339
-6.9424 0.0653 2.1339
-6.9390 -0.1839 2.1339
-6.9267 -0.4328 2.1339
-6.9054 -0.6810 2.1339
-6.8753 -0.9283 2.1339
-6.8363 -1.1743 2.1339
-6.7886 -1.4187 2.1339
-6.7320 -1.6612 2.1339
-6.6664 -1.9013 2.1337
-6.5927 -2.1390 2.1337
-6.5105 -2.3739 2.1337
-6.4199 -2.6056 2.1337
-6.3212 -2.8339 2.1337
-6.2282 -3.0654 2.1385
-6.0995 -3.2791 2.1337
-6.0254 -3.5238 2.1511
-6.0178 -3.8157 2.1962
-5.9849 -4.1034 2.2370
-5.8328 -4.3149 2.2370
-5.6733 -4.5208 2.2370
-5.5065 -4.7209 2.2370
-5.3326 -4.9148 2.2370
-5.1520 -5.1024 2.2370
-4.9647 -5.2833 2.2370
-4.7712 -5.4574 2.2370
-4.5715 -5.6245 2.2370
-4.3661 -5.7843 2.2370
-4.1550 -5.9366 2.2370
-3.9387 -6.0812 2.2370
-3.7174 -6.2180 2.2370
-3.4913 -6.3468 2.2370
-3.2608 -6.4674 2.2370
-3.0262 -6.5797 2.2370
-2.7877 -6.6835 2.2370
-2.5457 -6.7787 2.2370
-2.3004 -6.8652 2.2370
-2.0522 -6.9428 2.2370
-1.8015 -7.0115 2.2370
-1.5484 -7.0712 2.2370
-1.2934 -7.1219 2.2370
-1.0368 -7.1634 2.2370
-0.7788 -7.1956 2.2370
-0.5199 -7.2187 2.2370
-0.2603 -7.2324 2.2370
-0.0004 -6.6984 2.2370
0.2401 -6.6940 2.2370
0.4804 -6.6810 2.2370
0.7200 -6.6593 2.2370
0.9587 -6.6292 2.2370
1.1961 -6.5905 2.2370
1.4321 -6.5434 2.2370
1.6662 -6.4878 2.2370
1.8981 -6.4239 2.2370
2.0332 -6.0698 2.1376
2.2460 -5.9825 2.1339
2.4595 -5.8982 2.1339
2.6698 -5.8063 2.1339
2.8768 -5.7070 2.1339
3.0800 -5.6003 2.1339
3.2794 -5.4865 2.1339
3.4745 -5.3655 2.1339
3.6652 -5.2377 2.1339
3.8513 -5.1031 2.1339
4.0324 -4.9619 2.1339
4.2083 -4.8143 2.1339
4.3789 -4.6606 2.1339
4.5439 -4.5008 2.1339
4.7031 -4.3351 2.1339
4.8563 -4.1639 2.1339
5.0032 -3.9873 2.1339
5.1438 -3.8055 2.1339
5.2778 -3.6188 2.1339
5.4050 -3.4274 2.1339
5.5203 -3.2286 2.1320
5.6335 -3.0287 2.1320
5.7394 -2.8249 2.1320
5.8379 -2.6174 2.1320
5.9290 -2.4064 2.1320
6.0124 -2.1923 2.1320
6.0882 -1.9753 2.1320
6.1561 -1.7557 2.1320
6.2162 -1.5338 2.1320
6.2682 -1.3099 2.1320
6.3122 -1.0842 2.1320
6.3481 -0.8570 2.1320
6.3758 -0.6286 2.1320
6.3953 -0.3994 2.1320
6.4066 -0.1696 2.1320
6.4096 0.0605 2.1320
6.4044 0.2906 2.1320
6.3909 0.5204 2.1320
6.3692 0.7496 2.1320
6.3392 0.9779 2.1320
6.3011 1.2051 2.1320
6.2548 1.4307 2.1320
6.2005 1.6546 2.1320
6.1381 1.8764 2.1320
6.0678 2.0958 2.1320
5.9897 2.3126 2.1320
5.9038 2.5265 2.1320
5.8102 2.7373 2.1320
5.7092 2.9445 2.1320
5.6007 3.1480 2.1320
5.4883 3.3495 2.1332
5.3669 3.5459 2.1339
5.2370 3.7368 2.1339
5.1003 3.9229 2.1339
4.9569 4.1040 2.1339
4.8071 4.2799 2.1339
4.6511 4.4503 2.1339
4.4890 4.6149 2.1339
4.3211 4.7737 2.1339
4.1475 4.9263 2.1339
3.9685 5.0726 2.1339
3.7844 5.2123 2.1339
3.5953 5.3454 2.1339
3.4016 5.4716 2.1339
3.2034 5.5907 2.1339
3.0010 5.7026 2.1339
2.7947 5.8072 2.1339
2.5848 5.9043 2.1339
2.3715 5.9937 2.1339
2.1551 6.0754 2.1339
2.0208 6.4194 2.2276
1.7969 6.5155 2.2370
1.5620 6.5762 2.2370
1.3251 6.6284 2.2370
1.0865 6.6720 2.2370
0.8465 6.7070 2.2370
0.6053 6.7334 2.2370
0.3633 6.7510 2.2370
0.1209 6.7599 2.2370
-0.1217 6.7600 2.2370
-0.3642 6.7514 2.2370
-0.6062 6.7341 2.2370
-0.8475 6.7080 2.2370
-1.0876 6.6733 2.2370
-1.3263 6.6299 2.2370
-1.5633 6.5780 2.2370
-1.7983 6.5175 2.2370
-2.0309 6.4486 2.2370
-2.2609 6.3714 2.2370
-2.4880 6.2859 2.2370
-2.7118 6.1924 2.2370
-2.9321 6.0908 2.2370
-3.1486 5.9813 2.2370
-3.3610 5.8641 2.2370
-3.5690 5.7394 2.2370
-3.7723 5.6072 2.2370
-3.9708 5.4678 2.2370
-4.1641 5.3214 2.2370
-4.3520 5.1681 2.2370
-4.5342 5.0082 2.2370
-4.7105 4.8418 2.2370
-4.8807 4.6691 2.2370
-5.0446 4.4905 2.2370
-5.2019 4.3061 2.2370
-5.3524 4.1162 2.2370
-5.4960 3.9210 2.2370
-5.6325 3.7208 2.2370
-5.7616 3.5158 2.2370
-5.8833 3.3064 2.2370
-5.9973 3.0927 2.2370
-6.0244 2.8377 2.2079
-6.0283 2.5795 2.1743
-6.0319 2.3286 2.1444
-6.0807 2.1000 2.1339
-6.1512 1.8801 2.1339
-6.2158 1.6584 2.1346
-6.2683 1.4336 2.1339
-6.3147 1.2075 2.1339
-6.3529 0.9799 2.1339
-6.3830 0.7511 2.1339
-6.4048 0.5215 2.1339
-6.4183 0.2912 2.1339
-6.4236 0.0606 2.1339
-6.4205 -0.1700 2.1339
-6.4092 -0.4002 2.1339
-6.3896 -0.6299 2.1339
-6.3618 -0.8587 2.1339
-6.3258 -1.0864 2.1339
-6.2817 -1.3125 2.1339
-6.2295 -1.5369 2.1339
-6.1688 -1.7591 2.1337
-6.1007 -1.9791 2.1337
-6.0264 -2.1971 2.1343
-6.0199 -2.4430 2.1620
-6.0150 -2.6964 2.1940
-6.0156 -2.9605 2.2320
-5.9177 -3.1811 2.2370
-5.7988 -3.3910 2.2370
-5.6724 -3.5965 2.2370
-5.5388 -3.7972 2.2370
-5.3981 -3.9931 2.2370
-5.2505 -4.1837 2.2370
-5.0962 -4.3689 2.2370
-4.9353 -4.5484 2.2370
-4.7682 -4.7220 2.2370
-4.5949 -4.8895 2.2370
-4.4158 -5.0507 2.2370
-4.2311 -5.2054 2.2370
-4.0410 -5.3533 2.2370
-3.8457 -5.4943 2.2370
-3.6455 -5.6282 2.2370
-3.4407 -5.7549 2.2370
-3.2315 -5.8741 2.2370
-3.0182 -5.9858 2.2370
-2.8010 -6.0898 2.2370
-2.5803 -6.1859 2.2370
-2.3563 -6.2740 2.2370
-2.1293 -6.3541 2.2370
-1.8996 -6.4260 2.2370
-1.6675 -6.4897 2.2370
-1.4333 -6.5450 2.2370
-1.1972 -6.5918 2.2370
-0.9597 -6.6303 2.2370
-0.7209 -6.6602 2.2370
