ply
format ascii 1.0
element vertex 2107
property float32 x
property float32 y
property float32 z
end_header
6.6123 -17.6189 -0.2995
7.1148 -17.0686 -0.2946
7.6409 -16.6237 -0.2918
8.0764 -16.0286 -0.2865
8.1329 -14.7941 -0.2698
8.1331 -13.6128 -0.2537
6.7005 -10.3520 -0.1976
6.7350 -9.6290 -0.1885
6.9976 -9.2768 -0.1867
7.3331 -9.0282 -0.1871
7.6771 -8.7874 -0.1880
8.1424 -8.6710 -0.1920
8.1425 -8.0699 -0.1853
8.1425 -7.5102 -0.1794
8.1426 -6.9863 -0.1741
8.1427 -6.4937 -0.1693
8.1427 -6.0286 -0.1650
8.1428 -5.5876 -0.1611
8.1428 -5.1678 -0.1577
8.1429 -4.7667 -0.1545
8.1430 -4.3821 -0.1518
8.1430 -4.0121 -0.1493
8.1431 -3.6549 -0.1471
8.1431 -3.3091 -0.1452
8.1432 -2.9732 -0.1435
8.1432 -2.6460 -0.1420
8.1432 -2.3264 -0.1408
8.1433 -2.0133 -0.1397
8.1433 -1.7056 -0.1389
8.1434 -1.4026 -0.1383
8.1434 -1.1032 -0.1378
8.1434 -0.8068 -0.1375
8.1435 -0.5125 -0.1375
8.1435 -0.2195 -0.1375
8.1436 0.0730 -0.1378
8.1436 0.3656 -0.1382
8.1437 0.6592 -0.1389
8.3937 0.9838 -0.1440
8.3938 1.2907 -0.1450
8.3938 1.6011 -0.1462
8.3939 1.9157 -0.1476
8.3939 2.2355 -0.1492
8.3940 2.5616 -0.1511
8.3940 2.8948 -0.1532
8.3941 3.2364 -0.1555
8.3941 3.5877 -0.1581
8.3942 3.9498 -0.1610
8.3942 4.3245 -0.1642
8.3943 4.7132 -0.1677
8.3943 5.1180 -0.1716
8.3944 5.5409 -0.1759
8.3945 5.9844 -0.1806
8.3945 6.4511 -0.1858
8.3946 6.9444 -0.1915
8.3947 7.4679 -0.1978
8.3948 8.0260 -0.2048
8.3948 8.6238 -0.2125
8.3949 9.2674 -0.2211
8.3950 9.9642 -0.2307
2.4318 3.1061 -0.0700
8.3963 11.5563 -0.2536
8.3965 12.4748 -0.2673
8.3966 13.4969 -0.2828
8.3968 14.6444 -0.3007
8.3970 15.9452 -0.3213
8.3972 17.4366 -0.3454
8.6237 19.6851 -0.3839
8.6897 21.9474 -0.4219
8.6901 24.4815 -0.4647
8.6906 27.5865 -0.5177
9.0201 32.6829 -0.6072
7.7691 32.6830 -0.6019
7.6337 38.1527 -0.6974
7.8852 48.3780 -0.8789
6.7463 53.4014 -0.9654
4.6644 51.8251 -0.9334
2.8314 52.5234 -0.9437
0.9851 54.8698 -0.9846
-0.9886 55.0634 -0.9880
-2.8600 53.0526 -0.9531
-5.6670 62.9644 -1.1339
-8.1651 64.6323 -1.1681
-10.2441 62.8505 -1.1414
-12.2919 61.4336 -1.1225
-14.3323 60.2927 -1.1098
-15.0733 54.6158 -1.0141
-11.3341 35.9778 -0.6747
-12.2913 34.6264 -0.6568
-13.6304 34.4258 -0.6613
-22.6247 51.6444 -1.0062
-26.4556 54.9345 -1.0871
-32.3372 61.4059 -1.2361
-32.0272 55.8569 -1.1456
-15.8452 25.4700 -0.5331
-14.0463 20.8689 -0.4465
-14.6259 20.1303 -0.4411
-15.5018 19.8002 -0.4452
-17.2858 20.5167 -0.4744
-19.0056 20.9807 -0.4998
-8.9534 9.1976 -0.2263
-9.6305 9.2075 -0.2345
-10.3502 9.2076 -0.2435
-11.1305 9.2077 -0.2535
-24.9077 19.1414 -0.5502
-28.9598 20.6453 -0.6218
-28.4396 18.7722 -0.5947
-15.3687 9.3702 -0.3136
-15.3699 8.6299 -0.3065
-15.3710 7.9187 -0.3001
-15.3721 7.2332 -0.2943
-15.3732 6.5705 -0.2890
-15.3742 5.9277 -0.2842
-15.3752 5.3024 -0.2800
-15.3762 4.6923 -0.2762
-15.3771 4.0954 -0.2728
-15.3781 3.5097 -0.2698
-15.3790 2.9334 -0.2672
-15.3799 2.3650 -0.2650
-15.3808 1.8027 -0.2632
-15.3817 1.2450 -0.2617
-15.3826 0.6906 -0.2605
-15.3835 0.1378 -0.2597
-15.3844 -0.4146 -0.2592
-15.3853 -0.9682 -0.2591
-15.3861 -1.5244 -0.2593
-15.3870 -2.0846 -0.2598
-15.3880 -2.6503 -0.2607
-15.3889 -3.2232 -0.2619
-15.3898 -3.8048 -0.2635
-15.3908 -4.3969 -0.2655
-15.3917 -5.0014 -0.2678
-15.3927 -5.6202 -0.2706
-21.4923 -8.7338 -0.3823
-38.5081 -17.2839 -0.6941
-38.5599 -18.9985 -0.7054
-38.6137 -20.7797 -0.7181
-38.6697 -22.6364 -0.7323
-72.9122 -46.2730 -1.4087
-72.6139 -49.8277 -1.4338
-65.1758 -48.2541 -1.3179
-40.0812 -31.9645 -0.8317
-58.5702 -50.2527 -1.2497
-58.5707 -54.0219 -1.2881
-61.0758 -60.5315 -1.3878
-64.2938 -68.4676 -1.5134
-63.5423 -72.7315 -1.5538
-36.7407 -72.9162 -1.3019
-14.6740 -31.9252 -0.5597
-37.4640 -89.8768 -1.5497
-28.2660 -75.3159 -1.2792
-24.8453 -84.1087 -1.3927
-17.6171 -97.0796 -1.5644
-11.2515 -77.8070 -1.2461
5.0473 -70.1682 0.4696
5.9671 -55.1836 0.3703
6.0863 -42.0866 0.2834
6.8757 -37.8878 0.2564
6.2732 -28.6681 0.1952
6.6503 -25.9012 0.1776
7.0303 -23.7991 0.1646
7.3545 -21.9620 0.1533
6.6124 -17.6185 0.1243
7.1150 -17.0685 0.1219
7.6411 -16.6237 0.1203
7.0592 -14.0094 0.1029
8.1329 -14.7936 0.1104
8.1331 -13.6124 0.1034
6.7273 -10.3931 0.0805
6.7351 -9.6288 0.0761
7.0207 -9.3070 0.0753
7.3598 -9.0608 0.0751
7.6773 -8.7873 0.0748
8.1424 -8.6707 0.0759
8.1425 -8.0696 0.0728
8.1425 -7.5099 0.0701
8.1426 -6.9860 0.0676
8.1427 -6.4935 0.0653
8.1427 -6.0284 0.0632
8.1428 -5.5874 0.0613
8.1428 -5.1676 0.0596
8.1429 -4.7665 0.0580
8.1430 -4.3819 0.0565
8.1430 -4.0118 0.0552
8.1431 -3.6547 0.0539
8.1431 -3.3089 0.0528
8.1432 -2.9730 0.0518
8.1432 -2.6458 0.0508
8.1432 -2.3262 0.0500
8.1433 -2.0131 0.0492
8.1433 -1.7054 0.0485
8.1434 -1.4024 0.0478
8.1434 -1.1031 0.0473
8.1434 -0.8066 0.0468
8.1435 -0.5123 0.0463
8.1435 -0.2193 0.0459
8.1436 0.0731 0.0456
8.1436 0.3658 0.0453
8.1437 0.6594 0.0451
8.3937 0.9840 0.0464
8.3938 1.2909 0.0463
8.3938 1.6013 0.0463
8.3939 1.9159 0.0463
8.3939 2.2357 0.0464
8.3940 2.5618 0.0466
8.3940 2.8950 0.0468
8.3941 3.2366 0.0471
8.3941 3.5879 0.0475
8.3942 3.9500 0.0479
8.3942 4.3247 0.0485
8.3943 4.7135 0.0491
8.3943 5.1182 0.0498
8.3944 5.5411 0.0506
8.3945 5.9846 0.0516
8.3945 6.4514 0.0527
8.3946 6.9447 0.0539
8.3947 7.4682 0.0553
8.3948 8.0263 0.0568
8.3948 8.6241 0.0585
8.3949 9.2677 0.0605
8.3950 9.9645 0.0627
2.4315 3.1058 0.0189
8.3963 11.5567 0.0681
8.3965 12.4752 0.0714
8.3966 13.4973 0.0752
8.3968 14.6448 0.0795
8.3970 15.9456 0.0846
8.3972 17.4370 0.0905
8.3974 19.1689 0.0975
8.3967 21.2077 0.1060
8.3970 23.6563 0.1163
8.3975 26.6567 0.1292
9.0198 32.6829 0.1564
7.7689 32.6830 0.1547
7.6337 38.1535 0.1789
7.8852 48.3790 0.2250
6.8070 53.8833 0.2491
4.6900 52.1101 0.2398
2.8733 53.3012 0.2445
0.9582 53.3744 0.2445
-0.9587 53.3982 0.2447
-2.8914 53.6367 0.2462
-4.9244 54.7149 0.2520
-7.8263 61.9516 0.2867
-9.8192 60.2448 0.2807
-11.7845 58.8993 0.2766
-12.9372 54.4252 0.2581
-14.7637 53.4952 0.2566
-11.2124 35.5924 0.1730
-6.3175 17.7979 0.0878
-13.6062 34.3655 0.1723
-22.7898 52.0227 0.2656
-25.8648 53.7093 0.2798
-30.2608 57.4646 0.3060
-15.2524 26.6017 0.1450
-13.8667 22.2903 0.1247
-14.5041 21.5497 0.1239
-14.5394 20.0120 0.1185
-16.2847 20.8008 0.1272
-16.9720 20.1449 0.1275
-17.8980 19.7586 0.1297
-8.9531 9.1976 0.0628
-9.6302 9.2075 0.0655
-10.3499 9.2076 0.0685
-11.1301 9.2077 0.0719
-68.3285 52.5120 0.4315
-74.8756 53.3806 0.4632
-29.3150 19.3509 0.1780
-15.3687 9.3707 0.0918
-15.3699 8.6303 0.0905
-15.3710 7.9191 0.0894
-15.4416 7.2664 0.0888
-15.7671 6.7393 0.0898
-15.7682 6.0800 0.0891
-15.3752 5.3028 0.0863
-15.3762 4.6927 0.0859
-15.3771 4.0958 0.0856
-15.3781 3.5100 0.0854
-15.3790 2.9338 0.0854
-15.7740 2.4259 0.0876
-15.7749 1.8492 0.0878
-15.7759 1.2773 0.0881
-15.3826 0.6909 0.0863
-15.3835 0.1382 0.0868
-15.3844 -0.4143 0.0874
-15.3853 -0.9679 0.0881
-15.3861 -1.5240 0.0890
-15.3870 -2.0842 0.0899
-15.7823 -2.7179 0.0933
-15.7832 -3.3054 0.0946
-15.7842 -3.9019 0.0960
-15.3908 -4.3965 0.0950
-15.3917 -5.0010 0.0967
-15.3927 -5.6198 0.0985
-21.4928 -8.7334 0.1402
-38.9868 -17.4977 0.2597
-39.0126 -19.2205 0.2658
-39.0394 -21.0077 0.2724
-38.7029 -22.6547 0.2770
-72.9153 -46.2730 0.5362
-64.4948 -44.2546 0.4881
-65.3463 -48.3784 0.5098
-40.0717 -31.9558 0.3231
-58.6460 -50.3160 0.4890
-58.5707 -54.0200 0.5065
-61.0758 -60.5295 0.5489
-64.2959 -68.4676 0.6019
-38.7205 -44.3188 0.3786
-36.2070 -44.5751 0.3708
-43.0332 -57.0474 0.4631
-22.5140 -44.6805 0.3290
-37.4089 -89.7424 0.6423
-15.3239 -40.8300 0.2887
-9.7458 -44.5379 0.3036
-9.6207 -53.0143 0.3592
-9.6907 -67.0119 0.4517
-9.7872 -90.5126 0.6077
0.0000 -76.5812 2.2368
2.6225 -73.0084 2.1337
5.2421 -72.8741 2.1337
5.9672 -55.1829 1.6207
6.1322 -42.4035 1.2508
6.8758 -37.8873 1.1239
6.2733 -28.6677 0.8563
6.6846 -26.0339 0.7840
7.0955 -24.0192 0.7303
7.3233 -21.8681 0.6722
6.6124 -17.6182 0.5482
7.1151 -17.0684 0.5385
7.1721 -15.6029 0.4998
7.1415 -14.1723 0.4616
6.8654 -12.4878 0.4142
7.4075 -12.3975 0.4195
6.5589 -10.1325 0.3504
6.7351 -9.6286 0.3408
6.9434 -9.2043 0.3342
7.2530 -8.9290 0.3331
7.6776 -8.7873 0.3376
8.1906 -8.7217 0.3459
8.4354 -8.3597 0.3430
8.4355 -7.7798 0.3311
8.4355 -7.2371 0.3204
8.4356 -6.7269 0.3107
8.4357 -6.2450 0.3019
8.4357 -5.7881 0.2940
8.4358 -5.3532 0.2868
8.4359 -4.9377 0.2802
8.4359 -4.5393 0.2743
8.4360 -4.1560 0.2690
8.4360 -3.7860 0.2642
8.4361 -3.4277 0.2598
8.4361 -3.0798 0.2559
8.4362 -2.7408 0.2525
8.4362 -2.4097 0.2494
8.4363 -2.0853 0.2467
8.4363 -1.7666 0.2444
8.4363 -1.4526 0.2424
8.4364 -1.1425 0.2407
8.4364 -0.8354 0.2394
8.4365 -0.5305 0.2384
8.4365 -0.2270 0.2377
8.4366 0.0760 0.2373
8.4366 0.3791 0.2372
8.4366 0.6833 0.2374
8.6867 1.0185 0.2450
8.6868 1.3362 0.2459
8.6868 1.6574 0.2471
8.6869 1.9830 0.2486
8.6869 2.3140 0.2505
8.6870 2.6514 0.2528
8.6870 2.9963 0.2554
8.6871 3.3498 0.2585
8.6871 3.7133 0.2619
8.6872 4.0881 0.2659
8.6872 4.4759 0.2703
8.6873 4.8782 0.2752
8.6873 5.2971 0.2808
8.6874 5.7348 0.2869
8.6875 6.1938 0.2937
8.6875 6.6768 0.3013
8.6876 7.1873 0.3098
8.6877 7.7292 0.3191
8.6878 8.3067 0.3296
8.6879 8.9254 0.3412
8.6880 9.5915 0.3542
8.6881 10.3126 0.3687
2.4311 3.1054 0.1077
8.6894 11.9603 0.4035
8.6895 12.9109 0.4245
8.6897 13.9687 0.4484
8.6898 15.1563 0.4758
8.6900 16.5026 0.5077
8.6216 17.9035 0.5406
8.6905 19.8384 0.5888
8.6897 21.9485 0.6415
8.6901 24.4826 0.7056
8.6732 27.5327 0.7837
9.0196 32.6829 0.9202
7.7688 32.6830 0.9114
7.6337 38.1543 1.0554
7.8852 48.3801 1.3293
6.8429 54.1687 1.4804
4.7272 52.5245 1.4297
2.9568 54.8510 1.4891
0.9532 53.0924 1.4394
-0.9770 54.4224 1.4755
-2.8998 53.7944 1.4605
-4.8724 54.1382 1.4739
-6.9215 54.7912 1.4977
-8.8414 54.2473 1.4909
-10.9458 54.7088 1.5138
-12.6620 53.2690 1.4860
-14.6385 53.0429 1.4940
-17.1201 54.3469 1.5477
-6.3161 17.7945 0.5131
-13.7475 34.7234 1.0154
-24.0349 54.8663 1.6295
-25.5538 53.0648 1.6032
-28.0746 53.3145 1.6412
-15.1766 26.4701 0.8317
-13.9246 22.3840 0.7191
-14.5640 21.6394 0.7120
-14.6742 20.1981 0.6821
-15.3925 19.6618 0.6828
-15.9860 18.9751 0.6790
-18.3202 20.2254 0.7475
-19.1628 19.6868 0.7533
-9.7164 9.2902 0.3690
-10.4035 9.2556 0.3826
-60.0302 49.6636 2.1429
-53.4881 41.1084 1.8575
-66.0736 47.1074 2.2368
-28.3125 18.6899 0.9362
-15.3687 9.3711 0.4973
-15.3699 8.6307 0.4876
-15.3710 7.9195 0.4789
-15.4407 7.2664 0.4732
-15.7671 6.7397 0.4761
-15.7682 6.0804 0.4698
-15.3752 5.3032 0.4527
-15.3762 4.6931 0.4481
-15.3771 4.0961 0.4441
-15.3781 3.5104 0.4408
-15.3790 2.9342 0.4381
-15.7740 2.4263 0.4472
-15.7749 1.8496 0.4456
-15.7759 1.2777 0.4446
-15.3826 0.6913 0.4332
-15.3835 0.1385 0.4333
-15.3844 -0.4139 0.4341
-15.3853 -0.9675 0.4354
-15.3861 -1.5237 0.4373
-15.3870 -2.0839 0.4397
-15.7823 -2.7175 0.4541
-15.7832 -3.3050 0.4579
-15.7842 -3.9015 0.4622
-15.3908 -4.3962 0.4556
-15.3917 -5.0006 0.4613
-15.3927 -5.6194 0.4676
-21.4933 -8.7331 0.6629
-38.9868 -17.4967 1.2224
-39.0126 -19.2194 1.2455
-39.0394 -21.0067 1.2712
-38.7029 -22.6537 1.2873
-63.8739 -40.5334 2.1740
-61.1511 -41.9585 2.1335
-59.5431 -44.0804 2.1335
-40.0007 -31.8979 1.4749
-56.1138 -48.1417 2.1335
-55.3140 -51.0147 2.1735
-54.9529 -54.4596 2.2368
-41.6668 -44.3689 1.7613
-38.7551 -44.3570 1.7059
-36.0305 -44.3565 1.6564
-33.4605 -44.3559 1.6117
-31.0262 -44.3554 1.5714
-15.4262 -23.8314 0.8247
-15.4379 -25.8378 0.8750
-15.4382 -28.0810 0.9321
-22.4760 -44.6038 1.4537
-20.4621 -44.5156 1.4267
-26.8597 -64.4338 2.0338
-26.0835 -69.4972 2.1637
-23.3661 -69.7739 2.1457
-14.9688 -50.6716 1.5413
-17.7024 -68.9441 2.0770
-9.7460 -44.5377 1.3307
-9.6130 -52.9704 1.5717
-9.6148 -66.4855 1.9616
-7.8540 -72.6329 2.1335
-5.4948 -76.3875 2.2368
-2.7490 -76.5318 2.2368
0.0000 -43.2094 2.2368
1.5512 -43.1829 2.2368
2.9576 -41.1151 2.1337
4.4321 -40.9856 2.1337
5.9012 -40.8045 2.1337
6.6226 -36.4915 1.9191
6.2733 -28.6673 1.5183
6.6433 -25.8724 1.3817
7.0963 -24.0211 1.2954
7.4216 -22.1610 1.2084
6.6494 -17.7161 0.9782
6.5041 -15.6022 0.8735
6.5290 -14.2035 0.8076
7.0126 -13.9161 0.8048
6.8164 -12.3982 0.7304
7.4077 -12.3977 0.7453
6.7273 -10.3925 0.6386
6.7352 -9.6285 0.6059
7.0210 -9.3068 0.6009
7.3601 -9.0605 0.6014
7.6778 -8.7873 0.6009
8.1909 -8.7217 0.6158
8.4354 -8.3594 0.6109
8.4355 -7.7795 0.5900
8.4355 -7.2368 0.5711
8.4356 -6.7266 0.5541
8.4357 -6.2448 0.5387
8.4357 -5.7879 0.5247
8.4358 -5.3530 0.5121
8.4359 -4.9375 0.5007
8.4359 -4.5390 0.4904
8.4360 -4.1557 0.4811
8.4360 -3.7857 0.4727
8.4361 -3.4275 0.4652
8.4361 -3.0796 0.4585
8.4362 -2.7406 0.4526
8.4362 -2.4095 0.4473
8.4363 -2.0851 0.4427
8.4363 -1.7664 0.4388
8.3611 -1.4395 0.4316
8.3611 -1.1321 0.4289
8.3612 -0.8278 0.4268
8.3612 -0.5256 0.4253
8.4365 -0.2268 0.4281
8.4366 0.0762 0.4276
8.4366 0.3793 0.4277
8.4366 0.6835 0.4284
8.6867 1.0187 0.4423
8.6868 1.3364 0.4441
8.6868 1.6576 0.4466
8.6869 1.9832 0.4496
8.6869 2.3142 0.4533
8.6870 2.6516 0.4577
8.6870 2.9965 0.4627
8.6871 3.3501 0.4685
8.6871 3.7135 0.4750
8.6872 4.0884 0.4824
8.6872 4.4761 0.4907
8.6873 4.8784 0.5000
8.6873 5.2974 0.5103
8.6874 5.7351 0.5217
8.6875 6.1940 0.5344
8.6875 6.6771 0.5485
8.6876 7.1876 0.5641
8.6877 7.7294 0.5814
8.6333 8.2549 0.5969
8.6621 8.8992 0.6203
8.6880 9.5918 0.6461
8.6881 10.3129 0.6728
2.4308 3.1051 0.1967
8.6894 11.9607 0.7370
8.6895 12.9113 0.7755
8.6897 13.9691 0.8194
8.6898 15.1567 0.8699
8.6900 16.5030 0.9283
8.6215 17.9037 0.9888
8.6905 19.8389 1.0774
8.6897 21.9490 1.1739
8.6901 24.4832 1.2916
8.6731 27.5328 1.4348
9.0194 32.6829 1.6849
7.7686 32.6830 1.6691
7.6337 38.1551 1.9331
6.9035 42.3579 2.1318
5.4170 42.8820 2.1468
3.8509 42.7893 2.1337
2.3126 42.9016 2.1337
0.7713 42.9576 2.1337
-0.8084 45.0323 2.2368
-2.4252 44.9918 2.2378
-4.0399 44.8902 2.2386
-5.6503 44.7291 2.2395
-7.2516 44.4939 2.2396
-8.8406 44.1882 2.2391
-10.4139 43.8121 2.2379
-11.4195 41.3800 2.1337
-12.8945 40.9341 2.1337
-6.5205 18.3708 0.9694
-15.7895 39.8822 2.1337
-17.2056 39.2777 2.1337
-18.5983 38.6221 2.1337
-19.9655 37.9162 2.1337
-15.1014 26.3398 1.5124
-13.9830 22.4785 1.3192
-14.6245 21.7298 1.3058
-14.7279 20.2726 1.2498
-15.2949 19.5378 1.2381
-15.9326 18.9123 1.2345
-16.7873 18.5337 1.2490
-19.7654 20.3065 1.4162
-9.7116 9.2860 0.6719
-10.4084 9.2603 0.6970
-25.4732 21.0750 1.6550
-27.5619 21.1836 1.7412
-28.1895 20.0986 1.7352
-28.4370 18.7729 1.7089
-15.3687 9.3715 0.9033
-15.3699 8.6312 0.8852
-15.3710 7.9199 0.8689
-15.4399 7.2664 0.8581
-15.7671 6.7401 0.8628
-15.7682 6.0808 0.8510
-15.3752 5.3036 0.8196
-15.3762 4.6935 0.8107
-15.3771 4.0965 0.8030
-15.3781 3.5108 0.7966
-15.3790 2.9345 0.7912
-15.7740 2.4267 0.8071
-15.7749 1.8500 0.8039
-15.7759 1.2781 0.8017
-15.3826 0.6917 0.7805
-15.3835 0.1389 0.7804
-15.3844 -0.4135 0.7812
-15.3853 -0.9671 0.7831
-15.3861 -1.5233 0.7860
-15.3870 -2.0835 0.7900
-15.7823 -2.7171 0.8153
-15.7832 -3.3046 0.8216
-15.7842 -3.9012 0.8290
-15.3908 -4.3958 0.8167
-15.3917 -5.0002 0.8263
-15.3927 -5.6190 0.8372
-21.4937 -8.7327 1.1862
-15.4353 -6.9267 0.8656
-15.4354 -7.6038 0.8809
-15.4355 -8.3052 0.8980
-15.4356 -9.0344 0.9168
-15.4357 -9.7948 0.9377
-15.4358 -10.5907 0.9608
-15.4359 -11.4269 0.9863
-15.4360 -12.3087 1.0145
-15.4361 -13.2427 1.0457
-15.4363 -14.2360 1.0802
-15.4364 -15.2973 1.1185
-15.4366 -16.4371 1.1612
-15.4368 -17.6675 1.2087
-15.4369 -19.0036 1.2620
-15.4371 -20.4632 1.3218
-15.4374 -22.0689 1.3894
-15.4376 -23.8484 1.4661
-15.4379 -25.8371 1.5539
-15.4382 -28.0803 1.6550
-19.4835 -38.6643 2.2368
-18.0775 -39.3269 2.2368
-16.6494 -39.9393 2.2368
-15.2010 -40.5008 2.2368
-13.5803 -40.5515 2.2117
-11.9869 -40.5763 2.1886
-10.4824 -40.8241 2.1807
-9.0576 -41.3911 2.1925
-7.7104 -42.4857 2.2347
-6.1855 -42.7712 2.2368
-4.6457 -42.9624 2.2368
-3.1003 -43.0992 2.2368
-1.5511 -43.1816 2.2368
0.0000 -30.0736 2.2368
1.0797 -30.0549 2.2368
2.0585 -28.6152 2.1337
3.0846 -28.5245 2.1337
4.1070 -28.3975 2.1337
5.1242 -28.2344 2.1337
5.7131 -26.1066 1.9869
6.2450 -24.3207 1.8666
7.0963 -24.0207 1.8617
7.4216 -22.1606 1.7368
5.9046 -15.7313 1.2485
6.5204 -15.6409 1.2589
6.3966 -13.9152 1.1375
6.2809 -12.4639 1.0364
6.8166 -12.3983 1.0503
7.4080 -12.3977 1.0719
6.5867 -10.1750 0.8993
6.7353 -9.6283 0.8716
6.9751 -9.2458 0.8588
7.2867 -8.9699 0.8567
7.6780 -8.7873 0.8647
8.1911 -8.7217 0.8863
8.4354 -8.3591 0.8794
8.4355 -7.7792 0.8494
8.4355 -7.2366 0.8224
8.4356 -6.7263 0.7980
8.4357 -6.2445 0.7760
8.4357 -5.7876 0.7560
8.4358 -5.3528 0.7380
8.4359 -4.9372 0.7217
8.4359 -4.5388 0.7070
8.4360 -4.1555 0.6937
8.4360 -3.7855 0.6818
8.4361 -3.4273 0.6711
8.4361 -3.0793 0.6616
8.4362 -2.7404 0.6531
8.4362 -2.4093 0.6457
8.4363 -2.0849 0.6392
8.4363 -1.7662 0.6337
8.4106 -1.4478 0.6271
8.4106 -1.1386 0.6233
8.4106 -0.8325 0.6204
8.4107 -0.5285 0.6183
8.4365 -0.2266 0.6189
8.4366 0.0764 0.6184
8.4366 0.3795 0.6186
8.4366 0.6837 0.6197
8.6867 1.0189 0.6400
8.6868 1.3366 0.6428
8.6868 1.6578 0.6465
8.6869 1.9834 0.6511
8.6869 2.3144 0.6565
8.6870 2.6518 0.6630
8.6870 2.9967 0.6704
8.6871 3.3503 0.6790
8.6871 3.7138 0.6886
8.6872 4.0886 0.6995
8.6872 4.4763 0.7117
8.6873 4.8787 0.7252
8.6873 5.2976 0.7403
8.6874 5.7353 0.7570
8.6875 6.1943 0.7756
8.6875 6.6773 0.7962
8.6876 7.1879 0.8190
8.6877 7.7297 0.8443
8.6332 8.2551 0.8669
8.6621 8.8995 0.9010
8.6880 9.5921 0.9386
8.6881 10.3132 0.9777
2.4305 3.1048 0.2858
8.6894 11.9610 1.0712
8.6895 12.9117 1.1273
8.6897 13.9695 1.1914
8.6898 15.1571 1.2649
8.6900 16.5034 1.3500
8.6213 17.9039 1.4380
8.6905 19.8394 1.5670
8.6897 21.9495 1.7076
8.6901 24.4838 1.8789
8.6729 27.5330 2.0874
7.8437 28.4230 2.1318
6.8192 28.6897 2.1318
5.7857 28.9189 2.1318
4.7486 29.1364 2.1337
3.6999 29.2900 2.1337
2.6464 29.4053 2.1337
1.6660 30.9066 2.2368
0.5556 30.9467 2.2368
-0.5555 30.9465 2.2368
-1.6659 30.9057 2.2368
-2.7740 30.8245 2.2368
-3.8784 30.7030 2.2368
-4.9775 30.5414 2.2368
-6.0236 30.1088 2.2197
-6.8244 28.7117 2.1337
-7.8495 28.4442 2.1337
-8.8640 28.1397 2.1337
-6.5194 18.3681 1.4099
-10.9733 27.7178 2.1568
-11.9586 27.3003 2.1568
-12.9279 26.8474 2.1568
-13.8797 26.3595 2.1568
-14.8131 25.8376 2.1568
-14.0420 22.5741 1.9258
-14.0582 20.8890 1.8244
-14.7822 20.3479 1.8229
-15.5058 19.8078 1.8238
-15.8795 18.8498 1.7876
-17.0901 18.8687 1.8471
-20.7263 21.2943 2.1568
-9.7198 9.2942 0.9765
-10.4043 9.2570 1.0116
-22.8685 18.9207 2.1568
-23.5233 18.0803 2.1568
-24.1468 17.2170 2.1568
-24.0904 15.9042 2.1003
-15.3687 9.3720 1.3103
-15.3699 8.6316 1.2837
-15.3710 7.9203 1.2598
-15.3721 7.2349 1.2384
-15.3732 6.5721 1.2193
-15.3742 5.9293 1.2023
-15.3752 5.3040 1.1873
-15.3762 4.6938 1.1741
-15.3771 4.0969 1.1628
-15.3781 3.5112 1.1532
-15.3790 2.9349 1.1452
-15.3799 2.3664 1.1388
-15.3814 1.8042 1.1339
-15.3854 1.2468 1.1308
-15.3826 0.6920 1.1286
-15.3835 0.1393 1.1282
-15.3844 -0.4132 1.1292
-15.3853 -0.9668 1.1316
-15.3861 -1.5229 1.1356
-15.3870 -2.0831 1.1410
-15.3879 -2.6489 1.1480
-15.3889 -3.2217 1.1565
-15.3898 -3.8033 1.1667
-15.3908 -4.3954 1.1786
-15.3917 -4.9998 1.1922
-15.3927 -5.6186 1.2077
-21.4941 -8.7323 1.7107
-15.4353 -6.9263 1.2481
-15.4354 -7.6034 1.2699
-15.4355 -8.3048 1.2942
-15.4356 -9.0339 1.3212
-15.4357 -9.7944 1.3510
-15.4358 -10.5903 1.3840
-15.4359 -11.4264 1.4205
-15.4360 -12.3083 1.4609
-15.4361 -13.2422 1.5055
-15.4363 -14.2355 1.5550
-15.4364 -15.2968 1.6099
-15.4366 -16.4366 1.6710
-15.4368 -17.6670 1.7392
-15.4369 -19.0030 1.8155
-15.4371 -20.4626 1.9013
-13.7936 -19.7184 1.7855
-13.1191 -20.2661 1.7918
-14.7291 -24.6503 2.1318
-13.8313 -25.1570 2.1318
-12.9164 -25.6314 2.1318
-9.2182 -20.0533 1.6396
-8.5797 -20.5809 1.6568
-9.4228 -25.1050 1.9928
-9.1153 -27.2182 2.1335
-8.1312 -27.5239 2.1335
-7.1370 -27.7946 2.1335
-6.4308 -29.3864 2.2368
-5.3712 -29.5956 2.2368
-4.3050 -29.7672 2.2368
-3.2334 -29.9009 2.2368
-2.1578 -29.9966 2.2368
-1.0796 -30.0542 2.2368
0.0000 -23.0445 2.2368
0.8274 -23.0300 2.2368
1.6536 -22.9861 2.2368
2.3637 -21.8569 2.1337
3.1470 -21.7592 2.1337
3.9264 -21.6337 2.1337
4.7009 -21.4806 2.1337
5.4696 -21.3001 2.1337
6.3718 -21.5678 2.1818
7.1429 -21.3278 2.1818
5.8703 -15.6395 1.6202
5.7846 -13.8756 1.4578
6.3969 -13.9154 1.4850
6.2484 -12.3990 1.3460
6.8168 -12.3983 1.3713
7.4081 -12.3975 1.3995
6.7273 -10.3919 1.1993
6.7354 -9.6281 1.1381
6.9438 -9.2039 1.1165
7.2535 -8.9287 1.1137
7.6782 -8.7872 1.1294
8.1914 -8.7217 1.1578
8.4354 -8.3588 1.1488
8.4355 -7.7790 1.1097
8.4355 -7.2363 1.0745
8.4356 -6.7261 1.0427
8.4357 -6.2443 1.0140
8.4357 -5.7874 0.9881
8.4358 -5.3525 0.9646
8.4359 -4.9370 0.9434
8.4359 -4.5386 0.9243
8.4360 -4.1553 0.9070
8.4360 -3.7853 0.8915
8.4361 -3.4271 0.8776
8.4361 -3.0791 0.8653
8.4362 -2.7402 0.8543
8.4362 -2.4091 0.8447
8.4363 -2.0847 0.8363
8.4363 -1.7660 0.8292
8.4106 -1.4476 0.8207
8.4106 -1.1384 0.8159
8.4106 -0.8323 0.8121
8.4107 -0.5283 0.8094
8.4365 -0.2264 0.8103
8.4366 0.0766 0.8097
8.4366 0.3797 0.8102
8.4366 0.6839 0.8117
8.6867 1.0191 0.8384
8.6868 1.3368 0.8422
8.6868 1.6580 0.8471
8.6869 1.9836 0.8532
8.6869 2.3146 0.8605
8.6870 2.6520 0.8690
8.6870 2.9969 0.8789
8.6871 3.3505 0.8902
8.6871 3.7140 0.9029
8.6872 4.0888 0.9173
8.6872 4.4766 0.9333
8.6873 4.8789 0.9512
8.6873 5.2978 0.9711
8.6874 5.7355 0.9932
8.6875 6.1945 1.0176
8.6875 6.6776 1.0447
8.6876 7.1881 1.0747
8.6877 7.7300 1.1081
8.6331 8.2552 1.1378
8.6621 8.8998 1.1827
8.6880 9.5924 1.2322
8.6881 10.3135 1.2836
2.4302 3.1045 0.3752
8.6894 11.9614 1.4065
8.6895 12.9120 1.4803
8.6897 13.9699 1.5645
8.6898 15.1575 1.6611
8.6900 16.5038 1.7730
8.6212 17.9040 1.8886
8.6905 19.8399 2.0583
8.2588 20.8616 2.1318
7.5057 21.1474 2.1318
6.7427 21.4057 2.1318
5.9707 21.6363 2.1318
5.1953 21.8582 2.1337
4.4078 22.0323 2.1337
3.6144 22.1777 2.1337
2.3168 18.3410 1.7554
2.0473 22.7487 2.1687
1.2681 23.5243 2.2368
0.4229 23.5548 2.2368
-0.4228 23.5546 2.2368
-1.2679 23.5238 2.2368
-2.1114 23.4622 2.2368
-2.9520 23.3701 2.2368
-3.7887 23.2476 2.2368
-4.6203 23.0948 2.2368
-5.4457 22.9120 2.2368
-6.0117 21.7853 2.1467
-6.7473 21.4205 2.1335
-6.4722 18.2356 1.8385
-8.2642 20.8754 2.1335
-9.0067 20.5620 2.1335
-9.7373 20.2220 2.1335
-10.5687 20.0720 2.1568
-11.2801 19.6758 2.1568
-11.9766 19.2542 2.1568
-12.6571 18.8077 2.1568
-13.3209 18.3369 2.1568
-13.9670 17.8426 2.1568
-14.5948 17.3254 2.1568
-15.2032 16.7859 2.1568
-15.5065 15.9321 2.1179
-9.7357 9.3096 1.2836
-10.3968 9.2507 1.3265
-16.5786 13.7172 2.0516
-17.0611 13.1139 2.0524
-17.5151 12.4890 2.0524
-17.9461 11.8483 2.0524
-15.3687 9.3724 1.7186
-15.3699 8.6320 1.6835
-15.3710 7.9208 1.6520
-15.3721 7.2353 1.6237
-15.3732 6.5725 1.5985
-15.3742 5.9297 1.5760
-15.3752 5.3043 1.5562
-15.3762 4.6942 1.5388
-15.3771 4.0973 1.5238
-15.3781 3.5116 1.5110
-15.3790 2.9353 1.5003
-15.3799 2.3668 1.4917
-15.3808 1.8045 1.4852
-15.3817 1.2469 1.4806
-15.3826 0.6924 1.4779
-15.3835 0.1396 1.4771
-15.3844 -0.4128 1.4783
-15.3853 -0.9664 1.4813
-15.3861 -1.5226 1.4863
-15.3870 -2.0828 1.4932
-15.3880 -2.6485 1.5022
-15.3889 -3.2213 1.5132
-15.3898 -3.8029 1.5263
-15.3908 -4.3950 1.5416
-15.3917 -4.9995 1.5593
-15.3927 -5.6182 1.5794
-20.7233 -8.4187 2.1568
-15.4353 -6.9259 1.6319
-15.4354 -7.6030 1.6603
-15.4355 -8.3044 1.6918
-15.4356 -9.0335 1.7269
-15.4357 -9.7939 1.7657
-15.4358 -10.5899 1.8087
-13.5064 -9.9977 1.6241
-13.1348 -10.4729 1.6241
-15.4361 -13.2417 1.9668
-15.4363 -14.2350 2.0313
-15.4364 -15.2963 2.1029
-15.0781 -16.0543 2.1318
-14.4883 -16.5810 2.1318
-12.8308 -15.7943 1.9706
-13.2548 -17.5693 2.1318
-12.6127 -18.0298 2.1318
-9.6591 -14.9208 1.7224
-9.1376 -15.2920 1.7266
-8.6383 -15.7112 1.7381
-9.8944 -19.6342 2.1318
-9.1892 -19.9898 2.1335
-8.4644 -20.3038 2.1335
-7.7290 -20.5917 2.1335
-6.9839 -20.8533 2.1335
-6.2301 -21.0883 2.1335
-5.7331 -22.3269 2.2368
-4.9275 -22.5165 2.2368
-4.1157 -22.6773 2.2368
-3.2987 -22.8091 2.2368
-2.4777 -22.9119 2.2368
-1.6535 -22.9854 2.2368
-0.8273 -23.0297 2.2368
0.0000 -18.6632 2.2368
0.6701 -18.6514 2.2368
1.3393 -18.6158 2.2368
2.0068 -18.5563 2.2368
2.5487 -17.6218 2.1337
3.1799 -17.5200 2.1337
3.8070 -17.3957 2.1337
4.4295 -17.2492 2.1337
5.0463 -17.0806 2.1337
5.6568 -16.8901 2.1337
5.8705 -15.6397 2.0009
5.8007 -13.9138 1.8053
5.7003 -12.3996 1.6342
6.2486 -12.3990 1.6624
6.8171 -12.3983 1.6937
7.4083 -12.3976 1.7286
6.7273 -10.3916 1.4814
6.7355 -9.6280 1.4059
7.0214 -9.3065 1.3946
7.3605 -9.0602 1.3961
7.6784 -8.7872 1.3953
8.1917 -8.7217 1.4304
8.4354 -8.3585 1.4193
8.4355 -7.7787 1.3711
8.4355 -7.2360 1.3277
8.4356 -6.7258 1.2885
8.4357 -6.2440 1.2531
8.4357 -5.7872 1.2212
8.4358 -5.3523 1.1923
8.4359 -4.9368 1.1661
8.4359 -4.5383 1.1425
8.4360 -4.1550 1.1213
8.4360 -3.7851 1.1022
8.4361 -3.4268 1.0851
8.4361 -3.0789 1.0698
8.4362 -2.7400 1.0564
8.4362 -2.4088 1.0445
8.4363 -2.0844 1.0343
8.4363 -1.7658 1.0255
8.4106 -1.4474 1.0151
8.4106 -1.1382 1.0092
8.4106 -0.8321 1.0047
8.4107 -0.5281 1.0014
8.4365 -0.2262 1.0026
8.4366 0.0768 1.0019
8.4366 0.3799 1.0026
8.4366 0.6841 1.0045
8.6867 1.0193 1.0377
8.6868 1.3370 1.0424
8.6868 1.6582 1.0486
8.6869 1.9838 1.0562
8.6869 2.3148 1.0652
8.6870 2.6523 1.0759
8.6870 2.9972 1.0882
8.6871 3.3507 1.1023
8.6871 3.7142 1.1181
8.6872 4.0890 1.1360
8.6872 4.4768 1.1559
8.6873 4.8792 1.1782
8.6873 5.2981 1.2029
8.6874 5.7358 1.2303
8.6875 6.1948 1.2607
8.6875 6.6779 1.2943
8.6876 7.1884 1.3316
8.6877 7.7302 1.3730
8.6329 8.2554 1.4099
8.6621 8.9001 1.4656
8.6880 9.5927 1.5270
8.6881 10.3138 1.5907
2.4298 3.1042 0.4649
8.6894 11.9617 1.7433
8.6895 12.9124 1.8349
8.6897 13.9703 1.9393
8.6898 15.1579 2.0591
8.4287 16.0079 2.1318
7.8498 16.3024 2.1318
7.2605 16.5758 2.1318
6.6617 16.8277 2.1318
6.0541 17.0578 2.1318
5.4434 17.2813 2.1337
4.8200 17.4670 2.1337
4.1903 17.6301 2.1337
3.5550 17.7702 2.1337
2.9151 17.8873 2.1337
2.2713 17.9812 2.1337
1.7030 18.9238 2.2368
1.0227 18.9730 2.2368
0.3411 18.9976 2.2368
-0.3410 18.9975 2.2368
-1.0226 18.9726 2.2368
-1.7029 18.9232 2.2368
-2.3809 18.8491 2.2368
-3.0557 18.7505 2.2368
-3.7265 18.6276 2.2368
-4.3923 18.4804 2.2368
-5.0524 18.3093 2.2368
-5.7057 18.1144 2.2368
-6.0583 17.0699 2.1335
-6.6663 16.8394 2.1335
-7.2654 16.5871 2.1335
-7.8550 16.3134 2.1335
-8.4342 16.0185 2.1335
-9.0022 15.7029 2.1335
-9.5584 15.3671 2.1335
-10.2120 15.1749 2.1568
-10.7481 14.7958 2.1568
-11.2700 14.3976 2.1568
-11.4537 13.5970 2.0976
-11.8682 13.1041 2.0864
-12.2655 12.6026 2.0758
-9.8050 9.3762 1.6017
-10.3963 9.2506 1.6434
-14.0184 11.5993 2.1493
-14.4725 11.1246 2.1568
-14.8585 10.5952 2.1568
-15.2251 10.0523 2.1568
-15.3687 9.3728 2.1286
-15.3699 8.6324 2.0851
-15.3710 7.9212 2.0459
-15.3721 7.2357 2.0108
-15.3732 6.5729 1.9794
-15.3742 5.9301 1.9514
-13.7568 4.7463 1.7239
-13.1090 4.0024 1.6241
-15.3771 4.0977 1.8863
-15.3781 3.5119 1.8703
-15.3790 2.9357 1.8570
-15.3799 2.3672 1.8462
-15.3808 1.8049 1.8380
-15.3817 1.2472 1.8321
-15.3826 0.6928 1.8287
-15.3835 0.1400 1.8276
-15.3844 -0.4125 1.8289
-15.3853 -0.9660 1.8325
-15.3862 -1.5222 1.8385
-15.3870 -2.0824 1.8470
-13.4520 -2.3150 1.6241
-13.3560 -2.7955 1.6241
-15.3898 -3.8026 1.8874
-15.3907 -4.3946 1.9063
-15.3917 -4.9991 1.9280
-15.3927 -5.6179 1.9527
-16.7628 -6.8093 2.1568
-15.4353 -6.9255 2.0173
-15.4354 -7.6026 2.0522
-15.4355 -8.3040 2.0912
-15.4170 -9.0223 2.1318
-15.0792 -9.5673 2.1318
-14.7221 -10.0998 2.1318
-14.3464 -10.6191 2.1318
-13.9524 -11.1245 2.1318
-13.5408 -11.6154 2.1318
-13.1120 -12.0911 2.1318
-12.6666 -12.5512 2.1318
-9.2987 -9.9005 1.6241
-8.9354 -10.2257 1.6241
-8.5608 -10.5378 1.6241
-10.7308 -14.2233 2.1318
-10.2114 -14.5967 2.1318
-9.6871 -14.9636 2.1335
-9.1421 -15.2992 2.1335
-8.5857 -15.6151 2.1335
-8.0184 -15.9110 2.1335
-7.4410 -16.1865 2.1335
-6.8543 -16.4412 2.1335
-6.2589 -16.6748 2.1335
-5.9294 -17.7043 2.2368
-5.2895 -17.9041 2.2368
-4.6430 -18.0810 2.2368
-3.9906 -18.2348 2.2368
-3.3332 -18.3653 2.2368
-2.6716 -18.4723 2.2368
-2.0066 -18.5557 2.2368
-1.3391 -18.6153 2.2368
-0.6700 -18.6512 2.2368
0.0000 -15.6682 2.2368
0.5626 -15.6583 2.2368
1.1244 -15.6283 2.2368
1.6848 -15.5783 2.2368
2.1397 -14.7936 2.1337
2.6696 -14.7080 2.1337
3.1961 -14.6035 2.1337
3.7185 -14.4803 2.1337
4.2363 -14.3386 2.1337
4.7488 -14.1785 2.1337
5.2552 -14.0002 2.1337
5.7551 -13.8039 2.1337
5.7005 -12.3998 1.9468
6.2486 -12.3988 1.9804
6.8171 -12.3982 2.0179
7.4085 -12.3976 2.0595
6.7005 -10.3499 1.7579
6.7356 -9.6278 1.6750
7.0215 -9.3064 1.6616
7.3606 -9.0601 1.6635
7.6787 -8.7872 1.6627
8.1919 -8.7217 1.7046
8.4354 -8.3582 1.6913
8.4355 -7.7784 1.6339
8.4355 -7.2358 1.5823
8.4356 -6.7255 1.5356
8.4357 -6.2438 1.4935
8.4357 -5.7869 1.4555
8.4358 -5.3520 1.4211
8.4359 -4.9365 1.3900
8.4359 -4.5381 1.3619
8.4360 -4.1548 1.3367
8.4360 -3.7849 1.3140
8.4361 -3.4266 1.2936
8.4361 -3.0787 1.2755
8.4362 -2.7398 1.2595
8.4362 -2.4086 1.2455
8.4363 -2.0842 1.2333
8.4363 -1.7655 1.2229
8.4106 -1.4472 1.2106
8.4106 -1.1380 1.2036
8.4106 -0.8319 1.1982
8.4107 -0.5279 1.1944
8.4365 -0.2260 1.1959
8.4366 0.0770 1.1952
8.4366 0.3801 1.1960
8.4366 0.6843 1.1984
8.6867 1.0196 1.2380
8.6868 1.3372 1.2437
8.6868 1.6584 1.2511
8.6869 1.9840 1.2602
8.6869 2.3151 1.2711
8.6870 2.6525 1.2839
8.6870 2.9974 1.2987
8.6871 3.3509 1.3155
8.6871 3.7144 1.3345
8.6872 4.0893 1.3559
8.6872 4.4770 1.3798
8.6873 4.8794 1.4064
8.6873 5.2983 1.4359
8.6874 5.7360 1.4687
8.6875 6.1950 1.5050
8.6875 6.6781 1.5453
8.6876 7.1887 1.5898
8.6877 7.7305 1.6393
8.6328 8.2555 1.6834
8.6621 8.9003 1.7500
8.6880 9.5930 1.8234
8.6881 10.3142 1.8996
2.4295 3.1038 0.5551
8.6894 11.9621 2.0819
8.4536 12.5621 2.1318
7.9984 12.8593 2.1318
7.5327 13.1399 2.1318
7.0572 13.4035 2.1318
6.5723 13.6497 2.1318
6.0788 13.8783 2.1318
5.5774 14.0890 2.1318
5.0731 14.2942 2.1337
4.5572 14.4682 2.1337
4.0353 14.6235 2.1337
3.5080 14.7599 2.1337
2.9762 14.8771 2.1337
2.4404 14.9749 2.1337
1.9933 15.7807 2.2368
1.4257 15.8425 2.2368
0.8562 15.8836 2.2368
0.2855 15.9042 2.2368
-0.2855 15.9041 2.2368
-0.8561 15.8834 2.2368
-1.4255 15.8420 2.2368
-1.9932 15.7801 2.2368
-2.5581 15.6977 2.2368
-3.1197 15.5950 2.2368
-3.6772 15.4720 2.2368
-4.2298 15.3289 2.2368
-4.7769 15.1660 2.2368
-5.3176 14.9833 2.2368
-5.8514 14.7814 2.2368
-6.0830 13.8881 2.1335
-6.5768 13.6592 2.1335
-7.0619 13.4127 2.1335
-7.5377 13.1488 2.1335
-8.0037 12.8679 2.1335
-8.4591 12.5704 2.1335
-8.9034 12.2567 2.1335
-9.3360 11.9273 2.1335
-9.7563 11.5825 2.1335
-10.2746 11.3450 2.1568
-10.6732 10.9668 2.1568
-11.0577 10.5746 2.1568
-11.4278 10.1688 2.1568
-11.7830 9.7500 2.1568
-12.1227 9.3188 2.1568
-12.4466 8.8757 2.1568
-12.6065 8.3238 2.1318
-12.8941 7.8641 2.1318
-13.1650 7.3944 2.1318
-13.4187 6.9154 2.1318
-13.6549 6.4277 2.1318
-13.8733 5.9320 2.1318
-14.0737 5.4288 2.1318
-14.2559 4.9189 2.1318
-14.4195 4.4029 2.1318
-14.5644 3.8814 2.1318
-14.6904 3.3552 2.1318
-14.7975 2.8250 2.1318
-14.8853 2.2914 2.1318
-14.9540 1.7552 2.1318
-15.0033 1.2169 2.1318
-15.0332 0.6774 2.1318
-15.0438 0.1373 2.1318
-15.0349 -0.4027 2.1318
-15.0067 -0.9419 2.1318
-14.9592 -1.4796 2.1318
-14.8924 -2.0151 2.1318
-13.6606 -2.3505 1.9668
-14.7016 -3.0768 2.1318
-14.5779 -3.6016 2.1318
-14.4355 -4.1215 2.1318
-14.2745 -4.6359 2.1318
-14.0953 -5.1440 2.1318
-13.8981 -5.6453 2.1318
-13.6831 -6.1390 2.1318
-13.4506 -6.6247 2.1318
-13.2010 -7.1016 2.1318
-12.9346 -7.5691 2.1318
-12.6516 -8.0268 2.1318
-12.3526 -8.4739 2.1318
-12.0378 -8.9099 2.1318
-11.7077 -9.3344 2.1318
-11.3627 -9.7467 2.1318
-11.0033 -10.1463 2.1318
-10.6299 -10.5327 2.1318
-10.2430 -10.9056 2.1318
-9.8513 -11.2735 2.1335
-9.4386 -11.6179 2.1335
-9.0140 -11.9473 2.1335
-8.5779 -12.2614 2.1335
-8.1310 -12.5596 2.1335
-7.6738 -12.8416 2.1335
-7.2069 -13.1071 2.1335
-6.7309 -13.3558 2.1335
-6.2463 -13.5873 2.1335
-6.0075 -14.4097 2.2276
-5.5085 -14.6752 2.2368
-4.9777 -14.8622 2.2368
-4.4406 -15.0302 2.2368
-3.8978 -15.1789 2.2368
-3.3502 -15.3081 2.2368
-2.7983 -15.4178 2.2368
-2.2429 -15.5078 2.2368
-1.6846 -15.5778 2.2368
-1.1243 -15.6280 2.2368
-0.5625 -15.6581 2.2368
0.0000 -13.4895 2.2368
0.4844 -13.4809 2.2368
0.9681 -13.4551 2.2368
1.4505 -13.4120 2.2368
1.9312 -13.3517 2.2368
2.2984 -12.6625 2.1337
2.7516 -12.5725 2.1337
3.2014 -12.4663 2.1337
3.6472 -12.3442 2.1337
4.0883 -12.2062 2.1337
4.5243 -12.0525 2.1337
4.9545 -11.8834 2.1337
5.3785 -11.6990 2.1337
5.7956 -11.4996 2.1337
6.3453 -11.5397 2.1818
6.7563 -11.3058 2.1818
6.7039 -10.3548 2.0432
6.7356 -9.6276 1.9459
7.0217 -9.3063 1.9304
7.3608 -9.0600 1.9327
7.6789 -8.7871 1.9317
8.1922 -8.7217 1.9805
8.4354 -8.3579 1.9651
8.4355 -7.7781 1.8985
8.4355 -7.2355 1.8385
8.4356 -6.7253 1.7843
8.4357 -6.2435 1.7355
8.4357 -5.7867 1.6913
8.4358 -5.3518 1.6514
8.4359 -4.9363 1.6153
8.4359 -4.5379 1.5828
8.4360 -4.1546 1.5534
8.4360 -3.7846 1.5271
8.4361 -3.4264 1.5035
8.4361 -3.0785 1.4825
8.4362 -2.7395 1.4640
8.4362 -2.4084 1.4477
8.4363 -2.0840 1.4336
8.4363 -1.7653 1.4216
8.4106 -1.4470 1.4073
8.4106 -1.1378 1.3992
8.4106 -0.8317 1.3930
8.4107 -0.5277 1.3887
8.4365 -0.2258 1.3904
8.4366 0.0772 1.3896
8.4366 0.3804 1.3907
8.4366 0.6845 1.3935
8.6867 1.0198 1.4396
8.6868 1.3374 1.4463
8.6868 1.6586 1.4549
8.6869 1.9843 1.4656
8.6869 2.3153 1.4784
8.6870 2.6527 1.4933
8.6870 2.9976 1.5105
8.6871 3.3512 1.5301
8.6871 3.7147 1.5523
8.6872 4.0895 1.5772
8.6872 4.4772 1.6050
8.6873 4.8796 1.6360
8.6873 5.2986 1.6704
8.6874 5.7363 1.7086
8.6875 6.1953 1.7509
8.6875 6.6784 1.7978
8.6876 7.1889 1.8497
8.6877 7.7308 1.9073
8.6327 8.2557 1.9587
8.6621 8.9006 2.0363
8.6880 9.5933 2.1216
8.3792 9.9478 2.1318
2.4292 3.1035 0.6459
7.6462 10.5263 2.1318
7.2644 10.7953 2.1318
6.8731 11.0505 2.1318
6.4729 11.2913 2.1318
6.0641 11.5177 2.1318
5.6474 11.7291 2.1318
5.2280 11.9360 2.1337
4.7966 12.1170 2.1337
4.3590 12.2823 2.1337
3.9156 12.4317 2.1337
3.4672 12.5650 2.1337
3.0141 12.6821 2.1337
2.5571 12.7827 2.1337
2.0968 12.8667 2.1337
1.7126 13.5590 2.2368
1.2249 13.6120 2.2368
0.7356 13.6473 2.2368
0.2453 13.6650 2.2368
-0.2453 13.6649 2.2368
-0.7355 13.6472 2.2368
-1.2248 13.6117 2.2368
-1.7125 13.5585 2.2368
-2.1979 13.4878 2.2368
-2.6805 13.3996 2.2368
-3.1595 13.2941 2.2368
-3.6344 13.1713 2.2368
-4.1044 13.0314 2.2368
-4.5691 12.8747 2.2368
-5.0278 12.7013 2.2368
-5.4799 12.5115 2.2368
-5.9248 12.3055 2.2368
-6.0683 11.5258 2.1335
-6.4773 11.2992 2.1335
-6.8778 11.0581 2.1335
-7.2693 10.8027 2.1335
-7.6513 10.5334 2.1335
-8.0232 10.2505 2.1335
-8.3847 9.9544 2.1335
-8.7352 9.6455 2.1335
-9.0742 9.3242 2.1335
-9.4014 8.9910 2.1335
-9.7164 8.6462 2.1335
-10.0104 8.2836 2.1318
-10.2994 7.9175 2.1318
-10.5749 7.5413 2.1318
-10.8366 7.1554 2.1318
-11.0842 6.7605 2.1318
-11.3174 6.3570 2.1318
-11.5359 5.9454 2.1318
-9.0066 4.2399 1.6355
-9.0872 3.8858 1.6241
-12.1003 4.6679 2.1318
-12.2573 4.2296 2.1318
-12.3984 3.7861 2.1318
-12.5235 3.3378 2.1318
-12.6323 2.8855 2.1318
-12.7248 2.4296 2.1318
-12.8009 1.9708 2.1318
-12.8604 1.5097 2.1318
-12.9032 1.0469 2.1318
-12.9295 0.5829 2.1318
-12.9390 0.1184 2.1318
-12.9319 -0.3461 2.1318
-12.9081 -0.8099 2.1318
-12.8677 -1.2724 2.1318
-12.8108 -1.7331 2.1318
-12.7373 -2.1914 2.1318
-9.6357 -2.0163 1.6241
-9.5550 -2.3604 1.6241
-12.4194 -3.5456 2.1318
-12.2814 -3.9883 2.1318
-12.1277 -4.4256 2.1318
-11.9584 -4.8570 2.1318
-11.7738 -5.2821 2.1318
-11.5741 -5.7002 2.1318
-11.3597 -6.1107 2.1318
-11.1308 -6.5133 2.1318
-10.8876 -6.9073 2.1318
-10.6306 -7.2923 2.1318
-10.3600 -7.6678 2.1318
-10.0762 -8.0333 2.1318
-9.7876 -8.3953 2.1335
-9.4783 -8.7397 2.1335
-9.1569 -9.0729 2.1335
-8.8238 -9.3942 2.1335
-8.4796 -9.7035 2.1335
-8.1245 -10.0002 2.1335
-7.7592 -10.2840 2.1335
-7.3840 -10.5545 2.1335
-6.9995 -10.8114 2.1335
-6.6060 -11.0544 2.1335
-6.2193 -11.3107 2.1387
-6.0072 -11.9195 2.2119
-5.6377 -12.2630 2.2368
-5.1933 -12.4564 2.2368
-4.7424 -12.6338 2.2368
-4.2854 -12.7949 2.2368
-3.8230 -12.9397 2.2368
-3.3558 -13.0678 2.2368
-2.8843 -13.1792 2.2368
-2.4092 -13.2738 2.2368
-1.9310 -13.3513 2.2368
-1.4504 -13.4116 2.2368
-0.9679 -13.4548 2.2368
-0.4843 -13.4808 2.2368
0.0000 -11.8319 2.2368
0.4249 -11.8244 2.2368
0.8491 -11.8017 2.2368
1.2723 -11.7639 2.2368
1.6939 -11.7109 2.2368
2.0436 -11.2589 2.1630
2.4135 -11.0273 2.1337
2.8080 -10.9341 2.1337
3.1990 -10.8269 2.1337
3.5859 -10.7058 2.1337
3.9682 -10.5709 2.1337
4.3455 -10.4225 2.1337
4.7173 -10.2606 2.1337
5.0831 -10.0856 2.1337
5.4425 -9.8976 2.1337
5.7950 -9.6968 2.1337
6.2784 -9.6973 2.1818
6.6233 -9.4668 2.1818
6.9598 -9.2240 2.1818
7.2874 -8.9694 2.1818
7.6058 -8.7032 2.1818
7.9144 -8.4257 2.1818
8.2130 -8.1373 2.1818
8.4355 -7.7778 2.1649
8.4355 -7.2352 2.0966
8.4356 -6.7250 2.0349
8.4357 -6.2432 1.9792
8.4357 -5.7864 1.9289
8.4358 -5.3515 1.8834
8.4359 -4.9360 1.8423
8.4359 -4.5377 1.8052
8.4360 -4.1544 1.7718
8.4360 -3.7844 1.7418
8.4361 -3.4262 1.7150
8.4361 -3.0782 1.6911
8.4362 -2.7393 1.6700
8.4362 -2.4082 1.6515
8.4363 -2.0838 1.6354
8.4363 -1.7651 1.6218
8.4106 -1.4467 1.6055
8.4106 -1.1376 1.5963
8.4106 -0.8315 1.5893
8.4107 -0.5275 1.5844
8.4365 -0.2256 1.5864
8.4366 0.0774 1.5855
8.4366 0.3806 1.5868
8.4366 0.6847 1.5901
8.6867 1.0200 1.6427
8.6868 1.3376 1.6504
8.6868 1.6588 1.6603
8.6869 1.9845 1.6725
8.6869 2.3155 1.6871
8.6870 2.6529 1.7042
8.6870 2.9978 1.7239
8.6871 3.3514 1.7463
8.6871 3.7149 1.7717
8.6872 4.0897 1.8001
8.6872 4.4775 1.8319
8.6873 4.8799 1.8674
8.6873 5.2988 1.9067
8.6874 5.7365 1.9504
8.6875 6.1955 1.9987
8.6875 6.6786 2.0522
8.6876 7.1892 2.1115
8.6877 7.7311 2.1773
8.4232 8.0556 2.1818
8.1298 8.3540 2.1818
7.8258 8.6416 2.1818
7.5116 8.9181 2.1818
2.4289 3.1032 0.7373
6.7302 9.2655 2.1423
6.3627 9.4556 2.1318
6.0199 9.6789 2.1318
5.6692 9.8898 2.1318
5.3159 10.0969 2.1337
4.9506 10.2821 2.1337
4.5787 10.4540 2.1337
4.2009 10.6124 2.1337
3.8176 10.7571 2.1337
3.4293 10.8879 2.1337
3.0365 11.0045 2.1337
2.6397 11.1070 2.1337
2.2395 11.1950 2.1337
1.9250 11.8130 2.2368
1.4999 11.8748 2.2368
1.0728 11.9212 2.2368
0.6442 11.9521 2.2368
0.2149 11.9676 2.2368
-0.2148 11.9675 2.2368
-0.6441 11.9520 2.2368
-1.0726 11.9209 2.2368
-1.4997 11.8744 2.2368
-1.9249 11.8126 2.2368
-2.3475 11.7354 2.2368
-2.7670 11.6430 2.2368
-3.1829 11.5355 2.2368
-3.5946 11.4132 2.2368
-4.0017 11.2760 2.2368
-4.4034 11.1243 2.2368
-4.7994 10.9581 2.2368
-5.1892 10.7779 2.2368
-5.5721 10.5836 2.2368
-5.9477 10.3758 2.2368
-6.0241 9.6858 2.1335
-6.3671 9.4622 2.1335
-6.7017 9.2265 2.1335
-7.0277 8.9788 2.1335
-7.3444 8.7197 2.1335
-7.6516 8.4493 2.1335
-7.9487 8.1680 2.1335
-8.2355 7.8763 2.1335
-8.5116 7.5744 2.1335
-8.7766 7.2629 2.1335
-9.0301 6.9420 2.1335
-9.2719 6.6123 2.1335
-9.5016 6.2742 2.1335
-9.7189 5.9281 2.1335
-9.9155 5.5698 2.1318
-10.1071 5.2094 2.1318
-6.5981 3.1063 1.3675
-8.5054 3.6372 1.7350
-8.7390 3.3714 1.7571
-10.7404 3.7064 2.1318
-10.8643 3.3179 2.1318
-10.9742 2.9252 2.1318
-11.0699 2.5289 2.1318
-11.1512 2.1295 2.1318
-11.2182 1.7274 2.1318
-11.2706 1.3234 2.1318
-11.3085 0.9178 2.1318
-11.3319 0.5111 2.1318
-11.3405 0.1040 2.1318
-11.3346 -0.3031 2.1318
-11.3141 -0.7096 2.1318
-11.2790 -1.1151 2.1318
-11.2294 -1.5189 2.1318
-11.1653 -1.9206 2.1318
-11.0870 -2.3197 2.1318
-9.2159 -2.2764 1.7870
-8.8994 -2.5404 1.7425
-8.5993 -2.7923 1.7026
-8.5562 -3.1221 1.7155
-10.4842 -4.2580 2.1318
-10.3226 -4.6308 2.1318
-10.1479 -4.9974 2.1318
-9.9601 -5.3576 2.1318
-9.7676 -5.7153 2.1335
-9.5545 -6.0612 2.1335
-9.3291 -6.3993 2.1335
-9.0919 -6.7289 2.1335
-8.8430 -7.0499 2.1335
-8.5829 -7.3616 2.1335
-8.3118 -7.6639 2.1335
-8.0301 -7.9561 2.1335
-7.7382 -8.2381 2.1335
-7.4364 -8.5095 2.1335
-7.1252 -8.7698 2.1335
-6.8049 -9.0189 2.1335
-6.4760 -9.2563 2.1335
-6.1388 -9.4818 2.1335
-6.0069 -10.0516 2.2120
-5.7048 -10.3747 2.2368
-5.3281 -10.5718 2.2368
-4.9447 -10.7554 2.2368
-4.5550 -10.9251 2.2368
-4.1595 -11.0808 2.2368
-3.7588 -11.2223 2.2368
-3.3532 -11.3493 2.2368
-2.9435 -11.4618 2.2368
-2.5299 -11.5596 2.2368
-2.1132 -11.6425 2.2368
-1.6938 -11.7106 2.2368
-1.2722 -11.7636 2.2368
-0.8490 -11.8015 2.2368
-0.4248 -11.8243 2.2368
0.0000 -10.5273 2.2368
0.3780 -10.5205 2.2368
0.7555 -10.5003 2.2368
1.1321 -10.4666 2.2368
1.5072 -10.4195 2.2368
1.8804 -10.3590 2.2368
2.1474 -9.8112 2.1337
2.4984 -9.7283 2.1337
2.8462 -9.6328 2.1337
3.1904 -9.5250 2.1337
3.5306 -9.4049 2.1337
3.8663 -9.2727 2.1337
4.1970 -9.1286 2.1337
4.5224 -8.9728 2.1337
4.8421 -8.8054 2.1337
5.1556 -8.6267 2.1337
5.4626 -8.4369 2.1337
5.7626 -8.2362 2.1337
6.0552 -8.0249 2.1337
6.4831 -7.9792 2.1818
6.7662 -7.7422 2.1818
7.0407 -7.4952 2.1818
7.3062 -7.2386 2.1818
7.5624 -6.9726 2.1818
7.8090 -6.6975 2.1818
8.0456 -6.4138 2.1818
8.2719 -6.1217 2.1818
8.4357 -5.7861 2.1685
8.4358 -5.3513 2.1174
8.4359 -4.9358 2.0712
8.4359 -4.5374 2.0296
8.4360 -4.1541 1.9920
8.4360 -3.7842 1.9584
8.4361 -3.4259 1.9282
8.4361 -3.0780 1.9014
8.4362 -2.7391 1.8777
8.4362 -2.4080 1.8569
8.4363 -2.0836 1.8389
8.4363 -1.7649 1.8236
8.4106 -1.4465 1.8053
8.4106 -1.1374 1.7951
8.4106 -0.8313 1.7872
8.4107 -0.5273 1.7817
8.4365 -0.2254 1.7840
8.4366 0.0776 1.7831
8.4366 0.3808 1.7845
8.4366 0.6849 1.7883
8.6867 1.0202 1.8475
8.6868 1.3379 1.8562
8.6868 1.6591 1.8674
8.6869 1.9847 1.8812
8.6869 2.3157 1.8976
8.6870 2.6531 1.9169
8.6870 2.9980 1.9391
8.6871 3.3516 1.9643
8.6871 3.7151 1.9929
8.6872 4.0900 2.0250
8.6872 4.4777 2.0608
8.6873 4.8801 2.1007
8.6873 5.2991 2.1450
8.6385 5.7045 2.1818
8.4295 6.0118 2.1818
8.2095 6.3114 2.1818
7.9789 6.6029 2.1818
7.7378 6.8860 2.1818
7.4867 7.1603 2.1818
7.2258 7.4253 2.1818
6.9555 7.6808 2.1818
6.6762 7.9265 2.1818
2.4285 3.1029 0.8294
5.9575 8.2020 2.1337
5.6599 8.4114 2.1337
5.3549 8.6099 2.1337
5.0429 8.7974 2.1337
4.7243 8.9735 2.1337
4.3996 9.1380 2.1337
4.0691 9.2907 2.1337
3.7333 9.4314 2.1337
3.3926 9.5599 2.1337
3.0475 9.6761 2.1337
2.6984 9.7797 2.1337
2.3458 9.8706 2.1337
2.0420 10.2079 2.1893
1.7107 10.4980 2.2368
1.3329 10.5529 2.2368
0.9533 10.5941 2.2368
0.5725 10.6216 2.2368
0.1909 10.6353 2.2368
-0.1909 10.6353 2.2368
-0.5724 10.6215 2.2368
-0.9532 10.5939 2.2368
-1.3328 10.5526 2.2368
-1.7106 10.4977 2.2368
-2.0861 10.4291 2.2368
-2.4590 10.3471 2.2368
-2.8286 10.2517 2.2368
-3.1945 10.1430 2.2368
-3.5562 10.0212 2.2368
-3.9133 9.8864 2.2368
-4.2653 9.7388 2.2368
-4.6117 9.5787 2.2368
-4.9521 9.4062 2.2368
-5.2860 9.2216 2.2368
-5.6130 9.0250 2.2368
-5.9326 8.8168 2.2368
-6.0119 8.2770 2.1535
-6.2461 7.9805 2.1335
-6.5277 7.7502 2.1335
-6.8008 7.5100 2.1335
-7.0650 7.2601 2.1335
-7.3200 7.0009 2.1335
-7.5655 6.7328 2.1335
-7.8012 6.4560 2.1335
-8.0267 6.1709 2.1335
-8.2417 5.8779 2.1335
-8.4461 5.5775 2.1335
-8.6394 5.2699 2.1335
-8.8216 4.9556 2.1335
-8.9923 4.6350 2.1335
-6.4357 3.0300 1.5004
-8.7353 3.7357 2.0043
-9.4335 3.6397 2.1335
-9.5564 3.2981 2.1335
-9.6669 2.9525 2.1335
-9.7649 2.6031 2.1335
-9.8503 2.2505 2.1335
-9.9147 1.8936 2.1318
-9.9745 1.5362 2.1318
-10.0213 1.1769 2.1318
-10.0553 0.8163 2.1318
-10.0762 0.4548 2.1318
-10.0842 0.0927 2.1318
-10.0791 -0.2693 2.1318
-10.0611 -0.6308 2.1318
-10.0301 -0.9913 2.1318
-9.9862 -1.3505 2.1318
-9.9295 -1.7078 2.1318
-9.8634 -2.0635 2.1325
-9.4957 -2.3453 2.0703
-9.6910 -2.7662 2.1335
-8.6949 -2.8231 1.9357
-9.4642 -3.4532 2.1335
-9.3326 -3.7901 2.1335
-9.1889 -4.1219 2.1335
-9.0335 -4.4484 2.1335
-8.8666 -4.7691 2.1335
-8.6882 -5.0835 2.1335
-8.4988 -5.3913 2.1335
-8.2985 -5.6921 2.1335
-8.0876 -5.9854 2.1335
-7.8664 -6.2710 2.1335
-7.6351 -6.5485 2.1335
-7.3940 -6.8174 2.1335
-7.1436 -7.0776 2.1335
-6.8840 -7.3285 2.1335
-6.6157 -7.5700 2.1335
-6.3389 -7.8018 2.1335
-6.0540 -8.0234 2.1335
-6.0067 -8.5853 2.2244
-5.7258 -8.8436 2.2368
-5.4041 -9.0427 2.2368
-5.0755 -9.2300 2.2368
-4.7404 -9.4055 2.2368
-4.3994 -9.5689 2.2368
-4.0527 -9.7200 2.2368
-3.7008 -9.8586 2.2368
-3.3443 -9.9845 2.2368
-2.9835 -10.0976 2.2368
-2.6189 -10.1978 2.2368
-2.2510 -10.2848 2.2368
-1.8802 -10.3587 2.2368
-1.5070 -10.4192 2.2368
-1.1319 -10.4664 2.2368
-0.7554 -10.5002 2.2368
-0.3779 -10.5205 2.2368
0.0000 -9.4727 2.2368
0.3402 -9.4666 2.2368
0.6799 -9.4484 2.2368
1.0187 -9.4181 2.2368
1.3562 -9.3757 2.2368
1.6920 -9.3212 2.2368
2.0257 -9.2548 2.2368
2.2482 -8.7536 2.1337
2.5611 -8.6676 2.1337
2.8708 -8.5705 2.1337
3.1769 -8.4624 2.1337
3.4789 -8.3435 2.1337
3.7765 -8.2137 2.1337
4.0693 -8.0735 2.1337
4.3569 -7.9228 2.1337
4.6389 -7.7620 2.1337
4.9151 -7.5911 2.1337
5.1850 -7.4104 2.1337
5.4482 -7.2202 2.1337
5.7045 -7.0207 2.1337
5.9536 -6.8122 2.1337
6.3347 -6.7434 2.1818
6.5735 -6.5124 2.1818
6.8039 -6.2730 2.1818
7.0256 -6.0255 2.1818
7.2384 -5.7701 2.1818
7.4419 -5.5072 2.1818
7.6359 -5.2373 2.1818
7.8201 -4.9605 2.1818
7.9943 -4.6772 2.1818
8.1583 -4.3878 2.1818
8.3118 -4.0927 2.1818
8.4360 -3.7839 2.1770
8.4361 -3.4257 2.1435
8.4361 -3.0778 2.1137
8.4362 -2.7389 2.0874
8.4362 -2.4078 2.0644
8.4363 -2.0834 2.0444
8.4363 -1.7647 2.0274
8.4106 -1.4463 2.0071
8.4106 -1.1372 1.9958
8.4106 -0.8311 1.9871
8.4107 -0.5271 1.9810
8.4365 -0.2252 1.9836
8.4366 0.0778 1.9826
8.4366 0.3810 1.9842
8.4366 0.6851 1.9884
8.6867 1.0204 2.0543
8.6868 1.3381 2.0640
8.6868 1.6593 2.0765
8.6869 1.9849 2.0918
8.6869 2.3159 2.1102
8.6869 2.6534 2.1316
8.6870 2.9983 2.1563
8.6764 3.3477 2.1818
8.5520 3.6576 2.1818
8.4165 3.9628 2.1818
8.2701 4.2630 2.1818
8.1129 4.5577 2.1818
7.9453 4.8467 2.1818
7.7673 5.1294 2.1818
7.5793 5.4056 2.1818
7.3814 5.6749 2.1818
7.1739 5.9370 2.1818
6.9570 6.1914 2.1818
6.7312 6.4379 2.1818
6.4965 6.6761 2.1818
6.2535 6.9058 2.1818
5.8699 6.9695 2.1337
2.4282 3.1025 0.9225
5.3560 7.3741 2.1337
5.0884 7.5623 2.1337
4.8141 7.7407 2.1337
4.5336 7.9091 2.1337
4.2472 8.0674 2.1337
3.9552 8.2152 2.1337
3.6581 8.3524 2.1337
3.3562 8.4789 2.1337
3.0499 8.5943 2.1337
2.7396 8.6987 2.1337
2.4258 8.7918 2.1337
2.1088 8.8735 2.1337
1.8755 9.3759 2.2368
1.5379 9.4375 2.2368
1.1982 9.4868 2.2368
0.8570 9.5238 2.2368
0.5147 9.5485 2.2368
0.1717 9.5608 2.2368
-0.1716 9.5608 2.2368
-0.5146 9.5484 2.2368
-0.8569 9.5236 2.2368
-1.1981 9.4866 2.2368
-1.5377 9.4372 2.2368
-1.8754 9.3756 2.2368
-2.2105 9.3019 2.2368
-2.5428 9.2161 2.2368
-2.8718 9.1185 2.2368
-3.1970 9.0090 2.2368
-3.5180 8.8880 2.2368
-3.8345 8.7554 2.2368
-4.1459 8.6115 2.2368
-4.4519 8.4565 2.2368
-4.7521 8.2906 2.2368
-5.0462 8.1139 2.2368
-5.3336 7.9269 2.2368
-5.6141 7.7296 2.2368
-5.8873 7.5223 2.2368
-6.0046 7.1294 2.1829
-6.1144 6.7523 2.1335
-6.3520 6.5277 2.1335
-6.5814 6.2947 2.1335
-6.8022 6.0537 2.1335
-7.0142 5.8049 2.1335
-7.2170 5.5487 2.1335
-7.4105 5.2854 2.1335
-7.5944 5.0153 2.1335
-7.7683 4.7388 2.1335
-7.9323 4.4562 2.1335
-8.0859 4.1680 2.1335
-6.4275 3.0263 1.6665
-8.3615 3.5761 2.1335
-8.4831 3.2732 2.1335
-8.5937 2.9661 2.1335
-8.6932 2.6553 2.1335
-8.7815 2.3412 2.1335
-8.8584 2.0241 2.1335
-8.9239 1.7046 2.1335
-8.9778 1.3829 2.1335
-9.0202 1.0596 2.1335
-9.0509 0.7350 2.1335
-9.0699 0.4096 2.1335
-9.0772 0.0837 2.1335
-9.0728 -0.2421 2.1335
-9.0567 -0.5676 2.1335
-9.0290 -0.8922 2.1335
-8.9897 -1.2155 2.1335
-8.9387 -1.5372 2.1335
-8.8763 -1.8568 2.1335
-8.8025 -2.1739 2.1335
-8.7174 -2.4880 2.1335
-8.6211 -2.7989 2.1335
-8.5137 -3.1061 2.1335
-8.3954 -3.4092 2.1335
-8.2663 -3.7078 2.1335
-8.1266 -4.0016 2.1335
-7.9765 -4.2901 2.1335
-7.8162 -4.5731 2.1335
-7.6459 -4.8500 2.1335
-7.4658 -5.1207 2.1335
-7.2762 -5.3847 2.1335
-7.0773 -5.6417 2.1335
-6.8693 -5.8914 2.1335
-6.6525 -6.1335 2.1335
-6.4272 -6.3676 2.1335
-6.1938 -6.5935 2.1335
-6.0136 -6.8809 2.1555
-5.9794 -7.3591 2.2368
-5.7108 -7.5683 2.2368
-5.4348 -7.7677 2.2368
-5.1520 -7.9571 2.2368
-4.8625 -8.1362 2.2368
-4.5669 -8.3049 2.2368
-4.2655 -8.4629 2.2368
-3.9586 -8.6100 2.2368
-3.6466 -8.7460 2.2368
-3.3301 -8.8708 2.2368
-3.0093 -8.9841 2.2368
-2.6846 -9.0860 2.2368
-2.3566 -9.1761 2.2368
-2.0255 -9.2545 2.2368
-1.6919 -9.3209 2.2368
-1.3561 -9.3755 2.2368
-1.0186 -9.4179 2.2368
-0.6798 -9.4483 2.2368
-0.3401 -9.4666 2.2368
0.0000 -8.6018 2.2368
0.3089 -8.5963 2.2368
0.6174 -8.5798 2.2368
0.9251 -8.5522 2.2368
1.2316 -8.5137 2.2368
1.5365 -8.4642 2.2368
1.8395 -8.4039 2.2368
2.0491 -7.9782 2.1416
2.3257 -7.8706 2.1337
2.6069 -7.7824 2.1337
2.8848 -7.6842 2.1337
3.1590 -7.5761 2.1337
3.4292 -7.4583 2.1337
3.6951 -7.3309 2.1337
3.9562 -7.1940 2.1337
4.2123 -7.0479 2.1337
4.4630 -6.8927 2.1337
4.7080 -6.7286 2.1337
4.9470 -6.5558 2.1337
5.1797 -6.3746 2.1337
5.4058 -6.1851 2.1337
5.6250 -5.9877 2.1337
5.8370 -5.7825 2.1337
6.0415 -5.5699 2.1337
6.3789 -5.4706 2.1818
6.5720 -5.2387 2.1818
6.7567 -5.0000 2.1818
6.9327 -4.7548 2.1818
7.0999 -4.5034 2.1818
7.2580 -4.2462 2.1818
7.4067 -3.9834 2.1818
7.5460 -3.7155 2.1818
7.6756 -3.4427 2.1818
7.7954 -3.1653 2.1818
7.9052 -2.8839 2.1818
8.0048 -2.5986 2.1818
8.0941 -2.3099 2.1818
8.1730 -2.0182 2.1818
8.2415 -1.7237 2.1818
8.2993 -1.4270 2.1818
8.3465 -1.1283 2.1818
