ply
format ascii 1.0
element vertex 2129
property float32 x
property float32 y
property float32 z
end_header
-21.6940 5.7769 0.6422
-28.1850 6.4315 0.8251
-36.0644 6.8777 1.0454
-36.4317 5.6007 1.0471
-36.8024 4.3120 1.0501
-37.1775 3.0079 1.0546
-37.5581 1.6847 1.0604
-37.6924 0.3364 1.0606
-38.9628 -1.0515 1.0941
-38.9831 -2.4547 1.0938
-39.0035 -3.8657 1.0949
-39.0241 -5.2882 1.0975
-39.0449 -6.7263 1.1015
-75.2376 -15.7611 2.1321
-78.4230 -19.3913 2.2353
-77.8590 -22.2459 2.2353
-77.1901 -25.0849 2.2353
-72.8922 -26.6170 2.1322
-72.0540 -29.2830 2.1322
-71.5528 -32.1183 2.1453
-67.0425 -33.0344 2.0398
-61.3774 -33.0322 1.8982
-58.5468 -34.2743 1.8436
-58.5457 -37.1578 1.8804
-42.5332 -29.1881 1.3960
-42.8790 -31.7481 1.4409
-36.5140 -29.1214 1.2589
-34.1148 -29.2717 1.2094
-43.0102 -39.6719 1.5713
-43.0091 -42.6278 1.6232
-43.0079 -45.8019 1.6813
-43.0065 -49.2282 1.7463
-37.4608 -46.1221 1.5849
-43.0035 -57.0119 1.9019
-20.4733 -29.2717 0.9500
-42.9998 -66.4351 2.1016
-31.2679 -52.3367 1.6170
-16.0850 -29.2602 0.8845
-35.4506 -70.3585 2.0846
-32.5609 -70.8429 2.0608
-12.2040 -29.2787 0.8376
-23.4561 -62.5019 1.7612
-9.8048 -29.2806 0.8140
-9.7624 -33.0496 0.9078
-9.7027 -37.7913 1.0271
-9.5900 -43.8284 1.1804
-9.7518 -53.7390 1.4363
-9.5768 -66.2277 1.7592
-8.7208 -80.6544 2.1321
-5.9707 -83.0084 2.1868
-3.0538 -85.0211 2.2353
-0.0001 -45.7800 2.2353
1.6430 -45.7480 2.2353
3.1322 -43.5494 2.1322
4.6926 -43.4024 2.1322
6.3870 -44.1716 2.1803
6.2896 -34.6621 1.7214
6.0571 -27.6837 1.3852
2.4352 -9.4855 0.4788
6.8520 -23.1980 1.1832
7.1560 -21.3717 1.1029
5.8907 -15.6972 0.8209
6.0788 -14.5845 0.7740
6.2516 -13.6024 0.7338
6.4074 -12.7173 0.6984
6.4252 -11.6887 0.6546
6.5654 -10.9899 0.6287
6.7551 -10.4372 0.6111
6.8645 -9.8151 0.5892
6.8913 -9.1367 0.5634
7.0225 -8.6466 0.5489
7.2051 -8.2479 0.5401
7.1953 -7.6632 0.5189
7.3611 -7.2963 0.5121
7.4377 -6.8608 0.5005
7.5208 -6.4535 0.4907
7.5910 -6.0545 0.4813
7.5587 -5.5970 0.4667
7.7134 -5.2937 0.4647
7.7764 -4.9359 0.4581
7.8429 -4.5918 0.4525
6.8619 -3.6933 0.3885
6.7049 -3.3041 0.3731
6.5775 -2.9528 0.3603
6.5699 -2.6703 0.3549
6.6104 -2.4141 0.3526
6.7449 -2.1922 0.3558
6.8625 -1.9611 0.3585
6.9951 -1.7299 0.3624
7.2306 -1.5150 0.3721
7.7895 -1.3422 0.3986
8.0817 -1.0955 0.4118
8.0808 -0.8012 0.4106
7.1474 -0.4504 0.3626
8.1382 -0.2200 0.4128
8.1381 0.0723 0.4132
8.1380 0.3647 0.4141
8.1378 0.6581 0.4156
7.8111 0.9149 0.4009
7.1462 1.0983 0.3690
7.1471 1.3627 0.3718
8.1374 1.8565 0.4271
8.1373 2.1665 0.4314
8.1371 2.4825 0.4364
7.6564 2.6398 0.4160
7.0779 2.7284 0.3901
8.0802 3.4528 0.4524
7.6062 3.5784 0.4333
7.2747 3.7471 0.4223
7.0311 3.9472 0.4166
2.6823 1.6352 0.1625
2.6069 1.7205 0.1617
6.6018 4.7058 0.4203
6.5499 5.0329 0.4286
6.6162 5.4726 0.4460
8.4367 7.5045 0.5871
8.4365 8.0650 0.6074
8.4363 8.6655 0.6300
8.4360 9.3118 0.6551
8.4358 10.0115 0.6831
8.4355 10.7735 0.7146
8.4351 11.6086 0.7499
8.4348 12.5306 0.7900
8.4344 13.5564 0.8356
8.4082 14.6630 0.8852
8.6833 16.4875 0.9765
8.6827 18.0280 1.0491
8.6820 19.8164 1.1349
8.6812 21.9241 1.2375
8.6545 24.3792 1.3583
8.6801 27.5512 1.5172
8.6786 31.4433 1.7139
8.6756 36.4938 1.9715
7.9508 39.7349 2.1303
6.5179 39.9864 2.1303
5.0819 40.2243 2.1322
3.6340 40.3744 2.1321
2.1821 40.4752 2.1321
0.7628 42.4887 2.2353
-0.7630 42.4899 2.2353
-2.2881 42.4382 2.2353
-3.8105 42.3336 2.2353
-5.3287 42.1764 2.2353
-6.5249 40.0282 2.1321
-6.7011 33.4887 1.7950
-9.3854 39.4787 2.1321
-10.9181 39.5565 2.1553
-12.3359 39.1544 2.1553
-6.5199 18.3659 1.0228
-14.2678 36.0324 2.0329
-15.4106 35.1740 2.0133
-17.6939 36.7377 2.1366
-19.1618 36.3835 2.1534
-20.4875 35.7277 2.1553
-21.7718 34.9932 2.1553
-15.3783 22.8457 1.4392
-15.3802 21.1664 1.3663
-15.3818 19.6449 1.3018
-15.3833 18.2566 1.2446
-15.3847 16.9816 1.1936
-15.3859 15.8038 1.1478
-15.3871 14.7095 1.1067
-15.3882 13.6877 1.0697
-15.7831 13.0549 1.0628
-15.7841 12.1284 1.0318
-15.3911 10.9707 0.9787
-15.3920 10.1584 0.9539
-15.3928 9.3835 0.9314
-15.4346 8.6648 0.9134
-15.4343 7.9499 0.8949
-15.4340 7.2610 0.8782
-15.4338 6.5951 0.8631
-15.4221 5.9449 0.8489
-15.4219 5.3172 0.8368
-15.4216 4.7049 0.8260
-21.6945 5.7761 1.1486
-28.1864 6.4306 1.4773
-35.8211 6.8297 1.8609
-36.1865 5.5615 1.8659
-36.5552 4.2815 1.8733
-36.9284 2.9862 1.8832
-37.3073 1.6719 1.8957
-37.6927 0.3348 1.9109
-38.9629 -1.0532 1.9733
-29.2147 -1.8408 1.4800
-30.0902 -2.9836 1.5268
-39.0241 -5.2899 1.9858
-39.0449 -6.7280 1.9952
-41.9460 -8.7889 2.1553
-41.6580 -10.3024 2.1553
-41.3149 -11.8064 2.1553
-15.5442 -5.0522 0.8188
-15.4176 -5.6305 0.8212
-15.4174 -6.2664 0.8316
-15.4171 -6.9211 0.8434
-15.4282 -7.6028 0.8574
-15.4280 -8.3038 0.8723
-15.4277 -9.0324 0.8890
-15.4274 -9.7922 0.9076
-15.4271 -10.5875 0.9284
-15.4268 -11.4229 0.9514
-15.4264 -12.3040 0.9769
-32.7162 -28.0735 2.1321
-31.5655 -29.1173 2.1218
-31.5902 -31.3120 2.1955
-30.6127 -32.6033 2.2055
-29.5814 -33.8627 2.2153
-27.9143 -34.3702 2.1796
-22.0828 -29.2779 1.8038
-20.4722 -29.2717 1.7556
-18.9412 -29.2658 1.7120
-17.4803 -29.2602 1.6727
-16.0814 -29.2549 1.6372
-14.7370 -29.2497 1.6053
-13.4409 -29.2447 1.5766
-12.2034 -29.2787 1.5530
-10.9872 -29.2782 1.5303
-9.8043 -29.2806 1.5104
-9.5899 -32.4670 1.6553
-9.5879 -37.3458 1.8846
-9.3264 -42.6251 2.1321
-7.7923 -42.9429 2.1321
-6.2471 -43.2032 2.1321
-4.9204 -45.5082 2.2353
-3.2841 -45.6599 2.2353
-1.6433 -45.7506 2.2353
-0.0001 -31.2938 2.2353
1.1231 -31.2725 2.2353
2.1411 -29.7705 2.1322
3.2079 -29.6714 2.1322
4.2702 -29.5331 2.1322
5.3265 -29.3558 2.1322
6.0583 -27.6905 2.0262
2.4351 -9.4856 0.7002
6.4267 -21.7592 1.6226
7.1388 -21.3211 1.6085
5.8906 -15.6978 1.1999
6.0788 -14.5850 1.1312
6.2515 -13.6029 1.0722
6.4073 -12.7178 1.0203
6.5487 -11.9139 0.9745
6.6419 -11.1185 0.9288
6.7550 -10.4376 0.8921
6.8644 -9.8155 0.8599
6.9544 -9.2208 0.8296
7.1075 -8.7518 0.8104
7.1955 -8.2375 0.7867
7.2805 -7.7544 0.7655
7.3610 -7.2967 0.7464
7.4376 -6.8612 0.7292
7.5108 -6.4454 0.7138
7.5809 -6.0469 0.6999
7.6483 -5.6637 0.6874
7.5833 -5.2048 0.6648
7.6452 -4.8531 0.6551
7.7053 -4.5116 0.6464
6.8617 -3.6935 0.5646
6.7051 -3.3045 0.5421
6.7330 -3.0229 0.5357
6.7329 -2.7369 0.5280
6.6103 -2.4144 0.5117
6.7447 -2.1925 0.5161
6.8624 -1.9613 0.5199
7.1709 -1.7738 0.5385
7.4602 -1.5635 0.5562
7.7885 -1.3424 0.5772
8.0817 -1.0959 0.5962
8.0808 -0.8016 0.5942
7.1471 -0.4506 0.5245
8.1382 -0.2203 0.5968
8.1381 0.0719 0.5972
8.1380 0.3644 0.5983
8.1378 0.6577 0.6002
7.8123 0.9147 0.5787
6.6921 1.0282 0.4986
7.1468 1.3623 0.5363
8.1374 1.8562 0.6158
8.1373 2.1662 0.6218
8.1371 2.4822 0.6288
7.6569 2.6396 0.5991
6.8210 2.6291 0.5412
8.0802 3.4524 0.6511
7.6065 3.5782 0.6234
7.4404 3.8321 0.6212
7.1727 4.0264 0.6110
2.6812 1.6343 0.2334
2.6064 1.7200 0.2323
6.7300 4.7968 0.6153
6.7299 5.1709 0.6323
6.6161 5.4722 0.6401
8.4367 7.5040 0.8424
8.4365 8.0646 0.8713
8.4363 8.6649 0.9034
8.4360 9.3113 0.9392
8.4358 10.0110 0.9791
8.4355 10.7729 1.0239
8.4351 11.6080 1.0744
8.4348 12.5300 1.1315
8.4344 13.5558 1.1966
8.4082 14.6622 1.2673
8.6833 16.4867 1.3978
8.6827 18.0272 1.5015
8.6820 19.8156 1.6241
8.6812 21.9231 1.7707
8.6545 24.3781 1.9432
8.5200 27.0418 2.1303
7.5419 27.3237 2.1303
6.5547 27.5712 2.1303
5.5597 27.7837 2.1303
4.5620 27.9865 2.1322
3.5539 28.1291 2.1322
2.5416 28.2363 2.1322
1.5999 29.6766 2.2353
0.5335 29.7145 2.2353
-0.5337 29.7150 2.2353
-1.6002 29.6782 2.2353
-2.6649 29.6041 2.2353
-3.7264 29.4926 2.2353
-4.7835 29.3442 2.2353
-5.8350 29.1588 2.2353
-6.5617 27.6000 2.1321
-7.5502 27.3532 2.1321
-8.5296 27.0719 2.1321
-6.4908 18.2831 1.4569
-10.5709 26.6950 2.1553
-11.5267 26.3078 2.1553
-9.3872 19.4897 1.6227
-13.3956 25.4336 2.1553
-14.3065 24.9476 2.1553
-15.2002 24.4297 2.1553
-12.6942 18.8573 1.7020
-15.3801 21.1652 1.9578
-15.3818 19.6438 1.8660
-15.3833 18.2556 1.7844
-15.3847 16.9806 1.7116
-15.3859 15.8028 1.6465
-15.3871 14.7086 1.5880
-15.3882 13.6868 1.5354
-15.3892 12.7282 1.4878
-15.3902 11.8249 1.4449
-15.3911 10.9699 1.4060
-15.3920 10.1576 1.3708
-15.3928 9.3828 1.3390
-15.4346 8.6641 1.3136
-15.4343 7.9492 1.2874
-15.4340 7.2603 1.2638
-15.4338 6.5943 1.2425
-15.4335 5.9486 1.2234
-15.4333 5.3204 1.2065
-15.4330 4.7077 1.1914
-6.5384 1.7405 0.4992
-15.4326 3.5202 1.1667
-15.4323 2.9417 1.1569
-15.4321 2.3711 1.1487
-15.4319 1.8068 1.1421
-15.4317 1.2472 1.1370
-15.4315 0.6909 1.1333
-15.4312 0.1364 1.1312
-15.4310 -0.4178 1.1305
-15.4308 -0.9730 1.1313
-15.4306 -1.5306 1.1335
-15.4304 -2.0923 1.1372
-15.4302 -2.6595 1.1425
-15.4299 -3.2337 1.1492
-15.4297 -3.8166 1.1576
-15.4295 -4.4099 1.1677
-15.4292 -5.0155 1.1795
-15.4290 -5.6354 1.1932
-15.4288 -6.2717 1.2087
-15.4285 -6.9269 1.2264
-15.4282 -7.6035 1.2462
-15.4280 -8.3045 1.2684
-15.4277 -9.0331 1.2932
-15.4274 -9.7930 1.3207
-15.4271 -10.5883 1.3513
-15.4268 -11.4238 1.3853
-15.4264 -12.3048 1.4230
-23.5400 -20.2008 2.2353
-22.8156 -21.0472 2.2353
-22.0602 -21.8672 2.2353
-21.2748 -22.6595 2.2353
-20.4605 -23.4230 2.2353
-19.6182 -24.1567 2.2353
-18.7492 -24.8594 2.2353
-17.6913 -25.2967 2.2149
-16.3758 -25.3033 2.1615
-15.2554 -25.5372 2.1322
-14.3354 -26.0799 2.1322
-13.3957 -26.5887 2.1322
-12.4375 -27.0627 2.1322
-11.4623 -27.5016 2.1322
-10.4713 -27.9044 2.1322
-9.4656 -28.2701 2.1321
-8.4471 -28.5994 2.1321
-7.4173 -28.8921 2.1322
-6.4349 -29.4112 2.1516
-5.5852 -30.7807 2.2353
-4.4774 -30.9655 2.2353
-3.3635 -31.1094 2.2353
-2.2449 -31.2122 2.2353
-1.1233 -31.2736 2.2353
-0.0001 -23.7533 2.2353
0.8524 -23.7374 2.2353
1.7037 -23.6902 2.2353
2.4349 -22.5230 2.1322
3.2413 -22.4187 2.1322
4.0433 -22.2851 2.1322
4.8398 -22.1222 2.1322
2.4350 -9.4856 0.9223
6.2509 -21.1649 2.0787
7.1384 -21.3211 2.1184
5.8905 -15.6984 1.5801
6.1493 -14.7551 1.5069
6.2515 -13.6034 1.4117
6.4072 -12.7182 1.3433
6.5486 -11.9144 1.2829
6.6912 -11.2017 1.2316
6.7549 -10.4381 1.1741
6.8644 -9.8159 1.1316
7.0012 -9.2834 1.0989
7.1074 -8.7522 1.0661
7.1954 -8.2379 1.0347
7.2804 -7.7548 1.0067
7.3610 -7.2971 0.9815
7.4376 -6.8616 0.9587
7.5107 -6.4458 0.9382
7.5808 -6.0473 0.9198
7.6483 -5.6641 0.9032
7.7133 -5.2944 0.8884
7.7762 -4.9366 0.8752
7.8427 -4.5924 0.8641
6.8615 -3.6937 0.7414
6.7054 -3.3050 0.7117
6.6714 -2.9956 0.6967
6.7329 -2.7372 0.6928
6.6103 -2.4147 0.6713
6.7446 -2.1928 0.6770
6.8623 -1.9616 0.6817
7.0750 -1.7503 0.6967
7.2297 -1.5155 0.7066
7.7875 -1.3426 0.7564
8.0817 -1.0962 0.7812
8.0808 -0.8019 0.7784
6.7096 -0.4234 0.6449
8.1382 -0.2207 0.7815
8.1381 0.0716 0.7818
8.1380 0.3640 0.7831
8.1378 0.6574 0.7854
7.8135 0.9145 0.7573
6.5416 1.0048 0.6375
6.5372 1.2458 0.6415
8.1374 1.8558 0.8051
8.1373 2.1658 0.8128
8.1371 2.4818 0.8217
7.6573 2.6395 0.7829
6.7450 2.5995 0.6992
6.6483 2.8403 0.6997
7.6845 3.6145 0.8224
7.2754 3.7468 0.7930
7.0315 3.9468 0.7819
2.6800 1.6335 0.3045
2.6058 1.7195 0.3031
6.6019 4.7052 0.7875
6.5500 5.0323 0.8028
6.6867 5.5302 0.8438
8.4367 7.5036 1.0985
8.4365 8.0641 1.1361
8.4363 8.6644 1.1778
8.4360 9.3107 1.2242
8.4358 10.0104 1.2761
8.4355 10.7723 1.3343
8.4351 11.6075 1.3999
8.4348 12.5294 1.4742
8.4344 13.5551 1.5588
8.4082 14.6616 1.6508
8.6833 16.4860 1.8205
8.6827 18.0263 1.9555
8.6820 19.8147 2.1149
8.2095 20.7310 2.1803
7.4582 21.0074 2.1803
6.6977 21.2572 2.1803
5.7984 21.0062 2.1322
5.0396 21.1975 2.1322
4.2748 21.3618 2.1322
3.5047 21.4992 2.1322
2.3086 18.2718 1.8029
2.0349 22.6059 2.2221
1.2292 22.7988 2.2353
0.4098 22.8280 2.2353
-0.4100 22.8283 2.2353
-1.2294 22.7997 2.2353
-2.0473 22.7423 2.2353
-2.8627 22.6562 2.2353
-3.6747 22.5413 2.2353
-4.4823 22.3980 2.2353
-5.2844 22.2262 2.2353
-6.0108 21.7750 2.2098
-6.5512 20.7915 2.1321
-6.4845 18.2645 1.8952
-8.0302 20.2777 2.1321
-8.7555 19.9820 2.1321
-9.4637 19.6475 2.1306
-10.1649 19.2986 2.1303
-10.8549 18.9278 2.1303
-11.5317 18.5327 2.1303
-12.1944 18.1138 2.1303
-12.8422 17.6716 2.1303
-13.4741 17.2066 2.1303
-14.0896 16.7193 2.1303
-14.6877 16.2104 2.1303
-15.2676 15.6803 2.1303
-12.7038 12.1428 1.7098
-15.3882 13.6859 2.0025
-15.3892 12.7274 1.9409
-15.3902 11.8240 1.8851
-15.3911 10.9691 1.8348
-15.3920 10.1568 1.7892
-15.3928 9.3820 1.7479
-15.4346 8.6633 1.7151
-15.4343 7.9484 1.6812
-15.4340 7.2596 1.6507
-15.4338 6.5936 1.6232
-15.4335 5.9479 1.5986
-15.4333 5.3197 1.5768
-15.4330 4.7070 1.5574
-6.5312 1.7383 0.6519
-15.4326 3.5195 1.5258
-15.4323 2.9410 1.5133
-15.4321 2.3704 1.5029
-15.4319 1.8061 1.4945
-15.4317 1.2466 1.4881
-15.4315 0.6902 1.4837
-15.4312 0.1357 1.4812
-15.4310 -0.4184 1.4806
-15.4308 -0.9736 1.4820
-15.4306 -1.5313 1.4852
-15.4304 -2.0930 1.4904
-15.4302 -2.6601 1.4976
-15.4299 -3.2343 1.5068
-15.4297 -3.8173 1.5182
-15.4295 -4.4106 1.5317
-15.4292 -5.0162 1.5475
-15.4290 -5.6361 1.5657
-15.4288 -6.2724 1.5865
-15.4285 -6.9276 1.6100
-15.4282 -7.6042 1.6363
-15.4280 -8.3053 1.6658
-15.4277 -9.0339 1.6987
-15.4274 -9.7938 1.7352
-15.4271 -10.5891 1.7757
-13.7490 -10.1820 1.6227
-15.4264 -12.3056 1.8706
-17.0777 -14.6561 2.1321
-16.5494 -15.2677 2.1321
-15.9989 -15.8599 2.1321
-15.4270 -16.4321 2.1321
-14.8343 -16.9832 2.1321
-14.9104 -18.3607 2.2353
-14.2480 -18.8922 2.2353
-13.5663 -19.3994 2.2353
-12.8664 -19.8816 2.2353
-12.1490 -20.3381 2.2353
-6.8397 -12.4438 1.3394
-10.6659 -21.1714 2.2353
-9.9022 -21.5471 2.2353
-9.1250 -21.8946 2.2353
-8.3354 -22.2137 2.2353
-7.5345 -22.5036 2.2353
-6.7234 -22.7642 2.2353
-5.9031 -22.9950 2.2353
-5.0748 -23.1956 2.2353
-4.2396 -23.3657 2.2353
-3.3986 -23.5053 2.2353
-2.5530 -23.6139 2.2353
-1.7039 -23.6915 2.2353
-0.8526 -23.7380 2.2353
-0.0001 -19.1253 2.2353
0.6863 -19.1126 2.2353
1.3717 -19.0748 2.2353
2.0356 -18.8301 2.2139
2.6098 -18.0517 2.1322
3.2556 -17.9445 2.1322
3.8971 -17.8139 2.1322
2.4349 -9.4857 1.1453
5.1632 -17.4830 2.1322
5.7862 -17.2832 2.1322
5.8904 -15.6989 1.9620
6.1493 -14.7556 1.8709
6.3241 -13.7621 1.7731
6.4071 -12.7187 1.6676
6.6247 -12.0534 1.6110
6.3273 -10.5930 1.4457
6.4039 -9.8962 1.3815
6.7465 -9.6479 1.3803
6.9225 -9.1795 1.3484
7.1074 -8.7527 1.3229
7.1954 -8.2383 1.2838
7.2804 -7.7552 1.2490
7.3609 -7.2975 1.2176
7.4375 -6.8620 1.1892
7.5107 -6.4462 1.1637
7.5808 -6.0476 1.1407
7.6482 -5.6645 1.1200
7.7132 -5.2948 1.1015
7.7762 -4.9370 1.0850
7.8427 -4.5928 1.0711
6.9834 -3.7597 0.9352
6.7056 -3.3054 0.8820
6.6341 -2.9792 0.8584
6.6190 -2.6912 0.8439
6.6598 -2.4331 0.8378
6.7445 -2.1930 0.8385
6.8621 -1.9619 0.8443
7.0530 -1.7452 0.8600
7.3101 -1.5326 0.8846
7.7864 -1.3427 0.9363
8.0817 -1.0966 0.9670
8.0809 -0.8023 0.9634
6.5624 -0.4143 0.7805
8.1382 -0.2210 0.9669
8.1381 0.0712 0.9672
8.1380 0.3637 0.9686
8.1378 0.6570 0.9714
7.8147 0.9143 0.9366
6.5518 1.0061 0.7896
6.3920 1.2179 0.7755
8.1374 1.8555 0.9953
8.1373 2.1655 1.0047
8.1371 2.4815 1.0156
7.6585 2.6395 0.9676
6.8464 2.6382 0.8768
6.3864 2.7281 0.8304
7.6851 3.6144 1.0160
7.3325 3.7758 0.9872
7.0786 3.9729 0.9721
2.6788 1.6326 0.3759
2.6052 1.7190 0.3741
6.6491 4.7385 0.9792
6.5545 5.0354 0.9917
6.6225 5.4767 1.0315
8.4367 7.5031 1.3558
8.4365 8.0636 1.4020
8.4363 8.6639 1.4533
8.4360 9.3102 1.5105
8.4358 10.0099 1.5744
8.4355 10.7718 1.6461
8.4351 11.6069 1.7268
8.4348 12.5287 1.8183
8.4344 13.5545 1.9225
8.4082 14.6609 2.0359
8.4330 16.0100 2.1803
7.8508 16.2985 2.1803
7.2589 16.5661 2.1803
6.6581 16.8125 2.1803
5.9156 16.6617 2.1322
5.3126 16.8605 2.1322
4.7032 17.0378 2.1322
4.0879 17.1934 2.1322
3.4675 17.3272 2.1322
2.8429 17.4389 2.1322
2.2269 17.6246 2.1439
1.6605 18.4466 2.2353
0.9971 18.4938 2.2353
0.3325 18.5175 2.2353
-0.3326 18.5177 2.2353
-0.9973 18.4944 2.2353
-1.6608 18.4476 2.2353
-2.3222 18.3774 2.2353
-2.9808 18.2839 2.2353
-3.6358 18.1671 2.2353
-4.2863 18.0272 2.2353
-4.9315 17.8644 2.2353
-5.5707 17.6789 2.2353
-6.0128 16.9351 2.1668
-6.5123 16.4441 2.1321
-7.1002 16.2034 2.1321
-7.6792 15.9420 2.1321
-8.2489 15.6602 2.1321
-8.8083 15.3583 2.1321
-9.3569 15.0367 2.1321
-9.8857 14.6836 2.1303
-8.6949 11.9641 1.7794
-10.9214 13.9460 2.1303
-11.4193 13.5499 2.1303
-11.9030 13.1362 2.1303
-12.3718 12.7055 2.1303
-12.8253 12.2582 2.1303
-13.2628 11.7948 2.1303
-13.6837 11.3161 2.1303
-14.0875 10.8224 2.1303
-14.4737 10.3145 2.1303
-14.8418 9.7930 2.1303
-15.1912 9.2583 2.1303
-15.4346 8.6625 2.1184
-15.4343 7.9477 2.0768
-15.4340 7.2588 2.0393
-15.4338 6.5929 2.0056
-12.9124 4.9756 1.6528
-12.8515 4.4292 1.6227
-15.4330 4.7063 1.9250
-6.5240 1.7361 0.8049
-15.4326 3.5188 1.8864
-15.4323 2.9403 1.8712
-15.4321 2.3698 1.8586
-15.4319 1.8054 1.8485
-15.4317 1.2459 1.8408
-15.4315 0.6896 1.8356
-13.6623 0.1196 1.6227
-15.4310 -0.4191 1.8323
-15.4308 -0.9743 1.8342
-15.4306 -1.5320 1.8385
-15.4304 -2.0937 1.8451
-15.4302 -2.6608 1.8543
-15.4299 -3.2350 1.8660
-15.4297 -3.8179 1.8803
-15.4295 -4.4113 1.8973
-13.7570 -4.4731 1.7093
-13.2973 -4.8580 1.6719
-12.8630 -5.2299 1.6390
-12.7972 -5.7467 1.6549
-15.4282 -7.6050 2.0281
-15.4280 -8.3060 2.0649
-15.4277 -9.0346 2.1059
-15.2761 -9.6985 2.1303
-14.9253 -10.2454 2.1303
-14.5548 -10.7796 2.1303
-14.1649 -11.3001 2.1303
-13.7563 -11.8065 2.1303
-13.3294 -12.2979 2.1303
-12.8848 -12.7736 2.1303
-9.4626 -10.0797 1.6227
-9.0983 -10.4168 1.6227
-8.7217 -10.7406 1.6227
-10.9497 -14.5196 2.1321
-10.4250 -14.9082 2.1321
-9.8864 -15.2776 2.1321
-9.3345 -15.6272 2.1321
-6.7918 -12.3573 1.6511
-8.5907 -17.0531 2.2353
-7.9751 -17.3547 2.2353
-7.3488 -17.6336 2.2353
-6.7126 -17.8897 2.2353
-6.0674 -18.1224 2.2353
-5.4140 -18.3315 2.2353
-4.7533 -18.5167 2.2353
-4.0862 -18.6777 2.2353
-3.4136 -18.8142 2.2353
-2.7364 -18.9262 2.2353
-2.0555 -19.0134 2.2353
-1.3719 -19.0757 2.2353
-0.6865 -19.1130 2.2353
-0.0001 -15.9929 2.2353
0.5738 -15.9823 2.2353
1.1470 -15.9508 2.2353
1.7186 -15.8985 2.2353
2.1823 -15.0957 2.1322
2.7224 -15.0063 2.1322
3.2589 -14.8973 2.1322
2.4348 -9.4857 1.3695
4.3179 -14.6214 2.1322
4.8391 -14.4547 2.1322
5.3538 -14.2693 2.1322
5.8613 -14.0653 2.1322
6.2595 -13.6223 2.0982
6.4070 -12.7192 1.9937
6.6246 -12.0539 1.9260
6.1937 -10.3698 1.6917
6.2679 -9.6865 1.6164
6.4910 -9.2830 1.5874
6.8501 -9.0841 1.5949
7.1073 -8.7531 1.5810
7.2790 -8.3345 1.5521
7.3649 -7.8458 1.5099
7.3608 -7.2978 1.4549
7.4374 -6.8624 1.4210
7.5106 -6.4465 1.3903
7.5807 -6.0480 1.3627
7.6481 -5.6648 1.3380
7.7132 -5.2952 1.3157
7.7761 -4.9374 1.2959
7.8426 -4.5932 1.2792
6.8610 -3.6942 1.0973
6.7058 -3.3058 1.0532
6.6342 -2.9795 1.0250
6.6190 -2.6915 1.0075
6.6598 -2.4334 1.0002
6.7443 -2.1933 1.0009
6.8620 -1.9622 1.0077
7.0528 -1.7455 1.0264
7.2288 -1.5159 1.0439
7.7854 -1.3429 1.1171
8.0817 -1.0969 1.1538
6.4181 -0.6375 0.9129
6.4208 -0.4057 0.9110
7.3859 -0.2009 1.0468
7.3869 0.0643 1.0471
7.3879 0.3298 1.0487
7.3889 0.5962 1.0517
7.3898 0.8643 1.0561
6.4094 0.9840 0.9209
6.4034 1.2198 0.9262
7.3883 1.6843 1.0772
7.3871 1.9655 1.0871
7.3858 2.2520 1.0987
7.3845 2.5447 1.1119
6.8473 2.6382 1.0450
6.3418 2.7088 0.9825
7.6076 3.5777 1.1983
7.4412 3.8314 1.1935
7.1735 4.0258 1.1735
2.6776 1.6318 0.4475
2.6047 1.7185 0.4455
6.7300 4.7958 1.1804
6.7299 5.1698 1.2126
6.6159 5.4709 1.2271
8.4367 7.5026 1.6144
8.4365 8.0631 1.6693
8.4363 8.6634 1.7303
8.4360 9.3097 1.7983
8.4358 10.0093 1.8743
8.4355 10.7712 1.9595
8.4351 11.6063 2.0555
8.4348 12.5281 2.1643
8.0366 12.9146 2.1803
7.5659 13.1917 2.1803
7.0858 13.4518 2.1803
6.5969 13.6947 2.1803
5.9652 13.6130 2.1322
5.4716 13.8160 2.1322
4.9712 14.0013 2.1322
4.4647 14.1687 2.1322
3.9526 14.3181 2.1322
3.4355 14.4492 2.1322
2.9142 14.5618 2.1322
2.3893 14.6560 2.1322
1.9514 15.4437 2.2353
1.3956 15.5031 2.2353
0.8380 15.5428 2.2353
0.2794 15.5628 2.2353
-0.2796 15.5629 2.2353
-0.8382 15.5433 2.2353
-1.3958 15.5038 2.2353
-1.9517 15.4446 2.2353
-2.5052 15.3658 2.2353
-3.0556 15.2674 2.2353
-3.6022 15.1496 2.2353
-4.1444 15.0124 2.2353
-4.6814 14.8560 2.2353
-5.2127 14.6807 2.2353
-5.7374 14.4867 2.2353
-6.0159 13.7284 2.1499
-6.4525 13.3946 2.1321
-6.9308 13.1572 2.1321
-7.4005 12.9030 2.1321
-7.8610 12.6322 2.1321
-8.3118 12.3451 2.1321
-8.7521 12.0422 2.1321
-9.1816 11.7237 2.1321
-9.5996 11.3900 2.1321
-9.9973 11.0325 2.1303
-10.3905 10.6701 2.1303
-10.7706 10.2937 2.1303
-11.1373 9.9040 2.1303
-11.4900 9.5013 2.1303
-11.8282 9.0861 2.1303
-12.1515 8.6590 2.1303
-12.4596 8.2205 2.1303
-12.7520 7.7711 2.1303
-13.0282 7.3113 2.1303
-13.2880 6.8418 2.1303
-13.5310 6.3632 2.1303
-13.7569 5.8759 2.1303
-13.6746 5.2687 2.0860
-14.1559 4.8781 2.1303
-14.3285 4.3689 2.1303
-6.5167 1.7339 0.9585
-14.6188 3.3326 2.1303
-14.7361 2.8070 2.1303
-14.8345 2.2773 2.1303
-14.9139 1.7442 2.1303
-14.9741 1.2083 2.1303
-15.0151 0.6703 2.1303
-13.6183 0.1186 1.9294
-15.0391 -0.4091 2.1303
-12.7056 -0.8028 1.8018
-14.9856 -1.4885 2.1303
-14.9297 -2.0264 2.1303
-14.8545 -2.5622 2.1303
-14.7600 -3.0952 2.1303
-14.6463 -3.6247 2.1303
-14.5136 -4.1500 2.1303
-14.3619 -4.6705 2.1303
-14.1916 -5.1853 2.1303
-14.0026 -5.6939 2.1303
-13.7954 -6.1956 2.1303
-13.5701 -6.6897 2.1303
-13.3270 -7.1755 2.1303
-13.0663 -7.6525 2.1303
-12.7886 -8.1199 2.1303
-12.4939 -8.5771 2.1303
-12.1828 -9.0235 2.1303
-11.8557 -9.4585 2.1303
-11.5129 -9.8816 2.1303
-11.1548 -10.2922 2.1303
-10.7820 -10.6896 2.1303
-10.3949 -11.0734 2.1303
-9.9940 -11.4430 2.1303
-9.5877 -11.8077 2.1321
-9.1605 -12.1477 2.1321
-8.7211 -12.4721 2.1321
-8.2701 -12.7805 2.1321
-7.8080 -13.0723 2.1321
-6.7840 -12.3437 1.9718
-6.8534 -13.6050 2.1321
-6.6701 -14.5155 2.2353
-6.1460 -14.7483 2.2353
-5.6138 -14.9619 2.2353
-5.0740 -15.1561 2.2353
-4.5275 -15.3306 2.2353
-3.9749 -15.4850 2.2353
-3.4170 -15.6193 2.2353
-2.8545 -15.7333 2.2353
-2.2882 -15.8267 2.2353
-1.7188 -15.8994 2.2353
-1.1472 -15.9514 2.2353
-0.5740 -15.9826 2.2353
-0.0001 -13.7299 2.2353
0.4926 -13.7209 2.2353
0.9846 -13.6939 2.2353
1.4753 -13.6491 2.2353
1.9641 -13.5866 2.2353
2.3372 -12.8834 2.1322
2.7978 -12.7901 2.1322
2.4347 -9.4858 1.5951
3.7071 -12.5536 2.1322
4.1546 -12.4108 2.1322
4.5966 -12.2519 2.1322
5.0325 -12.0771 2.1322
5.4617 -11.8866 2.1322
5.8836 -11.6807 2.1322
5.8457 -10.6372 1.9792
6.0634 -10.1522 1.9287
6.1714 -9.5380 1.8533
6.2818 -8.9844 1.7889
6.8497 -9.0840 1.8569
7.1073 -8.7535 1.8409
7.2789 -8.3349 1.8071
7.3649 -7.8462 1.7579
7.3608 -7.2982 1.6938
7.4374 -6.8628 1.6542
7.5979 -6.5219 1.6372
7.6688 -6.1187 1.6047
7.7370 -5.7311 1.5754
7.7131 -5.2955 1.5314
7.7761 -4.9377 1.5082
7.8425 -4.5935 1.4887
6.8608 -3.6944 1.2768
6.7060 -3.3063 1.2256
6.7330 -3.0242 1.2103
6.7329 -2.7382 1.1924
6.6101 -2.4156 1.1550
6.7442 -2.1935 1.1643
6.8618 -1.9624 1.1722
7.1696 -1.7747 1.2136
7.4587 -1.5645 1.2527
7.7844 -1.3431 1.2990
8.0817 -1.0973 1.3418
6.2813 -0.6242 1.0389
6.2843 -0.3973 1.0368
7.2155 -0.1966 1.1890
7.2164 0.0625 1.1893
7.2174 0.3219 1.1911
7.2183 0.5822 1.1944
7.2193 0.8440 1.1993
6.2721 0.9626 1.0475
6.2654 1.1932 1.0532
7.2181 1.6452 1.2230
7.2168 1.9199 1.2342
7.2156 2.1998 1.2472
7.2143 2.4857 1.2621
6.8482 2.6383 1.2143
6.1977 2.6470 1.1156
7.6080 3.5775 1.3922
7.4415 3.8312 1.3865
7.1738 4.0256 1.3632
2.6765 1.6309 0.5196
2.6041 1.7180 0.5174
6.7300 4.7954 1.3709
6.7033 5.1490 1.4027
6.6159 5.4705 1.4251
8.4367 7.5021 1.8747
8.4365 8.0626 1.9384
8.4363 8.6629 2.0091
8.4360 9.3092 2.0879
8.4358 10.0088 2.1760
8.0848 10.3228 2.1803
7.7071 10.6039 2.1803
7.3197 10.8712 2.1803
6.9231 11.1246 2.1803
6.5178 11.3636 2.1803
5.9698 11.3325 2.1322
5.5580 11.5375 2.1322
5.1393 11.7277 2.1322
4.7141 11.9028 2.1322
4.2831 12.0627 2.1322
3.8467 12.2072 2.1322
3.4056 12.3361 2.1322
2.9601 12.4492 2.1322
2.5110 12.5465 2.1322
2.0587 12.6277 2.1322
1.6814 13.3065 2.2353
1.2025 13.3578 2.2353
0.7221 13.3921 2.2353
0.2407 13.4093 2.2353
-0.2409 13.4094 2.2353
-0.7223 13.3924 2.2353
-1.2027 13.3583 2.2353
-1.6817 13.3073 2.2353
-2.1586 13.2392 2.2353
-2.6328 13.1542 2.2353
-3.1037 13.0525 2.2353
-3.5708 12.9340 2.2353
-4.0334 12.7991 2.2353
-4.4910 12.6478 2.2353
-4.9430 12.4803 2.2353
-5.3889 12.2968 2.2353
-5.8280 12.0976 2.2353
-6.0155 11.4190 2.1481
-6.3751 11.1146 2.1321
-6.7716 10.8810 2.1321
-7.1596 10.6333 2.1321
-7.5386 10.3719 2.1321
-7.9082 10.0972 2.1321
-8.2679 9.8093 2.1321
-8.6172 9.5088 2.1321
-8.9556 9.1960 2.1321
-9.2828 8.8712 2.1321
-9.5983 8.5349 2.1321
-9.8937 8.1807 2.1303
-10.1844 7.8228 2.1303
-10.4622 7.4546 2.1303
-10.7269 7.0767 2.1303
-10.9780 6.6894 2.1303
-8.5792 4.8141 1.6296
-8.7125 4.4855 1.6227
-11.6466 5.4764 2.1303
-11.8403 5.0567 2.1303
-12.0189 4.6302 2.1303
-12.1822 4.1974 2.1303
-12.3300 3.7589 2.1303
-6.5094 1.7317 1.1128
-12.5782 2.8669 2.1303
-12.6782 2.4145 2.1303
-12.7620 1.9586 2.1303
-12.8295 1.4999 2.1303
-12.8804 1.0388 2.1303
-12.9149 0.5760 2.1303
-12.9327 0.1121 2.1303
-12.9338 -0.3524 2.1303
-12.9182 -0.8168 2.1303
-12.8860 -1.2805 2.1303
-12.8371 -1.7429 2.1303
-12.7716 -2.2035 2.1303
-12.6895 -2.6616 2.1303
-12.5910 -3.1166 2.1303
-12.4760 -3.5680 2.1303
-12.3449 -4.0151 2.1303
-12.1977 -4.4574 2.1303
-12.0346 -4.8942 2.1303
-11.8557 -5.3250 2.1303
-9.4013 -4.6350 1.7175
-9.0910 -4.8952 1.6912
-8.7894 -5.1481 1.6678
-8.4977 -5.3959 1.6475
-10.7341 -7.3695 2.1303
-10.4663 -7.7527 2.1303
-10.1847 -8.1260 2.1303
-9.8897 -8.4890 2.1303
-9.5895 -8.8485 2.1321
-9.2685 -9.1897 2.1321
-8.9354 -9.5191 2.1321
-8.5904 -9.8364 2.1321
-8.2340 -10.1411 2.1321
-7.8668 -10.4327 2.1321
-7.4892 -10.7109 2.1321
-7.1016 -10.9753 2.1321
-6.7046 -11.2255 2.1321
-6.2987 -11.4613 2.1321
-6.1080 -12.1259 2.2131
-5.7270 -12.4636 2.2353
-5.2769 -12.6632 2.2353
-4.8198 -12.8463 2.2353
-4.3563 -13.0127 2.2353
-3.8870 -13.1622 2.2353
-3.4125 -13.2946 2.2353
-2.9335 -13.4098 2.2353
-2.4506 -13.5074 2.2353
-1.9644 -13.5875 2.2353
-1.4756 -13.6498 2.2353
-0.9848 -13.6944 2.2353
-0.4928 -13.7211 2.2353
-0.0001 -12.0171 2.2353
0.4311 -12.0091 2.2353
0.8618 -11.9856 2.2353
1.2912 -11.9465 2.2353
1.7190 -11.8918 2.2353
2.0481 -11.2901 2.1348
2.4487 -11.1949 2.1322
2.4346 -9.4858 1.8224
3.2447 -10.9882 2.1322
3.6364 -10.8634 2.1322
4.0234 -10.7245 2.1322
4.4050 -10.5717 2.1322
4.7808 -10.4052 2.1322
5.1502 -10.2252 2.1322
5.5128 -10.0320 2.1322
5.8681 -9.8258 2.1322
6.0371 -9.3309 2.0710
6.2812 -8.9840 2.0432
6.8492 -9.0839 2.1209
7.1177 -8.7668 2.1057
7.1995 -8.2444 2.0415
7.2802 -7.7564 1.9847
7.3607 -7.2986 1.9344
7.4373 -6.8632 1.8891
7.5978 -6.5223 1.8697
7.6687 -6.1191 1.8324
7.7369 -5.7315 1.7989
7.7130 -5.2959 1.7486
7.7760 -4.9381 1.7221
7.8424 -4.5939 1.6997
6.8606 -3.6946 1.4577
6.7063 -3.3067 1.3992
6.7330 -3.0245 1.3817
6.7329 -2.7385 1.3611
6.6101 -2.4159 1.3184
6.7441 -2.1938 1.3290
6.8617 -1.9627 1.3379
7.1693 -1.7750 1.3850
7.4036 -1.5532 1.4191
7.7833 -1.3432 1.4823
8.0817 -1.0976 1.5312
6.1493 -0.6113 1.1606
6.1526 -0.3893 1.1582
7.0369 -0.1920 1.3231
7.0378 0.0607 1.3233
7.0388 0.3136 1.3252
7.0397 0.5674 1.3289
7.0407 0.8228 1.3342
6.1397 0.9420 1.1696
6.1322 1.1676 1.1758
7.0397 1.6042 1.3605
7.0385 1.8721 1.3729
7.0373 2.1451 1.3873
7.0360 2.4240 1.4038
6.8491 2.6383 1.3850
6.0842 2.5982 1.2488
6.0398 2.8398 1.2602
7.4418 3.8310 1.5810
7.1741 4.0254 1.5543
2.6753 1.6301 0.5921
2.6035 1.7175 0.5897
6.7300 4.7951 1.5628
6.7299 5.1690 1.6053
6.6158 5.4701 1.6244
8.4367 7.5016 2.1369
8.3255 7.9560 2.1803
8.0324 8.2477 2.1803
7.7292 8.5286 2.1803
7.4162 8.7986 2.1803
7.0939 9.0571 2.1803
6.7626 9.3040 2.1803
6.4229 9.5389 2.1803
5.9411 9.5461 2.1322
5.5934 9.7515 2.1322
5.2388 9.9444 2.1322
4.8775 10.1245 2.1322
4.5102 10.2915 2.1322
4.1371 10.4454 2.1322
3.7589 10.5860 2.1322
3.3760 10.7129 2.1322
2.9889 10.8262 2.1322
2.5980 10.9256 2.1322
2.2038 11.0111 2.1322
1.8942 11.6183 2.2353
1.4758 11.6783 2.2353
1.0554 11.7233 2.2353
0.6337 11.7534 2.2353
0.2113 11.7686 2.2353
-0.2114 11.7686 2.2353
-0.6339 11.7537 2.2353
-1.0556 11.7237 2.2353
-1.4760 11.6788 2.2353
-1.8945 11.6190 2.2353
-2.3107 11.5443 2.2353
-2.7240 11.4549 2.2353
-3.1339 11.3508 2.2353
-3.5398 11.2322 2.2353
-3.9414 11.0992 2.2353
-4.3380 10.9520 2.2353
-4.7291 10.7908 2.2353
-5.1144 10.6157 2.2353
-5.4932 10.4270 2.2353
-5.8651 10.2250 2.2353
-6.0124 9.6606 2.1574
-6.2823 9.3298 2.1321
-6.6146 9.1002 2.1321
-6.9387 8.8588 2.1321
-7.2540 8.6060 2.1321
-7.5603 8.3421 2.1321
-7.8569 8.0673 2.1321
-8.1437 7.7821 2.1321
-8.4202 7.4868 2.1321
-8.6861 7.1817 2.1321
-8.9409 6.8672 2.1321
-9.1845 6.5437 2.1321
-9.4164 6.2117 2.1321
-9.6364 5.8714 2.1321
-9.4757 5.3167 2.0523
-8.8397 4.5506 1.8773
-10.2136 4.8021 2.1303
-10.3829 4.4338 2.1303
-10.5391 4.0596 2.1303
-10.6818 3.6800 2.1303
-10.8108 3.2953 2.1303
-6.5021 1.7294 1.2678
-11.0274 2.5129 2.1303
-11.1145 2.1162 2.1303
-11.1874 1.7165 2.1303
-11.2460 1.3142 2.1303
-11.2901 0.9100 2.1303
-11.3197 0.5044 2.1303
-9.2780 0.0800 1.7438
-8.8931 -0.2427 1.6714
-8.6232 -0.5456 1.6227
-8.6140 -0.8563 1.6251
-11.2487 -1.5277 2.1303
-11.1907 -1.9312 2.1303
-11.1183 -2.3325 2.1303
-11.0314 -2.7311 2.1303
-10.9302 -3.1264 2.1303
-10.8147 -3.5179 2.1303
-10.6852 -3.9052 2.1303
-10.5419 -4.2876 2.1303
-10.3847 -4.6648 2.1303
-9.4971 -4.6827 1.9808
-10.0300 -5.4013 2.1303
-9.8409 -5.7644 2.1321
-8.8386 -5.6128 1.9567
-9.4079 -6.4595 2.1321
-9.1728 -6.7950 2.1321
-8.9256 -7.1219 2.1321
-8.6668 -7.4398 2.1321
-8.3965 -7.7481 2.1321
-8.1152 -8.0466 2.1321
-7.8232 -8.3348 2.1321
-7.5209 -8.6123 2.1321
-7.2087 -8.8787 2.1321
-6.8870 -9.1338 2.1321
-6.5562 -9.3770 2.1321
-6.2167 -9.6082 2.1321
-5.9993 -10.0450 2.1794
-5.7806 -10.5190 2.2353
-5.4003 -10.7215 2.2353
-5.0129 -10.9100 2.2353
-4.6188 -11.0845 2.2353
-4.2187 -11.2446 2.2353
-3.8129 -11.3901 2.2353
-3.4021 -11.5208 2.2353
-2.9868 -11.6365 2.2353
-2.5675 -11.7371 2.2353
-2.1448 -11.8225 2.2353
-1.7193 -11.8925 2.2353
-1.2915 -11.9470 2.2353
-0.8619 -11.9859 2.2353
-0.4313 -12.0093 2.2353
-0.0001 -10.6742 2.2353
0.3829 -10.6672 2.2353
0.7654 -10.6463 2.2353
1.1469 -10.6116 2.2353
1.5268 -10.5631 2.2353
1.9048 -10.5009 2.2353
2.1750 -9.9442 2.1322
2.4345 -9.4859 2.0515
2.8821 -9.7609 2.1322
3.2301 -9.6501 2.1322
3.5739 -9.5269 2.1322
3.9129 -9.3913 2.1322
4.2468 -9.2435 2.1322
4.5751 -9.0838 2.1322
4.8973 -8.9123 2.1322
5.2130 -8.7293 2.1322
5.5219 -8.5351 2.1322
5.8235 -8.3298 2.1322
6.2554 -8.2968 2.1803
6.5477 -8.0653 2.1803
6.8314 -7.8234 2.1803
7.1061 -7.5715 2.1803
7.3715 -7.3098 2.1803
7.4500 -6.8753 2.1297
7.5188 -6.4549 2.0823
7.5849 -6.0526 2.0396
7.6486 -5.6664 2.0013
7.7130 -5.2962 1.9676
7.7759 -4.9385 1.9377
7.8424 -4.5942 1.9125
6.8603 -3.6948 1.6401
6.7065 -3.3072 1.5744
6.7330 -3.0248 1.5546
6.7329 -2.7388 1.5313
6.6100 -2.4161 1.4832
6.7439 -2.1941 1.4950
6.8616 -1.9630 1.5050
7.1689 -1.7752 1.5579
7.4580 -1.5650 1.6080
7.7823 -1.3434 1.6670
8.0817 -1.0980 1.7222
6.0216 -0.5989 1.2782
6.0252 -0.3815 1.2756
6.8530 -0.1873 1.4490
6.8539 0.0588 1.4492
6.8548 0.3051 1.4513
6.8557 0.5523 1.4552
6.8567 0.8010 1.4611
6.0117 0.9221 1.2877
6.0035 1.1428 1.2943
5.9953 1.3659 1.3027
6.8548 1.8229 1.5032
6.8536 2.0888 1.5189
6.8524 2.3604 1.5369
6.8500 2.6383 1.5571
6.1758 2.6370 1.4249
5.9048 2.7760 1.3849
7.4008 3.8096 1.7672
7.1376 4.0045 1.7381
2.6740 1.6292 0.6652
2.6029 1.7169 0.6626
6.7031 4.7755 1.7494
6.7299 5.1687 1.8041
6.6157 5.4697 1.8255
7.6601 6.8106 2.1803
7.4089 7.0796 2.1803
7.1482 7.3393 2.1803
6.8786 7.5896 2.1803
6.6002 7.8300 2.1803
6.3135 8.0603 2.1803
5.8861 8.0976 2.1322
5.5905 8.3022 2.1322
5.2878 8.4961 2.1322
4.9785 8.6791 2.1322
4.6629 8.8509 2.1322
4.3415 9.0113 2.1322
4.0145 9.1602 2.1322
3.6826 9.2973 2.1322
3.3460 9.4225 2.1322
3.0051 9.5356 2.1322
2.6605 9.6366 2.1322
2.3126 9.7252 2.1322
2.0396 10.1902 2.2169
1.6862 10.3418 2.2353
1.3137 10.3953 2.2353
0.9395 10.4355 2.2353
0.5641 10.4623 2.2353
0.1881 10.4757 2.2353
-0.1882 10.4758 2.2353
-0.5643 10.4625 2.2353
-0.9397 10.4358 2.2353
-1.3139 10.3957 2.2353
-1.6865 10.3424 2.2353
-2.0569 10.2759 2.2353
-2.4248 10.1962 2.2353
-2.7896 10.1034 2.2353
-3.1509 9.9977 2.2353
-3.5083 9.8792 2.2353
-3.8613 9.7481 2.2353
-4.2094 9.6044 2.2353
-4.5522 9.4484 2.2353
-4.8893 9.2803 2.2353
-5.2203 9.1002 2.2353
-5.5447 8.9085 2.2353
-5.8621 8.7053 2.2353
-6.0072 8.2641 2.1756
-6.1752 7.8836 2.1321
-6.4557 7.6584 2.1321
-6.7281 7.4234 2.1321
-6.9919 7.1787 2.1321
-7.2469 6.9246 2.1321
-7.4927 6.6616 2.1321
-7.7290 6.3899 2.1321
-7.9556 6.1099 2.1321
-8.1720 5.8219 2.1321
-8.3781 5.5263 2.1321
-8.5736 5.2234 2.1321
-8.7581 4.9137 2.1321
-8.8399 4.5503 2.1102
-9.0936 4.2751 2.1321
-9.2440 3.9470 2.1321
-9.3827 3.6138 2.1321
-9.5094 3.2756 2.1321
-9.6239 2.9330 2.1321
-6.4947 1.7272 1.4237
-9.8159 2.2364 2.1321
-9.8850 1.8816 2.1303
-9.9494 1.5261 2.1303
-10.0011 1.1683 2.1303
-10.0400 0.8088 2.1303
-10.0659 0.4480 2.1303
-9.4112 0.0807 1.9892
-10.0788 -0.2755 2.1303
-8.6610 -0.5484 1.8330
-10.0398 -0.9985 2.1303
-10.0008 -1.3587 2.1303
-9.9488 -1.7174 2.1303
-9.8840 -2.0740 2.1303
-9.8144 -2.4302 2.1321
-9.7240 -2.7818 2.1321
-9.6210 -3.1300 2.1321
-9.5054 -3.4744 2.1321
-9.3775 -3.8145 2.1321
-9.2374 -4.1499 2.1321
-9.0852 -4.4801 2.1321
-8.9212 -4.8047 2.1321
-8.7455 -5.1232 2.1321
-8.5585 -5.4353 2.1321
-8.3602 -5.7406 2.1321
-8.1510 -6.0385 2.1321
-7.9311 -6.3288 2.1321
-7.7008 -6.6111 2.1321
-7.4605 -6.8848 2.1321
-7.2103 -7.1498 2.1321
-6.9507 -7.4057 2.1321
-6.6819 -7.6520 2.1321
-6.4044 -7.8885 2.1321
-6.1184 -8.1149 2.1321
-5.9891 -8.5665 2.1924
-5.7902 -8.9494 2.2353
-5.4662 -9.1530 2.2353
-5.1351 -9.3448 2.2353
-4.7972 -9.5245 2.2353
-4.4530 -9.6918 2.2353
-4.1028 -9.8466 2.2353
-3.7473 -9.9887 2.2353
-3.3868 -10.1178 2.2353
-3.0219 -10.2338 2.2353
-2.6530 -10.3365 2.2353
-2.2805 -10.4258 2.2353
-1.9051 -10.5015 2.2353
-1.5271 -10.5636 2.2353
-1.1471 -10.6120 2.2353
-0.7656 -10.6466 2.2353
-0.3831 -10.6673 2.2353
-0.0001 -9.5921 2.2353
0.3441 -9.5858 2.2353
0.6878 -9.5671 2.2353
1.0306 -9.5360 2.2353
1.3720 -9.4924 2.2353
1.7116 -9.4366 2.2353
2.0339 -9.2996 2.2189
2.2737 -8.8598 2.1322
2.5899 -8.7718 2.1322
2.9027 -8.6723 2.1322
3.2117 -8.5617 2.1322
3.5164 -8.4399 2.1322
3.8165 -8.3073 2.1322
4.1115 -8.1638 2.1322
4.4012 -8.0099 2.1322
4.6850 -7.8456 2.1322
4.9627 -7.6711 2.1322
5.2339 -7.4868 2.1322
5.4981 -7.2928 2.1322
5.7552 -7.0895 2.1322
6.0046 -6.8770 2.1322
6.3871 -6.8058 2.1803
6.6258 -6.5708 2.1803
6.8558 -6.3274 2.1803
7.0768 -6.0759 2.1803
7.2886 -5.8166 2.1803
7.4908 -5.5499 2.1803
7.6832 -5.2762 2.1803
7.7922 -4.9492 2.1600
7.8504 -4.5994 2.1295
6.8601 -3.6951 1.8242
6.7067 -3.3076 1.7512
6.7330 -3.0252 1.7291
6.7329 -2.7391 1.7031
6.6100 -2.4164 1.6495
6.7438 -2.1944 1.6626
6.8614 -1.9633 1.6737
7.1686 -1.7754 1.7324
7.4029 -1.5538 1.7750
7.7812 -1.3435 1.8535
8.0818 -1.0984 1.9150
5.8980 -0.5869 1.3921
5.9019 -0.3739 1.3893
6.6618 -0.1824 1.5662
6.6627 0.0569 1.5663
6.6635 0.2963 1.5685
6.6644 0.5366 1.5727
6.6653 0.7784 1.5790
5.8877 0.9028 1.4019
5.8603 1.1153 1.4045
5.8147 1.3245 1.4045
6.6637 1.7718 1.6243
6.6626 2.0303 1.6412
6.6614 2.2943 1.6607
6.6602 2.5649 1.6827
6.1767 2.6371 1.5839
5.5249 2.5972 1.4402
5.4783 2.8197 1.4539
7.1746 4.0250 1.9417
2.6728 1.6283 0.7389
2.6023 1.7164 0.7362
6.7300 4.7943 1.9518
6.7299 5.1683 2.0048
6.6157 5.4692 2.0285
6.8937 6.1288 2.1803
6.6677 6.3710 2.1803
6.4333 6.6049 2.1803
6.0542 6.6796 2.1322
5.8093 6.8914 2.1322
5.5571 7.0942 2.1322
5.2978 7.2879 2.1322
5.0318 7.4722 2.1322
4.7595 7.6468 2.1322
4.4812 7.8116 2.1322
4.1972 7.9664 2.1322
3.9079 8.1109 2.1322
3.6136 8.2450 2.1322
3.3149 8.3686 2.1322
3.0119 8.4814 2.1322
2.7051 8.5833 2.1322
2.3950 8.6742 2.1322
2.0818 8.7540 2.1322
1.8513 9.2491 2.2353
1.5179 9.3092 2.2353
1.1826 9.3574 2.2353
0.8457 9.3936 2.2353
0.5078 9.4177 2.2353
0.1693 9.4298 2.2353
-0.1695 9.4299 2.2353
-0.5080 9.4179 2.2353
-0.8459 9.3938 2.2353
-1.1828 9.3578 2.2353
-1.5181 9.3097 2.2353
-1.8516 9.2497 2.2353
-2.1827 9.1779 2.2353
-2.5111 9.0943 2.2353
-2.8363 8.9991 2.2353
-3.1580 8.8923 2.2353
-3.4757 8.7742 2.2353
-3.7890 8.6448 2.2353
-4.0975 8.5042 2.2353
-4.4009 8.3528 2.2353
-4.6987 8.1906 2.2353
-4.9906 8.0179 2.2353
-5.2762 7.8348 2.2353
-5.5551 7.6416 2.2353
-5.8270 7.4386 2.2353
-6.0051 7.1235 2.2036
-6.0551 6.6805 2.1321
-6.2924 6.4601 2.1321
-6.5218 6.2314 2.1321
-6.7428 5.9945 2.1321
-6.9554 5.7499 2.1321
-7.1590 5.4978 2.1321
-7.3536 5.2385 2.1321
-7.5389 4.9723 2.1321
-7.7145 4.6996 2.1321
-7.8804 4.4208 2.1321
-8.0362 4.1361 2.1321
-8.1817 3.8460 2.1321
-8.3169 3.5508 2.1321
-8.4414 3.2508 2.1321
-8.5551 2.9465 2.1321
-8.6579 2.6382 2.1321
-6.4084 1.7039 1.5616
-8.8300 2.0114 2.1321
-8.8992 1.6936 2.1321
-8.9569 1.3734 2.1321
-9.0032 1.0513 2.1321
-9.0379 0.7277 2.1321
-9.0609 0.4029 2.1321
-9.0723 0.0774 2.1321
-9.0720 -0.2484 2.1321
-8.6605 -0.5487 2.0381
-9.0362 -0.8991 2.1321
-9.0008 -1.2232 2.1321
-8.9538 -1.5460 2.1321
-8.8952 -1.8669 2.1321
-8.8251 -2.1857 2.1321
-8.7435 -2.5017 2.1321
-8.6506 -2.8147 2.1321
-8.5464 -3.1243 2.1321
-8.4311 -3.4300 2.1321
-8.3049 -3.7314 2.1321
-8.1679 -4.0281 2.1321
-8.0202 -4.3198 2.1321
-7.8621 -4.6061 2.1321
-7.6937 -4.8865 2.1321
-7.5152 -5.1608 2.1321
-7.3270 -5.4285 2.1321
-7.1292 -5.6893 2.1321
-6.9220 -5.9428 2.1321
-6.7058 -6.1888 2.1321
-6.4808 -6.4268 2.1321
-6.2473 -6.6566 2.1321
-6.0056 -6.8779 2.1321
-5.9882 -7.3764 2.2181
-5.7652 -7.6469 2.2353
-5.4881 -7.8502 2.2353
-5.2037 -8.0434 2.2353
-4.9125 -8.2262 2.2353
-4.6148 -8.3984 2.2353
-4.3111 -8.5598 2.2353
-4.0017 -8.7100 2.2353
-3.6870 -8.8491 2.2353
-3.3675 -8.9766 2.2353
-3.0435 -9.0926 2.2353
-2.7155 -9.1967 2.2353
-2.3840 -9.2889 2.2353
-2.0493 -9.3691 2.2353
-1.7119 -9.4371 2.2353
-1.3722 -9.4928 2.2353
-1.0308 -9.5363 2.2353
-0.6880 -9.5673 2.2353
-0.3443 -9.5859 2.2353
-0.0001 -8.7008 2.2353
0.3121 -8.6951 2.2353
0.6238 -8.6781 2.2353
0.9348 -8.6499 2.2353
1.2445 -8.6104 2.2353
1.5525 -8.5598 2.2353
1.8585 -8.4981 2.2353
2.0624 -8.0368 2.1322
2.3492 -7.9570 2.1322
2.6330 -7.8669 2.1322
2.9132 -7.7666 2.1322
3.1897 -7.6562 2.1322
3.4619 -7.5359 2.1322
3.7296 -7.4059 2.1322
3.9924 -7.2663 2.1322
4.2500 -7.1174 2.1322
4.5019 -6.9593 2.1322
4.7480 -6.7921 2.1322
4.9878 -6.6163 2.1322
5.2211 -6.4319 2.1322
5.4475 -6.2393 2.1322
5.6668 -6.0386 2.1322
5.8787 -5.8302 2.1322
6.2200 -5.7410 2.1803
6.4207 -5.5129 2.1803
6.6129 -5.2778 2.1803
6.7965 -5.0360 2.1803
6.9713 -4.7877 2.1803
7.1369 -4.5334 2.1803
7.2932 -4.2733 2.1803
6.8599 -3.6953 2.0103
6.7069 -3.3081 1.9299
6.7330 -3.0255 1.9054
6.7329 -2.7395 1.8768
6.6099 -2.4167 1.8176
6.7437 -2.1946 1.8320
6.8613 -1.9635 1.8442
7.1683 -1.7757 1.9088
7.4573 -1.5655 1.9701
7.7801 -1.3437 2.0418
8.0820 -1.0988 2.1099
5.4797 -0.5455 1.4249
5.4806 -0.3475 1.4214
6.5818 -0.1805 1.7047
6.5819 0.0559 1.7046
6.5735 0.2920 1.7045
6.5566 0.5276 1.7044
6.5313 0.7624 1.7043
5.9433 0.9111 1.5589
5.4792 1.0425 1.4464
5.4793 1.2479 1.4577
6.4779 1.7221 1.7392
6.4768 1.9733 1.7573
6.4756 2.2300 1.7780
6.4745 2.4931 1.8016
6.1777 2.6372 1.7447
5.6074 2.6357 1.6098
5.5224 2.8421 1.6140
7.0331 3.9452 2.0961
2.6716 1.6274 0.8133
2.6017 1.7159 0.8105
6.6023 4.7030 2.1085
6.5503 5.0301 2.1487
6.4577 5.3383 2.1803
6.2606 5.5656 2.1803
5.9219 5.6580 2.1322
5.7138 5.8659 2.1322
5.4985 6.0662 2.1322
5.2762 6.2586 2.1322
5.0472 6.4429 2.1322
4.8118 6.6189 2.1322
4.5703 6.7864 2.1322
4.3230 6.9451 2.1322
4.0702 7.0949 2.1322
3.8123 7.2356 2.1322
3.5496 7.3670 2.1322
3.2824 7.4888 2.1322
3.0110 7.6011 2.1322
2.7358 7.7036 2.1322
2.4572 7.7963 2.1322
2.1755 7.8789 2.1322
1.9824 8.3359 2.2353
1.6817 8.4012 2.2353
1.3788 8.4559 2.2353
1.0742 8.4996 2.2353
0.7682 8.5325 2.2353
0.4613 8.5545 2.2353
0.1538 8.5655 2.2353
-0.1539 8.5655 2.2353
-0.4615 8.5546 2.2353
-0.7684 8.5327 2.2353
-1.0744 8.4999 2.2353
-1.3790 8.4562 2.2353
-1.6819 8.4017 2.2353
-1.9827 8.3364 2.2353
-2.2810 8.2605 2.2353
-2.5764 8.1739 2.2353
-2.8685 8.0769 2.2353
-3.1571 7.9694 2.2353
-3.4416 7.8518 2.2353
-3.7218 7.7241 2.2353
-3.9973 7.5864 2.2353
-4.2678 7.4390 2.2353
-4.5328 7.2820 2.2353
-4.7921 7.1156 2.2353
-5.0454 6.9401 2.2353
-5.2923 6.7556 2.2353
-5.5324 6.5624 2.2353
-5.7656 6.3606 2.2353
-5.9914 6.1507 2.2353
-6.0094 5.7415 2.1632
-6.1235 5.4436 2.1321
-6.3164 5.2213 2.1321
-6.5012 4.9922 2.1321
-6.6778 4.7566 2.1321
-6.8458 4.5149 2.1321
-7.0052 4.2671 2.1321
-7.1556 4.0138 2.1321
-7.2969 3.7553 2.1321
-7.4289 3.4917 2.1321
-7.5514 3.2236 2.1321
-7.6643 2.9512 2.1321
-7.7673 2.6748 2.1321
-7.8604 2.3949 2.1321
-6.4017 1.7018 1.7183
-8.0163 1.8256 2.1321
-8.0789 1.5371 2.1321
-8.1311 1.2464 2.1321
-8.1729 0.9540 2.1321
-8.2042 0.6602 2.1321
-8.2249 0.3654 2.1321
-8.2350 0.0699 2.1321
-8.2345 -0.2258 2.1321
-8.2233 -0.5214 2.1321
-8.2016 -0.8164 2.1321
-8.1693 -1.1106 2.1321
-8.1264 -1.4035 2.1321
-8.0730 -1.6947 2.1321
-8.0091 -1.9839 2.1321
-7.9349 -2.2707 2.1321
-7.8503 -2.5547 2.1321
-7.7556 -2.8356 2.1321
-7.6508 -3.1129 2.1321
-7.5361 -3.3863 2.1321
-7.4116 -3.6555 2.1321
-7.2774 -3.9201 2.1321
-7.1337 -4.1798 2.1321
-6.9808 -4.4341 2.1321
-6.8187 -4.6829 2.1321
-6.6478 -4.9256 2.1321
-6.4682 -5.1621 2.1321
-6.2801 -5.3921 2.1321
-6.0838 -5.6151 2.1321
-5.9872 -5.9377 2.1711
-5.9421 -6.3318 2.2353
-5.7121 -6.5421 2.2353
-5.4746 -6.7441 2.2353
-5.2300 -6.9374 2.2353
-4.9785 -7.1217 2.2353
-4.7205 -7.2968 2.2353
-4.4563 -7.4626 2.2353
-4.1862 -7.6187 2.2353
-3.9106 -7.7650 2.2353
-3.6299 -7.9012 2.2353
-3.3444 -8.0272 2.2353
-3.0546 -8.1429 2.2353
-2.7607 -8.2480 2.2353
-2.4632 -8.3423 2.2353
-2.1624 -8.4259 2.2353
-1.8588 -8.4986 2.2353
-1.5528 -8.5602 2.2353
-1.2447 -8.6108 2.2353
-0.9350 -8.6502 2.2353
-0.6240 -8.6783 2.2353
-0.3123 -8.6952 2.2353
-0.0001 -7.9532 2.2353
0.2853 -7.9480 2.2353
0.5702 -7.9325 2.2353
0.8544 -7.9067 2.2353
1.1375 -7.8706 2.2353
1.4191 -7.8244 2.2353
1.6988 -7.7680 2.2353
1.9763 -7.7016 2.2353
2.1473 -7.2735 2.1322
2.4067 -7.1912 2.1322
2.6629 -7.0995 2.1322
2.9156 -6.9987 2.1322
3.1645 -6.8889 2.1322
3.4092 -6.7701 2.1322
3.6495 -6.6426 2.1322
3.8850 -6.5065 2.1322
4.1153 -6.3620 2.1322
4.3403 -6.2093 2.1322
4.5596 -6.0487 2.1322
4.7729 -5.8802 2.1322
4.9800 -5.7042 2.1322
5.1805 -5.5208 2.1322
5.3743 -5.3304 2.1322
5.5611 -5.1331 2.1322
5.7406 -4.9293 2.1322
5.9125 -4.7192 2.1322
6.2139 -4.6046 2.1803
6.3738 -4.3777 2.1803
6.5253 -4.1453 2.1803
6.6684 -3.9075 2.1803
6.8028 -3.6649 2.1803
6.7072 -3.3085 2.1107
6.5969 -2.9647 2.0417
6.6974 -2.7254 2.0417
6.6099 -2.4170 1.9877
6.7435 -2.1949 2.0034
6.8611 -1.9638 2.0166
7.0116 -1.7372 2.0417
7.2261 -1.5173 2.0875
7.5976 -1.3126 2.1803
7.6379 -1.0387 2.1803
5.5219 -0.5500 1.5700
6.0227 -0.3821 1.7079
6.4757 -0.1779 1.8338
6.4766 0.0547 1.8339
6.4774 0.2875 1.8364
6.4689 0.5203 1.8385
6.4444 0.7520 1.8385
5.9458 0.9112 1.7049
5.5225 1.0505 1.5938
5.5232 1.2576 1.6064
6.2972 1.6738 1.8482
6.2961 1.9180 1.8674
6.2950 2.1675 1.8894
6.2939 2.4232 1.9144
6.1786 2.6373 1.9074
5.6076 2.6355 1.7596
5.5293 2.8454 1.7664
6.6930 3.7541 2.1803
2.6704 1.6265 0.8886
2.6011 1.7154 0.8857
6.2464 4.4492 2.1803
5.9473 4.5666 2.1322
5.7783 4.7763 2.1322
5.6020 4.9798 2.1322
5.4186 5.1768 2.1322
5.2282 5.3671 2.1322
5.0313 5.5504 2.1322
4.8279 5.7265 2.1322
4.6184 5.8953 2.1322
4.4031 6.0564 2.1322
4.1821 6.2098 2.1322
3.9559 6.3551 2.1322
3.7246 6.4922 2.1322
3.4887 6.6210 2.1322
3.2483 6.7413 2.1322
3.0038 6.8529 2.1322
2.7555 6.9557 2.1322
2.5037 7.0496 2.1322
2.2487 7.1344 2.1322
2.0407 7.3904 2.1856
1.8142 7.6283 2.2353
1.5390 7.6881 2.2353
1.2618 7.7381 2.2353
0.9831 7.7782 2.2353
0.7031 7.8083 2.2353
0.4222 7.8284 2.2353
0.1407 7.8385 2.2353
-0.1409 7.8385 2.2353
-0.4223 7.8285 2.2353
-0.7032 7.8085 2.2353
-0.9833 7.7785 2.2353
-1.2620 7.7384 2.2353
-1.5392 7.6885 2.2353
-1.8145 7.6287 2.2353
-2.0874 7.5592 2.2353
-2.3578 7.4799 2.2353
-2.6251 7.3910 2.2353
-2.8891 7.2927 2.2353
-3.1495 7.1849 2.2353
-3.4059 7.0680 2.2353
-3.6579 6.9420 2.2353
-3.9054 6.8070 2.2353
-4.1479 6.6632 2.2353
-4.3851 6.5109 2.2353
-4.6168 6.3502 2.2353
-4.8427 6.1813 2.2353
-5.0623 6.0044 2.2353
-5.2756 5.8197 2.2353
-5.4822 5.6276 2.2353
-5.6818 5.4281 2.2353
-5.8742 5.2215 2.2353
-6.0043 4.9630 2.2151
-6.0112 4.6156 2.1547
-6.1097 4.3516 2.1321
-6.2633 4.1303 2.1321
-6.4090 3.9036 2.1321
-6.5465 3.6718 2.1321
-6.6756 3.4352 2.1321
-6.7962 3.1940 2.1321
-6.9082 2.9486 2.1321
-7.0113 2.6994 2.1321
-7.1054 2.4465 2.1321
-7.1904 2.1904 2.1321
-6.3950 1.6997 1.8764
-7.3327 1.6696 2.1321
-7.3898 1.4056 2.1321
-7.4374 1.1398 2.1321
-7.4754 0.8723 2.1321
-7.5038 0.6035 2.1321
-7.5226 0.3338 2.1321
-7.5317 0.0636 2.1321
-7.5311 -0.2069 2.1321
-7.5207 -0.4772 2.1321
-7.5007 -0.7470 2.1321
-7.4709 -1.0160 2.1321
-7.4315 -1.2838 2.1321
-7.3825 -1.5501 2.1321
-7.3240 -1.8146 2.1321
-7.2559 -2.0768 2.1321
-7.1785 -2.3364 2.1321
-7.0917 -2.5932 2.1321
-6.9958 -2.8467 2.1321
-6.8907 -3.0967 2.1321
-6.7767 -3.3427 2.1321
-6.6539 -3.5846 2.1321
-6.5224 -3.8219 2.1321
-6.3825 -4.0544 2.1321
-6.2342 -4.2817 2.1321
-6.0778 -4.5036 2.1321
-5.9863 -4.7779 2.1583
-5.9866 -5.1404 2.2231
-5.8312 -5.3823 2.2353
-5.6354 -5.5891 2.2353
-5.4321 -5.7888 2.2353
-5.2218 -5.9810 2.2353
-5.0047 -6.1655 2.2353
-4.7810 -6.3421 2.2353
-4.5510 -6.5105 2.2353
-4.3151 -6.6705 2.2353
-4.0735 -6.8220 2.2353
-3.8266 -6.9646 2.2353
-3.5746 -7.0983 2.2353
-3.3180 -7.2227 2.2353
-3.0571 -7.3378 2.2353
-2.7921 -7.4435 2.2353
-2.5234 -7.5395 2.2353
-2.2515 -7.6257 2.2353
-1.9766 -7.7021 2.2353
-1.6990 -7.7684 2.2353
-1.4193 -7.8248 2.2353
-1.1377 -7.8709 2.2353
-0.8546 -7.9069 2.2353
-0.5704 -7.9326 2.2353
-0.2854 -7.9481 2.2353
-0.0001 -7.3165 2.2353
0.2624 -7.3117 2.2353
0.5245 -7.2975 2.2353
0.7860 -7.2737 2.2353
1.0464 -7.2406 2.2353
1.3054 -7.1981 2.2353
1.5627 -7.1463 2.2353
1.8180 -7.0852 2.2353
2.0303 -6.8773 2.1915
2.2140 -6.6157 2.1322
2.4497 -6.5315 2.1322
2.6822 -6.4388 2.1322
2.9112 -6.3377 2.1322
3.1364 -6.2285 2.1322
3.3574 -6.1113 2.1322
3.5741 -5.9862 2.1322
3.7861 -5.8533 2.1322
3.9931 -5.7129 2.1322
4.1949 -5.5651 2.1322
4.3912 -5.4102 2.1322
4.5817 -5.2483 2.1322
4.7663 -5.0797 2.1322
4.9447 -4.9046 2.1322
5.1166 -4.7232 2.1322
5.2818 -4.5357 2.1322
5.4401 -4.3424 2.1322
5.5913 -4.1436 2.1322
5.7353 -3.9395 2.1322
5.8718 -3.7304 2.1322
6.0006 -3.5166 2.1322
6.2597 -3.3726 2.1803
6.3753 -3.1451 2.1803
6.4827 -2.9137 2.1803
6.5816 -2.6786 2.1803
6.6594 -2.4355 2.1762
6.7434 -2.1952 2.1770
6.8267 -1.9543 2.1803
6.8908 -1.7076 2.1803
6.9460 -1.4588 2.1803
6.9922 -1.2083 2.1803
7.0294 -0.9563 2.1803
5.5281 -0.5508 1.7078
6.0197 -0.3822 1.8547
6.2948 -0.1732 1.9368
6.2957 0.0529 1.9368
6.2965 0.2791 1.9394
6.2973 0.5062 1.9445
6.2982 0.7346 1.9521
5.9479 0.9112 1.8529
5.5288 1.0514 1.7334
5.5296 1.2588 1.7471
6.2070 1.6495 1.9791
6.1422 1.8708 1.9790
6.1092 2.1033 1.9919
6.1081 2.3514 2.0182
6.1070 2.6064 2.0479
5.6078 2.6353 1.9114
5.5363 2.8487 1.9212
6.0259 3.3796 2.1322
2.6691 1.6256 0.9647
2.6005 1.7148 0.9617
5.6241 4.0056 2.1322
5.4756 4.2042 2.1322
5.3202 4.3973 2.1322
5.1579 4.5847 2.1322
4.9891 4.7661 2.1322
4.8139 4.9414 2.1322
4.6326 5.1102 2.1322
4.4454 5.2725 2.1322
4.2525 5.4279 2.1322
4.0543 5.5764 2.1322
3.8509 5.7176 2.1322
3.6426 5.8515 2.1322
3.4297 5.9778 2.1322
3.2125 6.0965 2.1322
2.9911 6.2073 2.1322
2.7660 6.3101 2.1322
2.5373 6.4048 2.1322
2.3055 6.4913 2.1322
2.0707 6.5694 2.1322
1.9219 6.9601 2.2353
1.6706 7.0243 2.2353
1.4172 7.0794 2.2353
1.1620 7.1255 2.2353
0.9053 7.1624 2.2353
0.6474 7.1902 2.2353
0.3887 7.2087 2.2353
0.1296 7.2180 2.2353
-0.1297 7.2180 2.2353
-0.3889 7.2088 2.2353
-0.6476 7.1903 2.2353
-0.9055 7.1626 2.2353
-1.1622 7.1258 2.2353
-1.4174 7.0798 2.2353
-1.6709 7.0247 2.2353
-1.9222 6.9606 2.2353
-2.1711 6.8875 2.2353
-2.4173 6.8057 2.2353
-2.6604 6.7150 2.2353
-2.9001 6.6158 2.2353
-3.1362 6.5081 2.2353
-3.3683 6.3919 2.2353
-3.5961 6.2676 2.2353
-3.8194 6.1352 2.2353
-4.0378 5.9949 2.2353
-4.2511 5.8468 2.2353
-4.4590 5.6912 2.2353
-4.6612 5.5283 2.2353
-4.8575 5.3582 2.2353
-5.0476 5.1811 2.2353
-5.2313 4.9974 2.2353
-5.4084 4.8072 2.2353
-5.5786 4.6107 2.2353
-5.7416 4.4083 2.2353
-5.8974 4.2001 2.2353
-6.0039 3.9589 2.2199
-6.0068 3.6583 2.1705
-6.0268 3.3800 2.1321
-6.1456 3.1621 2.1321
-6.2566 2.9401 2.1321
-6.3595 2.7141 2.1321
-6.4543 2.4846 2.1321
-6.5408 2.2518 2.1321
-6.6190 2.0160 2.1321
-6.3882 1.6976 2.0363
-6.7497 1.5366 2.1321
-6.8021 1.2936 2.1321
-6.8458 1.0488 2.1321
-6.8807 0.8025 2.1321
-6.9067 0.5552 2.1321
-6.9239 0.3069 2.1321
-6.9321 0.0582 2.1321
-6.9314 -0.1907 2.1321
-6.9217 -0.4395 2.1321
-6.9031 -0.6878 2.1321
-6.8756 -0.9354 2.1321
-6.8392 -1.1818 2.1321
-6.7940 -1.4269 2.1321
-6.7400 -1.6702 2.1321
-6.6773 -1.9115 2.1321
-6.6059 -2.1504 2.1321
-6.5259 -2.3866 2.1321
-6.4375 -2.6198 2.1321
-6.3407 -2.8498 2.1321
-6.2357 -3.0762 2.1321
-6.1226 -3.2987 2.1321
-6.0015 -3.5170 2.1321
-5.9866 -3.8033 2.1734
-5.9865 -4.1120 2.2251
-5.8630 -4.3448 2.2353
-5.7044 -4.5532 2.2353
-5.5383 -4.7558 2.2353
-5.3650 -4.9524 2.2353
