ply
format ascii 1.0
element vertex 2118
property float32 x
property float32 y
property float32 z
end_header
11.8810 0.9620 0.6041
11.8858 1.3934 0.6064
11.8907 1.8288 0.6095
11.8956 2.2693 0.6134
11.9006 2.7164 0.6181
11.9057 3.1712 0.6238
11.9109 3.6352 0.6303
11.9162 4.1099 0.6379
11.9216 4.5969 0.6465
11.9272 5.0981 0.6561
11.9330 5.6154 0.6670
11.9390 6.1510 0.6791
19.6485 11.0330 1.1392
19.5020 11.8911 1.1545
19.5015 12.8732 1.1809
19.4949 13.8986 1.2097
18.0844 13.8985 1.1522
16.8000 13.8985 1.1013
16.3696 14.5632 1.1064
16.5009 15.7768 1.1527
16.5008 16.9517 1.1943
16.5008 18.2165 1.2406
16.4021 19.4687 1.2848
9.0524 11.5630 0.7410
3.3500 4.6110 0.2876
8.3454 12.3994 0.7540
14.2946 22.9784 1.3650
15.0798 26.3008 1.5291
14.3475 27.2459 1.5529
14.1606 29.4054 1.6458
13.1814 30.0897 1.6564
11.9131 30.0897 1.6316
10.6805 30.0897 1.6097
9.4788 30.0896 1.5903
8.3041 30.0896 1.5734
7.1524 30.0895 1.5589
8.3938 41.9528 2.1564
6.8827 42.2286 2.1564
5.3047 41.9918 2.1332
3.7941 42.1561 2.1332
2.3887 44.3114 2.2364
0.7966 44.3687 2.2364
-0.7965 44.3685 2.2364
-2.3887 44.3107 2.2364
-3.9776 44.1955 2.2364
-5.5237 43.7257 2.2213
-6.8087 41.7746 2.1333
-5.8367 29.1726 1.4996
-9.8015 41.2341 2.1364
-11.2746 40.8532 2.1364
-12.7329 40.4196 2.1364
-12.5318 35.3055 1.8888
-12.5477 31.6924 1.7187
-13.9949 31.9467 1.7588
-14.3632 29.8262 1.6695
-15.7062 29.8261 1.7002
-11.4249 19.9263 1.1586
-18.5544 29.8260 1.7721
-20.0743 29.8260 1.8140
-24.8851 34.2520 2.1364
-26.0949 33.3321 2.1364
-27.2706 32.3692 2.1364
-28.4107 31.3647 2.1364
-29.5135 30.3199 2.1364
-25.8154 24.6826 1.8037
-25.8154 22.9665 1.7452
-27.7541 22.9607 1.8197
-29.8759 22.9606 1.9038
-34.4231 24.5415 2.1364
-35.2216 23.2503 2.1332
-36.0274 21.9673 2.1332
-36.7865 20.6564 2.1333
-37.4976 19.3191 2.1333
-40.0031 18.8247 2.2364
-5.7037 2.4380 0.3139
-5.7359 2.2118 0.3111
-41.7688 14.4062 2.2364
-42.2499 12.8948 2.2364
-40.7060 10.8426 2.1332
-21.1338 4.8240 1.0980
-41.3609 7.8907 2.1332
-37.9655 5.8392 1.9464
-20.9328 2.4541 1.0682
-20.9327 1.6951 1.0647
-12.2656 0.5510 0.6226
-12.2655 0.1103 0.6221
-12.2655 -0.3302 0.6224
-12.2655 -0.7715 0.6236
-12.2655 -1.2148 0.6255
-12.2655 -1.6613 0.6283
-12.2655 -2.1121 0.6319
-12.2655 -2.5686 0.6364
-12.2655 -3.0319 0.6418
-12.1701 -3.4764 0.6431
-12.1608 -3.9511 0.6498
-12.1608 -4.4397 0.6580
-12.2654 -4.9838 0.6731
-12.2654 -5.5047 0.6836
-12.2654 -6.0427 0.6954
-12.2654 -6.6000 0.7085
-12.2654 -7.1794 0.7231
-12.2653 -7.7836 0.7392
-12.2654 -8.4160 0.7571
-28.7328 -21.2717 1.8200
-17.2055 -13.7206 1.1205
-15.9923 -13.7205 1.0731
-14.8766 -13.7205 1.0308
-13.8445 -13.7205 0.9929
-12.8846 -13.7205 0.9590
-11.9875 -13.7204 0.9284
-11.7839 -14.5072 0.9525
-10.3665 -13.7423 0.8774
-11.7838 -16.8466 1.0480
-11.7941 -18.2206 1.1066
-10.0925 -16.8917 1.0033
-12.5155 -22.7652 1.3248
-9.9524 -19.7510 1.1280
-10.4664 -22.7702 1.2782
-9.4897 -22.7651 1.2581
-8.8284 -23.5226 1.2817
-8.8283 -26.3626 1.4183
-8.8493 -29.9565 1.5937
-5.9948 -23.3478 1.2299
-8.9374 -40.8432 2.1333
-7.4652 -41.1362 2.1333
-5.9836 -41.3763 2.1333
-4.7115 -43.5719 2.2364
-3.1443 -43.7124 2.2364
-1.5732 -43.7967 2.2364
0.0000 -30.3698 2.2364
1.0902 -30.3505 2.2364
2.1790 -30.2921 2.2364
2.7700 -25.6164 1.8973
4.1463 -28.6711 2.1332
5.1730 -28.5046 2.1332
6.1931 -28.3014 2.1332
6.5297 -25.4306 1.9331
7.5124 -25.4306 1.9523
6.2027 -18.5220 1.4380
6.3955 -17.0403 1.3399
7.0812 -16.9873 1.3548
11.6893 -25.4304 2.0602
12.8144 -25.4304 2.0960
13.9808 -25.4304 2.1358
15.0296 -25.1546 2.1564
15.9243 -24.6010 2.1564
16.7986 -24.0156 2.1564
17.6515 -23.3993 2.1564
18.4819 -22.7528 2.1564
17.5322 -20.0666 1.9600
20.0709 -21.3726 2.1564
20.8274 -20.6406 2.1564
21.5574 -19.8820 2.1564
22.2599 -19.0976 2.1564
22.9338 -18.2883 2.1564
23.5784 -17.4555 2.1564
23.0215 -15.7962 2.0520
23.5767 -14.9616 2.0520
24.1137 -14.1145 2.0530
25.5254 -13.7351 2.1295
25.5262 -12.5756 2.0903
26.2458 -11.7789 2.1129
27.2047 -11.0539 2.1564
27.5880 -10.0717 2.1564
27.9359 -9.0762 2.1564
28.0264 -8.0056 2.1395
28.5237 -7.0507 2.1564
28.7628 -6.0231 2.1564
5.2163 -0.8982 0.3883
11.8536 -1.6054 0.8775
11.8578 -1.1744 0.8740
11.8619 -0.7460 0.8716
12.3472 -0.3323 0.9057
12.3521 0.1111 0.9056
12.3572 0.5552 0.9067
11.8810 0.9621 0.8736
11.8858 1.3935 0.8769
11.8907 1.8289 0.8814
11.8956 2.2694 0.8871
11.9006 2.7165 0.8941
11.9057 3.1713 0.9023
11.9109 3.6353 0.9119
11.9162 4.1099 0.9228
11.9216 4.5970 0.9353
11.9272 5.0982 0.9494
11.9330 5.6155 0.9651
11.9390 6.1511 0.9827
18.2371 10.2407 1.5302
18.0783 11.0232 1.5489
17.9179 11.8280 1.5703
17.8448 12.7224 1.6028
17.8019 13.6816 1.6418
16.7998 13.8985 1.5942
16.3696 14.5634 1.6018
16.5009 15.7770 1.6688
9.9304 10.2018 1.0406
9.9467 10.9810 1.0827
9.9303 11.7870 1.1263
9.0523 11.5630 1.0730
3.3486 4.6090 0.4162
8.3454 12.3995 1.0919
9.1754 14.7495 1.2689
13.8111 24.0883 2.0282
13.3988 25.4444 2.1003
12.4755 25.9062 2.1000
11.5441 26.3523 2.1010
10.6067 26.7901 2.1041
9.8785 27.8306 2.1564
8.8736 28.1685 2.1564
7.8571 28.4701 2.1564
6.6225 27.8604 2.0908
5.7326 28.6521 2.1333
4.7005 28.8401 2.1333
3.6623 28.9909 2.1333
2.6194 29.1040 2.1333
1.6490 30.5896 2.2364
0.5499 30.6292 2.2364
-0.5499 30.6290 2.2364
-1.6490 30.5893 2.2364
-2.7459 30.5100 2.2364
-3.8392 30.3911 2.2364
-4.9275 30.2330 2.2364
-5.7319 28.6490 2.1332
-6.7564 28.4238 2.1332
-7.7720 28.1617 2.1332
-8.7774 27.8633 2.1332
-9.7863 27.5707 2.1364
-10.7690 27.2002 2.1364
-11.7377 26.7944 2.1364
-12.6911 26.3540 2.1364
-13.6279 25.8795 2.1364
-11.3803 19.8487 1.6714
-15.4470 24.8311 2.1364
-16.3270 24.2585 2.1364
-17.1856 23.6547 2.1364
-17.9945 22.9853 2.1332
-18.8061 22.3223 2.1332
-19.5932 21.6306 2.1332
-20.3547 20.9111 2.1332
-21.0899 20.1647 2.1332
-21.7976 19.3924 2.1332
-23.3282 19.2994 2.2140
-24.2464 18.6345 2.2364
-24.8965 17.7499 2.2364
-25.5143 16.8426 2.2364
-26.0990 15.9138 2.2364
-26.6497 14.9646 2.2364
-27.1660 13.9964 2.2364
-27.6470 13.0104 2.2364
-5.7037 2.4381 0.4541
-27.1872 10.4835 2.1333
-27.5419 9.4995 2.1333
-27.8610 8.5035 2.1333
-25.5463 6.8048 1.9364
-21.1318 4.8237 1.5879
-26.0948 4.9785 1.9464
-26.2527 4.0379 1.9464
-20.9328 2.4542 1.5447
-20.9327 1.6952 1.5395
-12.2656 0.5511 0.9001
-12.2655 0.1104 0.8994
-12.2655 -0.3301 0.8998
-12.2655 -0.7714 0.9014
-12.2655 -1.2147 0.9042
-12.2655 -1.6612 0.9082
-12.2655 -2.1120 0.9133
-12.2655 -2.5685 0.9197
-12.2655 -3.0319 0.9274
-12.1701 -3.4763 0.9292
-12.1608 -3.9510 0.9389
-12.1608 -4.4396 0.9507
-12.2654 -4.9837 0.9724
-12.2654 -5.5046 0.9876
-12.2654 -6.0426 1.0045
-12.2654 -6.5999 1.0234
-12.2654 -7.1793 1.0444
-12.2653 -7.7835 1.0677
-12.2654 -8.4159 1.0934
-17.7087 -13.1101 1.6198
-17.2057 -13.7206 1.6180
-15.9925 -13.7205 1.5495
-14.8767 -13.7205 1.4883
-13.8447 -13.7205 1.4336
-12.8848 -13.7205 1.3845
-11.9876 -13.7204 1.3403
-11.7839 -14.5070 1.3751
-10.3666 -13.7423 1.2666
-11.7838 -16.8464 1.5128
-11.4596 -17.7037 1.5520
-10.7952 -18.0677 1.5490
-10.1705 -18.4996 1.5538
-11.4713 -22.7651 1.8764
-10.4642 -22.7651 1.8444
-9.4897 -22.7651 1.8157
-8.8284 -23.5225 1.8497
-8.8283 -26.3624 2.0469
-8.2085 -27.7872 2.1333
-5.9751 -23.2710 1.7691
-6.1933 -28.3026 2.1333
-5.4232 -29.8834 2.2364
-4.3468 -30.0581 2.2364
-3.2650 -30.1943 2.2364
-2.1790 -30.2917 2.2364
-1.0902 -30.3503 2.2364
-0.0000 -23.2178 2.2364
0.8335 -23.2030 2.2364
1.6659 -23.1583 2.2364
2.4962 -23.0839 2.2364
3.1698 -21.9188 2.1332
3.9547 -21.7914 2.1332
4.7345 -21.6360 2.1332
5.5083 -21.4527 2.1332
6.2751 -21.2418 2.1332
6.2225 -18.5811 1.8871
6.4085 -17.0749 1.7563
6.8430 -16.4156 1.7126
6.3903 -13.9022 1.4733
6.6990 -13.2942 1.4334
10.7903 -19.6266 2.1564
10.8203 -18.1094 2.0310
12.1721 -18.8042 2.1564
12.8402 -18.3564 2.1564
13.4918 -17.8849 2.1564
14.1262 -17.3904 2.1564
14.0286 -16.0564 2.0520
14.5971 -15.5437 2.0520
15.1470 -15.0109 2.0520
15.6774 -14.4588 2.0520
16.4409 -14.1051 2.0841
17.5262 -13.9759 2.1564
18.0183 -13.3390 2.1564
18.4873 -12.6849 2.1564
18.9326 -12.0143 2.1564
19.3537 -11.3281 2.1564
19.7499 -10.6272 2.1564
20.1208 -9.9125 2.1564
20.4659 -9.1848 2.1564
20.7848 -8.4452 2.1564
21.0768 -7.6945 2.1564
21.3419 -6.9337 2.1564
21.5795 -6.1639 2.1564
21.7894 -5.3859 2.1564
21.9713 -4.6008 2.1564
5.2153 -0.8980 0.5083
11.8536 -1.6053 1.1488
11.8578 -1.1743 1.1443
11.8619 -0.7460 1.1412
12.2102 -0.3285 1.1727
12.2156 0.1100 1.1727
12.2052 0.5485 1.1727
11.8810 0.9622 1.1440
11.8858 1.3936 1.1484
11.8907 1.8289 1.1543
11.8956 2.2695 1.1618
11.9006 2.7165 1.1710
11.9057 3.1714 1.1818
11.9109 3.6353 1.1943
11.9162 4.1100 1.2088
11.9216 4.5971 1.2251
11.9272 5.0983 1.2436
11.9330 5.6156 1.2643
11.9390 6.1512 1.2873
16.7233 9.3907 1.8382
16.5096 10.0668 1.8531
16.3140 10.7693 1.8732
16.1110 11.4864 1.8958
9.2324 7.0956 1.1155
8.5862 7.1035 1.0675
9.9332 8.8373 1.2735
8.2810 7.9178 1.0974
8.0322 8.2518 1.1029
8.0233 8.8577 1.1445
7.9596 9.4479 1.1830
7.9521 10.1577 1.2352
3.3471 4.6070 0.5452
8.3454 12.3996 1.4309
9.0160 14.4933 1.6340
10.6518 18.5783 2.0500
10.0402 19.0666 2.0626
9.3965 19.5126 2.0729
8.7314 19.9318 2.0827
8.0441 20.3176 2.0914
7.5373 21.2347 2.1564
6.6543 21.1238 2.1195
5.9306 21.4896 2.1333
5.1555 21.6892 2.1333
4.3738 21.8608 2.1333
3.5863 22.0041 2.1333
2.7942 22.1189 2.1333
2.0950 23.2783 2.2364
1.2581 23.3387 2.2364
0.4196 23.3688 2.2364
-0.4195 23.3687 2.2364
-1.2581 23.3385 2.2364
-2.0950 23.2780 2.2364
-2.9292 23.1875 2.2364
-3.7595 23.0669 2.2364
-4.5850 22.9166 2.2364
-5.4045 22.7366 2.2364
-6.2169 22.5272 2.2364
-6.8505 21.7467 2.1820
-7.4653 21.0320 2.1359
-8.2096 20.7358 2.1345
-8.9425 20.4139 2.1332
-9.6690 20.0787 2.1332
-10.3914 19.7337 2.1349
-11.1204 19.3956 2.1403
-12.0171 19.3178 2.1781
-12.9953 19.3085 2.2284
-13.7284 18.8963 2.2364
-14.3968 18.3899 2.2364
-15.0465 17.8599 2.2364
-15.6766 17.3069 2.2364
-16.2864 16.7317 2.2364
-16.8750 16.1349 2.2364
-17.4417 15.5174 2.2364
-17.9858 14.8799 2.2364
-18.5066 14.2234 2.2364
-19.0034 13.5486 2.2364
-19.4755 12.8564 2.2364
-19.9224 12.1478 2.2364
-19.4057 10.8970 2.1333
-19.7820 10.1922 2.1333
-20.1326 9.4744 2.1333
-5.7037 2.4381 0.5948
-20.7553 8.0035 2.1332
-21.0265 7.2524 2.1332
-21.4029 6.5326 2.1464
-21.6211 5.7594 2.1464
-20.9706 4.7871 2.0637
-20.9706 4.0010 2.0485
-20.9705 3.2256 2.0361
-20.9328 2.4544 2.0228
-20.9327 1.6954 2.0158
-12.2656 0.5512 1.1786
-12.2655 0.1105 1.1776
-12.3540 -0.3324 1.1867
-12.3539 -0.7769 1.1887
-12.3539 -1.2234 1.1923
-12.2655 -1.6611 1.1889
-12.2655 -2.1119 1.1956
-12.2655 -2.5684 1.2040
-12.2655 -3.0318 1.2140
-12.1701 -3.4762 1.2163
-12.1608 -3.9509 1.2289
-12.1608 -4.4395 1.2443
-12.2654 -4.9836 1.2727
-12.2654 -5.5045 1.2925
-12.2654 -6.0425 1.3147
-12.3538 -6.6474 1.3490
-12.3538 -7.2309 1.3766
-12.3538 -7.8395 1.4072
-12.2653 -8.4158 1.4308
-17.7087 -13.1099 2.1196
-17.2059 -13.7206 2.1172
-15.9926 -13.7205 2.0275
-14.8769 -13.7205 1.9474
-13.8448 -13.7205 1.8758
-12.8849 -13.7205 1.8115
-11.9877 -13.7204 1.7536
-11.1438 -13.7190 1.7013
-10.3478 -13.7172 1.6540
-10.2968 -14.7205 1.7294
-10.2969 -15.9073 1.8243
-10.0824 -16.8745 1.8926
-9.6711 -17.5911 1.9329
-9.6671 -19.1846 2.0686
-9.2415 -20.1051 2.1308
-8.5236 -20.4472 2.1333
-7.7838 -20.7392 2.1333
-7.0340 -21.0044 2.1333
-6.2753 -21.2427 2.1333
-5.5315 -21.5432 2.1423
-4.9635 -22.6825 2.2364
-4.1460 -22.8456 2.2364
-3.3232 -22.9793 2.2364
-2.4961 -23.0835 2.2364
-1.6658 -23.1581 2.2364
-0.8335 -23.2029 2.2364
0.0000 -18.7767 2.2364
0.6741 -18.7647 2.2364
1.3472 -18.7285 2.2364
2.0187 -18.6683 2.2364
2.5635 -17.7261 2.1332
3.1982 -17.6229 2.1332
3.8289 -17.4971 2.1332
4.4546 -17.3488 2.1332
5.0747 -17.1782 2.1332
5.6882 -16.9855 2.1332
6.2945 -16.7709 2.1332
6.6304 -15.9056 2.0520
6.3904 -13.9022 1.8219
6.6990 -13.2942 1.7725
8.3030 -15.1025 2.0520
8.8403 -14.7955 2.0520
9.3662 -14.4694 2.0520
8.8464 -12.6468 1.8373
9.1913 -12.1840 1.8168
11.4226 -14.0619 2.1564
10.7964 -12.3569 1.9530
12.4036 -13.2078 2.1564
12.8706 -12.7549 2.1564
13.3212 -12.2856 2.1564
13.7546 -11.8003 2.1564
14.1704 -11.2998 2.1564
14.5680 -10.7847 2.1564
14.9470 -10.2556 2.1564
15.3067 -9.7132 2.1564
15.6469 -9.1583 2.1564
15.9669 -8.5914 2.1564
16.2664 -8.0134 2.1564
16.5451 -7.4250 2.1564
16.3784 -6.6546 2.1020
16.6082 -6.0629 2.1020
16.8167 -5.4633 2.1020
17.0036 -4.8566 2.1020
17.1685 -4.2435 2.1020
17.3115 -3.6248 2.1020
5.2144 -0.8978 0.6288
11.8536 -1.6053 1.4213
11.8578 -1.1742 1.4157
11.8619 -0.7459 1.4120
11.8666 -0.3192 1.4101
11.8714 0.1070 1.4101
11.8762 0.5338 1.4119
11.8810 0.9623 1.4155
11.8858 1.3937 1.4210
11.8907 1.8290 1.4284
11.8956 2.2696 1.4377
11.9006 2.7166 1.4490
11.9057 3.1714 1.4624
11.9109 3.6354 1.4780
11.9162 4.1101 1.4959
11.9216 4.5972 1.5162
11.9272 5.0984 1.5391
11.9330 5.6157 1.5647
11.9390 6.1513 1.5933
15.0250 8.4372 2.0441
14.7749 9.0092 2.0526
14.5163 9.5828 2.0630
14.2888 10.1874 2.0812
9.2324 7.0957 1.3808
8.5796 7.0980 1.3204
9.9332 8.8374 1.5764
8.2564 7.8943 1.3543
7.9579 8.1755 1.3526
8.0021 8.8343 1.4130
7.9182 9.3989 1.4568
7.9182 10.1145 1.5226
3.3456 4.6050 0.6746
9.1467 13.5903 1.9415
9.0165 14.4942 2.0230
8.7410 15.2457 2.0826
8.2147 15.6000 2.0892
7.6747 15.9372 2.0960
7.1235 16.2614 2.1036
6.5595 16.5681 2.1113
6.0229 16.9684 2.1333
5.4101 17.1742 2.1333
4.7903 17.3577 2.1333
4.1642 17.5189 2.1333
3.5327 17.6574 2.1333
2.8967 17.7731 2.1333
2.3660 18.7292 2.2364
1.6922 18.8022 2.2364
1.0162 18.8509 2.2364
0.3389 18.8752 2.2364
-0.3389 18.8752 2.2364
-1.0162 18.8508 2.2364
-1.6921 18.8020 2.2364
-2.3659 18.7289 2.2364
-3.0366 18.6316 2.2364
-3.7034 18.5102 2.2364
-4.3653 18.3650 2.2364
-5.0216 18.1960 2.2364
-5.6713 18.0035 2.2364
-6.3137 17.7877 2.2364
-6.9478 17.5490 2.2364
-7.5730 17.2876 2.2364
-8.1883 17.0039 2.2364
-8.7930 16.6983 2.2364
-9.3862 16.3711 2.2364
-9.9673 16.0228 2.2364
-10.5355 15.6539 2.2364
-11.0899 15.2647 2.2364
-11.6300 14.8559 2.2364
-12.1550 14.4280 2.2364
-12.6643 13.9815 2.2364
-13.1571 13.5170 2.2364
-13.6328 13.0350 2.2364
-14.0909 12.5364 2.2364
-14.5308 12.0216 2.2364
-14.2625 10.9617 2.1333
-14.6455 10.4417 2.1333
-10.7410 7.0906 1.5266
-15.3540 9.3623 2.1333
-15.6787 8.8043 2.1332
-15.9831 8.2350 2.1332
-16.2668 7.6552 2.1332
-5.7037 2.4382 0.7361
-16.8751 6.5074 2.1464
-17.0962 5.8970 2.1464
-17.2953 5.2790 2.1464
-17.4720 4.6543 2.1464
-17.5454 4.0053 2.1366
-17.5170 3.3422 2.1174
-17.6134 2.7094 2.1161
-17.6700 2.0720 2.1128
-17.6907 1.4329 2.1080
-12.2656 0.5513 1.4584
-12.2655 0.1106 1.4571
-12.3540 -0.3323 1.4682
-12.3539 -0.7768 1.4707
-12.3539 -1.2233 1.4751
-12.2655 -1.6610 1.4709
-12.2655 -2.1119 1.4792
-12.2655 -2.5683 1.4895
-12.2655 -3.0317 1.5019
-12.1701 -3.4761 1.5046
-12.1608 -3.9508 1.5202
-12.1608 -4.4394 1.5393
-12.2654 -4.9835 1.5743
-12.2654 -5.5044 1.5988
-12.2654 -6.0424 1.6262
-12.3538 -6.6473 1.6686
-12.3538 -7.2308 1.7027
-12.3538 -7.8394 1.7406
-12.2653 -8.4157 1.7697
-14.4992 -10.7338 2.1464
-14.1035 -11.2465 2.1464
-13.6897 -11.7446 2.1464
-13.2583 -12.2276 2.1464
-12.8099 -12.6948 2.1464
-12.3451 -13.1456 2.1464
-11.8646 -13.5794 2.1464
-11.1439 -13.7190 2.1040
-10.3479 -13.7172 2.0455
-10.2969 -14.7204 2.1387
-9.7966 -15.1343 2.1464
-9.1902 -15.3811 2.1333
-8.6317 -15.7004 2.1333
-8.0622 -15.9994 2.1333
-7.4823 -16.2778 2.1333
-6.8929 -16.5353 2.1333
-6.2947 -16.7716 2.1333
-5.6884 -16.9862 2.1333
-5.3201 -18.0091 2.2364
-4.6701 -18.1881 2.2364
-4.0141 -18.3436 2.2364
-3.3530 -18.4756 2.2364
-2.6875 -18.5838 2.2364
-2.0187 -18.6681 2.2364
-1.3472 -18.7284 2.2364
-0.6740 -18.7646 2.2364
0.0000 -15.7482 2.2364
0.5654 -15.7381 2.2364
1.1300 -15.7078 2.2364
1.6931 -15.6572 2.2364
2.2541 -15.5865 2.2364
2.6824 -14.7804 2.1332
3.2113 -14.6748 2.1332
3.7361 -14.5504 2.1332
4.2561 -14.4072 2.1332
4.7707 -14.2455 2.1332
2.9269 -7.7982 1.1827
3.0505 -7.3176 1.1256
6.2751 -13.6514 2.1332
6.7093 -13.3145 2.1167
7.0839 -12.8849 2.0875
7.3405 -12.2852 2.0316
8.2548 -12.7522 2.1564
8.7076 -12.4483 2.1564
9.1493 -12.1283 2.1564
9.5793 -11.7926 2.1564
9.9970 -11.4418 2.1564
10.4018 -11.0761 2.1564
10.7934 -10.6962 2.1564
11.1710 -10.3025 2.1564
11.5344 -9.8954 2.1564
11.8829 -9.4756 2.1564
12.2162 -9.0435 2.1564
12.5338 -8.5997 2.1564
12.8353 -8.1448 2.1564
13.1204 -7.6794 2.1564
13.3886 -7.2040 2.1564
13.2839 -6.5440 2.1002
13.5129 -6.0641 2.1005
13.7244 -5.5762 2.1007
13.9182 -5.0808 2.1009
14.0940 -4.5787 2.1011
14.2516 -4.0705 2.1013
14.3903 -3.5567 2.1014
14.5104 -3.0382 2.1014
5.2135 -0.8976 0.7498
11.8536 -1.6052 1.6953
11.8578 -1.1741 1.6886
11.8619 -0.7458 1.6842
11.8666 -0.3191 1.6820
11.8714 0.1070 1.6820
11.8762 0.5338 1.6842
11.8810 0.9624 1.6885
11.8858 1.3937 1.6951
11.8907 1.8291 1.7039
11.8956 2.2697 1.7151
11.9006 2.7167 1.7286
11.9057 3.1715 1.7446
11.9109 3.6355 1.7633
11.9162 4.1102 1.7846
11.9216 4.5973 1.8088
11.9272 5.0984 1.8362
11.9330 5.6158 1.8668
11.9390 6.1514 1.9009
13.1766 7.3994 2.1387
12.9367 7.8884 2.1443
12.6500 8.3509 2.1449
12.3192 8.7832 2.1408
9.2324 7.0957 1.6475
8.5860 7.1035 1.5766
9.9332 8.8374 1.8809
8.2563 7.8943 1.6159
7.9183 8.1349 1.6058
8.0020 8.8343 1.6860
7.9182 9.3990 1.7383
7.9182 10.1146 1.8167
3.3451 4.6043 0.8049
8.0525 11.9647 2.0396
7.6182 12.2466 2.0396
7.1740 12.5126 2.0396
6.7205 12.7626 2.0396
6.5424 13.5861 2.1321
6.0541 13.8203 2.1333
5.5543 14.0291 2.1333
5.0472 14.2198 2.1333
4.5337 14.3922 2.1333
4.0143 14.5460 2.1333
3.4896 14.6810 2.1333
2.9605 14.7970 2.1333
2.5035 15.3604 2.2002
1.9827 15.6951 2.2364
1.4180 15.7562 2.2364
0.8516 15.7971 2.2364
0.2840 15.8175 2.2364
-0.2839 15.8175 2.2364
-0.8515 15.7970 2.2364
-1.4180 15.7561 2.2364
-1.9826 15.6949 2.2364
-2.5447 15.6134 2.2364
-3.1034 15.5118 2.2364
-3.6582 15.3901 2.2364
-4.2081 15.2485 2.2364
-4.7526 15.0873 2.2364
-5.2910 14.9065 2.2364
-5.8224 14.7066 2.2364
-6.3464 14.4876 2.2364
-6.8621 14.2500 2.2364
-7.3689 13.9939 2.2364
-7.8661 13.7199 2.2364
-8.3531 13.4281 2.2364
-8.8294 13.1190 2.2364
-9.2941 12.7930 2.2364
-9.7468 12.4505 2.2364
-10.1869 12.0920 2.2364
-10.6138 11.7179 2.2364
-10.5187 10.8065 2.1333
-10.8990 10.4212 2.1333
-11.2653 10.0226 2.1333
-6.3614 5.2630 1.1682
-11.9536 9.1872 2.1333
-12.2747 8.7516 2.1332
-10.7476 7.0951 1.8225
-12.8690 7.8471 2.1332
-13.1413 7.3795 2.1332
-13.4799 6.9454 2.1464
-13.7195 6.4566 2.1464
-5.7037 2.4382 0.8782
-14.1453 5.4549 2.1464
-14.2900 4.9291 2.1403
-14.4132 4.3994 2.1339
-14.5492 3.8758 2.1322
-14.6697 3.3490 2.1310
-14.7503 2.8145 2.1269
-14.8091 2.2781 2.1223
-14.8693 1.7437 2.1208
-14.9160 1.2083 2.1201
-12.2656 0.5514 1.7396
-12.2655 0.1107 1.7380
-12.3540 -0.3322 1.7512
-12.3539 -0.7767 1.7542
-12.3539 -1.2232 1.7595
-12.2655 -1.6609 1.7544
-12.2655 -2.1118 1.7642
-12.2655 -2.5682 1.7765
-12.2655 -3.0316 1.7912
-12.1701 -3.4760 1.7945
-12.1608 -3.9507 1.8130
-12.1608 -4.4393 1.8358
-12.2654 -4.9834 1.8775
-12.2654 -5.5043 1.9067
-12.2654 -6.0423 1.9393
-12.2654 -6.5997 1.9757
-12.2654 -7.1790 2.0161
-12.2653 -7.7832 2.0608
-12.2653 -8.4156 2.1104
-12.1587 -9.0010 2.1464
-11.8270 -9.4310 2.1464
-11.4801 -9.8489 2.1464
-11.1185 -10.2540 2.1464
-10.7426 -10.6459 2.1464
-10.3530 -11.0241 2.1464
-9.9500 -11.3880 2.1464
-9.4761 -11.6657 2.1333
-9.0508 -11.9977 2.1333
-8.6139 -12.3143 2.1333
-6.0839 -9.3987 1.5894
-7.7075 -12.8995 2.1333
-7.2392 -13.1674 2.1333
-6.7616 -13.4183 2.1333
-6.2753 -13.6519 2.1333
-5.7810 -13.8679 2.1333
-5.5222 -14.7132 2.2315
-5.0014 -14.9346 2.2364
-4.4620 -15.1042 2.2364
-3.9168 -15.2543 2.2364
-3.3666 -15.3848 2.2364
-2.8122 -15.4955 2.2364
-2.2540 -15.5863 2.2364
-1.6931 -15.6571 2.2364
-1.1299 -15.7077 2.2364
-0.5653 -15.7381 2.2364
0.0000 -13.5489 2.2364
0.4864 -13.5402 2.2364
0.9721 -13.5141 2.2364
1.4567 -13.4706 2.2364
1.9393 -13.4097 2.2364
2.4195 -13.3316 2.2364
2.7628 -12.6253 2.1332
3.2143 -12.5182 2.1332
3.6617 -12.3950 2.1332
3.1468 -9.3965 1.6355
2.9269 -7.7982 1.3747
3.0505 -7.3176 1.3084
5.3986 -11.7445 2.1332
5.8169 -11.5435 2.1332
6.2278 -11.3276 2.1332
6.6235 -11.0851 2.1309
6.6907 -10.3359 2.0316
7.2109 -10.3085 2.0758
7.8711 -10.4338 2.1564
8.2409 -10.1449 2.1564
8.6002 -9.8430 2.1564
8.9485 -9.5284 2.1564
9.2852 -9.2015 2.1564
9.6100 -8.8627 2.1564
9.9225 -8.5125 2.1564
10.2223 -8.1513 2.1564
10.5089 -7.7795 2.1564
10.7820 -7.3977 2.1564
10.7693 -6.8336 2.1033
11.0024 -6.4396 2.1022
11.2244 -6.0393 2.1016
11.4324 -5.6318 2.1012
11.6259 -5.2172 2.1009
11.8046 -4.7960 2.1005
11.9681 -4.3688 2.1002
12.1164 -3.9361 2.0999
12.2507 -3.4989 2.0999
12.3694 -3.0571 2.0999
12.4721 -2.6113 2.1000
5.2125 -0.8974 0.8716
11.8536 -1.6051 1.9710
11.8578 -1.1740 1.9633
11.8619 -0.7457 1.9581
11.8666 -0.3190 1.9556
11.8714 0.1071 1.9556
11.8762 0.5339 1.9582
11.8810 0.9625 1.9633
11.8858 1.3938 1.9709
11.8907 1.8292 1.9812
11.8956 2.2698 1.9942
11.9006 2.7168 2.0100
11.9057 3.1716 2.0286
11.9109 3.6356 2.0503
11.9162 4.1103 2.0751
11.9216 4.5974 2.1034
11.9272 5.0985 2.1351
11.8500 5.5769 2.1557
11.6462 6.0007 2.1563
11.4073 6.4059 2.1531
11.1709 6.8118 2.1531
10.9228 7.2108 2.1537
10.6709 7.6081 2.1564
9.2324 7.0958 1.9159
8.5859 7.1035 1.8334
9.2620 8.2404 2.0396
8.2562 7.8943 1.8792
7.9183 8.1350 1.8675
7.9763 8.8060 1.9544
7.8899 9.3655 2.0143
7.6437 9.7640 2.0396
3.3446 4.6038 0.9359
6.9240 10.2880 2.0396
6.5505 10.5303 2.0396
6.4522 11.2538 2.1333
6.0443 11.4785 2.1333
5.6285 11.6884 2.1333
5.2055 11.8833 2.1333
4.7757 12.0628 2.1333
4.3398 12.2267 2.1333
3.8982 12.3749 2.1333
3.4515 12.5070 2.1333
3.0005 12.6231 2.1333
2.5454 12.7228 2.1333
2.1880 13.4250 2.2364
1.7047 13.4950 2.2364
1.2193 13.5475 2.2364
0.7322 13.5826 2.2364
0.2442 13.6002 2.2364
-0.2441 13.6001 2.2364
-0.7322 13.5826 2.2364
-1.2192 13.5474 2.2364
-1.7047 13.4948 2.2364
-2.1879 13.4248 2.2364
-2.6684 13.3374 2.2364
-3.1453 13.2328 2.2364
-3.6183 13.1111 2.2364
-4.0864 12.9726 2.2364
-4.5493 12.8172 2.2364
-5.0063 12.6453 2.2364
-5.4568 12.4571 2.2364
-5.9003 12.2528 2.2364
-6.3361 12.0327 2.2364
-6.7637 11.7971 2.2364
-7.1825 11.5463 2.2364
-7.5920 11.2806 2.2364
-7.9917 11.0004 2.2364
-8.3811 10.7060 2.2364
-8.3556 9.9182 2.1333
-8.7058 9.6114 2.1333
-9.0447 9.2923 2.1333
-9.3719 8.9611 2.1333
-9.6869 8.6184 2.1333
-6.3589 5.2610 1.3580
-10.2790 7.9002 2.1332
-10.5552 7.5257 2.1332
-10.7476 7.0951 2.1193
-11.1352 6.7901 2.1464
-11.3711 6.3856 2.1464
-11.5922 5.9729 2.1464
-11.7984 5.5526 2.1464
-5.7038 2.4382 1.0211
-12.1648 4.6912 2.1464
-12.3214 4.2502 2.1459
-12.4447 3.7987 2.1424
-12.5580 3.3455 2.1399
-12.6451 2.8869 2.1359
-12.7149 2.4262 2.1317
-12.7873 1.9672 2.1308
-12.8488 1.5068 2.1308
-12.8937 1.0446 2.1308
-12.2656 0.5515 2.0226
-12.2655 0.1107 2.0207
-12.2655 -0.3297 2.0215
-12.2655 -0.7710 2.0249
-12.2655 -1.2144 2.0310
-12.2655 -1.6608 2.0397
-12.2655 -2.1117 2.0511
-12.2655 -2.5681 2.0653
-11.2975 -2.7922 1.9181
-11.1892 -3.1958 1.9181
-11.0665 -3.5951 1.9181
-10.9296 -3.9898 1.9181
-10.7787 -4.3793 1.9181
-10.6138 -4.7631 1.9181
-10.5785 -5.2112 1.9444
-11.4627 -6.1676 2.1464
-11.2332 -6.5748 2.1464
-10.9893 -6.9733 2.1464
-10.7313 -7.3629 2.1464
-10.4595 -7.7430 2.1464
-10.1742 -8.1130 2.1464
-9.8759 -8.4725 2.1464
-9.5065 -8.7673 2.1333
-9.1852 -9.1025 2.1333
-8.8521 -9.4259 2.1333
-8.5077 -9.7371 2.1333
-8.1523 -10.0358 2.1333
-7.7864 -10.3215 2.1333
-7.4106 -10.5940 2.1333
-6.0769 -9.3878 1.8454
-6.6309 -11.0976 2.1333
-6.2280 -11.3281 2.1333
-5.8172 -11.5440 2.1333
-5.5225 -12.0141 2.1822
-5.2140 -12.5075 2.2364
-4.7615 -12.6863 2.2364
-4.3029 -12.8487 2.2364
-3.8388 -12.9947 2.2364
-3.3698 -13.1238 2.2364
-2.8965 -13.2362 2.2364
-2.4194 -13.3314 2.2364
-1.9393 -13.4096 2.2364
-1.4566 -13.4704 2.2364
-0.9721 -13.5140 2.2364
-0.4864 -13.5401 2.2364
0.0000 -11.8777 2.2364
0.4264 -11.8701 2.2364
0.8522 -11.8472 2.2364
1.2770 -11.8090 2.2364
1.7001 -11.7557 2.2364
2.1211 -11.6872 2.2364
2.5236 -11.5322 2.2226
2.8178 -10.9740 2.1332
3.2100 -10.8660 2.1332
3.1436 -9.3868 1.8637
2.9269 -7.7982 1.5681
3.0505 -7.3176 1.4925
4.7327 -10.2956 2.1332
5.0994 -10.1194 2.1332
5.4595 -9.9301 2.1332
5.8127 -9.7280 2.1332
6.1583 -9.5134 2.1332
6.4961 -9.2866 2.1332
6.6234 -8.7798 2.0700
6.8061 -8.3785 2.0316
7.1350 -8.1660 2.0409
7.8442 -8.3526 2.1564
8.1394 -8.0659 2.1564
8.4241 -7.7689 2.1564
8.6979 -7.4619 2.1564
8.9606 -7.1452 2.1564
9.0284 -6.6833 2.1135
9.2561 -6.3506 2.1119
9.4720 -6.0104 2.1105
9.6758 -5.6630 2.1091
9.8673 -5.3091 2.1078
10.0475 -4.9494 2.1068
10.2153 -4.5841 2.1060
10.3702 -4.2132 2.1052
10.5120 -3.8372 2.1045
10.6404 -3.4565 2.1039
10.7555 -3.0717 2.1034
7.0626 -1.7455 1.3680
10.9447 -2.2914 2.1025
5.2116 -0.8972 0.9942
11.0795 -1.5001 2.1019
11.4154 -1.1301 2.1564
11.4494 -0.7196 2.1564
11.4685 -0.3082 2.1564
11.4729 0.1037 2.1564
11.4625 0.5155 2.1564
11.4373 0.9267 2.1564
11.3974 1.3367 2.1564
11.3428 1.7451 2.1564
11.2735 2.1512 2.1564
11.1897 2.5547 2.1564
11.0914 2.9549 2.1564
10.9789 3.3513 2.1564
10.8521 3.7434 2.1564
10.7114 4.1308 2.1564
10.5569 4.5129 2.1564
10.3886 4.8892 2.1564
10.2070 5.2592 2.1564
10.0122 5.6225 2.1564
9.8045 5.9786 2.1564
9.5840 6.3270 2.1564
9.3512 6.6673 2.1564
9.1063 6.9990 2.1564
8.6033 7.1179 2.0964
8.1164 7.2212 2.0396
7.8523 7.5082 2.0396
7.5781 7.7856 2.0396
7.2940 8.0529 2.0396
7.0006 8.3099 2.0396
6.6981 8.5562 2.0396
3.3442 4.6032 1.0679
6.3464 9.4298 2.1333
3.7195 5.9793 1.3216
3.4680 6.0490 1.3086
5.2964 10.0583 2.1333
4.9321 10.2422 2.1333
4.5614 10.4129 2.1333
4.1848 10.5702 2.1333
3.8027 10.7138 2.1333
3.4158 10.8436 2.1333
3.0244 10.9594 2.1333
2.6291 11.0611 2.1333
2.3382 11.6872 2.2364
1.9172 11.7637 2.2364
1.4938 11.8250 2.2364
1.0684 11.8711 2.2364
0.6416 11.9018 2.2364
0.2140 11.9172 2.2364
-0.2139 11.9172 2.2364
-0.6415 11.9018 2.2364
-1.0683 11.8710 2.2364
-1.4937 11.8249 2.2364
-1.9172 11.7636 2.2364
-2.3382 11.6870 2.2364
-2.7561 11.5954 2.2364
-3.1705 11.4888 2.2364
-3.5808 11.3674 2.2364
-3.9864 11.2313 2.2364
-4.3869 11.0807 2.2364
-4.7817 10.9158 2.2364
-5.1702 10.7369 2.2364
-5.5521 10.5441 2.2364
-5.9269 10.3376 2.2364
-6.2939 10.1179 2.2364
-6.6528 9.8851 2.2364
-7.0030 9.6396 2.2364
-7.0053 8.9487 2.1332
-7.3217 8.6911 2.1332
-7.6286 8.4223 2.1332
-7.9257 8.1427 2.1332
-8.2125 7.8526 2.1332
-8.4887 7.5524 2.1332
-6.2627 5.1814 1.5261
-9.0078 6.9233 2.1332
-9.2500 6.5951 2.1332
-9.4802 6.2585 2.1332
-9.6981 5.9138 2.1332
-9.9651 5.5962 2.1464
-10.1590 5.2345 2.1464
-10.3398 4.8662 2.1464
-5.7038 2.4383 1.1652
-10.6610 4.1114 2.1464
-10.8011 3.7259 2.1464
-10.9272 3.3355 2.1464
-11.0272 2.9378 2.1441
-11.1211 2.5390 2.1434
-11.2011 2.1374 2.1427
-11.2672 1.7335 2.1422
-11.3193 1.3276 2.1418
-11.3574 0.9202 2.1415
-11.3814 0.5118 2.1413
-11.3913 0.1029 2.1412
-11.3872 -0.3060 2.1413
-11.3703 -0.7147 2.1417
-11.3542 -1.1240 2.1450
-11.3133 -1.5318 2.1464
-11.2503 -1.9368 2.1464
-11.1728 -2.3393 2.1464
-11.0042 -2.7197 2.1316
-10.5786 -3.0213 2.0689
-10.5786 -3.4365 2.0918
-10.5786 -3.8616 2.1180
-10.5725 -4.2954 2.1464
-10.4109 -4.6719 2.1464
-10.2359 -5.0423 2.1464
-10.0477 -5.4062 2.1464
-9.8466 -5.7631 2.1464
-9.6329 -6.1125 2.1464
-9.3494 -6.4147 2.1333
-9.1127 -6.7459 2.1333
-8.8642 -7.0683 2.1333
-8.6043 -7.3816 2.1333
-8.3334 -7.6853 2.1333
-8.0518 -7.9792 2.1333
-7.7598 -8.2627 2.1333
-7.4579 -8.5356 2.1333
-7.1464 -8.7975 2.1333
-6.8258 -9.0480 2.1333
-6.4963 -9.2869 2.1333
-6.0699 -9.3769 2.1026
-5.8129 -9.7284 2.1333
-5.5277 -10.0543 2.1599
-5.3460 -10.6089 2.2364
-4.9616 -10.7937 2.2364
-4.5708 -10.9646 2.2364
-4.1742 -11.1213 2.2364
-3.7721 -11.2638 2.2364
-3.3653 -11.3917 2.2364
-2.9542 -11.5050 2.2364
-2.5392 -11.6035 2.2364
-2.1210 -11.6870 2.2364
-1.7001 -11.7556 2.2364
-1.2770 -11.8089 2.2364
-0.8522 -11.8471 2.2364
-0.4264 -11.8700 2.2364
0.0000 -10.5636 2.2364
0.3792 -10.5568 2.2364
0.7580 -10.5365 2.2364
1.1357 -10.5025 2.2364
1.5120 -10.4551 2.2364
1.8864 -10.3942 2.2364
2.2584 -10.3199 2.2364
2.5310 -9.8567 2.1543
2.8549 -9.6638 2.1332
3.1403 -9.3770 2.0934
2.9269 -7.7982 1.7632
3.0505 -7.3176 1.6782
4.2090 -9.1564 2.1332
4.5351 -8.9997 2.1332
4.8554 -8.8313 2.1332
5.1695 -8.6515 2.1332
5.4769 -8.4606 2.1332
5.7773 -8.2589 2.1332
6.0702 -8.0464 2.1332
6.3554 -7.8236 2.1332
6.7047 -7.6734 2.1564
6.9761 -7.4281 2.1564
7.2385 -7.1732 2.1564
7.3849 -6.8104 2.1257
7.6189 -6.5360 2.1240
7.8427 -6.2536 2.1223
8.0564 -5.9637 2.1207
8.2596 -5.6668 2.1191
8.4522 -5.3632 2.1177
8.6341 -5.0533 2.1163
8.8050 -4.7374 2.1150
8.9652 -4.4162 2.1139
9.1141 -4.0898 2.1129
9.2514 -3.7585 2.1120
9.3770 -3.4228 2.1111
9.4909 -3.0830 2.1103
9.5928 -2.7396 2.1096
6.9837 -1.7260 1.5211
9.7604 -2.0434 2.1085
5.2106 -0.8970 1.1179
9.8791 -1.3375 2.1077
10.1508 -1.0048 2.1564
10.1810 -0.6398 2.1564
10.1979 -0.2740 2.1564
10.2018 0.0923 2.1564
10.1924 0.4584 2.1564
10.1700 0.8240 2.1564
10.1344 1.1886 2.1564
10.0858 1.5517 2.1564
10.0241 1.9129 2.1564
9.9495 2.2716 2.1564
9.8621 2.6274 2.1564
9.7620 2.9799 2.1564
9.6492 3.3286 2.1564
9.5240 3.6730 2.1564
9.3865 4.0127 2.1564
9.2369 4.3472 2.1564
9.0754 4.6762 2.1564
8.9021 4.9992 2.1564
8.7173 5.3158 2.1564
8.5213 5.6255 2.1564
8.3143 5.9280 2.1564
8.0965 6.2229 2.1564
7.8682 6.5098 2.1564
7.6298 6.7883 2.1564
7.3815 7.0581 2.1564
6.9281 7.1179 2.0972
6.5425 7.2233 2.0576
6.5103 7.7280 2.1333
6.2289 7.9569 2.1333
3.3438 4.6027 1.2010
3.6518 5.4260 1.3807
3.3548 5.3931 1.3407
3.2019 5.5849 1.3589
4.7088 8.9426 2.1333
4.3849 9.1060 2.1333
4.0553 9.2578 2.1333
3.7205 9.3975 2.1333
3.3808 9.5252 2.1333
3.0368 9.6406 2.1333
2.6889 9.7435 2.1333
2.4504 10.3091 2.2364
2.0788 10.3905 2.2364
1.7045 10.4585 2.2364
1.3280 10.5130 2.2364
0.9498 10.5540 2.2364
0.5704 10.5813 2.2364
0.1902 10.5950 2.2364
-0.1902 10.5950 2.2364
-0.5704 10.5813 2.2364
-0.9498 10.5539 2.2364
-1.3280 10.5130 2.2364
-1.7045 10.4584 2.2364
-2.0787 10.3904 2.2364
-2.4503 10.3089 2.2364
-2.8187 10.2142 2.2364
-3.1835 10.1063 2.2364
-3.5441 9.9853 2.2364
-3.9002 9.8514 2.2364
-4.2512 9.7049 2.2364
-4.5967 9.5458 2.2364
-4.9362 9.3744 2.2364
-5.2694 9.1909 2.2364
-5.5957 8.9956 2.2364
-5.9148 8.7887 2.2364
-6.2262 8.5704 2.2364
-6.5296 8.3411 2.2364
-6.5099 7.7276 2.1333
-6.7829 7.4886 2.1333
-7.0470 7.2400 2.1333
-7.3020 6.9821 2.1333
-7.5475 6.7152 2.1333
-6.2529 5.1734 1.7138
-8.0090 6.1557 2.1332
-8.2244 5.8640 2.1332
-8.4291 5.5647 2.1332
-8.6230 5.2583 2.1332
-8.8057 4.9451 2.1332
-8.9771 4.6256 2.1332
-9.1368 4.3001 2.1332
-5.7038 2.4383 1.3105
-9.4208 3.6332 2.1332
-9.6039 3.3130 2.1464
-9.7161 2.9659 2.1464
-9.8158 2.6151 2.1464
-9.9027 2.2609 2.1464
-9.9770 1.9039 2.1464
-10.0383 1.5445 2.1464
-10.0868 1.1831 2.1464
-10.1222 0.8202 2.1464
-10.1445 0.4563 2.1464
-10.1538 0.0918 2.1464
-10.1500 -0.2727 2.1464
-10.1331 -0.6368 2.1464
-10.1031 -1.0001 2.1464
-10.0602 -1.3621 2.1464
-10.0042 -1.7222 2.1464
-9.9354 -2.0801 2.1464
-9.8538 -2.4353 2.1464
-9.7595 -2.7873 2.1464
-9.6527 -3.1357 2.1464
-9.4745 -3.4585 2.1332
-9.3438 -3.7962 2.1332
-9.2010 -4.1289 2.1332
-9.0465 -4.4563 2.1332
-8.8803 -4.7780 2.1332
-8.7026 -5.0935 2.1332
-8.5143 -5.4027 2.1333
-8.3145 -5.7046 2.1333
-8.1040 -5.9991 2.1333
-7.8830 -6.2858 2.1333
-7.6520 -6.5645 2.1333
-7.4111 -6.8347 2.1333
-7.1607 -7.0960 2.1333
-6.9011 -7.3482 2.1333
-6.6326 -7.5910 2.1333
-6.3556 -7.8239 2.1333
-6.0704 -8.0467 2.1333
-5.7775 -8.2592 2.1333
-5.5292 -8.5415 2.1536
-5.4195 -9.0700 2.2364
-5.0903 -9.2585 2.2364
-4.7545 -9.4350 2.2364
-4.4126 -9.5994 2.2364
-4.0651 -9.7514 2.2364
-3.7124 -9.8908 2.2364
-3.3548 -10.0175 2.2364
-2.9930 -10.1314 2.2364
-2.6274 -10.2321 2.2364
-2.2583 -10.3198 2.2364
-1.8864 -10.3941 2.2364
-1.5120 -10.4550 2.2364
-1.1357 -10.5025 2.2364
-0.7579 -10.5364 2.2364
-0.3792 -10.5568 2.2364
0.0000 -9.5023 2.2364
0.3411 -9.4962 2.2364
0.6818 -9.4779 2.2364
1.0216 -9.4473 2.2364
1.3601 -9.4046 2.2364
1.6969 -9.3498 2.2364
2.0315 -9.2830 2.2364
2.3634 -9.2042 2.2364
2.5681 -8.6928 2.1332
2.8785 -8.5951 2.1332
2.9270 -7.7982 1.9602
3.0506 -7.3176 1.8657
3.7861 -8.2363 2.1332
4.0794 -8.0953 2.1332
4.3676 -7.9438 2.1332
4.6500 -7.7821 2.1332
4.9265 -7.6104 2.1332
5.1967 -7.4288 2.1332
5.4602 -7.2377 2.1332
5.7167 -7.0373 2.1332
5.9658 -6.8278 2.1332
6.2073 -6.6094 2.1332
6.4408 -6.3826 2.1332
6.6591 -6.1409 2.1309
6.8706 -5.8940 2.1294
7.0731 -5.6399 2.1279
7.2666 -5.3790 2.1265
7.4506 -5.1117 2.1252
7.6251 -4.8383 2.1240
7.7897 -4.5590 2.1227
7.9443 -4.2742 2.1215
8.0888 -3.9844 2.1204
8.2230 -3.6899 2.1194
8.3468 -3.3910 2.1185
8.4601 -3.0881 2.1176
8.5628 -2.7815 2.1168
7.0327 -2.0085 1.7196
6.9825 -1.7256 1.6909
8.8059 -1.8435 2.1150
5.2097 -0.8968 1.2427
8.9133 -1.2066 2.1143
9.1298 -0.9037 2.1564
9.1568 -0.5754 2.1564
9.1720 -0.2464 2.1564
9.1754 0.0830 2.1564
9.1670 0.4124 2.1564
9.1468 0.7412 2.1564
9.1147 1.0691 2.1564
9.0709 1.3957 2.1564
9.0154 1.7205 2.1564
8.9483 2.0431 2.1564
8.8696 2.3631 2.1564
8.7795 2.6801 2.1564
8.6781 2.9936 2.1564
8.5654 3.3033 2.1564
8.4417 3.6088 2.1564
8.3071 3.9097 2.1564
8.1618 4.2056 2.1564
8.0059 4.4960 2.1564
7.8397 4.7807 2.1564
7.2223 4.7680 2.0323
7.2105 5.1411 2.0795
6.8614 5.2738 2.0321
7.0760 5.8544 2.1564
6.8616 6.1049 2.1564
6.6383 6.3475 2.1564
6.3377 6.5114 2.1333
6.1002 6.7349 2.1333
5.8547 6.9498 2.1333
5.6016 7.1557 2.1333
3.3433 4.6021 1.3353
3.6844 5.4746 1.5491
3.3668 5.4124 1.4962
3.2194 5.6153 1.5194
4.2346 8.0419 2.1333
3.9433 8.1889 2.1333
3.6469 8.3253 2.1333
3.3458 8.4510 2.1333
3.0403 8.5658 2.1333
2.7309 8.6696 2.1333
2.5109 9.0986 2.2153
2.2035 9.2707 2.2364
1.8694 9.3439 2.2364
1.5328 9.4051 2.2364
1.1942 9.4541 2.2364
0.8541 9.4909 2.2364
0.5129 9.5155 2.2364
0.1711 9.5278 2.2364
-0.1710 9.5277 2.2364
-0.5129 9.5154 2.2364
-0.8541 9.4909 2.2364
-1.1942 9.4540 2.2364
-1.5328 9.4050 2.2364
-1.8693 9.3438 2.2364
-2.2035 9.2706 2.2364
-2.5348 9.1854 2.2364
-2.8628 9.0884 2.2364
-3.1871 8.9796 2.2364
-3.5073 8.8592 2.2364
-3.8230 8.7275 2.2364
-4.1337 8.5844 2.2364
-4.4390 8.4303 2.2364
-4.7387 8.2653 2.2364
-5.0321 8.0897 2.2364
-5.3191 7.9036 2.2364
-5.5992 7.7074 2.2364
-5.8721 7.5012 2.2364
-5.9288 7.0378 2.1604
-6.0999 6.7347 2.1333
-6.3374 6.5111 2.1333
-6.5668 6.2792 2.1333
-6.7876 6.0392 2.1333
-6.2432 5.1654 1.9027
-7.2028 5.5361 2.1333
-7.3965 5.2738 2.1333
-7.5807 5.0047 2.1333
-7.7551 4.7291 2.1333
-7.9195 4.4475 2.1332
-8.0736 4.1601 2.1332
-8.2173 3.8675 2.1332
-5.7038 2.4384 1.4571
-8.4728 3.2676 2.1332
-8.5842 2.9612 2.1332
-8.6845 2.6511 2.1332
-8.7736 2.3375 2.1332
-8.8514 2.0210 2.1332
-8.9178 1.7018 2.1332
-8.9727 1.3806 2.1332
-9.0160 1.0575 2.1332
-9.0477 0.7332 2.1332
-9.0677 0.4079 2.1332
-9.0760 0.0821 2.1332
-9.0726 -0.2437 2.1332
-9.0576 -0.5692 2.1332
-9.0309 -0.8939 2.1332
-8.9925 -1.2175 2.1332
-8.9426 -1.5394 2.1332
-8.8811 -1.8593 2.1332
-8.8082 -2.1768 2.1332
-8.7240 -2.4915 2.1332
-8.6286 -2.8029 2.1332
-8.5220 -3.1107 2.1332
-8.4045 -3.4145 2.1332
-8.2761 -3.7138 2.1332
-8.1371 -4.0083 2.1332
-7.9876 -4.2977 2.1332
-7.8279 -4.5814 2.1332
-7.6581 -4.8593 2.1333
-7.4784 -5.1309 2.1333
-7.2894 -5.3960 2.1333
-7.0907 -5.6540 2.1333
-6.8829 -5.9046 2.1333
-6.6662 -6.1477 2.1333
-6.4410 -6.3828 2.1333
-6.2075 -6.6097 2.1333
-5.9661 -6.8280 2.1333
-5.7169 -7.0376 2.1333
-5.5279 -7.3275 2.1597
-5.4480 -7.7882 2.2364
-5.1648 -7.9785 2.2364
-4.8749 -8.1586 2.2364
-4.5788 -8.3281 2.2364
-4.2768 -8.4869 2.2364
-3.9693 -8.6348 2.2364
-3.6567 -8.7716 2.2364
-3.3394 -8.8970 2.2364
-3.0178 -9.0110 2.2364
-2.6923 -9.1134 2.2364
-2.3634 -9.2041 2.2364
-2.0314 -9.2829 2.2364
-1.6968 -9.3497 2.2364
-1.3601 -9.4046 2.2364
-1.0216 -9.4473 2.2364
-0.6818 -9.4778 2.2364
-0.3411 -9.4962 2.2364
0.0000 -8.6264 2.2364
0.3097 -8.6208 2.2364
0.6190 -8.6042 2.2364
0.9275 -8.5764 2.2364
1.2348 -8.5377 2.2364
1.5405 -8.4879 2.2364
1.8442 -8.4272 2.2364
2.1456 -8.3557 2.2364
2.4442 -8.2734 2.2364
2.6132 -7.8028 2.1332
2.8916 -7.7041 2.1332
3.1664 -7.5954 2.1332
3.4371 -7.4770 2.1332
3.7034 -7.3489 2.1332
3.9649 -7.2114 2.1332
4.2213 -7.0646 2.1332
4.4723 -6.9087 2.1332
4.7176 -6.7439 2.1332
4.9568 -6.5704 2.1332
5.1896 -6.3884 2.1332
5.4158 -6.1981 2.1332
5.6350 -5.9999 2.1332
5.8469 -5.7940 2.1332
6.0513 -5.5805 2.1332
6.2480 -5.3599 2.1332
6.4371 -5.1327 2.1333
6.6111 -4.8937 2.1313
6.7789 -4.6508 2.1301
6.9380 -4.4023 2.1289
7.0883 -4.1484 2.1278
7.2295 -3.8896 2.1268
7.3614 -3.6261 2.1259
7.4841 -3.3582 2.1250
7.5972 -3.0864 2.1242
7.7007 -2.8108 2.1234
7.7943 -2.5318 2.1227
7.8782 -2.2498 2.1220
6.9285 -1.7122 1.8484
8.0161 -1.6781 2.1210
5.2087 -0.8966 1.3687
8.2521 -1.1171 2.1564
8.2873 -0.8202 2.1564
8.3118 -0.5222 2.1564
8.3256 -0.2236 2.1564
8.3286 0.0754 2.1564
8.3209 0.3744 2.1564
8.3025 0.6729 2.1564
8.2734 0.9705 2.1564
8.2336 1.2669 2.1564
8.1832 1.5617 2.1564
8.1223 1.8545 2.1564
8.0508 2.1450 2.1564
7.9690 2.4327 2.1564
7.8769 2.7173 2.1564
7.3247 2.8249 2.0316
7.2220 3.0875 2.0325
7.2105 3.3937 2.0622
7.2105 3.7155 2.0989
7.1237 4.0006 2.1140
6.7040 4.0882 2.0316
6.6231 4.3725 2.0533
6.6231 4.7223 2.1045
6.5380 5.0252 2.1333
6.3537 5.2569 2.1333
6.1611 5.4817 2.1333
5.9606 5.6995 2.1333
5.7523 5.9100 2.1333
5.5367 6.1129 2.1333
5.3138 6.3079 2.1333
3.5059 4.4786 1.4711
3.3074 4.5527 1.4554
3.6952 5.4907 1.7117
3.3710 5.4193 1.6506
3.2347 5.6420 1.6819
3.8433 7.2990 2.1333
3.5789 7.4324 2.1333
3.3099 7.5562 2.1333
3.0366 7.6703 2.1333
2.7594 7.7745 2.1333
2.5109 7.9711 2.1611
2.3007 8.3369 2.2364
2.0000 8.4142 2.2364
1.6967 8.4806 2.2364
1.3912 8.5361 2.2364
1.0839 8.5806 2.2364
0.7752 8.6140 2.2364
0.4655 8.6363 2.2364
0.1553 8.6475 2.2364
-0.1552 8.6475 2.2364
-0.4655 8.6363 2.2364
-0.7752 8.6140 2.2364
-1.0839 8.5805 2.2364
-1.3911 8.5361 2.2364
-1.6966 8.4805 2.2364
-1.9999 8.4141 2.2364
-2.3006 8.3368 2.2364
-2.5983 8.2487 2.2364
-2.8927 8.1500 2.2364
-3.1833 8.0408 2.2364
-3.4698 7.9212 2.2364
-3.7518 7.7914 2.2364
-4.0289 7.6515 2.2364
-4.3009 7.5018 2.2364
-4.5673 7.3424 2.2364
-4.8277 7.1736 2.2364
-5.0820 6.9955 2.2364
-5.3296 6.8084 2.2364
-5.5704 6.6125 2.2364
-5.6734 6.2639 2.1861
-5.7521 5.9098 2.1333
-5.9603 5.6993 2.1333
-6.1608 5.4815 2.1333
-6.2333 5.1573 2.0930
-6.5376 5.0250 2.1333
-6.7135 4.7869 2.1333
-6.8807 4.5426 2.1333
-7.0391 4.2925 2.1333
-7.1883 4.0369 2.1333
-7.3282 3.7761 2.1333
-7.4587 3.5105 2.1333
-5.7038 2.4384 1.6053
-7.6906 2.9660 2.1333
-7.7918 2.6880 2.1333
-7.8829 2.4064 2.1332
-7.9638 2.1218 2.1332
-8.0345 1.8345 2.1332
-8.0948 1.5448 2.1332
-8.1446 1.2532 2.1332
-8.1840 0.9600 2.1332
-8.2128 0.6656 2.1332
-8.2310 0.3703 2.1332
-8.2386 0.0746 2.1332
-8.2356 -0.2211 2.1332
-8.2219 -0.5166 2.1332
-8.1977 -0.8114 2.1332
-8.1629 -1.1051 2.1332
-8.1176 -1.3973 2.1332
-8.0619 -1.6877 2.1332
-7.9957 -1.9760 2.1332
-7.9193 -2.2616 2.1332
-7.8327 -2.5443 2.1332
-7.7360 -2.8237 2.1333
-7.6293 -3.0995 2.1333
-7.5128 -3.3712 2.1333
-7.3867 -3.6386 2.1333
-7.2510 -3.9013 2.1333
-7.1060 -4.1589 2.1333
-6.9519 -4.4112 2.1333
-6.7888 -4.6577 2.1333
-6.6170 -4.8982 2.1333
-6.4367 -5.1325 2.1333
-6.2482 -5.3601 2.1333
-6.0515 -5.5808 2.1333
-5.8471 -5.7942 2.1333
-5.6352 -6.0002 2.1333
-5.5241 -6.3222 2.1759
-5.4406 -6.6974 2.2364
-5.1965 -6.8882 2.2364
-4.9458 -7.0701 2.2364
-4.6887 -7.2429 2.2364
-4.4255 -7.4064 2.2364
-4.1567 -7.5603 2.2364
-3.8825 -7.7045 2.2364
-3.6034 -7.8387 2.2364
-3.3196 -7.9629 2.2364
-3.0315 -8.0768 2.2364
-2.7396 -8.1803 2.2364
-2.4441 -8.2733 2.2364
-2.1455 -8.3556 2.2364
-1.8442 -8.4271 2.2364
-1.5404 -8.4879 2.2364
-1.2347 -8.5376 2.2364
-0.9274 -8.5764 2.2364
-0.6189 -8.6041 2.2364
-0.3097 -8.6208 2.2364
0.0000 -7.8905 2.2364
0.2833 -7.8854 2.2364
0.5662 -7.8702 2.2364
0.8483 -7.8448 2.2364
1.1294 -7.8093 2.2364
1.4091 -7.7638 2.2364
1.6869 -7.7083 2.2364
1.9625 -7.6429 2.2364
2.2357 -7.5676 2.2364
2.5060 -7.4825 2.2364
2.6450 -7.0468 2.1332
2.8963 -6.9474 2.1332
3.1439 -6.8391 2.1332
3.3874 -6.7219 2.1332
3.6266 -6.5961 2.1332
3.8612 -6.4618 2.1332
4.0908 -6.3192 2.1332
4.3151 -6.1684 2.1332
4.5339 -6.0097 2.1332
4.7468 -5.8432 2.1332
4.9537 -5.6692 2.1332
5.1541 -5.4879 2.1332
5.3480 -5.2995 2.1332
5.5354 -5.1047 2.1333
5.7152 -4.9028 2.1333
5.8878 -4.6947 2.1333
6.0527 -4.4804 2.1333
6.2099 -4.2604 2.1333
6.3590 -4.0349 2.1333
6.5000 -3.8041 2.1333
6.6260 -3.5648 2.1312
6.7472 -3.3234 2.1303
6.8598 -3.0780 2.1295
6.9637 -2.8289 2.1287
7.0587 -2.5764 2.1280
7.1449 -2.3208 2.1274
7.2220 -2.0623 2.1269
6.9773 -1.7242 2.0352
7.3488 -1.5383 2.1260
5.2078 -0.8964 1.4962
7.5475 -1.0217 2.1564
7.5797 -0.7501 2.1564
7.6020 -0.4776 2.1564
7.6146 -0.2044 2.1564
7.6174 0.0691 2.1564
7.6103 0.3425 2.1564
7.1540 0.5798 2.0316
7.2106 0.8459 2.0549
7.2106 1.1096 2.0649
7.2106 1.3761 2.0776
7.2106 1.6464 2.0932
7.2037 1.9193 2.1098
7.1449 2.1812 2.1140
7.0623 2.4363 2.1140
6.6989 2.5836 2.0316
6.6257 2.8326 2.0389
6.6231 3.1172 2.0711
6.6231 3.4128 2.1080
6.6277 3.7221 2.1506
6.4380 3.9261 2.1333
6.2932 4.1548 2.1333
6.1402 4.3781 2.1333
5.9793 4.5959 2.1333
5.8107 4.8077 2.1333
5.6346 5.0133 2.1333
5.4512 5.2125 2.1333
5.2607 5.4050 2.1333
5.0635 5.5905 2.1333
4.8597 5.7688 2.1333
3.5014 4.4728 1.6065
3.2774 4.5114 1.5770
4.2117 6.2582 2.1333
3.3753 5.4262 1.8072
3.2432 5.6569 1.8440
3.5148 6.6751 2.1333
3.2730 6.7971 2.1333
3.0270 6.9103 2.1333
2.7770 7.0146 2.1333
2.5241 7.1115 2.1338
2.3762 7.5437 2.2364
2.1040 7.6242 2.2364
1.8290 7.6949 2.2364
1.5516 7.7557 2.2364
1.2723 7.8064 2.2364
0.9912 7.8471 2.2364
0.7090 7.8777 2.2364
0.4258 7.8980 2.2364
0.1420 7.9082 2.2364
-0.1420 7.9082 2.2364
-0.4257 7.8980 2.2364
-0.7089 7.8776 2.2364
-0.9912 7.8471 2.2364
-1.2722 7.8064 2.2364
-1.5516 7.7556 2.2364
-1.8289 7.6948 2.2364
-2.1039 7.6241 2.2364
-2.3762 7.5436 2.2364
-2.6454 7.4534 2.2364
-2.9111 7.3535 2.2364
-3.1732 7.2441 2.2364
-3.4311 7.1254 2.2364
-3.6845 6.9976 2.2364
-3.9332 6.8606 2.2364
-4.1769 6.7149 2.2364
-4.4151 6.5605 2.2364
-4.6476 6.3976 2.2364
-4.8741 6.2265 2.2364
-5.0943 6.0474 2.2364
-5.3079 5.8604 2.2364
-5.5147 5.6660 2.2364
-5.5518 5.3087 2.1728
-5.6343 5.0132 2.1333
-5.8105 4.8075 2.1333
-5.9790 4.5957 2.1333
-6.1399 4.3779 2.1333
-6.2929 4.1546 2.1333
-6.4377 3.9259 2.1333
-6.5742 3.6921 2.1333
-6.7022 3.4536 2.1333
-6.8216 3.2107 2.1333
-5.7038 2.4385 1.7553
-7.0337 2.7128 2.1333
-7.1263 2.4584 2.1333
-7.2096 2.2010 2.1333
-7.2836 1.9407 2.1333
-7.3483 1.6779 2.1333
-7.4035 1.4130 2.1333
-7.4491 1.1463 2.1333
-7.4851 0.8781 2.1333
-7.5115 0.6088 2.1333
-7.5282 0.3388 2.1333
-7.5351 0.0683 2.1333
-7.5324 -0.2022 2.1333
-7.5200 -0.4724 2.1333
-7.4979 -0.7421 2.1333
-7.4661 -1.0107 2.1333
-7.4247 -1.2780 2.1333
-7.3737 -1.5436 2.1333
-7.3132 -1.8072 2.1333
-7.2433 -2.0685 2.1333
-7.1642 -2.3271 2.1333
-7.0757 -2.5827 2.1333
-6.9782 -2.8349 2.1333
-6.8717 -3.0835 2.1333
-6.7563 -3.3280 2.1333
-6.6323 -3.5683 2.1333
-6.4996 -3.8039 2.1333
-6.3587 -4.0347 2.1333
-6.2096 -4.2602 2.1333
-6.0524 -4.4802 2.1333
-5.8875 -4.6945 2.1333
-5.7330 -4.9181 2.1401
-5.5352 -5.1045 2.1333
-5.5225 -5.4724 2.2028
-5.4034 -5.7534 2.2364
-5.1932 -5.9435 2.2364
-4.9764 -6.1259 2.2364
-4.7532 -6.3004 2.2364
-4.5238 -6.4668 2.2364
-4.2886 -6.6249 2.2364
-4.0479 -6.7745 2.2364
-3.8021 -6.9153 2.2364
-3.5513 -7.0472 2.2364
-3.2960 -7.1700 2.2364
-3.0364 -7.2836 2.2364
-2.7729 -7.3877 2.2364
-2.5059 -7.4824 2.2364
-2.2356 -7.5675 2.2364
-1.9625 -7.6428 2.2364
-1.6868 -7.7082 2.2364
-1.4090 -7.7638 2.2364
-1.1294 -7.8093 2.2364
-0.8483 -7.8448 2.2364
-0.5661 -7.8701 2.2364
-0.2833 -7.8854 2.2364
0.0000 -7.2629 2.2364
0.2608 -7.2582 2.2364
0.5211 -7.2442 2.2364
0.7809 -7.2209 2.2364
1.0396 -7.1882 2.2364
1.2970 -7.1463 2.2364
1.5527 -7.0952 2.2364
1.8065 -7.0350 2.2364
2.0579 -6.9657 2.2364
2.3066 -6.8874 2.2364
2.5235 -6.7231 2.2111
2.6659 -6.3948 2.1332
2.8938 -6.2951 2.1332
3.1180 -6.1873 2.1332
3.3382 -6.0715 2.1332
3.5541 -5.9478 2.1332
3.7654 -5.8165 2.1332
3.9719 -5.6777 2.1332
4.1732 -5.5316 2.1332
4.3692 -5.3784 2.1332
4.5600 -5.2186 2.1333
4.7445 -5.0517 2.1333
4.9229 -4.8782 2.1333
5.0950 -4.6985 2.1333
5.2606 -4.5127 2.1333
5.4193 -4.3211 2.1333
5.5712 -4.1239 2.1333
5.7158 -3.9214 2.1333
5.8531 -3.7138 2.1333
5.9828 -3.5014 2.1333
6.1049 -3.2845 2.1333
6.2191 -3.0633 2.1333
6.3253 -2.8382 2.1333
6.4233 -2.6094 2.1333
6.5111 -2.3764 2.1327
6.5887 -2.1400 2.1314
6.6599 -1.9018 2.1309
6.7227 -1.6612 2.1305
6.7770 -1.4186 2.1301
5.2068 -0.8962 1.6253
6.9468 -0.9403 2.1564
6.9763 -0.6904 2.1564
6.9969 -0.4395 2.1564
7.0084 -0.1881 2.1564
7.0110 0.0636 2.1564
7.0044 0.3153 2.1564
6.6354 0.5378 2.0474
6.6232 0.7770 2.0508
6.6232 1.0192 2.0607
6.6231 1.2641 2.0734
6.6231 1.5124 2.0890
6.6231 1.7647 2.1075
6.6231 2.0220 2.1292
6.6303 2.2874 2.1564
6.4740 2.4969 2.1333
6.3805 2.7278 2.1333
6.2787 2.9552 2.1333
6.1688 3.1788 2.1333
6.0509 3.3983 2.1333
5.9252 3.6134 2.1333
5.7919 3.8239 2.1333
5.6511 4.0294 2.1333
5.5030 4.2298 2.1333
5.3478 4.4248 2.1333
5.1857 4.6140 2.1333
5.0169 4.7973 2.1333
4.8416 4.9744 2.1333
4.6601 5.1451 2.1333
4.4725 5.3092 2.1333
3.4968 4.4670 1.7433
3.2717 4.5037 1.7106
3.8761 5.7596 2.1333
3.3797 5.4333 1.9662
3.2518 5.6720 2.0090
3.2347 6.1433 2.1333
3.0122 6.2556 2.1333
2.7858 6.3597 2.1333
2.5557 6.4557 2.1333
2.4346 6.8596 2.2364
2.1869 6.9426 2.2364
1.9363 7.0167 2.2364
1.6832 7.0818 2.2364
1.4280 7.1377 2.2364
1.1709 7.1844 2.2364
0.9123 7.2218 2.2364
0.6524 7.2499 2.2364
0.3918 7.2687 2.2364
0.1307 7.2781 2.2364
-0.1306 7.2781 2.2364
-0.3918 7.2687 2.2364
-0.6524 7.2499 2.2364
-0.9122 7.2218 2.2364
-1.1708 7.1844 2.2364
-1.4279 7.1376 2.2364
-1.6832 7.0817 2.2364
-1.9363 7.0167 2.2364
-2.1868 6.9426 2.2364
-2.4346 6.8595 2.2364
-2.6792 6.7676 2.2364
-2.9203 6.6670 2.2364
-3.1577 6.5577 2.2364
-3.3909 6.4400 2.2364
-3.6199 6.3141 2.2364
-3.8441 6.1799 2.2364
-4.0633 6.0378 2.2364
-4.2773 5.8880 2.2364
-4.4858 5.7305 2.2364
-4.6885 5.5656 2.2364
-4.8851 5.3936 2.2364
-5.0754 5.2147 2.2364
-5.2591 5.0290 2.2364
-5.4361 4.8368 2.2364
-5.5275 4.5735 2.2051
-5.5452 4.2623 2.1498
-5.6509 4.0293 2.1333
-5.7917 3.8237 2.1333
-5.9250 3.6133 2.1333
-6.0506 3.3981 2.1333
-6.1685 3.1786 2.1333
-6.2784 2.9550 2.1333
-5.7038 2.4385 1.9072
-6.4737 2.4968 2.1333
-6.5588 2.2627 2.1333
-6.6356 2.0258 2.1333
-6.7038 1.7862 2.1333
-6.7633 1.5443 2.1333
-6.8141 1.3005 2.1333
-6.8561 1.0551 2.1333
-6.8893 0.8082 2.1333
-6.9135 0.5604 2.1333
-6.9289 0.3119 2.1333
-6.9354 0.0629 2.1333
-6.9329 -0.1861 2.1333
-6.9215 -0.4348 2.1333
-6.9011 -0.6829 2.1333
-6.8719 -0.9302 2.1333
-6.8338 -1.1762 2.1333
-6.7869 -1.4207 2.1333
-6.7313 -1.6634 2.1333
-6.6670 -1.9039 2.1333
-6.5941 -2.1419 2.1333
-6.5127 -2.3771 2.1333
-6.4230 -2.6093 2.1333
-6.3249 -2.8381 2.1333
-6.2188 -3.0632 2.1333
-6.1046 -3.2844 2.1333
-5.9826 -3.5013 2.1333
-5.8528 -3.7137 2.1333
-5.7331 -3.9333 2.1399
-5.5709 -4.1238 2.1333
-5.5235 -4.4042 2.1744
-5.5146 -4.7306 2.2364
-5.3410 -4.9254 2.2364
-5.1606 -5.1138 2.2364
-4.9736 -5.2956 2.2364
-4.7801 -5.4706 2.2364
-4.5806 -5.6386 2.2364
-4.3751 -5.7992 2.2364
-4.1640 -5.9524 2.2364
-3.9475 -6.0979 2.2364
-3.7260 -6.2356 2.2364
-3.4997 -6.3652 2.2364
-3.2689 -6.4866 2.2364
-3.0338 -6.5997 2.2364
-2.7949 -6.7042 2.2364
-2.5524 -6.8001 2.2364
-2.3066 -6.8873 2.2364
-2.0578 -6.9656 2.2364
-1.8064 -7.0349 2.2364
-1.5527 -7.0952 2.2364
-1.2970 -7.1463 2.2364
-1.0396 -7.1882 2.2364
-0.7808 -7.2208 2.2364
-0.5211 -7.2442 2.2364
-0.2607 -7.2582 2.2364
0.0000 -6.7209 2.2364
0.2413 -6.7166 2.2364
0.4823 -6.7036 2.2364
0.7226 -6.6820 2.2364
0.9620 -6.6518 2.2364
1.2002 -6.6130 2.2364
1.4369 -6.5657 2.2364
1.6717 -6.5100 2.2364
1.9043 -6.4458 2.2364
2.1345 -6.3734 2.2364
2.3620 -6.2927 2.2364
2.5237 -6.0536 2.1822
2.6779 -5.8253 2.1332
2.8853 -5.7255 2.1332
3.0891 -5.6183 2.1332
3.2888 -5.5039 2.1332
3.4844 -5.3824 2.1332
3.6757 -5.2543 2.1333
3.8621 -5.1191 2.1333
4.0434 -4.9773 2.1333
4.2196 -4.8291 2.1333
4.3904 -4.6746 2.1333
4.5555 -4.5141 2.1333
4.7147 -4.3478 2.1333
4.8679 -4.1758 2.1333
5.0148 -3.9985 2.1333
5.1553 -3.8160 2.1333
5.2891 -3.6286 2.1333
5.4161 -3.4365 2.1333
5.5362 -3.2400 2.1333
5.6491 -3.0392 2.1333
5.7548 -2.8346 2.1333
5.8530 -2.6263 2.1333
5.9437 -2.4145 2.1333
6.0268 -2.1997 2.1333
6.1021 -1.9820 2.1333
6.1695 -1.7618 2.1333
6.2290 -1.5392 2.1333
6.2805 -1.3147 2.1333
5.2058 -0.8960 1.7561
6.3591 -0.8607 2.1333
6.3861 -0.6319 2.1333
6.4050 -0.4023 2.1333
6.4155 -0.1721 2.1333
6.4178 0.0583 2.1333
6.4118 0.2886 2.1333
6.3976 0.5186 2.1333
6.3751 0.7480 2.1333
6.3443 0.9764 2.1333
6.3055 1.2035 2.1333
6.2584 1.4291 2.1333
6.2033 1.6529 2.1333
6.1402 1.8746 2.1333
6.0692 2.0938 2.1333
5.9903 2.3104 2.1333
5.9037 2.5240 2.1333
5.8095 2.7344 2.1333
5.7078 2.9413 2.1333
5.5988 3.1444 2.1333
5.4825 3.3434 2.1333
5.3591 3.5382 2.1333
5.2288 3.7284 2.1333
5.0918 3.9138 2.1333
4.9481 4.0941 2.1333
