ply
format ascii 1.0
element vertex 2169
property float32 x
property float32 y
property float32 z
end_header
9.0556 -5.7450 1.7727
9.2046 -5.3861 1.7625
9.7223 -5.2298 1.8241
9.7223 -4.7881 1.7903
9.7224 -4.3617 1.7600
9.7225 -3.9489 1.7328
9.7226 -3.5479 1.7086
9.7227 -3.1573 1.6873
9.7228 -2.7757 1.6685
9.7229 -2.4018 1.6523
9.7229 -2.0345 1.6384
9.7230 -1.6727 1.6269
9.7231 -1.3153 1.6176
9.7232 -0.9614 1.6104
9.7232 -0.6100 1.6054
9.7233 -0.2602 1.6025
9.7234 0.0890 1.6016
9.7235 0.4384 1.6028
9.7235 0.7890 1.6061
9.7236 1.1416 1.6114
9.7237 1.4971 1.6189
9.7238 1.8567 1.6286
9.7239 2.2212 1.6406
9.7239 2.5917 1.6548
9.7240 2.9695 1.6715
9.7241 3.3555 1.6908
9.7242 3.7513 1.7128
9.7243 4.1582 1.7376
9.7244 4.5779 1.7655
9.7245 5.0119 1.7966
9.7246 5.4624 1.8313
9.7247 5.9314 1.8699
9.7248 6.4214 1.9126
9.7249 6.9352 1.9600
10.0070 7.6927 2.0708
9.7200 8.0432 2.0695
9.4223 8.3844 2.0685
9.1156 8.7175 2.0682
6.9783 7.1705 1.6404
8.4910 9.3758 2.0735
8.1768 9.7075 2.0802
8.1122 10.3641 2.1568
2.9946 4.1226 0.8349
7.3498 10.9223 2.1568
6.9540 11.1804 2.1568
6.4783 11.3009 2.1335
6.0692 11.5274 2.1335
5.6522 11.7390 2.1335
5.2277 11.9354 2.1335
4.7964 12.1164 2.1335
4.3588 12.2817 2.1335
3.9154 12.4311 2.1335
3.4670 12.5644 2.1335
3.0140 12.6814 2.1335
2.5570 12.7820 2.1335
2.1982 13.4887 2.2368
1.7127 13.5593 2.2368
1.2250 13.6123 2.2368
0.7357 13.6477 2.2368
0.2454 13.6653 2.2368
-0.2452 13.6653 2.2368
-0.7355 13.6475 2.2368
-1.2248 13.6120 2.2368
-1.7125 13.5588 2.2368
-2.1980 13.4881 2.2368
-2.6805 13.3999 2.2368
-3.1595 13.2943 2.2368
-3.6344 13.1716 2.2368
-4.1045 13.0317 2.2368
-4.5692 12.8749 2.2368
-5.0279 12.7016 2.2368
-5.4800 12.5117 2.2368
-5.6518 11.7385 2.1337
-6.0688 11.5269 2.1337
-6.4779 11.3003 2.1337
-6.8784 11.0591 2.1337
-7.2699 10.8037 2.1337
-7.6519 10.5343 2.1337
-8.0239 10.2514 2.1337
-8.3854 9.9553 2.1337
-8.7359 9.6463 2.1337
-8.8252 9.0683 2.0750
-8.8253 8.4400 2.0028
-8.9649 7.9776 1.9685
-9.6407 7.9777 2.0530
-10.3720 7.9734 2.1468
-10.6494 7.5945 2.1468
-10.9130 7.2059 2.1468
-11.1624 6.8082 2.1468
-11.3971 6.4018 2.1468
-11.6171 5.9873 2.1468
-10.8929 5.1279 1.9781
-10.8184 4.6261 1.9336
-10.7702 4.1548 1.8975
-10.7703 3.7165 1.8732
-10.7703 3.2889 1.8519
-10.7852 2.8746 1.8359
-10.8723 2.4835 1.8348
-10.9712 2.0948 1.8380
-12.5382 1.9304 2.0881
-12.5403 1.4722 2.0788
-12.5417 1.0176 2.0721
-12.5419 0.5654 2.0679
-12.5192 0.1146 2.0626
-12.5421 -0.3356 2.0676
-12.5421 -0.7869 2.0714
-12.5420 -1.2402 2.0779
-12.5418 -1.6967 2.0871
-12.8269 -2.2067 2.1468
-12.7364 -2.6651 2.1468
-12.6297 -3.1199 2.1468
-12.5067 -3.5705 2.1468
-12.3677 -4.0163 2.1468
-12.2129 -4.4566 2.1468
-12.0424 -4.8911 2.1468
-11.8565 -5.3191 2.1468
-11.6554 -5.7401 2.1468
-11.4395 -6.1536 2.1468
-11.2089 -6.5590 2.1468
-10.9641 -6.9558 2.1468
-10.7052 -7.3435 2.1468
-10.4328 -7.7216 2.1468
-10.1470 -8.0897 2.1468
-9.8482 -8.4473 2.1468
-9.4788 -8.7402 2.1337
-9.1574 -9.0733 2.1337
-8.8243 -9.3947 2.1337
-8.4800 -9.7040 2.1337
-8.1250 -10.0007 2.1337
-7.7596 -10.2845 2.1337
-7.3844 -10.5550 2.1337
-6.9998 -10.8120 2.1337
-6.6063 -11.0550 2.1337
-5.8705 -10.6763 2.0188
-5.7948 -11.4980 2.1337
-5.5234 -12.0143 2.1915
-5.1932 -12.4561 2.2368
-4.7422 -12.6334 2.2368
-4.2853 -12.7946 2.2368
-3.8229 -12.9394 2.2368
-3.3557 -13.0675 2.2368
-2.8843 -13.1789 2.2368
-2.4092 -13.2734 2.2368
-1.9310 -13.3509 2.2368
-1.4504 -13.4113 2.2368
-0.9679 -13.4545 2.2368
-0.4842 -13.4805 2.2368
0.0001 -11.8317 2.2368
0.4249 -11.8241 2.2368
0.8491 -11.8014 2.2368
1.2723 -11.7636 2.2368
1.6939 -11.7107 2.2368
2.1133 -11.6428 2.2368
2.5227 -11.5260 2.2302
2.8078 -10.9331 2.1335
3.1226 -10.5685 2.0828
3.5855 -10.7048 2.1335
3.9679 -10.5699 2.1335
4.3451 -10.4215 2.1335
4.7169 -10.2597 2.1335
5.0827 -10.0847 2.1335
5.4420 -9.8967 2.1335
5.7945 -9.6959 2.1335
6.1395 -9.4827 2.1335
6.4768 -9.2573 2.1335
6.8800 -9.1183 2.1568
5.2506 -6.4625 1.5720
7.0648 -8.0842 2.0266
7.3515 -7.8264 2.0266
7.6289 -7.5586 2.0266
7.8965 -7.2809 2.0266
8.1541 -6.9938 2.0266
8.4013 -6.6977 2.0266
8.6378 -6.3928 2.0266
8.8632 -6.0796 2.0266
9.0556 -5.7447 2.0218
9.2051 -5.3861 2.0103
9.7223 -5.2296 2.0805
9.7223 -4.7878 2.0420
9.7224 -4.3615 2.0074
9.7225 -3.9486 1.9765
9.7226 -3.5476 1.9490
9.7227 -3.1570 1.9247
9.7228 -2.7754 1.9033
9.7229 -2.4016 1.8849
9.7229 -2.0343 1.8691
9.7230 -1.6725 1.8560
9.7231 -1.3151 1.8454
9.7232 -0.9612 1.8373
9.7232 -0.6098 1.8316
9.7233 -0.2599 1.8283
9.7234 0.0892 1.8274
9.7235 0.4387 1.8288
9.7235 0.7892 1.8326
9.7236 1.1418 1.8388
9.7237 1.4974 1.8474
9.7238 1.8569 1.8585
9.7239 2.2214 1.8722
9.7239 2.5920 1.8885
9.7240 2.9697 1.9076
9.7241 3.3558 1.9297
9.7242 3.7516 1.9548
9.7243 4.1585 1.9832
9.7244 4.5781 2.0150
9.7245 5.0122 2.0507
9.7246 5.4626 2.0903
9.7247 5.9316 2.1344
9.6072 6.3439 2.1568
9.3749 6.6857 2.1568
9.1304 7.0191 2.1568
8.8740 7.3435 2.1568
8.5897 7.6439 2.1527
8.0424 7.6915 2.0831
6.8059 6.9936 1.8265
7.5283 8.3130 2.0988
7.2579 8.6168 2.1080
6.9763 8.9132 2.1176
2.9933 4.1209 0.9528
6.3681 9.4636 2.1335
6.0250 9.6871 2.1335
5.6740 9.8981 2.1335
5.3156 10.0964 2.1335
4.9503 10.2816 2.1335
4.5785 10.4535 2.1335
4.2007 10.6119 2.1335
3.8174 10.7565 2.1335
3.4291 10.8873 2.1335
3.0363 11.0040 2.1335
2.6396 11.1064 2.1335
2.3477 11.7361 2.2368
1.9251 11.8132 2.2368
1.4999 11.8750 2.2368
1.0728 11.9214 2.2368
0.6443 11.9524 2.2368
0.2149 11.9678 2.2368
-0.2148 11.9678 2.2368
-0.6441 11.9522 2.2368
-1.0727 11.9212 2.2368
-1.4998 11.8747 2.2368
-1.9249 11.8128 2.2368
-2.3475 11.7356 2.2368
-2.7671 11.6432 2.2368
-3.1830 11.5358 2.2368
-3.5947 11.4134 2.2368
-4.0017 11.2762 2.2368
-4.4035 11.1245 2.2368
-4.7995 10.9583 2.2368
-5.1892 10.7780 2.2368
-5.5185 10.4819 2.2153
-5.6737 9.8977 2.1337
-6.0246 9.6866 2.1337
-6.3676 9.4631 2.1337
-6.7023 9.2273 2.1337
-7.0283 8.9796 2.1337
-7.3450 8.7204 2.1337
-7.6522 8.4500 2.1337
-7.9494 8.1687 2.1337
-8.2362 7.8769 2.1337
-8.5123 7.5751 2.1337
-8.7773 7.2635 2.1337
-9.0308 6.9426 2.1337
-9.2726 6.6129 2.1337
-9.5023 6.2747 2.1337
-9.7794 5.9650 2.1468
-9.9854 5.6091 2.1468
-10.1783 5.2461 2.1468
-10.3581 4.8764 2.1468
-10.5245 4.5007 2.1468
-10.6771 4.1192 2.1468
-10.7703 3.7168 2.1377
-10.7703 3.2892 2.1134
-10.7852 2.8748 2.0951
-10.8724 2.4838 2.0938
-10.9707 2.0950 2.0973
-11.2971 1.7396 2.1468
-11.3499 1.3327 2.1468
-11.3881 0.9243 2.1468
-11.4116 0.5148 2.1468
-11.4203 0.1048 2.1468
-11.4143 -0.3052 2.1468
-11.3936 -0.7146 2.1468
-11.3583 -1.1229 2.1468
-11.3084 -1.5295 2.1468
-11.2439 -1.9341 2.1468
-11.1649 -2.3360 2.1468
-11.0716 -2.7348 2.1468
-10.9641 -3.1298 2.1468
-10.8425 -3.5207 2.1468
-10.7071 -3.9069 2.1468
-10.5579 -4.2879 2.1468
-10.3952 -4.6633 2.1468
-10.2192 -5.0325 2.1468
-10.0301 -5.3952 2.1468
-9.8282 -5.7507 2.1468
-9.6137 -6.0988 2.1468
-9.3297 -6.3996 2.1337
-9.0924 -6.7293 2.1337
-8.8435 -7.0502 2.1337
-8.5833 -7.3620 2.1337
-8.3122 -7.6643 2.1337
-8.0305 -7.9566 2.1337
-7.7386 -8.2386 2.1337
-7.4368 -8.5099 2.1337
-7.1256 -8.7703 2.1337
-6.8053 -9.0194 2.1337
-6.4763 -9.2568 2.1337
-6.1391 -9.4823 2.1337
-5.7941 -9.6955 2.1337
-5.5268 -10.0510 2.1671
-5.3280 -10.5716 2.2368
-4.9446 -10.7552 2.2368
-4.5549 -10.9249 2.2368
-4.1595 -11.0806 2.2368
-3.7587 -11.2220 2.2368
-3.3532 -11.3491 2.2368
-2.9434 -11.4616 2.2368
-2.5299 -11.5593 2.2368
-2.1131 -11.6423 2.2368
-1.6937 -11.7103 2.2368
-1.2722 -11.7633 2.2368
-0.8490 -11.8013 2.2368
-0.4248 -11.8240 2.2368
0.0000 -10.5271 2.2368
0.3780 -10.5204 2.2368
0.7555 -10.5001 2.2368
1.1320 -10.4665 2.2368
1.5072 -10.4194 2.2368
1.8803 -10.3589 2.2368
2.2511 -10.2851 2.2368
2.5291 -9.8476 2.1599
2.8460 -9.6319 2.1335
3.1902 -9.5241 2.1335
3.5303 -9.4040 2.1335
3.8659 -9.2719 2.1335
4.1966 -9.1278 2.1335
4.5221 -8.9720 2.1335
4.8417 -8.8047 2.1335
5.1552 -8.6260 2.1335
5.4621 -8.4362 2.1335
5.7621 -8.2355 2.1335
6.0547 -8.0243 2.1335
5.2498 -6.4612 1.7668
6.6887 -7.6535 2.1568
6.9372 -7.3851 2.1498
6.9377 -6.8735 2.0718
7.0245 -6.4767 2.0266
7.2536 -6.2212 2.0266
7.4733 -5.9576 2.0266
7.6835 -5.6863 2.0266
7.8839 -5.4077 2.0266
8.3109 -5.2721 2.0860
8.7845 -5.1398 2.1568
8.9648 -4.8219 2.1568
9.1337 -4.4977 2.1568
9.2908 -4.1676 2.1568
9.4361 -3.8320 2.1568
9.5692 -3.4914 2.1568
9.6901 -3.1462 2.1568
9.7228 -2.7752 2.1401
9.7229 -2.4013 2.1194
9.7229 -2.0340 2.1018
9.7230 -1.6722 2.0871
9.7231 -1.3149 2.0752
9.7232 -0.9609 2.0662
9.7232 -0.6095 2.0598
9.7233 -0.2597 2.0561
9.7234 0.0895 2.0551
9.7235 0.4389 2.0568
9.7235 0.7894 2.0611
9.7236 1.1420 2.0680
9.7237 1.4976 2.0778
9.7238 1.8572 2.0903
9.7239 2.2217 2.1057
9.7239 2.5922 2.1242
9.7240 2.9699 2.1457
9.6626 3.3347 2.1568
9.5383 3.6801 2.1568
9.4017 4.0207 2.1568
9.2529 4.3563 2.1568
9.0921 4.6864 2.1568
8.9195 5.0106 2.1568
8.2299 5.0200 2.0320
8.1636 5.3909 2.0618
8.1557 5.8165 2.1109
7.6461 5.8782 2.0320
7.8876 6.5275 2.1568
7.6493 6.8073 2.1568
7.4011 7.0784 2.1568
7.1432 7.3404 2.1568
6.8760 7.5930 2.1568
6.5249 7.7469 2.1323
6.2470 7.9816 2.1335
2.9921 4.1193 1.0716
5.6596 8.4109 2.1335
5.3546 8.6095 2.1335
5.0426 8.7969 2.1335
4.7241 8.9730 2.1335
4.3993 9.1375 2.1335
4.0689 9.2902 2.1335
3.7331 9.4309 2.1335
3.3924 9.5594 2.1335
3.0474 9.6755 2.1335
2.6983 9.7791 2.1335
2.4592 10.3478 2.2368
2.0863 10.4297 2.2368
1.7108 10.4982 2.2368
1.3329 10.5531 2.2368
0.9533 10.5943 2.2368
0.5725 10.6218 2.2368
0.1910 10.6355 2.2368
-0.1909 10.6355 2.2368
-0.5724 10.6217 2.2368
-0.9532 10.5941 2.2368
-1.3328 10.5528 2.2368
-1.7106 10.4979 2.2368
-2.0862 10.4293 2.2368
-2.4590 10.3473 2.2368
-2.8286 10.2518 2.2368
-3.1946 10.1431 2.2368
-3.5563 10.0213 2.2368
-3.9134 9.8866 2.2368
-4.2653 9.7390 2.2368
-4.6117 9.5789 2.2368
-4.9521 9.4063 2.2368
-5.2860 9.2217 2.2368
-5.5189 8.8738 2.1993
-5.6593 8.4106 2.1337
-5.9568 8.2012 2.1337
-6.2466 7.9812 2.1337
-6.5282 7.7509 2.1337
-6.8013 7.5106 2.1337
-7.0656 7.2607 2.1337
-7.3206 7.0015 2.1337
-7.5661 6.7333 2.1337
-7.8018 6.4565 2.1337
-8.0273 6.1714 2.1337
-5.8916 4.2019 1.5252
-6.0461 3.9926 1.5273
-8.6401 5.2703 2.1337
-8.8223 4.9560 2.1337
-8.9930 4.6354 2.1337
-9.1520 4.3089 2.1337
-9.2991 3.9769 2.1337
-9.4343 3.6399 2.1337
-9.6158 3.3186 2.1468
-9.7270 2.9708 2.1468
-9.8256 2.6193 2.1468
-9.9115 2.2645 2.1468
-9.9845 1.9069 2.1468
-10.0447 1.5470 2.1468
-10.0919 1.1852 2.1468
-10.1260 0.8221 2.1468
-10.1471 0.4580 2.1468
-10.1551 0.0934 2.1468
-10.1500 -0.2711 2.1468
-10.1319 -0.6352 2.1468
-10.1006 -0.9983 2.1468
-10.0564 -1.3600 2.1468
-9.9993 -1.7198 2.1468
-9.9293 -2.0772 2.1468
-9.8465 -2.4319 2.1468
-9.7511 -2.7833 2.1468
-9.6432 -3.1310 2.1468
-9.4648 -3.4534 2.1337
-9.3332 -3.7903 2.1337
-9.1895 -4.1222 2.1337
-9.0341 -4.4487 2.1337
-8.8671 -4.7694 2.1337
-8.6888 -5.0838 2.1337
-8.4993 -5.3916 2.1337
-8.2990 -5.6924 2.1337
-8.0881 -5.9858 2.1337
-7.8668 -6.2714 2.1337
-7.6355 -6.5488 2.1337
-7.3945 -6.8178 2.1337
-7.1440 -7.0780 2.1337
-6.8844 -7.3289 2.1337
-6.6160 -7.5705 2.1337
-6.3392 -7.8022 2.1337
-6.0543 -8.0239 2.1337
-5.7618 -8.2352 2.1337
-5.5282 -8.5384 2.1596
-5.4040 -9.0425 2.2368
-5.0754 -9.2298 2.2368
-4.7403 -9.4053 2.2368
-4.3993 -9.5687 2.2368
-4.0526 -9.7198 2.2368
-3.7008 -9.8584 2.2368
-3.3442 -9.9843 2.2368
-2.9834 -10.0975 2.2368
-2.6189 -10.1976 2.2368
-2.2509 -10.2846 2.2368
-1.8802 -10.3585 2.2368
-1.5070 -10.4190 2.2368
-1.1319 -10.4662 2.2368
-0.7554 -10.5000 2.2368
-0.3779 -10.5203 2.2368
0.0001 -9.4725 2.2368
0.3402 -9.4665 2.2368
0.6798 -9.4483 2.2368
1.0187 -9.4180 2.2368
1.3562 -9.3756 2.2368
1.6920 -9.3211 2.2368
2.0257 -9.2547 2.2368
2.3568 -9.1764 2.2368
2.5609 -8.6668 2.1335
2.8706 -8.5698 2.1335
3.1766 -8.4617 2.1335
3.4786 -8.3427 2.1335
3.7762 -8.2130 2.1335
4.0689 -8.0728 2.1335
4.3565 -7.9221 2.1335
4.6385 -7.7613 2.1335
4.9147 -7.5904 2.1335
5.1845 -7.4098 2.1335
5.4478 -7.2196 2.1335
5.2489 -6.4600 1.9633
5.9531 -6.8116 2.1335
6.1945 -6.5942 2.1335
6.4281 -6.3683 2.1335
6.7259 -6.2011 2.1568
6.9386 -5.9508 2.1548
6.9390 -5.5314 2.0916
6.9918 -5.1742 2.0499
7.5484 -5.1772 2.1568
7.7305 -4.9036 2.1568
7.5740 -4.4313 2.0671
7.5982 -4.0866 2.0320
8.0550 -3.9663 2.1144
8.1608 -3.6605 2.1060
8.1617 -3.3143 2.0738
8.1618 -2.9777 2.0450
8.2123 -2.6662 2.0320
8.8140 -2.5156 2.1568
8.9001 -2.1979 2.1568
8.9747 -1.8773 2.1568
9.0378 -1.5542 2.1568
9.0893 -1.2290 2.1568
9.1291 -0.9020 2.1568
9.1572 -0.5738 2.1568
9.1734 -0.2448 2.1568
9.1779 0.0847 2.1568
9.1705 0.4141 2.1568
9.1513 0.7432 2.1568
9.1202 1.0713 2.1568
9.0774 1.3983 2.1568
9.0229 1.7235 2.1568
8.9567 2.0466 2.1568
8.8789 2.3671 2.1568
8.2811 2.5294 2.0320
8.1863 2.8255 2.0320
8.1631 3.1497 2.0527
8.1632 3.4913 2.0826
8.1520 3.8382 2.1132
7.7025 3.9704 2.0320
7.5798 4.2582 2.0384
7.5760 4.6214 2.0804
7.5761 5.0031 2.1280
7.4926 5.3438 2.1568
7.2969 5.6100 2.1568
7.0918 5.8691 2.1568
6.8775 6.1206 2.1568
6.6542 6.3643 2.1568
6.3530 6.5286 2.1335
6.1153 6.7532 2.1335
5.8696 6.9691 2.1335
5.6163 7.1760 2.1335
2.9916 4.1189 1.1918
5.0881 7.5618 2.1335
4.8139 7.7402 2.1335
4.5333 7.9087 2.1335
4.2469 8.0669 2.1335
3.9550 8.2148 2.1335
3.6579 8.3520 2.1335
3.3560 8.4784 2.1335
3.0497 8.5938 2.1335
2.7404 8.7012 2.1343
2.5271 9.1590 2.2228
2.2108 9.3024 2.2368
1.8755 9.3761 2.2368
1.5379 9.4376 2.2368
1.1982 9.4869 2.2368
0.8570 9.5240 2.2368
0.5147 9.5487 2.2368
0.1717 9.5610 2.2368
-0.1716 9.5610 2.2368
-0.5146 9.5486 2.2368
-0.8569 9.5238 2.2368
-1.1981 9.4867 2.2368
-1.5377 9.4373 2.2368
-1.8754 9.3758 2.2368
-2.2106 9.3020 2.2368
-2.5428 9.2163 2.2368
-2.8718 9.1186 2.2368
-3.1970 9.0092 2.2368
-3.5180 8.8881 2.2368
-3.8345 8.7555 2.2368
-4.1459 8.6116 2.2368
-4.4520 8.4566 2.2368
-4.7522 8.2907 2.2368
-5.0462 8.1140 2.2368
-5.3337 7.9269 2.2368
-5.5191 7.5988 2.1989
-5.6160 7.1757 2.1337
-5.8693 6.9687 2.1337
-6.1149 6.7528 2.1337
-6.3525 6.5283 2.1337
-6.5819 6.2953 2.1337
-6.8028 6.0542 2.1337
-7.0147 5.8054 2.1337
-7.2176 5.5491 2.1337
-5.8844 4.1969 1.6942
-6.0350 3.9855 1.6955
-7.7690 4.7392 2.1337
-7.9329 4.4566 2.1337
-8.0865 4.1684 2.1337
-8.2296 3.8748 2.1337
-8.3621 3.5764 2.1337
-8.4837 3.2734 2.1337
-8.5944 2.9663 2.1337
-8.6939 2.6555 2.1337
-8.7822 2.3414 2.1337
-8.8591 2.0243 2.1337
-8.9245 1.7047 2.1337
-8.9785 1.3830 2.1337
-9.0208 1.0597 2.1337
-9.0515 0.7351 2.1337
-9.0705 0.4096 2.1337
-9.0778 0.0837 2.1337
-9.0734 -0.2421 2.1337
-9.0573 -0.5676 2.1337
-9.0296 -0.8922 2.1337
-8.9903 -1.2156 2.1337
-8.9393 -1.5373 2.1337
-8.8769 -1.8569 2.1337
-8.8031 -2.1740 2.1337
-8.7180 -2.4882 2.1337
-8.6216 -2.7991 2.1337
-8.5142 -3.1063 2.1337
-8.3959 -3.4094 2.1337
-8.2668 -3.7081 2.1337
-8.1271 -4.0019 2.1337
-7.9770 -4.2904 2.1337
-7.8167 -4.5734 2.1337
-7.6464 -4.8503 2.1337
-7.4663 -5.1210 2.1337
-7.2766 -5.3850 2.1337
-7.0777 -5.6421 2.1337
-6.8697 -5.8918 2.1337
-6.6529 -6.1339 2.1337
-6.4276 -6.3680 2.1337
-6.1941 -6.5939 2.1337
-5.9527 -6.8113 2.1337
-5.7143 -7.0328 2.1377
-5.5267 -7.3244 2.1647
-5.4348 -7.7676 2.2368
-5.1519 -7.9570 2.2368
-4.8625 -8.1361 2.2368
-4.5668 -8.3048 2.2368
-4.2654 -8.4627 2.2368
-3.9585 -8.6098 2.2368
-3.6466 -8.7458 2.2368
-3.3300 -8.8706 2.2368
-3.0092 -8.9840 2.2368
-2.6846 -9.0858 2.2368
-2.3565 -9.1759 2.2368
-2.0255 -9.2543 2.2368
-1.6918 -9.3208 2.2368
-1.3561 -9.3753 2.2368
-1.0185 -9.4178 2.2368
-0.6797 -9.4482 2.2368
-0.3401 -9.4664 2.2368
0.0000 -8.6017 2.2368
0.3089 -8.5962 2.2368
0.6174 -8.5796 2.2368
0.9250 -8.5521 2.2368
1.2315 -8.5135 2.2368
1.5365 -8.4641 2.2368
1.8395 -8.4037 2.2368
2.1401 -8.3326 2.2368
2.4380 -8.2507 2.2368
2.6067 -7.7817 2.1335
2.8846 -7.6835 2.1335
3.1588 -7.5754 2.1335
3.4289 -7.4576 2.1335
3.6948 -7.3302 2.1335
3.9559 -7.1934 2.1335
4.2119 -7.0473 2.1335
4.4626 -6.8921 2.1335
4.7076 -6.7280 2.1335
4.9466 -6.5553 2.1335
5.1793 -6.3741 2.1335
5.4054 -6.1846 2.1335
5.6245 -5.9872 2.1335
5.8365 -5.7821 2.1335
6.0410 -5.5694 2.1335
6.2378 -5.3496 2.1335
6.4267 -5.1228 2.1335
6.6793 -4.9427 2.1568
6.8533 -4.7003 2.1568
7.0186 -4.4518 2.1568
7.1748 -4.1975 2.1568
7.3219 -3.9378 2.1568
7.4596 -3.6729 2.1568
7.5869 -3.4029 2.1566
7.5743 -3.0756 2.1199
7.5744 -2.7632 2.0905
7.5745 -2.4589 2.0645
7.5745 -2.1616 2.0417
7.6120 -1.8796 2.0320
7.6757 -1.6054 2.0320
8.0429 -1.3829 2.1144
8.0886 -1.0934 2.1144
8.1239 -0.8025 2.1144
8.1488 -0.5104 2.1144
8.1531 -0.2174 2.1118
8.1542 0.0754 2.1111
7.8423 0.3543 2.0320
8.3064 0.6748 2.1568
8.2781 0.9726 2.1568
8.0136 1.2346 2.0978
7.7425 1.4791 2.0391
7.6589 1.7502 2.0320
7.5923 2.0243 2.0320
7.5755 2.3141 2.0481
7.5756 2.6149 2.0719
7.5756 2.9232 2.0990
7.5757 3.2402 2.1296
7.5510 3.5555 2.1568
7.4195 3.8247 2.1568
7.2785 4.0891 2.1568
7.1280 4.3483 2.1568
6.9682 4.6019 2.1568
6.7994 4.8497 2.1568
6.6218 5.0912 2.1568
6.3662 5.2688 2.1335
6.1737 5.4945 2.1335
5.9732 5.7132 2.1335
5.7649 5.9245 2.1335
5.5492 6.1282 2.1335
5.3262 6.3241 2.1335
5.0963 6.5118 2.1335
2.9912 4.1184 1.3132
4.6169 6.8618 2.1335
4.3680 7.0236 2.1335
4.1135 7.1764 2.1335
3.8536 7.3199 2.1335
3.5886 7.4540 2.1335
3.3190 7.5785 2.1335
3.0451 7.6932 2.1335
2.7672 7.7979 2.1335
2.5300 8.0331 2.1715
2.3074 8.3630 2.2368
2.0059 8.4407 2.2368
1.7018 8.5076 2.2368
1.3954 8.5633 2.2368
1.0872 8.6081 2.2368
0.7776 8.6417 2.2368
0.4670 8.6641 2.2368
0.1558 8.6753 2.2368
-0.1557 8.6752 2.2368
-0.4669 8.6640 2.2368
-0.7775 8.6415 2.2368
-1.0871 8.6079 2.2368
-1.3952 8.5631 2.2368
-1.7016 8.5073 2.2368
-2.0057 8.4404 2.2368
-2.3072 8.3626 2.2368
-2.6057 8.2741 2.2368
-2.9008 8.1748 2.2368
-3.1922 8.0650 2.2368
-3.4793 7.9447 2.2368
-3.7619 7.8142 2.2368
-4.0396 7.6736 2.2368
-4.3121 7.5231 2.2368
-4.5789 7.3629 2.2368
-4.8398 7.1932 2.2368
-5.0944 7.0142 2.2368
-5.3423 6.8262 2.2368
-5.5194 6.5535 2.2112
-5.5489 6.1280 2.1337
-5.7646 5.9243 2.1337
-5.9728 5.7129 2.1337
-6.1733 5.4942 2.1337
-6.3657 5.2685 2.1337
-6.5499 5.0360 2.1337
-5.8772 4.1919 1.8646
-6.0238 3.9783 1.8648
-7.0505 4.3011 2.1337
-7.1994 4.0447 2.1337
-7.3389 3.7832 2.1337
-7.4689 3.5169 2.1337
-7.5892 3.2460 2.1337
-7.6997 2.9711 2.1337
-7.8002 2.6924 2.1337
-7.8907 2.4104 2.1337
-7.9709 2.1253 2.1337
-8.0408 1.8375 2.1337
-8.1004 1.5475 2.1337
-8.1494 1.2555 2.1337
-8.1880 0.9620 2.1337
-8.2159 0.6674 2.1337
-8.2333 0.3720 2.1337
-8.2401 0.0762 2.1337
-8.2362 -0.2196 2.1337
-8.2218 -0.5150 2.1337
-8.1967 -0.8097 2.1337
-8.1611 -1.1033 2.1337
-8.1150 -1.3953 2.1337
-8.0584 -1.6855 2.1337
-7.9915 -1.9734 2.1337
-7.9144 -2.2586 2.1337
-7.8270 -2.5409 2.1337
-7.7296 -2.8199 2.1337
-7.6223 -3.0951 2.1337
-7.5052 -3.3663 2.1337
-7.3785 -3.6330 2.1337
-7.2423 -3.8950 2.1337
-7.0969 -4.1520 2.1337
-6.9423 -4.4035 2.1337
-6.7789 -4.6493 2.1337
-6.6068 -4.8891 2.1337
-6.4262 -5.1225 2.1337
-6.2374 -5.3493 2.1337
-6.0407 -5.5692 2.1337
-5.8362 -5.7818 2.1337
-5.6242 -5.9870 2.1337
-5.5229 -6.3193 2.1802
-5.4293 -6.6818 2.2368
-5.1854 -6.8718 2.2368
-4.9349 -7.0529 2.2368
-4.6781 -7.2250 2.2368
-4.4153 -7.3877 2.2368
-4.1469 -7.5409 2.2368
-3.8732 -7.6844 2.2368
-3.5946 -7.8180 2.2368
-3.3113 -7.9415 2.2368
-3.0239 -8.0549 2.2368
-2.7326 -8.1579 2.2368
-2.4378 -8.2504 2.2368
-2.1399 -8.3322 2.2368
-1.8393 -8.4034 2.2368
-1.5363 -8.4638 2.2368
-1.2314 -8.5133 2.2368
-0.9249 -8.5519 2.2368
-0.6173 -8.5795 2.2368
-0.3088 -8.5961 2.2368
0.0000 -7.8696 2.2368
0.2826 -7.8646 2.2368
0.5649 -7.8495 2.2368
0.8463 -7.8243 2.2368
1.1268 -7.7890 2.2368
1.4058 -7.7437 2.2368
1.6830 -7.6885 2.2368
1.9580 -7.6234 2.2368
2.2306 -7.5484 2.2368
2.5003 -7.4638 2.2368
2.6391 -7.0294 2.1335
2.8899 -6.9305 2.1335
3.1371 -6.8227 2.1335
3.3803 -6.7061 2.1335
3.6192 -6.5809 2.1335
3.8534 -6.4472 2.1335
4.0827 -6.3051 2.1335
4.3068 -6.1550 2.1335
4.5254 -5.9969 2.1335
4.7383 -5.8311 2.1335
4.9450 -5.6577 2.1335
5.1455 -5.4771 2.1335
5.3394 -5.2894 2.1335
5.5264 -5.0948 2.1335
5.7064 -4.8936 2.1335
5.8791 -4.6861 2.1335
6.0442 -4.4725 2.1335
6.2016 -4.2532 2.1335
6.3511 -4.0283 2.1335
6.4925 -3.7981 2.1335
6.6977 -3.6019 2.1568
6.8236 -3.3595 2.1568
6.9407 -3.1128 2.1568
7.0489 -2.8620 2.1568
7.1481 -2.6075 2.1568
7.2381 -2.3495 2.1568
7.3188 -2.0884 2.1568
7.3901 -1.8246 2.1568
7.4519 -1.5584 2.1568
7.5041 -1.2900 2.1568
7.5466 -1.0200 2.1568
7.5794 -0.7485 2.1568
7.5779 -0.4745 2.1498
7.5750 -0.2018 2.1452
7.5750 0.0703 2.1443
7.5751 0.3425 2.1461
7.5968 0.6173 2.1568
7.5708 0.8897 2.1568
7.5351 1.1611 2.1568
7.4896 1.4310 2.1568
7.4345 1.6991 2.1568
7.3697 1.9652 2.1568
7.2954 2.2287 2.1568
7.2117 2.4895 2.1568
7.1187 2.7471 2.1568
7.0164 3.0012 2.1568
6.9051 3.2515 2.1568
6.7848 3.4977 2.1568
6.6557 3.7395 2.1568
6.4477 3.9335 2.1335
6.3032 4.1629 2.1335
6.1504 4.3870 2.1335
5.9897 4.6054 2.1335
5.8212 4.8179 2.1335
5.6451 5.0243 2.1335
5.4618 5.2242 2.1335
5.2713 5.4174 2.1335
5.0740 5.6036 2.1335
4.8701 5.7826 2.1335
3.1796 4.0628 1.4558
2.9908 4.1179 1.4360
4.2214 6.2742 2.1335
3.9938 6.4221 2.1335
3.7611 6.5618 2.1335
3.5234 6.6930 2.1335
3.2811 6.8155 2.1335
3.0346 6.9293 2.1335
2.7841 7.0341 2.1335
2.5378 7.1517 2.1401
2.3826 7.5655 2.2368
2.1097 7.6465 2.2368
1.8340 7.7175 2.2368
1.5559 7.7786 2.2368
1.2758 7.8296 2.2368
0.9940 7.8704 2.2368
0.7110 7.9011 2.2368
0.4270 7.9216 2.2368
0.1424 7.9319 2.2368
-0.1423 7.9318 2.2368
-0.4269 7.9216 2.2368
-0.7108 7.9010 2.2368
-0.9939 7.8703 2.2368
-1.2757 7.8294 2.2368
-1.5558 7.7783 2.2368
-1.8338 7.7172 2.2368
-2.1095 7.6462 2.2368
-2.3824 7.5652 2.2368
-2.6523 7.4745 2.2368
-2.9186 7.3741 2.2368
-3.1812 7.2642 2.2368
-3.4396 7.1449 2.2368
-3.6935 7.0164 2.2368
-3.9427 6.8788 2.2368
-4.1867 6.7323 2.2368
-4.4252 6.5772 2.2368
-4.6580 6.4136 2.2368
-4.8848 6.2418 2.2368
-5.1051 6.0619 2.2368
-5.3189 5.8742 2.2368
-5.5196 5.6726 2.2343
-5.5254 5.2852 2.1587
-5.6448 5.0241 2.1337
-5.8209 4.8177 2.1337
-5.9893 4.6052 2.1337
-5.8699 4.1869 2.0365
-6.0125 3.9710 2.0355
-6.4473 3.9333 2.1337
-6.5835 3.6989 2.1337
-6.7111 3.4598 2.1337
-6.8301 3.2163 2.1337
-6.9402 2.9687 2.1337
-7.0413 2.7173 2.1337
-7.1333 2.4625 2.1337
-7.2161 2.2045 2.1337
-7.2896 1.9438 2.1337
-7.3536 1.6807 2.1337
-7.4082 1.4154 2.1337
-7.4532 1.1484 2.1337
-7.4885 0.8801 2.1337
-7.5142 0.6106 2.1337
-7.5302 0.3404 2.1337
-7.5364 0.0699 2.1337
-7.5330 -0.2007 2.1337
-7.5199 -0.4709 2.1337
-7.4970 -0.7404 2.1337
-7.4646 -1.0089 2.1337
-7.4225 -1.2760 2.1337
-7.3708 -1.5415 2.1337
-7.3097 -1.8048 2.1337
-7.2392 -2.0658 2.1337
-7.1594 -2.3240 2.1337
-7.0704 -2.5792 2.1337
-6.9723 -2.8310 2.1337
-6.8653 -3.0791 2.1337
-6.7495 -3.3231 2.1337
-6.6250 -3.5628 2.1337
-6.4920 -3.7979 2.1337
-6.3507 -4.0281 2.1337
-6.2012 -4.2530 2.1337
-6.0439 -4.4723 2.1337
-5.8787 -4.6859 2.1337
-5.7141 -4.9003 2.1367
-5.5328 -5.1008 2.1363
-5.5220 -5.4703 2.2068
-5.3938 -5.7415 2.2368
-5.1837 -5.9309 2.2368
-4.9670 -6.1127 2.2368
-4.7439 -6.2865 2.2368
-4.5147 -6.4523 2.2368
-4.2798 -6.6097 2.2368
-4.0394 -6.7586 2.2368
-3.7939 -6.8988 2.2368
-3.5435 -7.0302 2.2368
-3.2886 -7.1524 2.2368
-3.0295 -7.2655 2.2368
-2.7665 -7.3692 2.2368
-2.5000 -7.4635 2.2368
-2.2304 -7.5481 2.2368
-1.9578 -7.6231 2.2368
-1.6828 -7.6882 2.2368
-1.4056 -7.7435 2.2368
-1.1266 -7.7888 2.2368
-0.8462 -7.8241 2.2368
-0.5647 -7.8494 2.2368
-0.2825 -7.8646 2.2368
0.0000 -7.2451 2.2368
0.2602 -7.2405 2.2368
0.5200 -7.2265 2.2368
0.7792 -7.2033 2.2368
1.0374 -7.1708 2.2368
1.2942 -7.1291 2.2368
1.5494 -7.0783 2.2368
1.8027 -7.0183 2.2368
2.0536 -6.9493 2.2368
2.3019 -6.8714 2.2368
2.5237 -6.7219 2.2161
2.6606 -6.3804 2.1335
2.8881 -6.2811 2.1335
3.1120 -6.1737 2.1335
3.3319 -6.0584 2.1335
3.5475 -5.9352 2.1335
3.7586 -5.8044 2.1335
3.9649 -5.6662 2.1335
4.1661 -5.5206 2.1335
4.3620 -5.3679 2.1335
4.5524 -5.2083 2.1335
4.7369 -5.0420 2.1335
4.9153 -4.8691 2.1335
5.0875 -4.6900 2.1335
5.2531 -4.5047 2.1335
5.4120 -4.3137 2.1335
5.5640 -4.1170 2.1335
5.7089 -3.9150 2.1335
5.8464 -3.7080 2.1335
5.9765 -3.4961 2.1335
6.0989 -3.2797 2.1335
6.2134 -3.0590 2.1335
6.3200 -2.8343 2.1335
6.4185 -2.6059 2.1335
6.5087 -2.3741 2.1335
6.6624 -2.1625 2.1568
6.7367 -1.9222 2.1568
6.8022 -1.6793 2.1568
6.8590 -1.4342 2.1568
6.9070 -1.1872 2.1568
6.9461 -0.9386 2.1568
6.9762 -0.6888 2.1568
6.9974 -0.4380 2.1568
7.0095 -0.1865 2.1568
7.0127 0.0652 2.1568
7.0068 0.3169 2.1568
6.9918 0.5683 2.1568
6.9679 0.8190 2.1568
6.9349 1.0688 2.1568
6.8930 1.3172 2.1568
6.8421 1.5639 2.1568
6.7825 1.8088 2.1568
6.7141 2.0513 2.1568
6.6369 2.2912 2.1568
6.4806 2.5010 2.1335
6.3874 2.7324 2.1335
6.2860 2.9602 2.1335
6.1765 3.1843 2.1335
6.0589 3.4043 2.1335
5.9335 3.6200 2.1335
5.8004 3.8310 2.1335
5.6598 4.0372 2.1335
5.5119 4.2382 2.1335
5.3568 4.4337 2.1335
5.1947 4.6236 2.1335
5.0259 4.8075 2.1335
4.8506 4.9852 2.1335
4.6690 5.1566 2.1335
4.4813 5.3213 2.1335
3.1221 3.9895 1.5535
2.9280 4.0316 1.5279
3.8844 5.7734 2.1335
3.6750 5.9095 2.1335
3.4608 6.0380 2.1335
3.2420 6.1587 2.1335
3.0191 6.2714 2.1335
2.7923 6.3761 2.1335
2.5618 6.4725 2.1335
2.4406 6.8780 2.2368
2.1923 6.9615 2.2368
1.9412 7.0359 2.2368
1.6875 7.1013 2.2368
1.4316 7.1574 2.2368
1.1739 7.2043 2.2368
0.9146 7.2420 2.2368
0.6542 7.2702 2.2368
0.3929 7.2890 2.2368
0.1310 7.2985 2.2368
-0.1309 7.2984 2.2368
-0.3927 7.2890 2.2368
-0.6541 7.2701 2.2368
-0.9145 7.2418 2.2368
-1.1738 7.2042 2.2368
-1.4315 7.1572 2.2368
-1.6874 7.1010 2.2368
-1.9410 7.0356 2.2368
-2.1922 6.9612 2.2368
-2.4404 6.8777 2.2368
-2.6855 6.7854 2.2368
-2.9271 6.6843 2.2368
-3.1649 6.5745 2.2368
-3.3986 6.4563 2.2368
-3.6279 6.3298 2.2368
-3.8524 6.1950 2.2368
-4.0719 6.0523 2.2368
-4.2862 5.9018 2.2368
-4.4949 5.7438 2.2368
-4.6977 5.5783 2.2368
-4.8944 5.4056 2.2368
-5.0848 5.2260 2.2368
-5.2685 5.0396 2.2368
-5.4454 4.8468 2.2368
-5.5198 4.5687 2.1988
-5.5298 4.2520 2.1408
-5.6595 4.0370 2.1337
-5.8001 3.8309 2.1337
-5.9331 3.6198 2.1337
-6.0585 3.4041 2.1337
-6.1761 3.1841 2.1337
-6.2856 2.9600 2.1337
-6.3870 2.7322 2.1337
-6.4801 2.5009 2.1337
-6.5649 2.2664 2.1337
-6.6411 2.0290 2.1337
-6.7088 1.7891 2.1337
-6.7678 1.5470 2.1337
-6.8181 1.3029 2.1337
-6.8595 1.0572 2.1337
-6.8921 0.8101 2.1337
-6.9159 0.5622 2.1337
-6.9307 0.3135 2.1337
-6.9365 0.0645 2.1337
-6.9334 -0.1845 2.1337
-6.9214 -0.4332 2.1337
-6.9005 -0.6813 2.1337
-6.8706 -0.9284 2.1337
-6.8320 -1.1743 2.1337
-6.7845 -1.4187 2.1337
-6.7283 -1.6611 2.1337
-6.6635 -1.9013 2.1337
-6.5901 -2.1390 2.1337
-6.5083 -2.3739 2.1337
-6.4180 -2.6057 2.1337
-6.3196 -2.8341 2.1337
-6.2130 -3.0588 2.1337
-6.0985 -3.2795 2.1337
-5.9761 -3.4959 2.1337
-5.8461 -3.7078 2.1337
-5.7141 -3.9187 2.1358
-5.5637 -4.1169 2.1337
-5.5231 -4.4023 2.1776
-5.5066 -4.7222 2.2368
-5.3330 -4.9164 2.2368
-5.1526 -5.1042 2.2368
-4.9655 -5.2855 2.2368
-4.7721 -5.4599 2.2368
-4.5726 -5.6272 2.2368
-4.3673 -5.7873 2.2368
-4.1564 -5.9399 2.2368
-3.9401 -6.0849 2.2368
-3.7188 -6.2220 2.2368
-3.4928 -6.3511 2.2368
-3.2623 -6.4720 2.2368
-3.0276 -6.5846 2.2368
-2.7891 -6.6888 2.2368
-2.5470 -6.7843 2.2368
-2.3017 -6.8711 2.2368
-2.0534 -6.9490 2.2368
-1.8025 -7.0180 2.2368
-1.5493 -7.0780 2.2368
-1.2941 -7.1289 2.2368
-1.0372 -7.1707 2.2368
-0.7791 -7.2032 2.2368
-0.5199 -7.2265 2.2368
-0.2601 -7.2404 2.2368
0.0000 -6.7055 2.2368
0.2408 -6.7012 2.2368
0.4813 -6.6883 2.2368
0.7212 -6.6668 2.2368
0.9601 -6.6367 2.2368
1.1979 -6.5981 2.2368
1.4341 -6.5510 2.2368
1.6684 -6.4955 2.2368
1.9007 -6.4317 2.2368
2.1305 -6.3595 2.2368
2.3576 -6.2792 2.2368
2.5239 -6.0522 2.1867
2.6730 -5.8131 2.1335
2.8802 -5.7137 2.1335
3.0837 -5.6069 2.1335
3.2833 -5.4929 2.1335
3.4786 -5.3719 2.1335
3.6695 -5.2439 2.1335
3.8558 -5.1091 2.1335
4.0370 -4.9678 2.1335
4.2132 -4.8200 2.1335
4.3839 -4.6661 2.1335
4.5490 -4.5061 2.1335
4.7083 -4.3402 2.1335
4.8616 -4.1688 2.1335
5.0086 -3.9919 2.1335
5.1492 -3.8099 2.1335
5.2832 -3.6230 2.1335
5.4105 -3.4313 2.1335
5.5308 -3.2352 2.1335
5.6440 -3.0349 2.1335
5.7500 -2.8306 2.1335
5.8486 -2.6227 2.1335
5.9396 -2.4113 2.1335
6.0231 -2.1968 2.1335
6.0988 -1.9794 2.1335
6.1667 -1.7594 2.1335
6.2266 -1.5370 2.1335
6.2786 -1.3127 2.1335
6.3224 -1.0866 2.1335
6.3582 -0.8590 2.1335
6.3857 -0.6303 2.1335
6.4050 -0.4007 2.1335
6.4161 -0.1706 2.1335
6.4189 0.0599 2.1335
6.4134 0.2903 2.1335
6.3997 0.5204 2.1335
6.3777 0.7498 2.1335
6.3474 0.9784 2.1335
6.3090 1.2057 2.1335
6.2624 1.4316 2.1335
6.2078 1.6557 2.1335
6.1451 1.8776 2.1335
6.0745 2.0972 2.1335
5.9960 2.3142 2.1335
5.9097 2.5282 2.1335
5.8159 2.7390 2.1335
5.7145 2.9463 2.1335
5.6057 3.1498 2.1335
5.4896 3.3493 2.1335
5.3664 3.5446 2.1335
5.2363 3.7353 2.1335
5.0994 3.9212 2.1335
4.9558 4.1020 2.1335
4.8059 4.2777 2.1335
4.6497 4.4478 2.1335
4.4875 4.6122 2.1335
4.3194 4.7707 2.1335
4.1458 4.9230 2.1335
3.1179 3.9843 1.6770
2.9229 4.0247 1.6486
3.5935 5.3412 2.1335
3.3997 5.4671 2.1335
3.2016 5.5859 2.1335
2.9992 5.6976 2.1335
2.7930 5.8018 2.1335
2.5831 5.8986 2.1335
2.4846 6.2776 2.2368
2.2578 6.3630 2.2368
2.0281 6.4401 2.2368
1.7958 6.5090 2.2368
1.5611 6.5694 2.2368
1.3244 6.6213 2.2368
1.0859 6.6647 2.2368
0.8461 6.6995 2.2368
0.6052 6.7256 2.2368
0.3634 6.7431 2.2368
0.1212 6.7518 2.2368
-0.1211 6.7518 2.2368
-0.3633 6.7430 2.2368
-0.6051 6.7256 2.2368
-0.8460 6.6994 2.2368
-1.0858 6.6646 2.2368
-1.3242 6.6212 2.2368
-1.5609 6.5692 2.2368
-1.7956 6.5087 2.2368
-2.0279 6.4399 2.2368
-2.2576 6.3627 2.2368
-2.4844 6.2773 2.2368
-2.7079 6.1838 2.2368
-2.9279 6.0823 2.2368
-3.1441 5.9729 2.2368
-3.3562 5.8559 2.2368
-3.5639 5.7313 2.2368
-3.7670 5.5993 2.2368
-3.9652 5.4601 2.2368
-4.1583 5.3139 2.2368
-4.3460 5.1608 2.2368
-4.5280 5.0011 2.2368
-4.7041 4.8349 2.2368
-4.8742 4.6626 2.2368
-5.0379 4.4842 2.2368
-5.1951 4.3001 2.2368
-5.3455 4.1105 2.2368
-5.4890 3.9156 2.2368
-5.5200 3.6461 2.1949
-5.5281 3.3729 2.1488
-5.6053 3.1497 2.1337
-5.7141 2.9461 2.1337
-5.8155 2.7388 2.1337
-5.9094 2.5281 2.1337
-5.9956 2.3141 2.1337
-6.0741 2.0971 2.1337
-6.1447 1.8775 2.1337
-6.2074 1.6556 2.1337
-6.2620 1.4315 2.1337
-6.3086 1.2057 2.1337
-6.3470 0.9783 2.1337
-6.3772 0.7498 2.1337
-6.3992 0.5203 2.1337
-6.4130 0.2903 2.1337
-6.4184 0.0599 2.1337
-6.4156 -0.1706 2.1337
-6.4046 -0.4007 2.1337
-6.3853 -0.6303 2.1337
-6.3577 -0.8590 2.1337
-6.3220 -1.0865 2.1337
-6.2782 -1.3126 2.1337
-6.2262 -1.5370 2.1337
-6.1663 -1.7593 2.1337
-6.0984 -1.9793 2.1337
-6.0227 -2.1967 2.1337
-5.9393 -2.4112 2.1337
-5.8482 -2.6226 2.1337
-5.7496 -2.8305 2.1337
-5.6437 -3.0348 2.1337
-5.5328 -3.2365 2.1346
-5.5228 -3.5026 2.1781
-5.5216 -3.7865 2.2301
-5.3977 -3.9939 2.2368
-5.2504 -4.1847 2.2368
-5.0962 -4.3701 2.2368
-4.9356 -4.5498 2.2368
-4.7686 -4.7237 2.2368
-4.5955 -4.8914 2.2368
-4.4166 -5.0529 2.2368
-4.2320 -5.2078 2.2368
-4.0419 -5.3560 2.2368
-3.8467 -5.4973 2.2368
-3.6466 -5.6314 2.2368
-3.4418 -5.7584 2.2368
-3.2327 -5.8779 2.2368
-3.0193 -5.9899 2.2368
-2.8022 -6.0941 2.2368
-2.5814 -6.1905 2.2368
-2.3573 -6.2789 2.2368
-2.1303 -6.3593 2.2368
-1.9005 -6.4314 2.2368
-1.6683 -6.4953 2.2368
-1.4339 -6.5509 2.2368
-1.1977 -6.5980 2.2368
-0.9600 -6.6366 2.2368
-0.7211 -6.6667 2.2368
-0.4812 -6.6883 2.2368
-0.2407 -6.7012 2.2368
0.0000 -6.2342 2.2368
0.2239 -6.2302 2.2368
0.4475 -6.2182 2.2368
0.6705 -6.1982 2.2368
0.8927 -6.1702 2.2368
1.1137 -6.1343 2.2368
1.3333 -6.0905 2.2368
1.5512 -6.0389 2.2368
1.7671 -5.9795 2.2368
1.9807 -5.9124 2.2368
2.1919 -5.8377 2.2368
2.4002 -5.7555 2.2368
2.5275 -5.4963 2.1699
2.6778 -5.3119 2.1335
2.8670 -5.2126 2.1335
3.0525 -5.1067 2.1335
3.2341 -4.9941 2.1335
3.4115 -4.8751 2.1335
3.5847 -4.7498 2.1335
3.7532 -4.6183 2.1335
3.9169 -4.4809 2.1335
4.0756 -4.3378 2.1335
4.2291 -4.1890 2.1335
4.3771 -4.0348 2.1335
4.5196 -3.8754 2.1335
4.6563 -3.7110 2.1335
4.7870 -3.5417 2.1335
4.9115 -3.3679 2.1335
5.0298 -3.1897 2.1335
5.1416 -3.0074 2.1335
5.2468 -2.8211 2.1335
5.3453 -2.6312 2.1335
5.4369 -2.4379 2.1335
5.5215 -2.2414 2.1335
5.5990 -2.0419 2.1335
5.6694 -1.8398 2.1335
5.7324 -1.6353 2.1335
5.7881 -1.4286 2.1335
5.8364 -1.2201 2.1335
5.8771 -1.0099 2.1335
5.9102 -0.7983 2.1335
5.9358 -0.5857 2.1335
5.9537 -0.3723 2.1335
5.9640 -0.1584 2.1335
5.9665 0.0558 2.1335
5.9614 0.2700 2.1335
5.9485 0.4838 2.1335
5.9280 0.6971 2.1335
5.8999 0.9096 2.1335
5.8641 1.1209 2.1335
5.8208 1.3308 2.1335
5.7699 1.5390 2.1335
5.7116 1.7453 2.1335
5.6459 1.9494 2.1335
5.5730 2.1511 2.1335
5.4928 2.3500 2.1335
5.4055 2.5458 2.1335
5.3112 2.7385 2.1335
5.2100 2.9277 2.1335
5.1021 3.1131 2.1335
4.9876 3.2945 2.1335
4.8666 3.4717 2.1335
4.7393 3.6445 2.1335
4.6059 3.8126 2.1335
4.4665 3.9757 2.1335
4.3213 4.1338 2.1335
4.1706 4.2866 2.1335
4.0144 4.4339 2.1335
3.8530 4.5754 2.1335
3.1137 3.9790 1.8020
2.9177 4.0177 1.7708
3.3396 4.9640 2.1335
3.1595 5.0810 2.1335
2.9754 5.1914 2.1335
2.7873 5.2951 2.1335
2.5956 5.3920 2.1335
0.8579 1.9590 0.7624
2.3090 5.8341 2.2368
2.0982 5.9134 2.2368
1.8848 5.9851 2.2368
1.6688 6.0491 2.2368
1.4507 6.1053 2.2368
1.2308 6.1535 2.2368
1.0092 6.1938 2.2368
0.7863 6.2262 2.2368
0.5624 6.2504 2.2368
0.3377 6.2666 2.2368
0.1127 6.2747 2.2368
-0.1126 6.2747 2.2368
-0.3376 6.2666 2.2368
-0.5623 6.2504 2.2368
-0.7862 6.2261 2.2368
-1.0091 6.1937 2.2368
-1.2306 6.1534 2.2368
-1.4506 6.1051 2.2368
-1.6687 6.0489 2.2368
-1.8846 5.9849 2.2368
-2.0981 5.9132 2.2368
-2.3088 5.8338 2.2368
-0.8578 1.9590 0.7625
-0.9276 1.9269 0.7625
-2.9219 5.5511 2.2368
-3.1190 5.4423 2.2368
-3.3121 5.3266 2.2368
-3.5009 5.2039 2.2368
-3.6851 5.0746 2.2368
-3.8646 4.9387 2.2368
-4.0390 4.7965 2.2368
-4.2082 4.6481 2.2368
-4.3719 4.4937 2.2368
-4.5300 4.3335 2.2368
-4.6822 4.1678 2.2368
-4.8283 3.9967 2.2368
-4.9681 3.8205 2.2368
-5.1015 3.6394 2.2368
-5.2283 3.4536 2.2368
-5.3484 3.2634 2.2368
-5.4615 3.0690 2.2368
-5.5202 2.8463 2.2178
-5.5212 2.6004 2.1795
-5.5286 2.3653 2.1477
-5.5727 2.1510 2.1337
-5.6456 1.9494 2.1337
-5.7132 1.7458 2.1344
-5.7696 1.5390 2.1337
-5.8204 1.3307 2.1337
-5.8638 1.1208 2.1337
-5.8995 0.9095 2.1337
-5.9277 0.6971 2.1337
-5.9482 0.4838 2.1337
-5.9610 0.2700 2.1337
-5.9661 0.0558 2.1337
-5.9636 -0.1584 2.1337
-5.9533 -0.3723 2.1337
-5.9354 -0.5857 2.1337
-5.9099 -0.7983 2.1337
-5.8767 -1.0098 2.1337
-5.8360 -1.2200 2.1337
-5.7878 -1.4286 2.1337
-5.7321 -1.6352 2.1337
-5.6691 -1.8398 2.1337
-5.5987 -2.0419 2.1337
-5.5319 -2.2456 2.1378
-5.5248 -2.4774 2.1683
-5.5214 -2.7180 2.2041
-5.5000 -2.9574 2.2368
-5.3897 -3.1526 2.2368
-5.2725 -3.3437 2.2368
-5.1486 -3.5305 2.2368
-5.0180 -3.7128 2.2368
-4.8810 -3.8902 2.2368
-4.7378 -4.0626 2.2368
-4.5884 -4.2297 2.2368
-4.4332 -4.3913 2.2368
-4.2724 -4.5473 2.2368
-4.1060 -4.6974 2.2368
-3.9344 -4.8415 2.2368
-3.7578 -4.9793 2.2368
-3.5763 -5.1106 2.2368
-3.3903 -5.2354 2.2368
-3.1999 -5.3534 2.2368
-3.0054 -5.4646 2.2368
-2.8071 -5.5687 2.2368
-2.6052 -5.6656 2.2368
-2.4000 -5.7552 2.2368
-2.1917 -5.8375 2.2368
-1.9806 -5.9122 2.2368
-1.7669 -5.9793 2.2368
-1.5510 -6.0387 2.2368
-1.3331 -6.0904 2.2368
-1.1136 -6.1342 2.2368
-0.8926 -6.1701 2.2368
-0.6704 -6.1981 2.2368
-0.4474 -6.2181 2.2368
-0.2238 -6.2302 2.2368
0.0001 -5.8185 2.2368
0.2090 -5.8148 2.2368
0.4177 -5.8036 2.2368
0.6258 -5.7849 2.2368
0.8332 -5.7588 2.2368
1.0395 -5.7253 2.2368
1.2444 -5.6844 2.2368
1.4478 -5.6362 2.2368
1.6493 -5.5808 2.2368
1.8487 -5.5181 2.2368
2.0458 -5.4484 2.2368
2.2402 -5.3717 2.2368
2.4318 -5.2880 2.2368
2.5301 -5.0189 2.1599
2.6758 -4.8650 2.1335
2.8490 -4.7660 2.1335
3.0184 -4.6609 2.1335
3.1841 -4.5498 2.1335
3.3456 -4.4329 2.1335
3.5029 -4.3102 2.1335
3.6557 -4.1819 2.1335
3.8038 -4.0483 2.1335
3.9470 -3.9094 2.1335
4.0851 -3.7655 2.1335
4.2181 -3.6167 2.1335
4.3456 -3.4632 2.1335
4.4676 -3.3053 2.1335
4.5838 -3.1430 2.1335
4.6941 -2.9767 2.1335
4.7984 -2.8065 2.1335
4.8966 -2.6327 2.1335
4.9885 -2.4554 2.1335
5.0739 -2.2750 2.1335
5.1529 -2.0916 2.1335
5.2252 -1.9055 2.1335
5.2908 -1.7168 2.1335
5.3496 -1.5259 2.1335
5.4015 -1.3331 2.1335
5.4465 -1.1384 2.1335
5.4845 -0.9423 2.1335
5.5154 -0.7449 2.1335
5.5392 -0.5465 2.1335
5.5559 -0.3473 2.1335
5.5654 -0.1477 2.1335
5.5677 0.0522 2.1335
5.5629 0.2521 2.1335
5.5509 0.4516 2.1335
5.5317 0.6507 2.1335
5.5054 0.8489 2.1335
5.4720 1.0461 2.1335
5.4315 1.2419 2.1335
5.3840 1.4363 2.1335
5.3296 1.6288 2.1335
5.2683 1.8192 2.1335
5.2001 2.0073 2.1335
5.1253 2.1929 2.1335
5.0438 2.3756 2.1335
4.9558 2.5554 2.1335
4.8613 2.7319 2.1335
4.7606 2.9049 2.1335
4.6537 3.0741 2.1335
4.5409 3.2395 2.1335
4.4221 3.4006 2.1335
4.2975 3.5575 2.1335
4.1675 3.7097 2.1335
4.0320 3.8572 2.1335
3.8913 3.9997 2.1335
3.7455 4.1371 2.1335
3.5949 4.2691 2.1335
3.1094 3.9736 1.9287
2.9124 4.0106 1.8945
3.1159 4.6317 2.1335
2.9479 4.7408 2.1335
2.7760 4.8438 2.1335
2.6006 4.9405 2.1335
0.8656 1.7982 0.7626
0.8005 1.8281 0.7626
0.7344 1.8557 0.7625
0.6674 1.8809 0.7625
0.5995 1.9036 0.7625
0.5307 1.9239 0.7625
0.4614 1.9417 0.7625
0.3914 1.9570 0.7624
0.9416 5.7789 2.2368
0.7336 5.8091 2.2368
0.5247 5.8317 2.2368
0.3151 5.8468 2.2368
0.1051 5.8544 2.2368
-0.1050 5.8544 2.2368
-0.3150 5.8468 2.2368
-0.5246 5.8317 2.2368
-0.7335 5.8090 2.2368
-0.9415 5.7788 2.2368
-0.3914 1.9570 0.7625
-0.4613 1.9417 0.7625
-0.5307 1.9239 0.7625
-0.5994 1.9036 0.7625
-0.6673 1.8809 0.7625
-0.7344 1.8557 0.7626
-0.8005 1.8281 0.7626
-0.8656 1.7982 0.7626
-0.9295 1.7660 0.7627
-2.9101 5.0779 2.2368
-3.0903 4.9699 2.2368
-3.2664 4.8555 2.2368
-3.4383 4.7349 2.2368
-3.6057 4.6081 2.2368
-3.7685 4.4754 2.2368
-3.9264 4.3370 2.2368
-4.0792 4.1929 2.2368
-4.2267 4.0435 2.2368
-4.3687 3.8889 2.2368
-4.5050 3.7293 2.2368
-4.6355 3.5649 2.2368
-4.7601 3.3959 2.2368
-4.8784 3.2226 2.2368
-4.9904 3.0451 2.2368
-5.0960 2.8638 2.2368
-5.1950 2.6788 2.2368
-5.2872 2.4904 2.2368
-5.3726 2.2988 2.2368
-5.4511 2.1042 2.2368
-5.5204 1.9063 2.2359
-5.5204 1.6871 2.2102
-5.5205 1.4727 2.1879
-5.5237 1.2630 2.1700
-5.5271 1.0566 2.1553
-5.5299 0.8527 2.1433
-5.5321 0.6507 2.1340
-5.5506 0.4516 2.1337
-5.5626 0.2521 2.1337
-5.5674 0.0522 2.1337
-5.5651 -0.1477 2.1337
-5.5556 -0.3473 2.1337
-5.5389 -0.5464 2.1337
-5.5311 -0.7470 2.1399
-5.5285 -0.9499 2.1510
-5.5254 -1.1549 2.1647
-5.5216 -1.3627 2.1813
-5.5211 -1.5749 2.2022
-5.5212 -1.7916 2.2267
-5.4774 -1.9974 2.2368
-5.4016 -2.1926 2.2368
-5.3188 -2.3848 2.2368
-5.2292 -2.5740 2.2368
-5.1329 -2.7598 2.2368
-5.0300 -2.9420 2.2368
-4.9207 -3.1205 2.2368
-4.8050 -3.2948 2.2368
-4.6832 -3.4649 2.2368
-4.5554 -3.6305 2.2368
-4.4217 -3.7914 2.2368
-4.2824 -3.9474 2.2368
-4.1376 -4.0983 2.2368
-3.9874 -4.2439 2.2368
-3.8322 -4.3840 2.2368
-3.6720 -4.5184 2.2368
-3.5072 -4.6471 2.2368
-3.3378 -4.7697 2.2368
-3.1642 -4.8862 2.2368
-2.9865 -4.9964 2.2368
-2.8051 -5.1001 2.2368
-2.6200 -5.1973 2.2368
-2.4315 -5.2878 2.2368
-2.2400 -5.3714 2.2368
-2.0456 -5.4482 2.2368
-1.8486 -5.5179 2.2368
-1.6491 -5.5806 2.2368
-1.4477 -5.6361 2.2368
-1.2443 -5.6843 2.2368
-1.0393 -5.7252 2.2368
-0.8331 -5.7587 2.2368
-0.6257 -5.7848 2.2368
-0.4176 -5.8035 2.2368
-0.2089 -5.8148 2.2368
0.0001 -5.4489 2.2368
0.1957 -5.4454 2.2368
0.3912 -5.4349 2.2368
0.5861 -5.4174 2.2368
0.7803 -5.3929 2.2368
0.9735 -5.3616 2.2368
1.1654 -5.3233 2.2368
1.3558 -5.2781 2.2368
1.5446 -5.2262 2.2368
1.7313 -5.1675 2.2368
1.9158 -5.1022 2.2368
2.0979 -5.0303 2.2368
2.2773 -4.9520 2.2368
2.4538 -4.8673 2.2368
2.5314 -4.6022 2.1553
2.6680 -4.4631 2.1335
2.8267 -4.3647 2.1335
2.9818 -4.2606 2.1335
3.1330 -4.1511 2.1335
3.2803 -4.0362 2.1335
3.4234 -3.9160 2.1335
3.5620 -3.7909 2.1335
3.6961 -3.6608 2.1335
3.8255 -3.5260 2.1335
3.9500 -3.3867 2.1335
4.0694 -3.2429 2.1335
4.1835 -3.0950 2.1335
4.2924 -2.9430 2.1335
4.3957 -2.7873 2.1335
4.4933 -2.6279 2.1335
4.5852 -2.4651 2.1335
4.6712 -2.2991 2.1335
4.7512 -2.1302 2.1335
4.8251 -1.9584 2.1335
4.8928 -1.7841 2.1335
4.9542 -1.6075 2.1335
5.0092 -1.4287 2.1335
5.0578 -1.2481 2.1335
5.0999 -1.0658 2.1335
5.1354 -0.8821 2.1335
5.1643 -0.6973 2.1335
5.1866 -0.5115 2.1335
5.2022 -0.3250 2.1335
5.2111 -0.1381 2.1335
5.2132 0.0490 2.1335
5.2087 0.2362 2.1335
5.1974 0.4230 2.1335
5.1794 0.6094 2.1335
5.1547 0.7950 2.1335
5.1234 0.9796 2.1335
5.0855 1.1630 2.1335
5.0410 1.3449 2.1335
4.9900 1.5251 2.1335
4.9326 1.7034 2.1335
4.8687 1.8795 2.1335
4.7986 2.0533 2.1335
4.7223 2.2244 2.1335
4.6399 2.3926 2.1335
4.5514 2.5579 2.1335
4.4571 2.7198 2.1335
4.3570 2.8783 2.1335
4.2513 3.0330 2.1335
4.1401 3.1839 2.1335
4.0235 3.3307 2.1335
3.9017 3.4733 2.1335
3.7748 3.6113 2.1335
3.6431 3.7447 2.1335
3.5066 3.8733 2.1335
3.3656 3.9969 2.1335
3.1050 3.9682 2.0572
2.9071 4.0034 2.0199
2.9171 4.3363 2.1335
2.7598 4.4384 2.1335
2.5989 4.5348 2.1335
0.8704 1.6536 0.7628
0.8105 1.6838 0.7627
0.7496 1.7118 0.7627
0.6877 1.7376 0.7627
0.6249 1.7612 0.7626
0.5613 1.7825 0.7626
0.4970 1.8015 0.7626
0.4320 1.8181 0.7626
0.3665 1.8325 0.7626
0.3005 1.8444 0.7626
0.2341 1.8540 0.7626
0.1675 1.8613 0.7625
0.1006 1.8661 0.7625
0.0335 1.8685 0.7625
-0.0335 1.8685 0.7625
-0.1005 1.8661 0.7625
-0.1674 1.8613 0.7626
-0.2341 1.8540 0.7626
-0.3005 1.8444 0.7626
-0.3665 1.8325 0.7626
-0.4320 1.8181 0.7626
-0.4969 1.8015 0.7626
-0.5612 1.7825 0.7626
-0.6248 1.7612 0.7627
-0.6876 1.7376 0.7627
-0.7495 1.7118 0.7627
-0.8105 1.6838 0.7628
-0.8703 1.6536 0.7628
-0.9291 1.6213 0.7628
-2.8931 4.6530 2.2368
-3.0580 4.5459 2.2368
-3.2189 4.4329 2.2368
-3.3757 4.3143 2.2368
-3.5281 4.1901 2.2368
-3.6759 4.0605 2.2368
-3.8190 3.9257 2.2368
-3.9571 3.7858 2.2368
-4.0901 3.6410 2.2368
-4.2177 3.4916 2.2368
-4.3400 3.3377 2.2368
-4.4566 3.1796 2.2368
-4.5674 3.0173 2.2368
-4.6723 2.8512 2.2368
-4.7712 2.6814 2.2368
-4.8639 2.5082 2.2368
-4.9503 2.3318 2.2368
-5.0303 2.1524 2.2368
-5.1038 1.9703 2.2368
-5.1707 1.7857 2.2368
-5.2309 1.5988 2.2368
-5.2843 1.4098 2.2368
-5.3310 1.2191 2.2368
-5.3707 1.0269 2.2368
-5.4035 0.8334 2.2368
-5.4294 0.6388 2.2368
-5.4482 0.4435 2.2368
-5.4600 0.2476 2.2368
-5.4648 0.0514 2.2368
-5.4626 -0.1448 2.2368
-5.4533 -0.3407 2.2368
-5.4369 -0.5362 2.2368
-5.4136 -0.7310 2.2368
-5.3833 -0.9247 2.2368
-5.3461 -1.1173 2.2368
-5.3019 -1.3084 2.2368
-5.2510 -1.4977 2.2368
-5.1933 -1.6851 2.2368
-5.1290 -1.8702 2.2368
-5.0580 -2.0530 2.2368
-4.9806 -2.2330 2.2368
-4.8967 -2.4102 2.2368
-4.8066 -2.5842 2.2368
-4.7102 -2.7548 2.2368
-4.6079 -2.9219 2.2368
-4.4996 -3.0852 2.2368
-4.3855 -3.2445 2.2368
-4.2658 -3.3996 2.2368
-4.1407 -3.5503 2.2368
-4.0102 -3.6964 2.2368
-3.8746 -3.8377 2.2368
-3.7340 -3.9740 2.2368
-3.5887 -4.1053 2.2368
-3.4387 -4.2312 2.2368
-3.2844 -4.3517 2.2368
-3.1258 -4.4665 2.2368
-2.9632 -4.5756 2.2368
-2.7968 -4.6788 2.2368
-2.6269 -4.7760 2.2368
-2.4535 -4.8670 2.2368
-2.2771 -4.9518 2.2368
-2.0977 -5.0301 2.2368
-1.9156 -5.1020 2.2368
-1.7312 -5.1674 2.2368
-1.5444 -5.2260 2.2368
-1.3557 -5.2780 2.2368
-1.1653 -5.3231 2.2368
-0.9733 -5.3615 2.2368
-0.7802 -5.3929 2.2368
-0.5860 -5.4173 2.2368
-0.3911 -5.4349 2.2368
-0.1956 -5.4454 2.2368
0.0001 -5.1177 2.2368
0.1838 -5.1144 2.2368
0.3674 -5.1046 2.2368
0.5505 -5.0881 2.2368
0.7329 -5.0651 2.2368
0.9143 -5.0357 2.2368
1.0946 -4.9997 2.2368
1.2735 -4.9573 2.2368
1.4507 -4.9085 2.2368
1.6261 -4.8534 2.2368
1.7994 -4.7920 2.2368
1.9704 -4.7245 2.2368
2.1389 -4.6509 2.2368
2.3047 -4.5713 2.2368
2.4675 -4.4858 2.2368
2.5315 -4.2346 2.1554
2.6549 -4.0992 2.1335
2.8005 -4.0015 2.1335
2.9426 -3.8986 2.1335
3.0809 -3.7907 2.1335
3.2152 -3.6778 2.1335
3.3455 -3.5603 2.1335
3.4714 -3.4381 2.1335
3.5929 -3.3115 2.1335
3.7098 -3.1806 2.1335
3.8219 -3.0456 2.1335
3.9291 -2.9066 2.1335
4.0313 -2.7639 2.1335
4.1283 -2.6176 2.1335
4.2200 -2.4679 2.1335
4.3063 -2.3150 2.1335
4.3870 -2.1591 2.1335
4.4621 -2.0004 2.1335
4.5315 -1.8391 2.1335
4.5950 -1.6754 2.1335
4.6527 -1.5095 2.1335
4.7044 -1.3416 2.1335
4.7500 -1.1720 2.1335
4.7895 -1.0008 2.1335
4.8228 -0.8283 2.1335
4.8499 -0.6547 2.1335
4.8708 -0.4802 2.1335
4.8854 -0.3051 2.1335
4.8937 -0.1296 2.1335
4.8957 0.0462 2.1335
4.8914 0.2219 2.1335
4.8808 0.3974 2.1335
4.8639 0.5724 2.1335
4.8407 0.7467 2.1335
4.8113 0.9200 2.1335
4.7756 1.0922 2.1335
4.7338 1.2631 2.1335
4.6859 1.4323 2.1335
4.6319 1.5997 2.1335
4.5720 1.7651 2.1335
4.5061 1.9282 2.1335
4.4344 2.0889 2.1335
4.3570 2.2469 2.1335
4.2739 2.4020 2.1335
4.1853 2.5541 2.1335
4.0913 2.7029 2.1335
3.9920 2.8482 2.1335
3.8876 2.9899 2.1335
3.7781 3.1277 2.1335
3.6637 3.2615 2.1335
3.5445 3.3911 2.1335
3.4208 3.5164 2.1335
3.2927 3.6371 2.1335
3.1602 3.7532 2.1335
3.0237 3.8644 2.1335
2.8833 3.9707 2.1335
2.7395 4.0724 2.1339
2.5914 4.1677 2.1335
0.8726 1.5226 0.7629
0.8174 1.5529 0.7629
0.7611 1.5813 0.7628
0.7039 1.6076 0.7628
0.6458 1.6318 0.7628
0.5868 1.6540 0.7628
0.5271 1.6739 0.7627
0.4667 1.6918 0.7627
0.4057 1.7075 0.7627
0.3442 1.7209 0.7627
0.2822 1.7322 0.7627
0.2199 1.7412 0.7627
0.1573 1.7479 0.7627
0.0944 1.7525 0.7627
0.0315 1.7547 0.7627
-0.0315 1.7547 0.7627
-0.0944 1.7525 0.7627
-0.1572 1.7479 0.7627
-0.2198 1.7412 0.7627
-0.2822 1.7322 0.7627
-0.3441 1.7209 0.7627
-0.4057 1.7075 0.7627
-0.4667 1.6918 0.7627
-0.5271 1.6740 0.7628
-0.5868 1.6540 0.7628
-0.6457 1.6318 0.7628
-0.7039 1.6076 0.7628
-0.7611 1.5813 0.7629
-0.8173 1.5529 0.7629
-0.8725 1.5226 0.7629
-0.9266 1.4903 0.7630
-0.9795 1.4561 0.7630
-3.0225 4.1626 2.2368
-3.1698 4.0512 2.2368
-3.3129 3.9346 2.2368
-3.4517 3.8129 2.2368
-3.5860 3.6863 2.2368
-3.7157 3.5550 2.2368
-3.8406 3.4191 2.2368
-3.9605 3.2788 2.2368
-4.0753 3.1343 2.2368
-4.1848 2.9858 2.2368
-4.2889 2.8334 2.2368
-4.3874 2.6775 2.2368
-4.4803 2.5181 2.2368
-4.5673 2.3554 2.2368
-4.6485 2.1898 2.2368
-4.7236 2.0213 2.2368
-4.7927 1.8503 2.2368
-4.8555 1.6770 2.2368
-4.9121 1.5015 2.2368
-4.9623 1.3241 2.2368
-5.0061 1.1450 2.2368
-5.0435 0.9645 2.2368
-5.0743 0.7827 2.2368
-5.0986 0.6000 2.2368
-5.1164 0.4166 2.2368
-5.1275 0.2326 2.2368
-5.1320 0.0484 2.2368
-5.1299 -0.1358 2.2368
-5.1212 -0.3198 2.2368
-5.1059 -0.5034 2.2368
-5.0840 -0.6863 2.2368
-5.0556 -0.8683 2.2368
-5.0207 -1.0491 2.2368
-4.9792 -1.2286 2.2368
-4.9315 -1.4064 2.2368
-4.8773 -1.5824 2.2368
-4.8169 -1.7563 2.2368
-4.7503 -1.9279 2.2368
-4.6775 -2.0970 2.2368
-4.5988 -2.2634 2.2368
-4.5142 -2.4268 2.2368
-4.4237 -2.5871 2.2368
-4.3276 -2.7441 2.2368
-4.2259 -2.8974 2.2368
-4.1188 -3.0470 2.2368
-4.0064 -3.1927 2.2368
-3.8889 -3.3343 2.2368
-3.7664 -3.4715 2.2368
-3.6391 -3.6042 2.2368
-3.5070 -3.7323 2.2368
-3.3705 -3.8556 2.2368
-3.2297 -3.9739 2.2368
-3.0847 -4.0870 2.2368
-2.9358 -4.1949 2.2368
-2.7831 -4.2974 2.2368
-2.6268 -4.3943 2.2368
-2.4672 -4.4856 2.2368
-2.3044 -4.5711 2.2368
-2.1387 -4.6507 2.2368
-1.9703 -4.7243 2.2368
-1.7993 -4.7919 2.2368
-1.6259 -4.8532 2.2368
-1.4506 -4.9084 2.2368
-1.2733 -4.9572 2.2368
-1.0945 -4.9996 2.2368
-0.9142 -5.0356 2.2368
-0.7328 -5.0651 2.2368
-0.5504 -5.0881 2.2368
-0.3673 -5.1045 2.2368
-0.1837 -5.1144 2.2368
0.0001 -4.8190 2.2368
0.1731 -4.8159 2.2368
0.3460 -4.8066 2.2368
0.5184 -4.7911 2.2368
0.6901 -4.7695 2.2368
0.8610 -4.7417 2.2368
1.0307 -4.7078 2.2368
1.1992 -4.6679 2.2368
1.3661 -4.6219 2.2368
1.5312 -4.5700 2.2368
1.6944 -4.5123 2.2368
1.8554 -4.4487 2.2368
2.0141 -4.3794 2.2368
2.1701 -4.3044 2.2368
2.3234 -4.2239 2.2368
2.4738 -4.1379 2.2368
2.5304 -3.9070 2.1596
2.6371 -3.7678 2.1335
2.7708 -3.6709 2.1335
2.9010 -3.5693 2.1335
3.0276 -3.4630 2.1335
3.1502 -3.3523 2.1335
3.2687 -3.2372 2.1335
3.3831 -3.1180 2.1335
3.4932 -2.9947 2.1335
3.5987 -2.8676 2.1335
3.6997 -2.7368 2.1335
3.7958 -2.6024 2.1335
3.8872 -2.4646 2.1335
3.9735 -2.3236 2.1335
4.0547 -2.1797 2.1335
4.1307 -2.0329 2.1335
4.2014 -1.8834 2.1335
4.2667 -1.7315 2.1335
4.3266 -1.5774 2.1335
4.3808 -1.4211 2.1335
4.4294 -1.2631 2.1335
4.4723 -1.1034 2.1335
4.5095 -0.9422 2.1335
4.5409 -0.7798 2.1335
4.5664 -0.6163 2.1335
4.5860 -0.4520 2.1335
4.5997 -0.2871 2.1335
4.6076 -0.1219 2.1335
4.6094 0.0436 2.1335
4.6053 0.2091 2.1335
4.5953 0.3743 2.1335
4.5794 0.5390 2.1335
4.5575 0.7031 2.1335
4.5298 0.8663 2.1335
4.4962 1.0285 2.1335
4.4568 1.1893 2.1335
4.4117 1.3486 2.1335
4.3609 1.5062 2.1335
4.3044 1.6619 2.1335
4.2423 1.8155 2.1335
4.1748 1.9667 2.1335
4.1019 2.1155 2.1335
4.0237 2.2615 2.1335
3.9403 2.4047 2.1335
3.8518 2.5447 2.1335
3.7583 2.6815 2.1335
3.6599 2.8149 2.1335
3.5568 2.9447 2.1335
3.4491 3.0706 2.1335
3.3369 3.1926 2.1335
3.2204 3.3106 2.1335
3.0998 3.4242 2.1335
2.9751 3.5335 2.1335
2.8466 3.6382 2.1335
2.7352 3.7669 2.1499
2.5786 3.8334 2.1335
0.8725 1.4032 0.7630
0.8215 1.4336 0.7630
0.7696 1.4622 0.7630
0.7166 1.4889 0.7629
0.6627 1.5136 0.7629
0.6080 1.5364 0.7629
0.5525 1.5573 0.7629
0.4963 1.5761 0.7628
0.4394 1.5929 0.7628
0.3820 1.6077 0.7628
0.3241 1.6203 0.7628
0.2657 1.6309 0.7628
0.2070 1.6394 0.7628
0.1481 1.6458 0.7628
0.0889 1.6500 0.7628
0.0297 1.6522 0.7628
-0.0296 1.6522 0.7628
-0.0889 1.6500 0.7628
-0.1480 1.6458 0.7628
-0.2070 1.6394 0.7628
-0.2657 1.6309 0.7628
-0.3240 1.6203 0.7628
-0.3819 1.6077 0.7628
-0.4394 1.5929 0.7628
-0.4962 1.5761 0.7629
