ply
format ascii 1.0
element vertex 2167
property float32 x
property float32 y
property float32 z
end_header
-12.5892 4.3427 2.1922
-12.7276 3.8852 2.1908
-6.3993 1.7049 1.0903
-12.9480 2.9562 2.1868
-13.0262 2.4858 2.1837
-13.0991 2.0153 2.1826
-13.1564 1.5431 2.1817
-13.1982 1.0694 2.1811
-13.2244 0.5948 2.1807
-13.2350 0.1197 2.1805
-13.2436 -0.3558 2.1828
-13.2221 -0.8310 2.1830
-13.2480 -1.3115 2.1938
-13.2345 -1.7919 2.2010
-13.1848 -2.2698 2.2051
-9.9800 -2.0894 1.6807
-9.9787 -2.4662 1.6944
-9.9774 -2.8495 1.7106
-9.9761 -3.2407 1.7294
-9.9747 -3.6411 1.7508
-9.9733 -4.0519 1.7751
-9.9719 -4.4749 1.8025
-9.9704 -4.9115 1.8331
-9.9689 -5.3638 1.8672
-9.9673 -5.8337 1.9050
-9.9657 -6.3236 1.9470
-9.9640 -6.8363 1.9935
-9.9622 -7.3746 2.0450
-9.9602 -7.9422 2.1020
-9.8119 -8.4175 2.1332
-9.5028 -8.7638 2.1332
-9.1816 -9.0987 2.1333
-8.8486 -9.4219 2.1333
-8.5042 -9.7330 2.1333
-8.1489 -10.0315 2.1333
-7.7832 -10.3171 2.1333
-7.4075 -10.5894 2.1333
-7.0223 -10.8481 2.1333
-6.6281 -11.0927 2.1334
-6.2254 -11.3231 2.1334
-6.0217 -11.9497 2.2093
-5.6573 -12.3070 2.2365
-5.2116 -12.5017 2.2365
-4.7593 -12.6804 2.2365
-4.3009 -12.8427 2.2365
-3.8371 -12.9885 2.2365
-3.3682 -13.1176 2.2365
-2.8951 -13.2298 2.2365
-2.4183 -13.3250 2.2365
-1.9383 -13.4030 2.2365
-1.4559 -13.4638 2.2365
-0.9716 -13.5073 2.2365
-0.4861 -13.5335 2.2365
0.0000 -11.8725 2.2365
0.4262 -11.8649 2.2365
0.8519 -11.8420 2.2365
1.2765 -11.8039 2.2365
1.6994 -11.7506 2.2365
2.0578 -11.3384 2.1706
2.4210 -11.0633 2.1332
2.8167 -10.9694 2.1332
3.2088 -10.8615 2.1332
3.5967 -10.7396 2.1332
3.9800 -10.6038 2.1332
4.3582 -10.4544 2.1332
4.7309 -10.2916 2.1332
5.0975 -10.1155 2.1332
5.4575 -9.9263 2.1332
5.8058 -9.7164 2.1315
6.1511 -9.5022 2.1315
6.2655 -8.9568 2.0582
6.7571 -8.9568 2.1125
7.2218 -8.8901 2.1565
7.5367 -8.6256 2.1565
7.8419 -8.3500 2.1565
8.1371 -8.0635 2.1565
8.4218 -7.7667 2.1565
8.6957 -7.4598 2.1565
8.9584 -7.1432 2.1565
9.2096 -6.8175 2.1565
9.4490 -6.4829 2.1565
9.6763 -6.1399 2.1565
9.8912 -5.7890 2.1565
10.0933 -5.4306 2.1565
10.2824 -5.0651 2.1565
10.4584 -4.6931 2.1565
10.6209 -4.3149 2.1565
10.7697 -3.9312 2.1565
10.9047 -3.5423 2.1565
11.0257 -3.1488 2.1565
11.1325 -2.7512 2.1565
11.2249 -2.3500 2.1565
11.3029 -1.9457 2.1565
11.3664 -1.5388 2.1565
11.4152 -1.1299 2.1565
11.4493 -0.7195 2.1565
11.4687 -0.3081 2.1565
10.9176 0.0988 2.0520
10.9079 0.4907 2.0520
10.8841 0.8820 2.0520
10.8462 1.2722 2.0520
10.7944 1.6609 2.0520
10.7287 2.0474 2.0520
11.1911 2.5551 2.1565
11.0930 2.9554 2.1565
10.9806 3.3520 2.1565
10.8540 3.7442 2.1565
10.7134 4.1317 2.1565
10.5589 4.5139 2.1565
10.3909 4.8904 2.1565
10.2093 5.2606 2.1565
10.0146 5.6241 2.1565
9.8069 5.9803 2.1565
9.5865 6.3289 2.1565
2.3850 1.7005 0.5499
9.1090 7.0012 2.1565
8.8523 7.3241 2.1565
8.5842 7.6376 2.1565
8.3050 7.9413 2.1565
4.8615 4.9947 1.3080
7.7147 8.5175 2.1565
7.4044 8.7894 2.1565
7.0845 9.0500 2.1565
6.7336 9.2688 2.1495
6.3382 9.4179 2.1298
6.0064 9.6558 2.1334
5.6561 9.8656 2.1334
5.2986 10.0626 2.1334
4.9342 10.2467 2.1334
4.5633 10.4175 2.1334
4.1866 10.5749 2.1334
3.8044 10.7186 2.1334
3.4173 10.8486 2.1334
3.0258 10.9645 2.1334
2.6303 11.0662 2.1334
2.2349 11.1709 2.1367
1.9181 11.7692 2.2365
1.4945 11.8306 2.2365
1.0689 11.8767 2.2365
0.6419 11.9075 2.2365
0.2141 11.9228 2.2365
-0.2140 11.9228 2.2365
-0.6418 11.9074 2.2365
-1.0688 11.8766 2.2365
-1.4944 11.8305 2.2365
-1.9181 11.7691 2.2365
-2.3392 11.6925 2.2365
-2.7573 11.6008 2.2365
-3.1719 11.4941 2.2365
-3.5823 11.3725 2.2365
-3.9881 11.2363 2.2365
-4.3887 11.0856 2.2365
-4.7837 10.9206 2.2365
-5.1724 10.7415 2.2365
-5.5544 10.5485 2.2365
-5.9292 10.3419 2.2365
-6.0163 9.6718 2.1370
-6.3485 9.4332 2.1334
-6.6827 9.1988 2.1334
-7.0082 8.9525 2.1333
-7.3246 8.6947 2.1333
-7.6315 8.4257 2.1333
-7.9285 8.1458 2.1333
-8.2153 7.8555 2.1333
-8.4914 7.5551 2.1333
-8.7565 7.2449 2.1333
-9.0104 6.9255 2.1333
-9.2525 6.5971 2.1333
-9.4827 6.2603 2.1332
-9.7012 5.9159 2.1334
-9.8129 5.5108 2.1132
-10.3815 5.3494 2.1930
-10.5661 4.9729 2.1930
-10.7370 4.5901 2.1930
-10.8742 4.1938 2.1890
-10.9975 3.7938 2.1852
-11.1042 3.3897 2.1809
-6.3986 1.7047 1.2440
-11.3292 2.5867 2.1833
-11.4476 2.1846 2.1897
-11.5346 1.7748 2.1929
-11.5581 1.3557 2.1869
-11.5821 0.9386 2.1838
-11.5905 0.5214 2.1807
-11.5703 0.1047 2.1749
-11.5435 -0.3101 2.1708
-11.5540 -0.7260 2.1764
-11.5374 -1.1420 2.1798
-11.5065 -1.5578 2.1832
-11.4721 -1.9748 2.1890
-9.9800 -2.0893 1.9174
-9.9787 -2.4661 1.9331
-9.9774 -2.8494 1.9516
-9.9761 -3.2406 1.9730
-9.9747 -3.6410 1.9974
-9.9733 -4.0518 2.0251
-9.9719 -4.4748 2.0563
-9.9704 -4.9114 2.0912
-9.9689 -5.3637 2.1300
-9.7839 -5.7262 2.1332
-9.5714 -6.0734 2.1332
-9.3466 -6.4126 2.1332
-9.1099 -6.7436 2.1333
-8.8614 -7.0659 2.1333
-8.6016 -7.3791 2.1333
-8.3307 -7.6827 2.1333
-8.0492 -7.9764 2.1333
-7.7573 -8.2598 2.1333
-7.4554 -8.5326 2.1333
-7.1440 -8.7943 2.1333
-6.8234 -9.0447 2.1334
-6.4941 -9.2835 2.1334
-6.1564 -9.5103 2.1334
-6.0033 -10.0470 2.2041
-5.7215 -10.4064 2.2365
-5.3440 -10.6047 2.2365
-4.9597 -10.7894 2.2365
-4.5690 -10.9601 2.2365
-4.1725 -11.1168 2.2365
-3.7707 -11.2591 2.2365
-3.3640 -11.3870 2.2365
-2.9530 -11.5002 2.2365
-2.5382 -11.5986 2.2365
-2.1201 -11.6820 2.2365
-1.6994 -11.7505 2.2365
-1.2764 -11.8038 2.2365
-0.8519 -11.8420 2.2365
-0.4262 -11.8649 2.2365
0.0000 -10.5595 2.2365
0.3791 -10.5528 2.2365
0.7577 -10.5324 2.2365
1.1353 -10.4985 2.2365
1.5115 -10.4511 2.2365
1.8857 -10.3902 2.2365
2.1533 -9.8397 2.1332
2.5052 -9.7562 2.1332
2.8539 -9.6602 2.1332
3.1989 -9.5517 2.1332
3.5398 -9.4310 2.1332
3.8762 -9.2981 2.1332
4.2076 -9.1532 2.1332
4.5337 -8.9965 2.1332
4.8539 -8.8283 2.1332
5.1678 -8.6487 2.1332
5.4752 -8.4579 2.1332
5.7755 -8.2562 2.1332
6.1346 -8.1316 2.1565
6.4229 -7.9065 2.1565
6.7029 -7.6712 2.1565
6.9743 -7.4260 2.1565
7.2367 -7.1712 2.1565
7.4899 -6.9072 2.1565
7.7334 -6.6342 2.1565
7.9670 -6.3526 2.1565
8.1904 -6.0629 2.1565
8.4033 -5.7653 2.1565
8.6053 -5.4603 2.1565
8.7963 -5.1481 2.1565
8.9760 -4.8293 2.1565
9.1442 -4.5043 2.1565
9.3006 -4.1734 2.1565
9.4450 -3.8371 2.1565
9.5773 -3.4958 2.1565
9.6973 -3.1500 2.1565
9.8048 -2.8000 2.1565
9.8996 -2.4464 2.1565
9.9817 -2.0896 2.1565
10.0510 -1.7301 2.1565
10.1074 -1.3683 2.1565
10.1507 -1.0047 2.1565
10.1809 -0.6397 2.1565
10.1980 -0.2738 2.1565
9.7079 0.0880 2.0520
9.6992 0.4364 2.0520
9.6780 0.7843 2.0520
9.6443 1.1313 2.0520
9.5981 1.4769 2.0520
9.5396 1.8206 2.0520
9.9506 2.2720 2.1565
9.8633 2.6279 2.1565
9.7633 2.9805 2.1565
9.6507 3.3292 2.1565
9.5256 3.6737 2.1565
9.3882 4.0135 2.1565
9.2387 4.3482 2.1565
9.0772 4.6773 2.1565
8.9040 5.0005 2.1565
8.7193 5.3172 2.1565
8.5233 5.6271 2.1565
2.3847 1.7004 0.6184
8.0986 6.2247 2.1565
7.8703 6.5118 2.1565
7.6319 6.7904 2.1565
7.3837 7.0604 2.1565
4.8592 4.9924 1.4705
6.7874 7.4938 2.1340
6.3240 7.5071 2.0717
6.2000 7.9202 2.1228
5.9415 8.1786 2.1334
5.6443 8.3869 2.1334
5.3398 8.5844 2.1334
5.0285 8.7709 2.1334
4.7106 8.9460 2.1334
4.3866 9.1096 2.1334
4.0569 9.2614 2.1334
3.7219 9.4013 2.1334
3.3822 9.5291 2.1334
3.0380 9.6446 2.1334
2.6899 9.7476 2.1334
2.3384 9.8380 2.1334
2.0221 10.1071 2.1745
1.7052 10.4629 2.2365
1.3286 10.5175 2.2365
0.9502 10.5585 2.2365
0.5706 10.5858 2.2365
0.1903 10.5995 2.2365
-0.1903 10.5995 2.2365
-0.5706 10.5858 2.2365
-0.9502 10.5584 2.2365
-1.3285 10.5174 2.2365
-1.7052 10.4628 2.2365
-2.0796 10.3947 2.2365
-2.4513 10.3132 2.2365
-2.8198 10.2184 2.2365
-3.1847 10.1104 2.2365
-3.5455 9.9893 2.2365
-3.9016 9.8554 2.2365
-4.2528 9.7087 2.2365
-4.5984 9.5495 2.2365
-4.9380 9.3780 2.2365
-5.2712 9.1944 2.2365
-5.5977 8.9989 2.2365
-5.9168 8.7919 2.2365
-6.0109 8.2742 2.1584
-6.2307 7.9594 2.1334
-6.5120 7.7302 2.1334
-6.7849 7.4911 2.1334
-7.0491 7.2424 2.1333
-7.3041 6.9843 2.1333
-7.5496 6.7172 2.1333
-7.7854 6.4415 2.1333
-8.0111 6.1575 2.1333
-8.2268 5.8659 2.1334
-8.4316 5.5665 2.1334
-8.6254 5.2599 2.1334
-8.8081 4.9466 2.1334
-8.9794 4.6270 2.1334
-9.1391 4.3014 2.1334
-9.2871 3.9703 2.1334
-9.4229 3.6342 2.1334
-9.5467 3.2934 2.1334
-9.6581 2.9484 2.1334
-6.3978 1.7046 1.3989
-9.8434 2.2475 2.1334
-9.9170 1.8926 2.1334
-9.9779 1.5353 2.1334
-10.3086 1.2093 2.1936
-10.3189 0.8363 2.1881
-10.3247 0.4646 2.1846
-10.3206 0.0935 2.1817
-10.3070 -0.2767 2.1797
-10.3036 -0.6474 2.1826
-10.2927 -1.0187 2.1868
-9.9984 -1.3535 2.1334
-9.9427 -1.7114 2.1334
-9.8734 -2.0670 2.1332
-9.7922 -2.4199 2.1332
-9.6984 -2.7697 2.1332
-9.5921 -3.1158 2.1332
-9.4735 -3.4579 2.1332
-9.3427 -3.7955 2.1332
-9.1998 -4.1282 2.1333
-9.0452 -4.4555 2.1333
-8.8789 -4.7771 2.1333
-8.7011 -5.0924 2.1333
-8.5123 -5.4012 2.1333
-8.3124 -5.7030 2.1333
-8.1019 -5.9974 2.1333
-7.8810 -6.2840 2.1333
-7.6500 -6.5626 2.1333
-7.4091 -6.8327 2.1333
-7.1587 -7.0939 2.1333
-6.8991 -7.3460 2.1333
-6.6307 -7.5886 2.1334
-6.3538 -7.8215 2.1334
-6.0687 -8.0442 2.1334
-6.0012 -8.5788 2.2167
-5.7400 -8.8669 2.2365
-5.4178 -9.0670 2.2365
-5.0886 -9.2553 2.2365
-4.7529 -9.4317 2.2365
-4.4111 -9.5960 2.2365
-4.0637 -9.7479 2.2365
-3.7111 -9.8872 2.2365
-3.3536 -10.0138 2.2365
-2.9919 -10.1276 2.2365
-2.6264 -10.2283 2.2365
-2.2575 -10.3158 2.2365
-1.8857 -10.3901 2.2365
-1.5114 -10.4510 2.2365
-1.1353 -10.4984 2.2365
-0.7577 -10.5323 2.2365
-0.3791 -10.5527 2.2365
0.0000 -9.4990 2.2365
0.3410 -9.4929 2.2365
0.6816 -9.4745 2.2365
1.0213 -9.4440 2.2365
1.3597 -9.4014 2.2365
1.6963 -9.3466 2.2365
2.0308 -9.2798 2.2365
2.2589 -8.7969 2.1382
2.5673 -8.6899 2.1332
2.8776 -8.5923 2.1332
3.1843 -8.4836 2.1332
3.4869 -8.3641 2.1332
3.7850 -8.2337 2.1332
4.0783 -8.0928 2.1332
4.3663 -7.9414 2.1332
4.6487 -7.7798 2.1332
4.9252 -7.6081 2.1332
5.1953 -7.4267 2.1332
5.4588 -7.2357 2.1332
5.7153 -7.0353 2.1332
5.9644 -6.8259 2.1332
6.1987 -6.6001 2.1308
6.2536 -6.1969 2.0717
6.7297 -6.2060 2.1541
6.7862 -5.8215 2.1038
6.8846 -5.4895 2.0717
7.3673 -5.4535 2.1565
7.5587 -5.1858 2.1565
7.7404 -4.9114 2.1565
7.9121 -4.6306 2.1565
8.0737 -4.3438 2.1565
8.2249 -4.0514 2.1565
8.3656 -3.7538 2.1565
8.4954 -3.4512 2.1565
8.6143 -3.1443 2.1565
8.7222 -2.8332 2.1565
8.8188 -2.5184 2.1565
8.9041 -2.2003 2.1565
8.9779 -1.8794 2.1565
9.0402 -1.5560 2.1565
9.0908 -1.2306 2.1565
9.1297 -0.9035 2.1565
9.1568 -0.5753 2.1565
8.7279 -0.2343 2.0520
8.7313 0.0792 2.0520
8.7234 0.3926 2.0520
8.7042 0.7055 2.0520
8.6738 1.0176 2.0520
8.6323 1.3283 2.0520
8.5796 1.6375 2.0520
8.5158 1.9445 2.0520
8.8706 2.3635 2.1565
8.7806 2.6806 2.1565
8.6793 2.9942 2.1565
8.5667 3.3040 2.1565
8.4431 3.6096 2.1565
8.3086 3.9106 2.1565
8.1633 4.2065 2.1565
8.0075 4.4971 2.1565
7.8413 4.7819 2.1565
7.6651 5.0605 2.1565
2.3844 1.7002 0.6875
7.2830 5.5980 2.1565
6.7998 5.6261 2.0718
6.7873 6.0390 2.1326
6.6326 6.3422 2.1541
4.8569 4.9901 1.6344
6.1679 6.8099 2.1565
5.8564 6.9520 2.1334
5.6033 7.1580 2.1334
5.3430 7.3548 2.1334
5.0757 7.5421 2.1334
4.8019 7.7197 2.1334
4.5219 7.8873 2.1334
4.2360 8.0448 2.1334
3.9446 8.1918 2.1334
3.6481 8.3284 2.1334
3.3469 8.4541 2.1334
3.0414 8.5690 2.1334
2.7319 8.6728 2.1334
2.4189 8.7654 2.1334
2.1028 8.8467 2.1334
1.8701 9.3475 2.2365
1.5334 9.4087 2.2365
1.1947 9.4578 2.2365
0.8545 9.4946 2.2365
0.5131 9.5192 2.2365
0.1711 9.5315 2.2365
-0.1711 9.5315 2.2365
-0.5131 9.5191 2.2365
-0.8544 9.4945 2.2365
-1.1946 9.4577 2.2365
-1.5333 9.4086 2.2365
-1.8700 9.3474 2.2365
-2.2043 9.2741 2.2365
-2.5357 9.1889 2.2365
-2.8638 9.0918 2.2365
-3.1882 8.9829 2.2365
-3.5085 8.8625 2.2365
-3.8243 8.7306 2.2365
-4.1351 8.5875 2.2365
-4.4405 8.4333 2.2365
-4.7402 8.2682 2.2365
-5.0337 8.0924 2.2365
-5.3208 7.9063 2.2365
-5.6009 7.7099 2.2365
-5.8738 7.5036 2.2365
-6.0046 7.1280 2.1875
-6.1016 6.7368 2.1334
-6.3392 6.5131 2.1334
-6.5685 6.2810 2.1334
-6.7894 6.0409 2.1334
-7.0016 5.7931 2.1334
-7.2046 5.5377 2.1334
-7.3984 5.2753 2.1334
-7.5826 5.0061 2.1334
-7.7569 4.7304 2.1334
-7.9213 4.4487 2.1334
-8.0754 4.1612 2.1334
-8.2191 3.8685 2.1334
-8.3522 3.5707 2.1334
-8.4745 3.2684 2.1334
-8.5858 2.9620 2.1334
-8.6861 2.6517 2.1334
-6.3271 1.6858 1.5382
-8.8528 2.0215 2.1334
-8.9191 1.7023 2.1334
-8.9739 1.3809 2.1334
-9.0171 1.0578 2.1334
-9.0487 0.7334 2.1334
-9.0686 0.4081 2.1334
-9.0768 0.0823 2.1334
-9.0733 -0.2435 2.1334
-9.0582 -0.5690 2.1334
-9.0313 -0.8938 2.1334
-8.9928 -1.2173 2.1334
-8.9428 -1.5393 2.1334
-8.8812 -1.8592 2.1334
-8.8078 -2.1765 2.1333
-8.7234 -2.4911 2.1333
-8.6278 -2.8025 2.1333
-8.5212 -3.1102 2.1333
-8.4036 -3.4139 2.1333
-8.2752 -3.7132 2.1333
-8.1361 -4.0076 2.1333
-7.9865 -4.2969 2.1333
-7.8267 -4.5806 2.1333
-7.6569 -4.8583 2.1333
-7.4772 -5.1298 2.1333
-7.2878 -5.3947 2.1333
-7.0892 -5.6526 2.1333
-6.8813 -5.9031 2.1334
-6.6647 -6.1461 2.1334
-6.4395 -6.3811 2.1334
-6.2061 -6.6079 2.1334
-6.0080 -6.8758 2.1489
-5.9916 -7.3756 2.2365
-5.7228 -7.5856 2.2365
-5.4466 -7.7859 2.2365
-5.1634 -7.9761 2.2365
-4.8736 -8.1561 2.2365
-4.5775 -8.3255 2.2365
-4.2755 -8.4842 2.2365
-3.9681 -8.6320 2.2365
-3.6555 -8.7687 2.2365
-3.3383 -8.8941 2.2365
-3.0168 -9.0080 2.2365
-2.6915 -9.1103 2.2365
-2.3626 -9.2009 2.2365
-2.0308 -9.2797 2.2365
-1.6963 -9.3465 2.2365
-1.3596 -9.4013 2.2365
-1.0213 -9.4440 2.2365
-0.6816 -9.4745 2.2365
-0.3410 -9.4929 2.2365
0.0000 -8.6236 2.2365
0.3096 -8.6181 2.2365
0.6188 -8.6014 2.2365
0.9272 -8.5737 2.2365
1.2344 -8.5350 2.2365
1.5400 -8.4852 2.2365
1.8437 -8.4246 2.2365
2.0567 -8.0092 2.1444
2.3307 -7.8890 2.1332
2.6124 -7.8004 2.1332
2.8908 -7.7017 2.1332
3.1655 -7.5932 2.1332
3.4362 -7.4748 2.1332
3.7024 -7.3468 2.1332
3.9639 -7.2094 2.1332
4.2203 -7.0627 2.1332
4.4712 -6.9068 2.1332
4.7165 -6.7421 2.1332
4.9556 -6.5687 2.1332
5.1884 -6.3868 2.1332
5.4146 -6.1966 2.1332
5.6338 -5.9985 2.1332
5.8457 -5.7926 2.1332
6.0502 -5.5793 2.1332
6.1988 -5.3175 2.1168
6.2499 -4.9833 2.0717
6.6805 -4.9450 2.1541
6.7863 -4.6558 2.1328
6.7864 -4.3059 2.0827
6.9001 -4.0382 2.0717
7.3292 -3.9431 2.1565
7.4664 -3.6777 2.1565
7.5940 -3.4075 2.1565
7.7118 -3.1328 2.1565
7.8198 -2.8541 2.1565
7.9176 -2.5717 2.1565
8.0053 -2.2860 2.1565
8.0827 -1.9973 2.1565
8.1496 -1.7059 2.1565
8.2061 -1.4124 2.1565
8.2520 -1.1170 2.1565
8.2872 -0.8201 2.1565
8.3118 -0.5221 2.1565
7.9225 -0.2126 2.0520
7.9255 0.0720 2.0520
7.9182 0.3564 2.0520
7.9008 0.6405 2.0520
7.8732 0.9237 2.0520
7.8354 1.2058 2.0520
7.7875 1.4864 2.0520
7.7296 1.7650 2.0520
7.6617 2.0415 2.0520
7.9699 2.4331 2.1565
7.8779 2.7178 2.1565
7.7757 2.9990 2.1565
7.6634 3.2763 2.1565
7.5413 3.5495 2.1565
7.4094 3.8181 2.1565
7.2679 4.0818 2.1565
6.8373 4.1696 2.0717
6.7871 4.4810 2.1038
2.3842 1.7000 0.7574
6.6028 5.0752 2.1541
6.1998 5.1297 2.0812
6.1998 5.5163 2.1463
5.9616 5.7007 2.1332
4.8545 4.9877 1.7999
5.5381 6.1146 2.1334
5.3152 6.3097 2.1334
5.0855 6.4967 2.1334
4.8492 6.6752 2.1334
4.6067 6.8452 2.1334
4.3581 7.0064 2.1334
4.1040 7.1585 2.1334
3.8445 7.3014 2.1334
3.5801 7.4349 2.1334
3.3110 7.5587 2.1334
3.0376 7.6729 2.1334
2.7603 7.7771 2.1334
2.4794 7.8713 2.1334
2.1953 7.9554 2.1334
2.0006 8.4171 2.2365
1.6972 8.4836 2.2365
1.3917 8.5392 2.2365
1.0843 8.5837 2.2365
0.7755 8.6171 2.2365
0.4657 8.6394 2.2365
0.1553 8.6506 2.2365
-0.1553 8.6506 2.2365
-0.4657 8.6394 2.2365
-0.7754 8.6171 2.2365
-1.0842 8.5836 2.2365
-1.3916 8.5391 2.2365
-1.6972 8.4835 2.2365
-2.0006 8.4170 2.2365
-2.3013 8.3397 2.2365
-2.5992 8.2516 2.2365
-2.8936 8.1528 2.2365
-3.1843 8.0435 2.2365
-3.4708 7.9238 2.2365
-3.7529 7.7940 2.2365
-4.0301 7.6540 2.2365
-4.3021 7.5042 2.2365
-4.5686 7.3447 2.2365
-4.8291 7.1758 2.2365
-5.0834 6.9976 2.2365
-5.3311 6.8104 2.2365
-5.5719 6.6144 2.2365
-5.8055 6.4099 2.2365
-6.0047 6.1695 2.2265
-6.0133 5.7502 2.1518
-6.1623 5.4830 2.1334
-6.3548 5.2580 2.1334
-6.5391 5.0263 2.1334
-6.7150 4.7881 2.1334
-6.8822 4.5438 2.1334
-7.0405 4.2936 2.1334
-7.1897 4.0379 2.1334
-7.3296 3.7770 2.1334
-7.4601 3.5113 2.1334
-7.5809 3.2411 2.1334
-7.6919 2.9667 2.1334
-7.7931 2.6886 2.1334
-7.8841 2.4070 2.1334
-6.3206 1.6841 1.6929
-8.0355 1.8349 2.1334
-8.0958 1.5452 2.1334
-8.1455 1.2535 2.1334
-8.1848 0.9603 2.1334
-8.2135 0.6658 2.1334
-8.2316 0.3705 2.1334
-8.2392 0.0748 2.1334
-8.2360 -0.2210 2.1334
-8.2223 -0.5165 2.1334
-8.1980 -0.8112 2.1334
-8.1631 -1.1049 2.1334
-8.1177 -1.3972 2.1334
-8.0619 -1.6876 2.1334
-7.9956 -1.9758 2.1334
-7.9188 -2.2613 2.1333
-7.8321 -2.5440 2.1333
-7.7353 -2.8233 2.1333
-7.6286 -3.0990 2.1333
-7.5121 -3.3707 2.1333
-7.3858 -3.6380 2.1333
-7.2501 -3.9006 2.1333
-7.1051 -4.1582 2.1333
-6.9509 -4.4103 2.1333
-6.7878 -4.6568 2.1334
-6.6160 -4.8973 2.1334
-6.4356 -5.1314 2.1334
-6.2470 -5.3589 2.1334
-6.0504 -5.5795 2.1334
-5.9989 -5.9444 2.1892
-5.9062 -6.2886 2.2365
-5.6764 -6.4963 2.2365
-5.4393 -6.6957 2.2365
-5.1953 -6.8864 2.2365
-4.9446 -7.0682 2.2365
-4.6875 -7.2409 2.2365
-4.4244 -7.4043 2.2365
-4.1556 -7.5581 2.2365
-3.8815 -7.7023 2.2365
-3.6024 -7.8364 2.2365
-3.3187 -7.9605 2.2365
-3.0307 -8.0744 2.2365
-2.7388 -8.1778 2.2365
-2.4434 -8.2707 2.2365
-2.1449 -8.3530 2.2365
-1.8436 -8.4245 2.2365
-1.5400 -8.4852 2.2365
-1.2344 -8.5349 2.2365
-0.9272 -8.5737 2.2365
-0.6188 -8.6014 2.2365
-0.3096 -8.6180 2.2365
0.0000 -7.8881 2.2365
0.2832 -7.8831 2.2365
0.5660 -7.8678 2.2365
0.8481 -7.8425 2.2365
1.1291 -7.8071 2.2365
1.4087 -7.7616 2.2365
1.6864 -7.7061 2.2365
1.9620 -7.6407 2.2365
2.1319 -7.2161 2.1332
2.3896 -7.1351 2.1332
2.6443 -7.0448 2.1332
2.8956 -6.9455 2.1332
3.1431 -6.8372 2.1332
3.3866 -6.7202 2.1332
3.6258 -6.5944 2.1332
3.8603 -6.4602 2.1332
4.0898 -6.3176 2.1332
4.3142 -6.1669 2.1332
4.5329 -6.0083 2.1332
4.7458 -5.8419 2.1332
4.9527 -5.6679 2.1332
5.1531 -5.4867 2.1332
5.3470 -5.2984 2.1332
5.5340 -5.1032 2.1332
5.7138 -4.9014 2.1332
5.8864 -4.6934 2.1332
6.0513 -4.4792 2.1332
6.1989 -4.2527 2.1299
6.1997 -3.9336 2.0802
6.3113 -3.6935 2.0717
6.6962 -3.6025 2.1541
6.7864 -3.3427 2.1430
6.7865 -3.0450 2.1070
6.7922 -2.7592 2.0766
6.8711 -2.5078 2.0717
7.2418 -2.3521 2.1565
7.3219 -2.0908 2.1565
7.3926 -1.8267 2.1565
7.4538 -1.5602 2.1565
7.5055 -1.2917 2.1565
7.5474 -1.0215 2.1565
7.5796 -0.7500 2.1565
7.6020 -0.4774 2.1565
7.2459 -0.1943 2.0520
7.2486 0.0659 2.0520
7.2420 0.3261 2.0520
7.2260 0.5858 2.0520
7.2007 0.8449 2.0520
7.1661 1.1029 2.0520
7.1223 1.3595 2.0520
7.0693 1.6143 2.0520
7.0072 1.8672 2.0520
6.9360 2.1176 2.0520
7.2048 2.4857 2.1565
7.1113 2.7428 2.1565
7.0086 2.9965 2.1565
6.8969 3.2463 2.1565
6.5098 3.3546 2.0717
6.6394 3.7289 2.1541
6.2530 3.8134 2.0717
6.1997 4.0932 2.1013
2.3839 1.6998 0.8281
5.9801 4.5966 2.1332
5.8115 4.8085 2.1332
5.6353 5.0142 2.1332
5.4520 5.2134 2.1332
4.8521 4.9853 1.9672
5.0643 5.5916 2.1332
4.8605 5.7699 2.1332
4.6504 5.9409 2.1332
4.4347 6.1046 2.1334
4.2128 6.2600 2.1334
3.9855 6.4074 2.1334
3.7531 6.5465 2.1334
3.5158 6.6772 2.1334
3.2739 6.7992 2.1334
3.0279 6.9125 2.1334
2.7778 7.0169 2.1334
2.5243 7.1122 2.1334
2.2674 7.1983 2.1334
2.0235 7.3329 2.1503
1.8295 7.6974 2.2365
1.5521 7.7582 2.2365
1.2726 7.8090 2.2365
0.9916 7.8497 2.2365
0.7092 7.8803 2.2365
0.4259 7.9007 2.2365
0.1420 7.9109 2.2365
-0.1420 7.9109 2.2365
-0.4258 7.9007 2.2365
-0.7091 7.8802 2.2365
-0.9915 7.8497 2.2365
-1.2726 7.8089 2.2365
-1.5520 7.7581 2.2365
-1.8295 7.6973 2.2365
-2.1046 7.6266 2.2365
-2.3769 7.5460 2.2365
-2.6462 7.4557 2.2365
-2.9120 7.3558 2.2365
-3.1741 7.2464 2.2365
-3.4320 7.1276 2.2365
-3.6856 6.9997 2.2365
-3.9343 6.8627 2.2365
-4.1780 6.7169 2.2365
-4.4162 6.5624 2.2365
-4.6488 6.3994 2.2365
-4.8753 6.2282 2.2365
-5.0956 6.0490 2.2365
-5.3092 5.8620 2.2365
-5.5160 5.6674 2.2365
-5.7156 5.4656 2.2365
-5.9079 5.2567 2.2365
-6.0060 4.9695 2.2047
-6.0148 4.6233 2.1457
-6.1411 4.3790 2.1334
-6.2940 4.1555 2.1334
-6.4389 3.9268 2.1334
-6.5753 3.6929 2.1334
-6.7033 3.4544 2.1334
-6.8227 3.2114 2.1334
-6.9332 2.9642 2.1334
-7.0348 2.7133 2.1334
-7.1273 2.4590 2.1334
-7.2106 2.2014 2.1334
-6.3139 1.6824 1.8491
-7.3491 1.6782 2.1334
-7.4042 1.4133 2.1334
-7.4498 1.1465 2.1334
-7.4857 0.8783 2.1334
-7.5120 0.6090 2.1334
-7.5287 0.3390 2.1334
-7.5356 0.0685 2.1334
-7.5328 -0.2020 2.1334
-7.5202 -0.4723 2.1334
-7.4980 -0.7419 2.1334
-7.4662 -1.0105 2.1334
-7.4247 -1.2778 2.1334
-7.3736 -1.5434 2.1334
-7.3131 -1.8070 2.1334
-7.2430 -2.0682 2.1333
-7.1637 -2.3268 2.1333
-7.0752 -2.5823 2.1333
-6.9776 -2.8345 2.1333
-6.8710 -3.0830 2.1334
-6.7556 -3.3275 2.1334
-6.6315 -3.5677 2.1334
-6.4989 -3.8033 2.1334
-6.3579 -4.0340 2.1334
-6.2087 -4.2594 2.1334
-6.0515 -4.4794 2.1334
-6.0009 -4.7847 2.1748
-5.9902 -5.1385 2.2365
-5.8016 -5.3500 2.2365
-5.6056 -5.5546 2.2365
-5.4024 -5.7520 2.2365
-5.1922 -5.9421 2.2365
-4.9754 -6.1244 2.2365
-4.7521 -6.2989 2.2365
-4.5228 -6.4652 2.2365
-4.2877 -6.6232 2.2365
-4.0470 -6.7727 2.2365
-3.8012 -6.9134 2.2365
-3.5504 -7.0453 2.2365
-3.2951 -7.1680 2.2365
-3.0356 -7.2815 2.2365
-2.7722 -7.3857 2.2365
-2.5053 -7.4803 2.2365
-2.2350 -7.5653 2.2365
-1.9620 -7.6406 2.2365
-1.6864 -7.7060 2.2365
-1.4087 -7.7615 2.2365
-1.1291 -7.8070 2.2365
-0.8481 -7.8425 2.2365
-0.5660 -7.8678 2.2365
-0.2832 -7.8830 2.2365
0.0000 -7.2609 2.2365
0.2607 -7.2563 2.2365
0.5210 -7.2422 2.2365
0.7807 -7.2189 2.2365
1.0394 -7.1863 2.2365
1.2967 -7.1444 2.2365
1.5524 -7.0933 2.2365
1.8060 -7.0331 2.2365
2.0453 -6.9230 2.2234
2.1997 -6.5677 2.1332
2.4341 -6.4846 2.1332
2.6653 -6.3932 2.1332
2.8932 -6.2935 2.1332
3.1173 -6.1857 2.1332
3.3375 -6.0700 2.1332
3.5533 -5.9464 2.1332
3.7646 -5.8152 2.1332
3.9711 -5.6764 2.1332
4.1724 -5.5304 2.1332
4.3684 -5.3772 2.1332
4.5588 -5.2171 2.1332
4.7433 -5.0502 2.1332
4.9217 -4.8769 2.1332
5.0938 -4.6972 2.1332
5.2594 -4.5115 2.1332
5.4182 -4.3200 2.1332
5.5700 -4.1228 2.1332
5.7146 -3.9204 2.1332
5.8519 -3.7129 2.1332
5.9817 -3.5006 2.1332
6.1703 -3.3195 2.1565
6.1990 -3.0533 2.1267
6.1990 -2.7814 2.0910
6.2371 -2.5336 2.0717
6.3243 -2.3082 2.0717
6.4034 -2.0798 2.0717
6.4995 -1.8559 2.0798
6.8043 -1.6812 2.1565
6.8606 -1.4360 2.1565
6.9081 -1.1888 2.1565
6.9467 -0.9401 2.1565
6.9763 -0.6902 2.1565
6.9969 -0.4394 2.1565
6.6691 -0.1788 2.0520
6.6716 0.0607 2.0520
6.6654 0.3002 2.0520
6.6507 0.5393 2.0520
6.6274 0.7777 2.0520
6.5955 1.0151 2.0520
6.5552 1.2513 2.0520
6.5064 1.4859 2.0520
6.4492 1.7185 2.0520
6.3836 1.9490 2.0520
6.6310 2.2878 2.1565
6.5449 2.5244 2.1565
6.4504 2.7579 2.1565
6.3475 2.9878 2.1565
6.2365 3.2138 2.1565
6.0514 3.3987 2.1332
5.9258 3.6139 2.1332
5.7925 3.8244 2.1332
2.3836 1.6997 0.8997
5.5036 4.2305 2.1332
5.3484 4.4254 2.1332
5.1863 4.6147 2.1332
5.0176 4.7981 2.1332
4.8423 4.9753 2.1332
4.6607 5.1461 2.1332
4.4732 5.3102 2.1332
4.2798 5.4675 2.1332
4.0809 5.6178 2.1332
3.8768 5.7608 2.1332
3.6676 5.8964 2.1332
3.4537 6.0244 2.1332
3.2356 6.1451 2.1334
3.0130 6.2574 2.1334
2.7865 6.3616 2.1334
2.5565 6.4577 2.1334
2.3231 6.5454 2.1334
2.0867 6.6246 2.1334
1.9369 7.0189 2.2365
1.6837 7.0840 2.2365
1.4284 7.1399 2.2365
1.1712 7.1866 2.2365
0.9125 7.2241 2.2365
0.6527 7.2522 2.2365
0.3919 7.2710 2.2365
0.1307 7.2804 2.2365
-0.1307 7.2804 2.2365
-0.3919 7.2710 2.2365
-0.6526 7.2522 2.2365
-0.9125 7.2240 2.2365
-1.1712 7.1866 2.2365
-1.4283 7.1398 2.2365
-1.6837 7.0839 2.2365
-1.9368 7.0188 2.2365
-2.1874 6.9446 2.2365
-2.4353 6.8615 2.2365
-2.6799 6.7696 2.2365
-2.9211 6.6689 2.2365
-3.1585 6.5596 2.2365
-3.3918 6.4419 2.2365
-3.6208 6.3158 2.2365
-3.8450 6.1816 2.2365
-4.0643 6.0395 2.2365
-4.2783 5.8895 2.2365
-4.4868 5.7320 2.2365
-4.6895 5.5671 2.2365
-4.8861 5.3950 2.2365
-5.0765 5.2159 2.2365
-5.2602 5.0302 2.2365
-5.4371 4.8380 2.2365
-5.6071 4.6395 2.2365
-5.7698 4.4351 2.2365
-5.9250 4.2249 2.2365
-6.0061 3.9655 2.2120
-6.0107 3.6657 2.1639
-6.0516 3.3988 2.1334
-6.1694 3.1793 2.1334
-6.2792 2.9556 2.1334
-6.3810 2.7282 2.1334
-6.4745 2.4973 2.1334
-6.5596 2.2632 2.1334
-6.6363 2.0262 2.1334
-6.3072 1.6807 2.0070
-6.7639 1.5447 2.1334
-6.8147 1.3008 2.1334
-6.8566 1.0553 2.1334
-6.8898 0.8085 2.1334
-6.9140 0.5606 2.1334
-6.9293 0.3120 2.1334
-6.9357 0.0631 2.1334
-6.9331 -0.1859 2.1334
-6.9216 -0.4346 2.1334
-6.9012 -0.6828 2.1334
-6.8719 -0.9300 2.1334
-6.8338 -1.1760 2.1334
-6.7868 -1.4205 2.1334
-6.7311 -1.6632 2.1334
-6.6667 -1.9036 2.1334
-6.5937 -2.1416 2.1334
-6.5123 -2.3768 2.1334
-6.4225 -2.6089 2.1334
-6.3244 -2.8377 2.1334
-6.2182 -3.0627 2.1334
-6.1040 -3.2839 2.1334
-6.0082 -3.5161 2.1428
-5.9987 -3.8061 2.1868
-5.9910 -4.1100 2.2365
-5.8393 -4.3222 2.2365
-5.6802 -4.5289 2.2365
-5.5137 -4.7297 2.2365
-5.3402 -4.9244 2.2365
-5.1598 -5.1128 2.2365
-4.9727 -5.2945 2.2365
-4.7793 -5.4694 2.2365
-4.5797 -5.6373 2.2365
-4.3742 -5.7979 2.2365
-4.1631 -5.9510 2.2365
-3.9467 -6.0965 2.2365
-3.7252 -6.2341 2.2365
-3.4989 -6.3636 2.2365
-3.2681 -6.4850 2.2365
-3.0331 -6.5980 2.2365
-2.7943 -6.7025 2.2365
-2.5518 -6.7984 2.2365
-2.3060 -6.8855 2.2365
-2.0573 -6.9637 2.2365
-1.8060 -7.0330 2.2365
-1.5523 -7.0932 2.2365
-1.2967 -7.1443 2.2365
-1.0393 -7.1862 2.2365
-0.7807 -7.2189 2.2365
-0.5210 -7.2422 2.2365
-0.2607 -7.2562 2.2365
0.0000 -6.7192 2.2365
0.2412 -6.7149 2.2365
0.4822 -6.7019 2.2365
0.7225 -6.6803 2.2365
0.9618 -6.6501 2.2365
1.2000 -6.6113 2.2365
1.4365 -6.5641 2.2365
1.6713 -6.5083 2.2365
1.9039 -6.4442 2.2365
2.0546 -6.1345 2.1532
2.2589 -6.0179 2.1393
2.4665 -5.9161 2.1332
2.6773 -5.8239 2.1332
2.8847 -5.7241 2.1332
3.0885 -5.6170 2.1332
3.2882 -5.5027 2.1332
3.4837 -5.3812 2.1332
3.6748 -5.2528 2.1332
3.8611 -5.1177 2.1332
4.0424 -4.9759 2.1332
4.2186 -4.8277 2.1332
4.3893 -4.6733 2.1332
4.5544 -4.5129 2.1332
4.7137 -4.3466 2.1332
4.8669 -4.1747 2.1332
5.0138 -3.9975 2.1332
5.1542 -3.8151 2.1332
5.2881 -3.6277 2.1332
5.4151 -3.4357 2.1332
5.5352 -3.2392 2.1332
5.6481 -3.0385 2.1332
5.7538 -2.8339 2.1332
5.8521 -2.6257 2.1332
5.9429 -2.4140 2.1332
6.0260 -2.1992 2.1332
6.1678 -2.0032 2.1565
6.2360 -1.7806 2.1565
6.2962 -1.5556 2.1565
6.3483 -1.3287 2.1565
6.3922 -1.1000 2.1565
6.4279 -0.8699 2.1565
6.4553 -0.6386 2.1565
6.4743 -0.4065 2.1565
6.1710 -0.1654 2.0520
6.1733 0.0562 2.0520
6.1676 0.2778 2.0520
6.1539 0.4990 2.0520
6.1323 0.7196 2.0520
6.1028 0.9394 2.0520
6.0655 1.1579 2.0520
6.0203 1.3749 2.0520
6.0077 1.6010 2.0659
6.0078 1.8343 2.0872
6.0078 2.0728 2.1116
5.9905 2.3107 2.1332
5.9040 2.5243 2.1332
5.8098 2.7347 2.1332
5.7082 2.9416 2.1332
5.5991 3.1448 2.1332
5.4829 3.3439 2.1332
5.3595 3.5386 2.1332
2.3833 1.6995 0.9722
5.0923 3.9143 2.1332
4.9487 4.0947 2.1332
4.7987 4.2699 2.1332
4.6425 4.4395 2.1332
4.4803 4.6034 2.1332
4.3123 4.7614 2.1332
4.1388 4.9133 2.1332
3.9599 5.0588 2.1332
3.7759 5.1978 2.1332
3.5870 5.3302 2.1332
3.3934 5.4556 2.1332
3.1955 5.5740 2.1332
2.9934 5.6852 2.1332
2.7875 5.7891 2.1332
2.5780 5.8856 2.1332
2.3651 5.9744 2.1332
2.1492 6.0555 2.1332
2.0217 6.4184 2.2340
1.7920 6.4941 2.2365
1.5578 6.5543 2.2365
1.3216 6.6061 2.2365
1.0836 6.6493 2.2365
0.8443 6.6839 2.2365
0.6038 6.7100 2.2365
0.3626 6.7273 2.2365
0.1209 6.7360 2.2365
-0.1209 6.7360 2.2365
-0.3626 6.7273 2.2365
-0.6038 6.7099 2.2365
-0.8443 6.6839 2.2365
-1.0836 6.6492 2.2365
-1.3215 6.6060 2.2365
-1.5578 6.5542 2.2365
-1.7920 6.4940 2.2365
-2.0239 6.4254 2.2365
-2.2531 6.3486 2.2365
-2.4795 6.2635 2.2365
-2.7027 6.1703 2.2365
-2.9223 6.0692 2.2365
-3.1382 5.9603 2.2365
-3.3500 5.8437 2.2365
-3.5575 5.7195 2.2365
-3.7604 5.5880 2.2365
-3.9585 5.4493 2.2365
-4.1514 5.3035 2.2365
-4.3389 5.1510 2.2365
-4.5209 4.9917 2.2365
-4.6970 4.8261 2.2365
-4.8670 4.6542 2.2365
-5.0307 4.4764 2.2365
-5.1880 4.2928 2.2365
-5.3385 4.1036 2.2365
-5.4822 3.9092 2.2365
-5.6187 3.7098 2.2365
-5.7480 3.5056 2.2365
-5.8699 3.2969 2.2365
-5.9842 3.0839 2.2365
-6.0062 2.8272 2.2054
-6.0090 2.5693 2.1713
-6.0158 2.3204 2.1423
-6.0695 2.0942 2.1334
-6.1405 1.8749 2.1334
-6.2036 1.6532 2.1334
-6.2586 1.4293 2.1334
-6.3056 1.2037 2.1334
-6.3444 0.9765 2.1334
-6.3751 0.7481 2.1334
-6.3976 0.5188 2.1334
-6.4117 0.2888 2.1334
-6.4177 0.0585 2.1334
-6.4153 -0.1719 2.1334
-6.4047 -0.4021 2.1334
-6.3858 -0.6317 2.1334
-6.3587 -0.8605 2.1334
-6.3235 -1.0882 2.1334
-6.2800 -1.3144 2.1334
-6.2285 -1.5389 2.1334
-6.1690 -1.7614 2.1334
-6.1015 -1.9816 2.1334
-6.0262 -2.1993 2.1334
-6.0051 -2.4393 2.1557
-5.9987 -2.6914 2.1867
-5.9977 -2.9541 2.2237
-5.9213 -3.1855 2.2365
-5.8029 -3.3959 2.2365
-5.6770 -3.6018 2.2365
-5.5438 -3.8032 2.2365
-5.4035 -3.9996 2.2365
-5.2562 -4.1908 2.2365
-5.1022 -4.3767 2.2365
-4.9416 -4.5569 2.2365
-4.7747 -4.7312 2.2365
-4.6016 -4.8994 2.2365
-4.4226 -5.0612 2.2365
-4.2380 -5.2166 2.2365
-4.0478 -5.3652 2.2365
-3.8525 -5.5069 2.2365
-3.6522 -5.6415 2.2365
-3.4473 -5.7689 2.2365
-3.2378 -5.8888 2.2365
-3.0243 -6.0011 2.2365
-2.8069 -6.1057 2.2365
-2.5858 -6.2024 2.2365
-2.3614 -6.2911 2.2365
-2.1340 -6.3717 2.2365
-1.9039 -6.4442 2.2365
-1.6713 -6.5083 2.2365
-1.4365 -6.5640 2.2365
-1.1999 -6.6113 2.2365
-0.9618 -6.6501 2.2365
-0.7224 -6.6803 2.2365
-0.4821 -6.7019 2.2365
-0.2412 -6.7149 2.2365
0.0000 -6.2461 2.2365
0.2243 -6.2421 2.2365
0.4482 -6.2301 2.2365
0.6716 -6.2100 2.2365
0.8941 -6.1819 2.2365
1.1155 -6.1459 2.2365
1.3354 -6.1019 2.2365
1.5536 -6.0501 2.2365
1.7699 -5.9905 2.2365
1.9838 -5.9232 2.2365
2.0939 -5.5783 2.1332
2.2928 -5.4996 2.1332
2.4888 -5.4138 2.1332
2.6817 -5.3211 2.1332
2.8710 -5.2215 2.1332
3.0567 -5.1152 2.1332
3.2384 -5.0023 2.1332
3.4160 -4.8829 2.1332
3.5892 -4.7573 2.1332
3.7578 -4.6255 2.1332
3.9216 -4.4877 2.1332
4.0803 -4.3442 2.1332
4.2337 -4.1950 2.1332
4.3817 -4.0405 2.1332
4.5241 -3.8807 2.1332
4.6607 -3.7159 2.1332
4.7912 -3.5463 2.1332
4.9156 -3.3722 2.1332
5.0337 -3.1936 2.1332
5.1453 -3.0110 2.1332
5.2503 -2.8245 2.1332
5.3485 -2.6343 2.1332
5.4399 -2.4407 2.1332
5.5242 -2.2439 2.1332
5.6014 -2.0442 2.1332
5.6715 -1.8419 2.1332
5.7342 -1.6372 2.1332
5.7895 -1.4304 2.1332
5.8374 -1.2217 2.1332
5.8777 -1.0114 2.1332
5.9105 -0.7998 2.1332
5.9357 -0.5871 2.1332
5.9532 -0.3737 2.1332
5.9631 -0.1598 2.1332
5.9652 0.0544 2.1332
5.9597 0.2685 2.1332
5.9465 0.4823 2.1332
5.9256 0.6954 2.1332
5.8971 0.9077 2.1332
5.8609 1.1189 2.1332
5.8173 1.3286 2.1332
5.7661 1.5366 2.1332
5.7074 1.7427 2.1332
5.6415 1.9465 2.1332
5.5682 2.1478 2.1332
5.4877 2.3464 2.1332
5.4002 2.5420 2.1332
5.3057 2.7343 2.1332
5.2043 2.9231 2.1332
5.0963 3.1081 2.1332
4.9816 3.2892 2.1332
2.3830 1.6993 1.0459
4.7331 3.6383 2.1332
4.5997 3.8060 2.1332
4.4602 3.9688 2.1332
4.3151 4.1264 2.1332
4.1643 4.2788 2.1332
4.0082 4.4256 2.1332
3.8468 4.5668 2.1332
3.6806 4.7021 2.1332
3.5095 4.8313 2.1332
3.3339 4.9542 2.1332
3.1540 5.0708 2.1332
2.9701 5.1809 2.1332
2.7823 5.2842 2.1332
2.5909 5.3808 2.1332
0.8578 1.9585 0.7637
2.1983 5.5530 2.1332
2.0409 5.7505 2.1795
1.8812 5.9723 2.2365
1.6656 6.0360 2.2365
1.4479 6.0920 2.2365
1.2283 6.1401 2.2365
1.0072 6.1802 2.2365
0.7847 6.2124 2.2365
0.5612 6.2366 2.2365
0.3370 6.2528 2.2365
0.1124 6.2608 2.2365
-0.1124 6.2608 2.2365
-0.3370 6.2528 2.2365
-0.5612 6.2366 2.2365
-0.7847 6.2124 2.2365
-1.0071 6.1802 2.2365
-1.2283 6.1400 2.2365
-1.4479 6.0919 2.2365
-1.6656 6.0360 2.2365
-1.8811 5.9722 2.2365
-2.0942 5.9008 2.2365
-2.3046 5.8217 2.2365
-0.8578 1.9585 0.7637
-0.9276 1.9264 0.7638
-2.9169 5.5399 2.2365
-3.1137 5.4315 2.2365
-3.3066 5.3161 2.2365
-3.4952 5.1939 2.2365
-3.6793 5.0650 2.2365
-3.8586 4.9295 2.2365
-4.0329 4.7877 2.2365
-4.2020 4.6397 2.2365
-4.3657 4.4858 2.2365
-4.5238 4.3261 2.2365
-4.6760 4.1608 2.2365
-4.8221 3.9901 2.2365
-4.9620 3.8143 2.2365
-5.0956 3.6336 2.2365
-5.2225 3.4483 2.2365
-5.3427 3.2585 2.2365
-5.4560 3.0645 2.2365
-5.5623 2.8665 2.2365
-5.6613 2.6649 2.2365
-5.7531 2.4599 2.2365
-5.8375 2.2517 2.2365
-5.9143 2.0406 2.2365
-5.9834 1.8270 2.2365
-6.0063 1.6007 2.2222
-6.0064 1.3718 2.2027
-6.0064 1.1467 2.1862
-6.0086 0.9249 2.1737
-6.0109 0.7055 2.1640
-6.0125 0.4876 2.1570
-6.0136 0.2709 2.1526
-6.0140 0.0548 2.1508
-6.0139 -0.1611 2.1515
-6.0131 -0.3775 2.1548
-6.0118 -0.5947 2.1607
-6.0098 -0.8132 2.1692
-6.0073 -1.0337 2.1803
-6.0066 -1.2571 2.1951
-6.0066 -1.4840 2.2133
-6.0066 -1.7150 2.2347
-5.9457 -1.9310 2.2365
-5.8723 -2.1431 2.2365
-5.7914 -2.3524 2.2365
-5.7029 -2.5587 2.2365
-5.6072 -2.7617 2.2365
-5.5042 -2.9611 2.2365
-5.3942 -3.1566 2.2365
-5.2772 -3.3481 2.2365
-5.1534 -3.5353 2.2365
-5.0230 -3.7179 2.2365
-4.8861 -3.8956 2.2365
-4.7429 -4.0684 2.2365
-4.5937 -4.2359 2.2365
-4.4385 -4.3979 2.2365
-4.2776 -4.5543 2.2365
-4.1112 -4.7048 2.2365
-3.9396 -4.8492 2.2365
-3.7628 -4.9874 2.2365
-3.5813 -5.1191 2.2365
-3.3951 -5.2443 2.2365
-3.2046 -5.3627 2.2365
-3.0099 -5.4741 2.2365
-2.8114 -5.5785 2.2365
-2.6093 -5.6758 2.2365
-2.4038 -5.7657 2.2365
-2.1952 -5.8482 2.2365
-1.9838 -5.9231 2.2365
-1.7698 -5.9904 2.2365
-1.5536 -6.0501 2.2365
-1.3354 -6.1019 2.2365
-1.1154 -6.1458 2.2365
-0.8941 -6.1819 2.2365
-0.6716 -6.2100 2.2365
-0.4482 -6.2300 2.2365
-0.2242 -6.2421 2.2365
0.0000 -5.8291 2.2365
0.2093 -5.8253 2.2365
0.4183 -5.8141 2.2365
0.6268 -5.7953 2.2365
0.8344 -5.7691 2.2365
1.0410 -5.7355 2.2365
1.2463 -5.6945 2.2365
1.4499 -5.6461 2.2365
1.6517 -5.5905 2.2365
1.8514 -5.5277 2.2365
2.0451 -5.4483 2.2326
2.1397 -5.1323 2.1332
2.3227 -5.0523 2.1332
2.5026 -4.9657 2.1332
2.6793 -4.8728 2.1332
2.8526 -4.7736 2.1332
3.0222 -4.6682 2.1332
3.1879 -4.5568 2.1332
3.3495 -4.4395 2.1332
3.5069 -4.3165 2.1332
3.6597 -4.1880 2.1332
3.8078 -4.0540 2.1332
3.9510 -3.9148 2.1332
4.0891 -3.7706 2.1332
4.2220 -3.6215 2.1332
4.3494 -3.4677 2.1332
4.4712 -3.3094 2.1332
4.5873 -3.1469 2.1332
4.6975 -2.9803 2.1332
4.8016 -2.8098 2.1332
4.8996 -2.6357 2.1332
4.9912 -2.4582 2.1332
5.0765 -2.2776 2.1332
5.1552 -2.0939 2.1332
5.2272 -1.9076 2.1332
5.2925 -1.7188 2.1332
5.3511 -1.5278 2.1332
5.4027 -1.3347 2.1332
5.4473 -1.1400 2.1332
5.4850 -0.9438 2.1332
5.5156 -0.7463 2.1332
5.5390 -0.5478 2.1332
5.5554 -0.3487 2.1332
5.5645 -0.1490 2.1332
5.5665 0.0508 2.1332
5.5614 0.2506 2.1332
5.5490 0.4501 2.1332
5.5295 0.6490 2.1332
5.5029 0.8471 2.1332
5.4692 1.0441 2.1332
5.4284 1.2398 2.1332
5.3806 1.4340 2.1332
5.3259 1.6262 2.1332
5.2643 1.8164 2.1332
5.1959 2.0043 2.1332
5.1208 2.1896 2.1332
5.0391 2.3721 2.1332
4.9509 2.5515 2.1332
4.8563 2.7277 2.1332
4.7555 2.9003 2.1332
4.6485 3.0693 2.1332
2.3827 1.6991 1.1207
4.4166 3.3951 2.1332
4.2921 3.5515 2.1332
4.1619 3.7034 2.1332
4.0265 3.8505 2.1332
3.8858 3.9927 2.1332
3.7401 4.1297 2.1332
3.5895 4.2614 2.1332
3.4344 4.3876 2.1332
3.2748 4.5082 2.1332
3.1109 4.6229 2.1332
2.9431 4.7317 2.1332
2.7714 4.8344 2.1332
2.5962 4.9308 2.1332
0.8656 1.7977 0.7638
0.8005 1.8276 0.7638
0.7344 1.8552 0.7638
0.6674 1.8804 0.7638
0.5994 1.9031 0.7637
0.5307 1.9234 0.7637
0.4614 1.9412 0.7637
0.3914 1.9565 0.7637
0.9398 5.7668 2.2365
0.7322 5.7969 2.2365
0.5237 5.8195 2.2365
0.3145 5.8345 2.2365
0.1049 5.8420 2.2365
-0.1049 5.8420 2.2365
-0.3145 5.8345 2.2365
-0.5237 5.8194 2.2365
-0.7322 5.7969 2.2365
-0.9398 5.7668 2.2365
-0.3914 1.9565 0.7637
-0.4614 1.9412 0.7637
-0.5307 1.9234 0.7637
-0.5994 1.9031 0.7638
-0.6673 1.8804 0.7638
-0.7344 1.8552 0.7638
-0.8005 1.8276 0.7638
-0.8656 1.7977 0.7638
-0.9296 1.7655 0.7638
-2.9054 5.0683 2.2365
-3.0854 4.9606 2.2365
-3.2614 4.8466 2.2365
-3.4332 4.7263 2.2365
-3.6005 4.5999 2.2365
-3.7632 4.4676 2.2365
-3.9210 4.3295 2.2365
-4.0737 4.1858 2.2365
-4.2212 4.0368 2.2365
-4.3632 3.8826 2.2365
-4.4996 3.7233 2.2365
-4.6302 3.5593 2.2365
-4.7548 3.3907 2.2365
-4.8733 3.2177 2.2365
-4.9855 3.0406 2.2365
-5.0912 2.8596 2.2365
-5.1904 2.6749 2.2365
-5.2828 2.4868 2.2365
-5.3685 2.2955 2.2365
-5.4472 2.1012 2.2365
-5.5189 1.9043 2.2365
-5.5834 1.7049 2.2365
-5.6408 1.5033 2.2365
-5.6909 1.2998 2.2365
-5.7337 1.0946 2.2365
-5.7690 0.8881 2.2365
-5.7969 0.6804 2.2365
-5.8174 0.4719 2.2365
-5.8303 0.2627 2.2365
-5.8357 0.0533 2.2365
-5.8336 -0.1562 2.2365
-5.8240 -0.3655 2.2365
-5.8069 -0.5743 2.2365
-5.7823 -0.7824 2.2365
-5.7502 -0.9894 2.2365
-5.7108 -1.1951 2.2365
-5.6640 -1.3993 2.2365
-5.6098 -1.6017 2.2365
-5.5485 -1.8019 2.2365
-5.4800 -1.9999 2.2365
-5.4045 -2.1952 2.2365
-5.3220 -2.3877 2.2365
-5.2326 -2.5771 2.2365
-5.1366 -2.7632 2.2365
-5.0339 -2.9457 2.2365
-4.9247 -3.1244 2.2365
-4.8092 -3.2991 2.2365
-4.6875 -3.4695 2.2365
-4.5598 -3.6354 2.2365
-4.4262 -3.7966 2.2365
-4.2869 -3.9530 2.2365
-4.1421 -4.1042 2.2365
-3.9919 -4.2501 2.2365
-3.8367 -4.3906 2.2365
-3.6765 -4.5254 2.2365
-3.5116 -4.6543 2.2365
-3.3421 -4.7772 2.2365
-3.1684 -4.8940 2.2365
-2.9906 -5.0045 2.2365
-2.8089 -5.1086 2.2365
-2.6237 -5.2060 2.2365
-2.4350 -5.2967 2.2365
-2.2433 -5.3807 2.2365
-2.0486 -5.4576 2.2365
-1.8513 -5.5276 2.2365
-1.6517 -5.5904 2.2365
-1.4499 -5.6461 2.2365
-1.2462 -5.6944 2.2365
-1.0410 -5.7355 2.2365
-0.8344 -5.7691 2.2365
-0.6267 -5.7953 2.2365
-0.4183 -5.8141 2.2365
-0.2093 -5.8253 2.2365
0.0000 -5.4583 2.2365
0.1960 -5.4548 2.2365
0.3917 -5.4442 2.2365
0.5869 -5.4267 2.2365
0.7814 -5.4021 2.2365
0.9748 -5.3706 2.2365
1.1670 -5.3322 2.2365
1.3577 -5.2869 2.2365
1.5466 -5.2348 2.2365
1.7336 -5.1760 2.2365
1.9184 -5.1105 2.2365
2.0478 -4.9116 2.1802
2.1749 -4.7309 2.1332
2.3434 -4.6498 2.1332
2.5089 -4.5628 2.1332
2.6711 -4.4699 2.1332
2.8299 -4.3712 2.1332
2.9851 -4.2669 2.1332
3.1364 -4.1570 2.1332
3.2838 -4.0419 2.1332
3.4268 -3.9215 2.1332
3.5655 -3.7960 2.1332
3.6996 -3.6657 2.1332
3.8289 -3.5306 2.1332
3.9533 -3.3910 2.1332
4.0727 -3.2470 2.1332
4.1867 -3.0988 2.1332
4.2954 -2.9466 2.1332
4.3986 -2.7906 2.1332
4.4961 -2.6310 2.1332
4.5878 -2.4679 2.1332
4.6736 -2.3017 2.1332
4.7534 -2.1326 2.1332
4.8271 -1.9606 2.1332
4.8945 -1.7861 2.1332
4.9557 -1.6093 2.1332
5.0105 -1.4305 2.1332
5.0588 -1.2497 2.1332
5.1006 -1.0674 2.1332
5.1358 -0.8836 2.1332
5.1644 -0.6987 2.1332
5.1864 -0.5129 2.1332
5.2017 -0.3264 2.1332
5.2103 -0.1395 2.1332
5.2121 0.0476 2.1332
5.2073 0.2347 2.1332
5.1957 0.4215 2.1332
5.1774 0.6077 2.1332
5.1525 0.7932 2.1332
5.1209 0.9777 2.1332
5.0827 1.1609 2.1332
5.0380 1.3427 2.1332
4.9867 1.5227 2.1332
4.9290 1.7008 2.1332
4.8650 1.8767 2.1332
4.7947 2.0502 2.1332
4.7182 2.2210 2.1332
4.6356 2.3891 2.1332
4.5470 2.5540 2.1332
4.4526 2.7156 2.1332
4.3524 2.8738 2.1332
2.3824 1.6989 1.1968
4.1353 3.1788 2.1332
4.0186 3.3253 2.1332
3.8968 3.4675 2.1332
3.7699 3.6053 2.1332
3.6382 3.7384 2.1332
3.5018 3.8666 2.1332
3.3608 3.9899 2.1332
3.2155 4.1081 2.1332
3.0661 4.2210 2.1332
2.9127 4.3284 2.1332
2.7555 4.4302 2.1332
2.5948 4.5264 2.1332
0.8704 1.6531 0.7638
0.8105 1.6833 0.7638
0.7495 1.7113 0.7638
0.6877 1.7371 0.7638
0.6249 1.7607 0.7638
0.5613 1.7820 0.7638
0.4970 1.8010 0.7638
0.4320 1.8176 0.7638
0.3665 1.8320 0.7638
0.3005 1.8439 0.7638
0.2341 1.8535 0.7638
0.1675 1.8607 0.7638
0.1006 1.8656 0.7638
0.0335 1.8680 0.7638
-0.0335 1.8680 0.7638
-0.1005 1.8656 0.7638
-0.1674 1.8607 0.7638
-0.2341 1.8535 0.7638
-0.3005 1.8439 0.7638
-0.3665 1.8320 0.7638
-0.4320 1.8176 0.7638
-0.4969 1.8010 0.7638
-0.5612 1.7820 0.7638
-0.6248 1.7607 0.7638
-0.6876 1.7371 0.7638
-0.7495 1.7113 0.7638
-0.8105 1.6833 0.7638
-0.8704 1.6531 0.7639
-0.9291 1.6208 0.7639
-2.8888 4.6446 2.2365
-3.0536 4.5378 2.2365
-3.2144 4.4252 2.2365
-3.3711 4.3068 2.2365
-3.5234 4.1830 2.2365
-3.6712 4.0537 2.2365
-3.8142 3.9192 2.2365
-3.9523 3.7797 2.2365
-4.0853 3.6353 2.2365
-4.2130 3.4862 2.2365
-4.3353 3.3326 2.2365
-4.4519 3.1748 2.2365
-4.5629 3.0128 2.2365
-4.6679 2.8470 2.2365
-4.7669 2.6775 2.2365
-4.8598 2.5046 2.2365
-4.9464 2.3285 2.2365
-5.0266 2.1494 2.2365
-5.1003 1.9675 2.2365
-5.1674 1.7831 2.2365
-5.2279 1.5964 2.2365
-5.2816 1.4076 2.2365
-5.3285 1.2171 2.2365
-5.3685 1.0250 2.2365
-5.4017 0.8316 2.2365
-5.4278 0.6371 2.2365
-5.4470 0.4419 2.2365
-5.4591 0.2461 2.2365
-5.4642 0.0499 2.2365
-5.4622 -0.1462 2.2365
-5.4533 -0.3422 2.2365
-5.4372 -0.5377 2.2365
-5.4142 -0.7325 2.2365
-5.3842 -0.9264 2.2365
-5.3473 -1.1190 2.2365
-5.3034 -1.3102 2.2365
-5.2528 -1.4997 2.2365
-5.1954 -1.6872 2.2365
-5.1312 -1.8725 2.2365
-5.0605 -2.0554 2.2365
-4.9833 -2.2357 2.2365
-4.8996 -2.4131 2.2365
-4.8097 -2.5873 2.2365
-4.7135 -2.7582 2.2365
-4.6113 -2.9256 2.2365
-4.5032 -3.0891 2.2365
-4.3892 -3.2487 2.2365
-4.2696 -3.4040 2.2365
-4.1446 -3.5550 2.2365
-4.0141 -3.7014 2.2365
-3.8785 -3.8430 2.2365
-3.7380 -3.9797 2.2365
-3.5926 -4.1112 2.2365
-3.4426 -4.2374 2.2365
-3.2882 -4.3582 2.2365
-3.1295 -4.4733 2.2365
-2.9668 -4.5827 2.2365
-2.8003 -4.6861 2.2365
-2.6302 -4.7835 2.2365
-2.4568 -4.8748 2.2365
-2.2801 -4.9598 2.2365
-2.1006 -5.0384 2.2365
-1.9183 -5.1104 2.2365
-1.7336 -5.1760 2.2365
-1.5466 -5.2348 2.2365
-1.3577 -5.2869 2.2365
-1.1670 -5.3322 2.2365
-0.9748 -5.3706 2.2365
-0.7813 -5.4021 2.2365
-0.5869 -5.4266 2.2365
-0.3917 -5.4442 2.2365
-0.1960 -5.4547 2.2365
0.0000 -5.1261 2.2365
0.1841 -5.1228 2.2365
0.3679 -5.1129 2.2365
0.5512 -5.0964 2.2365
0.7338 -5.0734 2.2365
0.9155 -5.0438 2.2365
1.0960 -5.0077 2.2365
1.2751 -4.9652 2.2365
1.4526 -4.9163 2.2365
1.6281 -4.8610 2.2365
1.8016 -4.7995 2.2365
1.9728 -4.7318 2.2365
2.0562 -4.4726 2.1474
2.2008 -4.3668 2.1332
2.3562 -4.2851 2.1332
2.5086 -4.1978 2.1332
2.6577 -4.1051 2.1332
2.8035 -4.0071 2.1332
2.9456 -3.9040 2.1332
3.0839 -3.7958 2.1332
3.2183 -3.6828 2.1332
3.3485 -3.5649 2.1332
3.4744 -3.4425 2.1332
3.5959 -3.3157 2.1332
3.7127 -3.1845 2.1332
3.8248 -3.0493 2.1332
3.9319 -2.9101 2.1332
4.0340 -2.7672 2.1332
4.1308 -2.6206 2.1332
4.2224 -2.4707 2.1332
4.3085 -2.3177 2.1332
4.3891 -2.1616 2.1332
4.4640 -2.0027 2.1332
4.5332 -1.8412 2.1332
4.5965 -1.6773 2.1332
4.6540 -1.5113 2.1332
4.7054 -1.3433 2.1332
4.7508 -1.1736 2.1332
4.7900 -1.0023 2.1332
4.8231 -0.8298 2.1332
4.8500 -0.6561 2.1332
4.8706 -0.4816 2.1332
4.8849 -0.3065 2.1332
4.8930 -0.1309 2.1332
4.8947 0.0448 2.1332
4.8901 0.2205 2.1332
4.8793 0.3959 2.1332
4.8621 0.5708 2.1332
4.8386 0.7450 2.1332
4.8090 0.9182 2.1332
4.7731 1.0903 2.1332
4.7311 1.2609 2.1332
4.6829 1.4300 2.1332
4.6288 1.5972 2.1332
4.5686 1.7624 2.1332
4.5026 1.9253 2.1332
4.4307 2.0858 2.1332
4.3531 2.2435 2.1332
4.2700 2.3984 2.1332
4.1813 2.5502 2.1332
4.0872 2.6988 2.1332
2.3821 1.6987 1.2743
3.8833 2.9852 2.1332
3.7737 3.1227 2.1332
3.6593 3.2563 2.1332
3.5402 3.3856 2.1332
3.4165 3.5106 2.1332
3.2884 3.6310 2.1332
3.1560 3.7468 2.1332
3.0196 3.8578 2.1332
2.8792 3.9638 2.1332
2.7352 4.0646 2.1332
2.5876 4.1603 2.1332
0.8726 1.5221 0.7639
0.8174 1.5524 0.7639
0.7611 1.5808 0.7639
0.7039 1.6071 0.7639
0.6458 1.6313 0.7639
0.5868 1.6535 0.7638
0.5271 1.6734 0.7638
0.4667 1.6913 0.7638
0.4057 1.7070 0.7638
0.3442 1.7204 0.7638
0.2822 1.7317 0.7638
0.2199 1.7407 0.7638
0.1572 1.7474 0.7638
0.0944 1.7520 0.7638
0.0315 1.7542 0.7638
-0.0315 1.7542 0.7638
-0.0944 1.7520 0.7638
-0.1572 1.7474 0.7638
-0.2198 1.7407 0.7638
-0.2822 1.7317 0.7638
-0.3441 1.7204 0.7638
-0.4057 1.7070 0.7638
-0.4667 1.6913 0.7638
-0.5271 1.6735 0.7638
-0.5868 1.6535 0.7639
-0.6458 1.6313 0.7639
-0.7039 1.6071 0.7639
-0.7611 1.5808 0.7639
-0.8174 1.5524 0.7639
-0.8725 1.5221 0.7639
-0.9266 1.4898 0.7639
-0.9795 1.4556 0.7639
-3.0185 4.1555 2.2365
-3.1656 4.0444 2.2365
-3.3087 3.9281 2.2365
-3.4474 3.8067 2.2365
-3.5817 3.6804 2.2365
-3.7114 3.5494 2.2365
-3.8363 3.4138 2.2365
-3.9563 3.2738 2.2365
-4.0711 3.1296 2.2365
-4.1807 2.9814 2.2365
-4.2848 2.8293 2.2365
-4.3835 2.6736 2.2365
-4.4765 2.5145 2.2365
-4.5637 2.3521 2.2365
-4.6450 2.1867 2.2365
-4.7203 2.0185 2.2365
-4.7896 1.8477 2.2365
-4.8526 1.6745 2.2365
-4.9094 1.4992 2.2365
-4.9599 1.3219 2.2365
-5.0039 1.1430 2.2365
-5.0415 0.9626 2.2365
-5.0726 0.7810 2.2365
-5.0972 0.5984 2.2365
-5.1152 0.4150 2.2365
-5.1266 0.2311 2.2365
-5.1314 0.0470 2.2365
-5.1296 -0.1373 2.2365
-5.1212 -0.3213 2.2365
-5.1061 -0.5049 2.2365
-5.0845 -0.6879 2.2365
-5.0563 -0.8699 2.2365
-5.0217 -1.0508 2.2365
-4.9805 -1.2304 2.2365
-4.9330 -1.4083 2.2365
-4.8790 -1.5844 2.2365
-4.8188 -1.7585 2.2365
-4.7524 -1.9303 2.2365
-4.6799 -2.0995 2.2365
-4.6014 -2.2661 2.2365
-4.5169 -2.4298 2.2365
-4.4266 -2.5903 2.2365
-4.3306 -2.7474 2.2365
-4.2291 -2.9010 2.2365
-4.1221 -3.0509 2.2365
-4.0098 -3.1968 2.2365
-3.8923 -3.3386 2.2365
-3.7698 -3.4761 2.2365
-3.6425 -3.6091 2.2365
-3.5105 -3.7374 2.2365
-3.3740 -3.8609 2.2365
-3.2331 -3.9795 2.2365
-3.0881 -4.0929 2.2365
-2.9391 -4.2010 2.2365
-2.7863 -4.3037 2.2365
-2.6299 -4.4009 2.2365
-2.4702 -4.4924 2.2365
-2.3073 -4.5781 2.2365
-2.1414 -4.6579 2.2365
-1.9727 -4.7317 2.2365
-1.8016 -4.7994 2.2365
-1.6281 -4.8610 2.2365
-1.4525 -4.9162 2.2365
-1.2751 -4.9651 2.2365
-1.0960 -5.0077 2.2365
-0.9155 -5.0438 2.2365
-0.7338 -5.0734 2.2365
-0.5512 -5.0964 2.2365
-0.3678 -5.1129 2.2365
-0.1840 -5.1228 2.2365
0.0000 -4.8265 2.2365
0.1733 -4.8234 2.2365
0.3464 -4.8141 2.2365
0.5190 -4.7986 2.2365
0.6909 -4.7769 2.2365
0.8620 -4.7490 2.2365
1.0320 -4.7151 2.2365
1.2006 -4.6750 2.2365
1.3677 -4.6290 2.2365
1.5330 -4.5769 2.2365
1.6964 -4.5190 2.2365
1.8575 -4.4552 2.2365
2.0163 -4.3857 2.2365
2.0722 -4.1116 2.1332
2.2185 -4.0346 2.1332
2.3620 -3.9524 2.1332
2.5024 -3.8652 2.1332
2.6396 -3.7729 2.1332
2.7734 -3.6758 2.1332
2.9037 -3.5740 2.1332
3.0302 -3.4675 2.1332
3.1528 -3.3566 2.1332
3.2714 -3.2413 2.1332
3.3857 -3.1218 2.1332
3.4957 -2.9984 2.1332
3.6012 -2.8710 2.1332
3.7021 -2.7400 2.1332
3.7982 -2.6054 2.1332
3.8894 -2.4674 2.1332
3.9756 -2.3263 2.1332
4.0567 -2.1821 2.1332
4.1325 -2.0352 2.1332
4.2031 -1.8856 2.1332
4.2682 -1.7335 2.1332
4.3278 -1.5792 2.1332
4.3819 -1.4229 2.1332
4.4303 -1.2647 2.1332
4.4730 -1.1049 2.1332
4.5100 -0.9437 2.1332
4.5411 -0.7812 2.1332
4.5664 -0.6177 2.1332
4.5858 -0.4534 2.1332
4.5993 -0.2885 2.1332
4.6068 -0.1232 2.1332
4.6085 0.0422 2.1332
4.6042 0.2076 2.1332
4.5939 0.3728 2.1332
4.5777 0.5375 2.1332
4.5556 0.7014 2.1332
4.5277 0.8646 2.1332
4.4939 1.0266 2.1332
4.4543 1.1872 2.1332
4.4090 1.3464 2.1332
4.3580 1.5039 2.1332
4.3014 1.6594 2.1332
4.2392 1.8128 2.1332
4.1715 1.9638 2.1332
4.0985 2.1123 2.1332
4.0202 2.2582 2.1332
3.9366 2.4011 2.1332
3.8480 2.5409 2.1332
2.3818 1.6985 1.3533
3.6561 2.8106 2.1332
3.5529 2.9401 2.1332
3.4452 3.0658 2.1332
3.3331 3.1876 2.1332
3.2166 3.3052 2.1332
3.0960 3.4186 2.1332
2.9713 3.5276 2.1332
2.8429 3.6321 2.1332
2.7107 3.7319 2.1332
2.5751 3.8268 2.1332
0.8724 1.4027 0.7639
0.8215 1.4331 0.7639
0.7696 1.4617 0.7639
0.7166 1.4884 0.7639
0.6627 1.5131 0.7639
0.6080 1.5359 0.7639
0.5525 1.5568 0.7639
0.4963 1.5756 0.7639
0.4394 1.5924 0.7639
0.3820 1.6072 0.7639
0.3240 1.6198 0.7639
0.2657 1.6304 0.7639
0.2070 1.6389 0.7639
0.1481 1.6453 0.7639
0.0889 1.6495 0.7639
0.0297 1.6517 0.7639
-0.0296 1.6517 0.7639
-0.0889 1.6495 0.7639
-0.1480 1.6453 0.7639
-0.2070 1.6389 0.7639
-0.2657 1.6304 0.7639
-0.3240 1.6198 0.7639
-0.3819 1.6072 0.7639
-0.4394 1.5924 0.7639
-0.4962 1.5756 0.7639
-0.5525 1.5568 0.7639
-0.6080 1.5359 0.7639
-0.6627 1.5131 0.7639
-0.7166 1.4884 0.7639
-0.7696 1.4617 0.7639
-0.8215 1.4331 0.7639
-0.8724 1.4027 0.7640
-0.9222 1.3705 0.7640
-0.9708 1.3365 0.7640
-2.9804 3.8078 2.2365
-3.1151 3.6983 2.2365
-3.2457 3.5840 2.2365
-3.3722 3.4651 2.2365
-3.4943 3.3418 2.2365
-3.6119 3.2141 2.2365
-3.7248 3.0823 2.2365
-3.8329 2.9466 2.2365
-3.9361 2.8070 2.2365
-4.0342 2.6638 2.2365
-4.1270 2.5172 2.2365
-4.2146 2.3674 2.2365
-4.2967 2.2145 2.2365
-4.3733 2.0588 2.2365
-4.4442 1.9004 2.2365
-4.5094 1.7396 2.2365
-4.5688 1.5766 2.2365
-4.6223 1.4115 2.2365
-4.6698 1.2447 2.2365
-4.7113 1.0762 2.2365
-4.7467 0.9064 2.2365
-4.7760 0.7354 2.2365
-4.7991 0.5634 2.2365
-4.8161 0.3908 2.2365
-4.8268 0.2177 2.2365
-4.8313 0.0443 2.2365
-4.8296 -0.1292 2.2365
-4.8217 -0.3025 2.2365
-4.8076 -0.4753 2.2365
-4.7872 -0.6476 2.2365
-4.7607 -0.8190 2.2365
-4.7281 -0.9893 2.2365
-4.6893 -1.1584 2.2365
-4.6446 -1.3259 2.2365
-4.5938 -1.4917 2.2365
-4.5371 -1.6556 2.2365
-4.4746 -1.8174 2.2365
-4.4063 -1.9768 2.2365
-4.3324 -2.1336 2.2365
-4.2529 -2.2877 2.2365
-4.1679 -2.4388 2.2365
-4.0775 -2.5868 2.2365
-3.9819 -2.7314 2.2365
-3.8811 -2.8725 2.2365
-3.7754 -3.0099 2.2365
-3.6648 -3.1434 2.2365
-3.5495 -3.2729 2.2365
-3.4296 -3.3981 2.2365
-3.3053 -3.5189 2.2365
-3.1768 -3.6352 2.2365
-3.0442 -3.7469 2.2365
-2.9076 -3.8537 2.2365
-2.7673 -3.9555 2.2365
-2.6235 -4.0522 2.2365
-2.4762 -4.1437 2.2365
-2.3258 -4.2298 2.2365
-2.1725 -4.3105 2.2365
-2.0163 -4.3857 2.2365
-1.8575 -4.4552 2.2365
-1.6963 -4.5189 2.2365
-1.5330 -4.5769 2.2365
-1.3676 -4.6289 2.2365
-1.2006 -4.6750 2.2365
-1.0319 -4.7150 2.2365
-0.8620 -4.7490 2.2365
-0.6909 -4.7769 2.2365
-0.5190 -4.7986 2.2365
-0.3463 -4.8141 2.2365
-0.1733 -4.8234 2.2365
0.0000 -4.5548 2.2365
0.1635 -4.5518 2.2365
0.3269 -4.5430 2.2365
0.4898 -4.5284 2.2365
0.6520 -4.5079 2.2365
0.8135 -4.4816 2.2365
0.9739 -4.4496 2.2365
1.1330 -4.4118 2.2365
1.2907 -4.3683 2.2365
1.4467 -4.3192 2.2365
1.6009 -4.2645 2.2365
1.7529 -4.2043 2.2365
1.9028 -4.1388 2.2365
2.0453 -4.0582 2.2311
