ply
format ascii 1.0
element vertex 2168
property float32 x
property float32 y
property float32 z
end_header
5.9430 10.3670 1.9572
5.8312 11.0754 2.0498
5.6524 11.7394 2.1335
5.2279 11.9358 2.1335
4.7965 12.1168 2.1335
4.3589 12.2821 2.1335
3.9156 12.4315 2.1335
3.4671 12.5648 2.1335
3.0141 12.6818 2.1335
2.5571 12.7824 2.1335
2.0967 12.8664 2.1335
1.7127 13.5596 2.2368
1.2250 13.6126 2.2368
0.7357 13.6479 2.2368
0.2454 13.6656 2.2368
-0.2452 13.6655 2.2368
-0.7355 13.6477 2.2368
-1.2248 13.6122 2.2368
-1.7125 13.5590 2.2368
-2.1980 13.4883 2.2368
-2.6805 13.4000 2.2368
-3.1596 13.2944 2.2368
-3.6344 13.1716 2.2368
-4.1045 13.0317 2.2368
-4.5692 12.8750 2.2368
-5.0279 12.7016 2.2368
-5.4800 12.5117 2.2368
-5.9249 12.3057 2.2368
-6.0880 11.5633 2.1405
-6.4778 11.3002 2.1337
-6.8784 11.0590 2.1337
-7.2699 10.8036 2.1337
-7.6518 10.5342 2.1337
-8.0238 10.2513 2.1337
-8.3853 9.9551 2.1337
-8.7358 9.6462 2.1337
-9.0749 9.3249 2.1337
-9.4021 8.9916 2.1337
-9.7170 8.6468 2.1337
-10.0193 8.2910 2.1337
-10.3717 7.9731 2.1468
-10.2240 7.2911 2.0611
-10.2254 6.7519 2.0116
-10.2266 6.2375 1.9669
-10.2278 5.7450 1.9266
-10.4148 5.3677 1.9247
-10.4423 4.9158 1.8963
-10.6343 4.5473 1.9007
-11.7790 4.5440 2.0753
-12.2977 4.2435 2.1389
-12.4331 3.7967 2.1378
-12.5530 3.3457 2.1369
-12.6573 2.8912 2.1361
-12.7458 2.4336 2.1354
-6.5107 1.0024 1.0843
-9.3856 1.1018 1.5559
-9.3857 0.7615 1.5507
-9.3857 0.4231 1.5476
-9.3858 0.0859 1.5464
-9.3858 -0.2512 1.5473
-9.3858 -0.5889 1.5502
-9.3859 -0.9281 1.5550
-9.3859 -1.2698 1.5620
-9.3859 -1.6148 1.5710
-9.3860 -1.9641 1.5821
-9.3860 -2.3187 1.5955
-9.3861 -2.6796 1.6112
-9.3861 -3.0480 1.6293
-9.3862 -3.4252 1.6500
-9.3862 -3.8123 1.6734
-9.3862 -4.2110 1.6996
-9.3863 -4.6226 1.7289
-9.3407 -5.0246 1.7530
-9.4013 -5.5012 1.8007
-9.4002 -5.9636 1.8407
-9.3367 -6.4048 1.8725
-9.3866 -6.9473 1.9316
-9.3866 -7.4835 1.9860
-9.7877 -8.3954 2.1337
-9.4784 -8.7398 2.1337
-9.1570 -9.0730 2.1337
-8.8240 -9.3944 2.1337
-8.4797 -9.7036 2.1337
-8.1247 -10.0003 2.1337
-7.7593 -10.2841 2.1337
-7.3841 -10.5547 2.1337
-6.9996 -10.8116 2.1337
-6.6061 -11.0546 2.1337
-6.2043 -11.2834 2.1337
-6.0745 -12.0532 2.2368
-5.6373 -12.2623 2.2368
-5.1930 -12.4557 2.2368
-4.7421 -12.6331 2.2368
-4.2852 -12.7943 2.2368
-3.8228 -12.9390 2.2368
-3.3556 -13.0672 2.2368
-2.8842 -13.1786 2.2368
-2.4091 -13.2731 2.2368
-1.9309 -13.3506 2.2368
-1.4503 -13.4111 2.2368
-0.9679 -13.4543 2.2368
-0.4842 -13.4803 2.2368
0.0001 -11.8315 2.2368
0.4249 -11.8240 2.2368
0.8491 -11.8013 2.2368
1.2723 -11.7635 2.2368
1.6939 -11.7106 2.2368
2.0158 -11.1053 2.1335
2.4133 -11.0262 2.1335
2.8078 -10.9331 2.1335
3.1987 -10.8259 2.1335
3.5856 -10.7048 2.1335
3.9679 -10.5699 2.1335
4.3451 -10.4215 2.1335
4.7169 -10.2597 2.1335
5.0827 -10.0847 2.1335
5.4421 -9.8967 2.1335
5.7945 -9.6960 2.1335
6.2065 -9.5862 2.1568
6.5475 -9.3583 2.1568
6.8801 -9.1184 2.1568
7.2040 -8.8667 2.1568
7.5187 -8.6035 2.1568
7.5511 -8.0388 2.0816
7.8147 -7.7427 2.0760
8.0714 -7.4421 2.0715
8.3261 -7.1413 2.0693
8.5740 -6.8353 2.0682
8.8163 -6.5249 2.0685
9.0486 -6.2068 2.0690
9.2719 -5.8819 2.0700
9.8763 -5.7788 2.1568
10.0792 -5.4216 2.1568
10.2693 -5.0572 2.1568
10.4462 -4.6861 2.1568
10.6097 -4.3089 2.1568
10.7597 -3.9261 2.1568
10.8959 -3.5380 2.1568
11.0181 -3.1452 2.1568
11.1261 -2.7482 2.1568
11.2199 -2.3475 2.1568
5.9646 -1.0260 1.1385
7.2711 -0.9835 1.3800
9.9514 -0.9838 1.8804
11.4499 -0.7181 2.1568
11.4706 -0.3067 2.1568
11.4767 0.1053 2.1568
11.4679 0.5173 2.1568
11.4443 0.9288 2.1568
11.4059 1.3393 2.1568
11.3529 1.7482 2.1568
11.2851 2.1550 2.1568
11.2028 2.5592 2.1568
11.1059 2.9603 2.1568
10.9947 3.3577 2.1568
10.8692 3.7509 2.1568
10.7297 4.1394 2.1568
2.3235 0.9936 0.4738
10.4090 4.9004 2.1568
10.2283 5.2718 2.1568
10.0343 5.6365 2.1568
9.8273 5.9941 2.1568
8.6953 5.7417 1.9520
8.3100 5.9264 1.9118
8.3101 6.3885 1.9630
5.5824 4.6196 1.3567
5.4459 4.8462 1.3648
5.6152 5.3702 1.4544
5.4344 5.5842 1.4583
7.3620 8.1294 2.0524
6.1520 7.3039 1.7868
5.8723 7.5027 1.7824
6.4480 8.8771 2.0524
6.1260 9.1038 2.0524
5.9358 9.5437 2.1019
5.6742 9.8984 2.1335
5.3158 10.0967 2.1335
4.9504 10.2819 2.1335
4.5786 10.4538 2.1335
4.2008 10.6122 2.1335
3.8175 10.7568 2.1335
3.4292 10.8876 2.1335
3.0364 11.0042 2.1335
2.6396 11.1066 2.1335
2.2394 11.1946 2.1335
1.9251 11.8135 2.2368
1.5000 11.8753 2.2368
1.0728 11.9216 2.2368
0.6443 11.9526 2.2368
0.2149 11.9680 2.2368
-0.2148 11.9680 2.2368
-0.6441 11.9524 2.2368
-1.0727 11.9213 2.2368
-1.4998 11.8748 2.2368
-1.9249 11.8129 2.2368
-2.3475 11.7357 2.2368
-2.7671 11.6433 2.2368
-3.1830 11.5358 2.2368
-3.5947 11.4134 2.2368
-4.0017 11.2762 2.2368
-4.4035 11.1245 2.2368
-4.7995 10.9583 2.2368
-5.1892 10.7780 2.2368
-5.5721 10.5838 2.2368
-5.9478 10.3759 2.2368
-6.0848 9.7835 2.1551
-6.3676 9.4630 2.1337
-6.7023 9.2272 2.1337
-7.0282 8.9795 2.1337
-7.3450 8.7203 2.1337
-7.6521 8.4499 2.1337
-7.9493 8.1686 2.1337
-8.2361 7.8768 2.1337
-8.5121 7.5750 2.1337
-8.7771 7.2634 2.1337
-9.0307 6.9425 2.1337
-9.2724 6.6128 2.1337
-9.5021 6.2746 2.1337
-9.7194 5.9284 2.1337
-9.9242 5.5747 2.1337
-9.9814 5.1446 2.1053
-10.1045 4.7570 2.0943
-10.4476 4.4677 2.1312
-10.5991 4.0891 2.1312
-10.7370 3.7053 2.1312
-10.8609 3.3168 2.1312
-10.9707 2.9242 2.1312
-11.0663 2.5280 2.1312
-11.1476 2.1288 2.1312
-6.5099 1.0024 1.2371
-9.3856 1.1021 1.7753
-9.3857 0.7617 1.7694
-9.3857 0.4234 1.7658
-9.3857 0.0861 1.7644
-9.3858 -0.2509 1.7653
-9.3858 -0.5886 1.7686
-9.3859 -0.9279 1.7741
-9.3859 -1.2695 1.7819
-9.3859 -1.6145 1.7921
-9.3860 -1.9638 1.8048
-9.3860 -2.3184 1.8200
-9.3861 -2.6794 1.8379
-9.3861 -3.0478 1.8585
-9.3861 -3.4249 1.8820
-9.3862 -3.8121 1.9086
-9.3862 -4.2107 1.9385
-9.3863 -4.6224 1.9719
-9.3447 -5.0265 2.0002
-9.3937 -5.4965 2.0520
-9.3924 -5.9584 2.0975
-9.3293 -6.3994 2.1337
-9.0921 -6.7291 2.1337
-8.8432 -7.0500 2.1337
-8.5830 -7.3618 2.1337
-8.3119 -7.6640 2.1337
-8.0303 -7.9563 2.1337
-7.7383 -8.2383 2.1337
-7.4366 -8.5097 2.1337
-7.1253 -8.7700 2.1337
-6.8051 -9.0191 2.1337
-6.4761 -9.2565 2.1337
-6.1389 -9.4820 2.1337
-6.0738 -10.1637 2.2368
-5.7045 -10.3742 2.2368
-5.3278 -10.5713 2.2368
-4.9444 -10.7549 2.2368
-4.5548 -10.9246 2.2368
-4.1593 -11.0803 2.2368
-3.7586 -11.2218 2.2368
-3.3531 -11.3488 2.2368
-2.9433 -11.4613 2.2368
-2.5298 -11.5591 2.2368
-2.1131 -11.6421 2.2368
-1.6937 -11.7101 2.2368
-1.2721 -11.7631 2.2368
-0.8490 -11.8011 2.2368
-0.4247 -11.8239 2.2368
0.0001 -10.5269 2.2368
0.3780 -10.5202 2.2368
0.7555 -10.5000 2.2368
1.1321 -10.4664 2.2368
1.5072 -10.4193 2.2368
1.8803 -10.3588 2.2368
2.1472 -9.8103 2.1335
2.4982 -9.7273 2.1335
2.8460 -9.6319 2.1335
3.1902 -9.5241 2.1335
3.5303 -9.4040 2.1335
3.8659 -9.2719 2.1335
4.1967 -9.1278 2.1335
4.5221 -8.9720 2.1335
4.8417 -8.8047 2.1335
5.1552 -8.6260 2.1335
5.4622 -8.4362 2.1335
5.7621 -8.2356 2.1335
6.0439 -8.0099 2.1297
6.3032 -7.7577 2.1212
6.5528 -7.4980 2.1130
6.7922 -7.2307 2.1048
7.0226 -6.9576 2.0971
7.2453 -6.6802 2.0903
7.4583 -6.3967 2.0838
7.6671 -6.1120 2.0791
7.8666 -5.8217 2.0749
8.3905 -5.7551 2.1568
8.5931 -5.4511 2.1568
8.7847 -5.1399 2.1568
8.9650 -4.8220 2.1568
9.1339 -4.4978 2.1568
9.2911 -4.1677 2.1568
9.4364 -3.8322 2.1568
9.5695 -3.4915 2.1568
9.6904 -3.1463 2.1568
9.7989 -2.7969 2.1568
9.8948 -2.4438 2.1568
9.9780 -2.0874 2.1568
5.9646 -1.0258 1.2803
7.2724 -0.9835 1.5521
9.9539 -0.9838 2.1151
10.1815 -0.6383 2.1568
10.1998 -0.2725 2.1568
10.2049 0.0939 2.1568
10.1969 0.4602 2.1568
10.1757 0.8261 2.1568
10.1414 1.1910 2.1568
10.0940 1.5546 2.1568
10.0335 1.9162 2.1568
9.9601 2.2756 2.1568
9.8738 2.6321 2.1568
9.7747 2.9853 2.1568
9.6629 3.3348 2.1568
9.5387 3.6802 2.1568
2.3230 0.9935 0.5329
9.2532 4.3565 2.1568
9.0924 4.6866 2.1568
8.9198 5.0107 2.1568
8.7356 5.3285 2.1568
8.5400 5.6394 2.1568
8.3334 5.9432 2.1568
8.1159 6.2394 2.1568
5.6027 4.6365 1.5320
5.4642 4.8627 1.5406
5.6150 5.3702 1.6363
5.4343 5.5843 1.6408
6.4997 7.1775 2.0387
6.1518 7.3039 2.0103
5.8723 7.5029 2.0055
5.9357 8.1719 2.1258
5.6598 8.4112 2.1335
5.3548 8.6097 2.1335
5.0428 8.7972 2.1335
4.7242 8.9733 2.1335
4.3995 9.1378 2.1335
4.0690 9.2905 2.1335
3.7332 9.4311 2.1335
3.3925 9.5596 2.1335
3.0474 9.6757 2.1335
2.6984 9.7794 2.1335
2.3458 9.8703 2.1335
1.9901 9.9485 2.1335
1.7108 10.4984 2.2368
1.3329 10.5533 2.2368
0.9534 10.5945 2.2368
0.5725 10.6220 2.2368
0.1910 10.6357 2.2368
-0.1908 10.6356 2.2368
-0.5724 10.6218 2.2368
-0.9532 10.5942 2.2368
-1.3328 10.5529 2.2368
-1.7106 10.4979 2.2368
-2.0862 10.4294 2.2368
-2.4590 10.3473 2.2368
-2.8286 10.2519 2.2368
-3.1946 10.1432 2.2368
-3.5563 10.0214 2.2368
-3.9134 9.8866 2.2368
-4.2653 9.7390 2.2368
-4.6117 9.5788 2.2368
-4.9521 9.4063 2.2368
-5.2860 9.2217 2.2368
-5.6130 9.0251 2.2368
-5.9326 8.8169 2.2368
-6.0798 8.3705 2.1778
-6.2465 7.9811 2.1337
-6.5281 7.7508 2.1337
-6.8013 7.5106 2.1337
-7.0655 7.2607 2.1337
-7.3205 7.0015 2.1337
-7.5660 6.7332 2.1337
-7.8017 6.4564 2.1337
-8.0272 6.1713 2.1337
-8.2422 5.8783 2.1337
-8.4466 5.5778 2.1337
-8.6399 5.2702 2.1337
-8.8221 4.9559 2.1337
-8.9928 4.6353 2.1337
-9.1518 4.3088 2.1337
-9.2879 3.9721 2.1312
-9.4229 3.6355 2.1312
-9.5456 3.2944 2.1312
-9.6560 2.9491 2.1312
-9.7538 2.6001 2.1312
-9.8391 2.2479 2.1312
-9.9116 1.8930 2.1312
-6.5091 1.0025 1.3912
-9.3856 1.1023 1.9966
-9.3857 0.7620 1.9899
-9.3857 0.4236 1.9858
-9.3857 0.0863 1.9842
-9.3858 -0.2507 1.9852
-9.3858 -0.5884 1.9888
-9.3859 -0.9276 1.9950
-9.3859 -1.2693 2.0037
-9.3859 -1.6143 2.0152
-9.3860 -1.9636 2.0294
-9.3860 -2.3182 2.0465
-9.3861 -2.6791 2.0665
-9.3861 -3.0476 2.0896
-9.3861 -3.4247 2.1160
-9.3329 -3.7902 2.1337
-9.1892 -4.1221 2.1337
-9.0338 -4.4485 2.1337
-8.8668 -4.7692 2.1337
-8.6885 -5.0837 2.1337
-8.4990 -5.3914 2.1337
-8.2987 -5.6922 2.1337
-8.0878 -5.9856 2.1337
-7.8666 -6.2712 2.1337
-7.6353 -6.5486 2.1337
-7.3942 -6.8176 2.1337
-7.1438 -7.0777 2.1337
-6.8842 -7.3287 2.1337
-6.6158 -7.5702 2.1337
-6.3390 -7.8020 2.1337
-6.0891 -8.0699 2.1460
-6.0400 -8.6328 2.2368
-5.7255 -8.8432 2.2368
-5.4038 -9.0422 2.2368
-5.0753 -9.2296 2.2368
-4.7402 -9.4051 2.2368
-4.3991 -9.5685 2.2368
-4.0525 -9.7196 2.2368
-3.7007 -9.8582 2.2368
-3.3441 -9.9841 2.2368
-2.9834 -10.0973 2.2368
-2.6188 -10.1974 2.2368
-2.2509 -10.2845 2.2368
-1.8801 -10.3583 2.2368
-1.5070 -10.4189 2.2368
-1.1319 -10.4661 2.2368
-0.7554 -10.4998 2.2368
-0.3779 -10.5201 2.2368
0.0001 -9.4724 2.2368
0.3402 -9.4664 2.2368
0.6799 -9.4482 2.2368
1.0187 -9.4179 2.2368
1.3562 -9.3755 2.2368
1.6920 -9.3210 2.2368
1.9681 -8.9916 2.1732
2.2480 -8.7527 2.1335
2.5609 -8.6668 2.1335
2.8706 -8.5698 2.1335
3.1766 -8.4617 2.1335
3.4786 -8.3427 2.1335
3.7762 -8.2130 2.1335
4.0690 -8.0728 2.1335
4.3565 -7.9222 2.1335
4.6386 -7.7613 2.1335
4.9147 -7.5905 2.1335
5.1846 -7.4099 2.1335
5.4478 -7.2197 2.1335
5.7041 -7.0202 2.1335
5.9532 -6.8116 2.1335
6.1714 -6.5696 2.1256
6.3833 -6.3239 2.1186
6.5858 -6.0719 2.1118
6.7791 -5.8140 2.1052
7.1556 -5.7041 2.1568
7.0158 -5.1919 2.0568
7.1118 -4.8778 2.0320
7.5786 -4.8073 2.1144
7.6033 -4.4484 2.0750
7.6111 -4.0935 2.0354
8.2168 -4.0460 2.1568
8.3580 -3.7489 2.1568
8.4886 -3.4470 2.1568
8.6082 -3.1406 2.1568
8.7168 -2.8300 2.1568
8.8142 -2.5157 2.1568
8.9003 -2.1980 2.1568
8.9750 -1.8774 2.1568
5.9646 -1.0257 1.4234
7.2738 -0.9835 1.7259
9.1294 -0.9021 2.1568
9.1575 -0.5739 2.1568
9.1737 -0.2448 2.1568
9.1782 0.0846 2.1568
9.1708 0.4141 2.1568
9.1515 0.7432 2.1568
9.1205 1.0714 2.1568
9.0777 1.3983 2.1568
9.0232 1.7235 2.1568
8.9570 2.0466 2.1568
8.8792 2.3672 2.1568
8.7899 2.6848 2.1568
8.6893 2.9991 2.1568
8.5774 3.3095 2.1568
2.3226 0.9933 0.5925
8.3205 3.9175 2.1568
8.1757 4.2143 2.1568
8.0204 4.5057 2.1568
7.8546 4.7913 2.1568
7.6787 5.0709 2.1568
7.4928 5.3440 2.1568
7.2972 5.6102 2.1568
5.6100 4.6428 1.7061
5.4805 4.8774 1.7187
5.6149 5.3703 1.8199
5.4342 5.5845 1.8249
6.0672 6.7001 2.1167
5.8698 6.9693 2.1335
5.6165 7.1762 2.1335
5.3558 7.3739 2.1335
5.0882 7.5620 2.1335
4.8140 7.7405 2.1335
4.5335 7.9089 2.1335
4.2470 8.0671 2.1335
3.9551 8.2149 2.1335
3.6579 8.3522 2.1335
3.3561 8.4786 2.1335
3.0498 8.5940 2.1335
2.7396 8.6984 2.1335
2.4257 8.7915 2.1335
2.1088 8.8732 2.1335
1.8756 9.3763 2.2368
1.5379 9.4378 2.2368
1.1983 9.4871 2.2368
0.8570 9.5241 2.2368
0.5147 9.5488 2.2368
0.1717 9.5611 2.2368
-0.1716 9.5611 2.2368
-0.5146 9.5487 2.2368
-0.8569 9.5239 2.2368
-1.1981 9.4868 2.2368
-1.5377 9.4374 2.2368
-1.8754 9.3758 2.2368
-2.2106 9.3021 2.2368
-2.5428 9.2163 2.2368
-2.8718 9.1187 2.2368
-3.1970 9.0092 2.2368
-3.5180 8.8881 2.2368
-3.8345 8.7555 2.2368
-4.1459 8.6116 2.2368
-4.4520 8.4566 2.2368
-4.7522 8.2906 2.2368
-5.0462 8.1140 2.2368
-5.3336 7.9269 2.2368
-5.6141 7.7296 2.2368
-5.8873 7.5223 2.2368
-6.0785 7.2172 2.2098
-6.1148 6.7528 2.1337
-6.3525 6.5282 2.1337
-6.5818 6.2952 2.1337
-6.8027 6.0541 2.1337
-7.0147 5.8053 2.1337
-7.2175 5.5491 2.1337
-7.4110 5.2857 2.1337
-7.5948 5.0156 2.1337
-7.7688 4.7391 2.1337
-7.9327 4.4565 2.1337
-8.0863 4.1683 2.1337
-8.2295 3.8748 2.1337
-8.3619 3.5763 2.1337
-8.4835 3.2734 2.1337
-8.5942 2.9663 2.1337
-8.6937 2.6555 2.1337
-8.7819 2.3413 2.1337
-8.8588 2.0242 2.1337
-8.9243 1.7047 2.1337
-6.4315 0.9907 1.5285
-9.0206 1.0597 2.1337
-9.0512 0.7350 2.1337
-9.0702 0.4096 2.1337
-9.0776 0.0837 2.1337
-9.0732 -0.2421 2.1337
-9.0571 -0.5676 2.1337
-9.0294 -0.8922 2.1337
-8.9900 -1.2155 2.1337
-8.9391 -1.5372 2.1337
-8.8766 -1.8568 2.1337
-8.8028 -2.1739 2.1337
-8.7177 -2.4881 2.1337
-8.6213 -2.7990 2.1337
-8.5140 -3.1062 2.1337
-8.3957 -3.4093 2.1337
-8.2666 -3.7080 2.1337
-8.1269 -4.0017 2.1337
-7.9768 -4.2903 2.1337
-7.8165 -4.5732 2.1337
-7.6462 -4.8502 2.1337
-7.4661 -5.1209 2.1337
-7.2764 -5.3849 2.1337
-7.0775 -5.6419 2.1337
-6.8695 -5.8916 2.1337
-6.6527 -6.1337 2.1337
-6.4274 -6.3678 2.1337
-6.1940 -6.5937 2.1337
-6.0811 -6.9582 2.1798
-5.9792 -7.3588 2.2368
-5.7105 -7.5680 2.2368
-5.4346 -7.7674 2.2368
-5.1517 -7.9568 2.2368
-4.8623 -8.1359 2.2368
-4.5667 -8.3046 2.2368
-4.2653 -8.4626 2.2368
-3.9584 -8.6096 2.2368
-3.6465 -8.7457 2.2368
-3.3299 -8.8704 2.2368
-3.0092 -8.9838 2.2368
-2.6845 -9.0856 2.2368
-2.3565 -9.1758 2.2368
-2.0254 -9.2542 2.2368
-1.6918 -9.3206 2.2368
-1.3560 -9.3752 2.2368
-1.0185 -9.4177 2.2368
-0.6797 -9.4480 2.2368
-0.3400 -9.4663 2.2368
0.0001 -8.6016 2.2368
0.3089 -8.5961 2.2368
0.6174 -8.5796 2.2368
0.9251 -8.5520 2.2368
1.2316 -8.5135 2.2368
1.5365 -8.4640 2.2368
1.8395 -8.4037 2.2368
2.0413 -7.9479 2.1335
2.3255 -7.8699 2.1335
2.6067 -7.7817 2.1335
2.8846 -7.6835 2.1335
3.1588 -7.5754 2.1335
3.4290 -7.4576 2.1335
3.6948 -7.3302 2.1335
3.9559 -7.1934 2.1335
4.2120 -7.0473 2.1335
4.4627 -6.8921 2.1335
4.7077 -6.7281 2.1335
4.9467 -6.5553 2.1335
5.1794 -6.3741 2.1335
5.4054 -6.1847 2.1335
5.6246 -5.9873 2.1335
5.8366 -5.7821 2.1335
6.1070 -5.6302 2.1568
6.3059 -5.4080 2.1568
6.4968 -5.1787 2.1568
6.6794 -4.9428 2.1568
6.8534 -4.7004 2.1568
7.0187 -4.4519 2.1568
7.0159 -4.1045 2.1090
7.0159 -3.7732 2.0666
7.0287 -3.4607 2.0322
7.1489 -3.2064 2.0320
7.5547 -3.0676 2.1144
7.6035 -2.7738 2.0985
7.6035 -2.4683 2.0724
7.6036 -2.1699 2.0495
7.6152 -1.8804 2.0328
7.6759 -1.6054 2.0320
5.9646 -1.0255 1.5680
7.2752 -0.9835 1.9017
8.2871 -0.8186 2.1568
8.3125 -0.5207 2.1568
8.3271 -0.2220 2.1568
8.3310 0.0770 2.1568
8.3242 0.3761 2.1568
8.3066 0.6748 2.1568
8.2783 0.9726 2.1568
8.2393 1.2693 2.1568
8.1897 1.5645 2.1568
8.1295 1.8578 2.1568
8.0588 2.1487 2.1568
7.9777 2.4369 2.1568
7.8862 2.7221 2.1568
7.7846 3.0038 2.1568
2.3221 0.9932 0.6527
7.5512 3.5555 2.1568
7.4197 3.8248 2.1568
7.2787 4.0892 2.1568
6.7157 4.0968 2.0320
6.6544 4.3946 2.0596
6.6491 4.7424 2.1091
6.4917 4.9912 2.1144
5.6175 4.6492 1.8826
5.4898 4.8859 1.8972
5.6147 5.3703 2.0055
5.4342 5.5846 2.0111
5.5493 6.1284 2.1335
5.3263 6.3242 2.1335
5.0964 6.5119 2.1335
4.8599 6.6912 2.1335
4.6170 6.8619 2.1335
4.3681 7.0238 2.1335
4.1136 7.1766 2.1335
3.8537 7.3201 2.1335
3.5887 7.4542 2.1335
3.3191 7.5786 2.1335
3.0452 7.6933 2.1335
2.7673 7.7980 2.1335
2.4857 7.8927 2.1335
2.2010 7.9771 2.1335
1.9675 8.2792 2.1939
1.7018 8.5077 2.2368
1.3954 8.5635 2.2368
1.0872 8.6082 2.2368
0.7776 8.6418 2.2368
0.4670 8.6642 2.2368
0.1558 8.6754 2.2368
-0.1556 8.6753 2.2368
-0.4669 8.6641 2.2368
-0.7775 8.6416 2.2368
-1.0871 8.6080 2.2368
-1.3952 8.5632 2.2368
-1.7016 8.5073 2.2368
-2.0057 8.4405 2.2368
-2.3072 8.3627 2.2368
-2.6057 8.2741 2.2368
-2.9008 8.1748 2.2368
-3.1921 8.0650 2.2368
-3.4793 7.9447 2.2368
-3.7619 7.8142 2.2368
-4.0396 7.6736 2.2368
-4.3121 7.5231 2.2368
-4.5789 7.3628 2.2368
-4.8397 7.1931 2.2368
-5.0943 7.0142 2.2368
-5.3422 6.8262 2.2368
-5.5832 6.6293 2.2368
-5.8169 6.4240 2.2368
-6.0430 6.2104 2.2368
-6.0813 5.8167 2.1725
-6.1732 5.4942 2.1337
-6.3656 5.2684 2.1337
-6.5498 5.0359 2.1337
-6.7255 4.7970 2.1337
-6.8924 4.5519 2.1337
-7.0504 4.3010 2.1337
-7.1992 4.0447 2.1337
-7.3387 3.7831 2.1337
-7.4687 3.5168 2.1337
-7.5890 3.2460 2.1337
-7.6995 2.9711 2.1337
-7.8000 2.6924 2.1337
-7.8905 2.4103 2.1337
-7.9707 2.1252 2.1337
-8.0406 1.8375 2.1337
-8.1001 1.5475 2.1337
-6.4249 0.9899 1.6822
-8.1878 0.9620 2.1337
-8.2157 0.6674 2.1337
-8.2331 0.3720 2.1337
-8.2399 0.0762 2.1337
-8.2360 -0.2196 2.1337
-8.2215 -0.5150 2.1337
-8.1965 -0.8097 2.1337
-8.1609 -1.1032 2.1337
-8.1148 -1.3953 2.1337
-8.0582 -1.6854 2.1337
-7.9913 -1.9733 2.1337
-7.9141 -2.2586 2.1337
-7.8268 -2.5409 2.1337
-7.7294 -2.8198 2.1337
-7.6221 -3.0950 2.1337
-7.5050 -3.3662 2.1337
-7.3783 -3.6329 2.1337
-7.2421 -3.8949 2.1337
-7.0967 -4.1519 2.1337
-6.9421 -4.4034 2.1337
-6.7787 -4.6492 2.1337
-6.6066 -4.8890 2.1337
-6.4260 -5.1224 2.1337
-6.2372 -5.3492 2.1337
-6.0878 -5.6126 2.1504
-6.0801 -6.0235 2.2230
-5.8958 -6.2761 2.2368
-5.6661 -6.4831 2.2368
-5.4291 -6.6817 2.2368
-5.1853 -6.8717 2.2368
-4.9347 -7.0528 2.2368
-4.6780 -7.2248 2.2368
-4.4152 -7.3875 2.2368
-4.1468 -7.5407 2.2368
-3.8731 -7.6842 2.2368
-3.5945 -7.8178 2.2368
-3.3112 -7.9414 2.2368
-3.0238 -8.0547 2.2368
-2.7325 -8.1577 2.2368
-2.4377 -8.2502 2.2368
-2.1399 -8.3321 2.2368
-1.8393 -8.4033 2.2368
-1.5363 -8.4637 2.2368
-1.2314 -8.5132 2.2368
-0.9249 -8.5518 2.2368
-0.6172 -8.5794 2.2368
-0.3088 -8.5960 2.2368
0.0001 -7.8696 2.2368
0.2826 -7.8645 2.2368
0.5649 -7.8494 2.2368
0.8464 -7.8242 2.2368
1.1268 -7.7889 2.2368
1.4058 -7.7437 2.2368
1.6830 -7.6884 2.2368
1.9580 -7.6233 2.2368
2.1276 -7.2000 2.1335
2.3849 -7.1193 2.1335
2.6391 -7.0294 2.1335
2.8900 -6.9305 2.1335
3.1371 -6.8227 2.1335
3.3803 -6.7061 2.1335
3.6192 -6.5809 2.1335
3.8534 -6.4472 2.1335
4.0827 -6.3052 2.1335
4.3069 -6.1550 2.1335
4.5255 -5.9970 2.1335
4.7383 -5.8311 2.1335
4.9451 -5.6578 2.1335
5.1456 -5.4771 2.1335
5.3394 -5.2894 2.1335
5.5265 -5.0948 2.1335
5.7065 -4.8937 2.1335
5.8792 -4.6862 2.1335
6.1102 -4.5214 2.1568
6.2694 -4.2996 2.1568
6.4205 -4.0723 2.1568
6.5634 -3.8396 2.1568
6.6978 -3.6020 2.1568
6.8237 -3.3596 2.1568
6.9409 -3.1129 2.1568
7.0160 -2.8487 2.1467
7.0161 -2.5593 2.1169
7.0161 -2.2774 2.0906
7.0161 -2.0021 2.0676
7.0162 -1.7323 2.0476
7.4520 -1.5584 2.1568
5.9646 -1.0254 1.7143
7.2766 -0.9835 2.0796
7.5796 -0.7486 2.1568
7.6027 -0.4761 2.1568
7.6160 -0.2029 2.1568
7.6195 0.0706 2.1568
7.6131 0.3442 2.1568
7.5970 0.6173 2.1568
7.5710 0.8897 2.1568
7.5353 1.1611 2.1568
7.4898 1.4310 2.1568
7.4347 1.6992 2.1568
7.3699 1.9652 2.1568
7.2956 2.2288 2.1568
7.2119 2.4895 2.1568
6.7070 2.5882 2.0320
2.3217 0.9931 0.7137
6.5057 3.0635 2.0320
6.3924 3.2954 2.0320
6.5250 3.6660 2.1144
6.1411 3.7464 2.0320
6.0669 4.0068 2.0535
6.0669 4.3274 2.1045
6.0552 4.6557 2.1568
5.6251 4.6556 2.0616
5.4993 4.8945 2.0784
5.4619 5.2243 2.1335
5.2714 5.4175 2.1335
5.0741 5.6037 2.1335
4.8702 5.7828 2.1335
4.6599 5.9544 2.1335
4.4436 6.1183 2.1335
4.2215 6.2743 2.1335
3.9939 6.4222 2.1335
3.7612 6.5619 2.1335
3.5235 6.6931 2.1335
3.2812 6.8157 2.1335
3.0347 6.9294 2.1335
2.7842 7.0342 2.1335
2.5301 7.1299 2.1335
2.2727 7.2164 2.1335
2.0124 7.2936 2.1335
1.8340 7.7176 2.2368
1.5559 7.7787 2.2368
1.2758 7.8297 2.2368
0.9940 7.8706 2.2368
0.7110 7.9013 2.2368
0.4270 7.9217 2.2368
0.1424 7.9320 2.2368
-0.1423 7.9319 2.2368
-0.4268 7.9216 2.2368
-0.7108 7.9011 2.2368
-0.9939 7.8704 2.2368
-1.2757 7.8294 2.2368
-1.5558 7.7784 2.2368
-1.8338 7.7173 2.2368
-2.1095 7.6462 2.2368
-2.3824 7.5652 2.2368
-2.6523 7.4745 2.2368
-2.9186 7.3741 2.2368
-3.1812 7.2642 2.2368
-3.4396 7.1449 2.2368
-3.6935 7.0163 2.2368
-3.9427 6.8788 2.2368
-4.1866 6.7323 2.2368
-4.4252 6.5772 2.2368
-4.6580 6.4136 2.2368
-4.8847 6.2417 2.2368
-5.1051 6.0618 2.2368
-5.3188 5.8741 2.2368
-5.5256 5.6789 2.2368
-5.7253 5.4764 2.2368
-5.9175 5.2668 2.2368
-6.0788 5.0312 2.2283
-6.0827 4.6770 2.1670
-6.1499 4.3867 2.1337
-6.3026 4.1626 2.1337
-6.4472 3.9333 2.1337
-6.5834 3.6989 2.1337
-6.7110 3.4597 2.1337
-6.8300 3.2162 2.1337
-6.9401 2.9686 2.1337
-7.0412 2.7172 2.1337
-7.1332 2.4624 2.1337
-7.2160 2.2045 2.1337
-7.2895 1.9438 2.1337
-7.3535 1.6807 2.1337
-7.4080 1.4154 2.1337
-6.4184 0.9890 1.8375
-7.4883 0.8800 2.1337
-7.5140 0.6106 2.1337
-7.5300 0.3404 2.1337
-7.5363 0.0699 2.1337
-7.5328 -0.2006 2.1337
-7.5197 -0.4709 2.1337
-7.4968 -0.7404 2.1337
-7.4644 -1.0089 2.1337
-7.4223 -1.2760 2.1337
-7.3707 -1.5414 2.1337
-7.3096 -1.8048 2.1337
-7.2391 -2.0657 2.1337
-7.1592 -2.3240 2.1337
-7.0702 -2.5791 2.1337
-6.9722 -2.8309 2.1337
-6.8651 -3.0790 2.1337
-6.7493 -3.3230 2.1337
-6.6248 -3.5627 2.1337
-6.4918 -3.7978 2.1337
-6.3505 -4.0280 2.1337
-6.2011 -4.2529 2.1337
-6.0879 -4.5049 2.1493
-6.0800 -4.8463 2.2068
-5.9816 -5.1297 2.2368
-5.7930 -5.3406 2.2368
-5.5969 -5.5446 2.2368
-5.3937 -5.7414 2.2368
-5.1836 -5.9308 2.2368
-4.9669 -6.1126 2.2368
-4.7438 -6.2864 2.2368
-4.5146 -6.4522 2.2368
-4.2797 -6.6096 2.2368
-4.0394 -6.7585 2.2368
-3.7938 -6.8987 2.2368
-3.5435 -7.0300 2.2368
-3.2885 -7.1523 2.2368
-3.0295 -7.2654 2.2368
-2.7665 -7.3691 2.2368
-2.5000 -7.4634 2.2368
-2.2303 -7.5480 2.2368
-1.9578 -7.6230 2.2368
-1.6828 -7.6881 2.2368
-1.4056 -7.7434 2.2368
-1.1266 -7.7887 2.2368
-0.8462 -7.8240 2.2368
-0.5647 -7.8493 2.2368
-0.2825 -7.8645 2.2368
0.0001 -7.2450 2.2368
0.2602 -7.2404 2.2368
0.5201 -7.2265 2.2368
0.7792 -7.2033 2.2368
1.0374 -7.1708 2.2368
1.2942 -7.1291 2.2368
1.5494 -7.0782 2.2368
1.8027 -7.0183 2.2368
1.9742 -6.6808 2.1504
2.1956 -6.5542 2.1335
2.4297 -6.4714 2.1335
2.6606 -6.3804 2.1335
2.8882 -6.2811 2.1335
3.1120 -6.1737 2.1335
3.3319 -6.0584 2.1335
3.5476 -5.9352 2.1335
3.7587 -5.8045 2.1335
3.9649 -5.6662 2.1335
4.1662 -5.5207 2.1335
4.3621 -5.3680 2.1335
4.5524 -5.2083 2.1335
4.7369 -5.0420 2.1335
4.9154 -4.8691 2.1335
5.0875 -4.6900 2.1335
5.2532 -4.5048 2.1335
5.4121 -4.3137 2.1335
5.5641 -4.1171 2.1335
5.7090 -3.9151 2.1335
5.8465 -3.7080 2.1335
5.9766 -3.4961 2.1335
6.1655 -3.3155 2.1568
6.2813 -3.0924 2.1568
6.3891 -2.8652 2.1568
6.4886 -2.6343 2.1568
6.5798 -2.4000 2.1568
6.6626 -2.1625 2.1568
6.7368 -1.9222 2.1568
6.8024 -1.6793 2.1568
6.8592 -1.4343 2.1568
5.9646 -1.0252 1.8625
6.5443 -0.8843 2.0320
6.6537 -0.6569 2.0571
6.6538 -0.4164 2.0508
6.6538 -0.1771 2.0473
6.6538 0.0619 2.0464
6.6539 0.3010 2.0481
6.6539 0.5409 2.0525
6.6539 0.7821 2.0596
6.6540 1.0255 2.0694
6.6540 1.2715 2.0820
6.6540 1.5209 2.0975
6.6436 1.7717 2.1126
6.5822 2.0110 2.1144
6.5066 2.2462 2.1144
6.1724 2.3821 2.0320
2.3213 0.9930 0.7753
6.0667 2.8569 2.0591
6.0668 3.1277 2.0956
6.0668 3.4087 2.1363
5.9337 3.6201 2.1335
5.8006 3.8311 2.1335
5.6600 4.0373 2.1335
5.5120 4.2383 2.1335
5.3569 4.4338 2.1335
5.1948 4.6237 2.1335
5.0260 4.8076 2.1335
4.8507 4.9853 2.1335
4.6691 5.1567 2.1335
4.4814 5.3214 2.1335
4.2879 5.4792 2.1335
4.0889 5.6300 2.1335
3.8845 5.7735 2.1335
3.6750 5.9096 2.1335
3.4608 6.0381 2.1335
3.2421 6.1588 2.1335
3.0192 6.2716 2.1335
2.7923 6.3762 2.1335
2.5618 6.4726 2.1335
2.3280 6.5607 2.1335
2.0912 6.6402 2.1335
1.9412 7.0360 2.2368
1.6875 7.1014 2.2368
1.4317 7.1575 2.2368
1.1739 7.2044 2.2368
0.9147 7.2420 2.2368
0.6542 7.2703 2.2368
0.3929 7.2891 2.2368
0.1310 7.2985 2.2368
-0.1309 7.2985 2.2368
-0.3927 7.2890 2.2368
-0.6541 7.2702 2.2368
-0.9145 7.2419 2.2368
-1.1738 7.2042 2.2368
-1.4315 7.1573 2.2368
-1.6874 7.1011 2.2368
-1.9410 7.0357 2.2368
-2.1921 6.9612 2.2368
-2.4404 6.8777 2.2368
-2.6855 6.7854 2.2368
-2.9271 6.6843 2.2368
-3.1649 6.5745 2.2368
-3.3986 6.4563 2.2368
-3.6279 6.3297 2.2368
-3.8524 6.1950 2.2368
-4.0719 6.0523 2.2368
-4.2862 5.9018 2.2368
-4.4948 5.7437 2.2368
-4.6976 5.5782 2.2368
-4.8944 5.4055 2.2368
-5.0847 5.2259 2.2368
-5.2685 5.0396 2.2368
-5.4454 4.8468 2.2368
-5.6152 4.6477 2.2368
-5.7778 4.4427 2.2368
-5.9329 4.2320 2.2368
-6.0789 4.0151 2.2363
-6.0790 3.7088 2.1862
-6.0881 3.4208 2.1442
-6.1760 3.1841 2.1337
-6.2855 2.9600 2.1337
-6.3869 2.7322 2.1337
-6.4800 2.5009 2.1337
-6.5648 2.2664 2.1337
-6.6410 2.0290 2.1337
-6.7087 1.7891 2.1337
-6.7677 1.5469 2.1337
-6.8179 1.3029 2.1337
-6.4117 0.9881 1.9944
-6.8920 0.8101 2.1337
-6.9157 0.5622 2.1337
-6.9305 0.3135 2.1337
-6.9364 0.0645 2.1337
-6.9333 -0.1845 2.1337
-6.9212 -0.4332 2.1337
-6.9003 -0.6813 2.1337
-6.8705 -0.9284 2.1337
-6.8318 -1.1743 2.1337
-6.7844 -1.4186 2.1337
-6.7282 -1.6610 2.1337
-6.6634 -1.9013 2.1337
-6.5900 -2.1390 2.1337
-6.5081 -2.3739 2.1337
-6.4179 -2.6057 2.1337
-6.3194 -2.8341 2.1337
-6.2129 -3.0587 2.1337
-6.0983 -3.2794 2.1337
-6.0826 -3.5582 2.1718
-6.0799 -3.8561 2.2191
-5.9842 -4.1039 2.2368
-5.8324 -4.3157 2.2368
-5.6731 -4.5218 2.2368
-5.5065 -4.7221 2.2368
-5.3329 -4.9163 2.2368
-5.1524 -5.1041 2.2368
-4.9654 -5.2853 2.2368
-4.7720 -5.4597 2.2368
-4.5725 -5.6271 2.2368
-4.3672 -5.7872 2.2368
-4.1563 -5.9398 2.2368
-3.9400 -6.0848 2.2368
-3.7187 -6.2219 2.2368
-3.4927 -6.3510 2.2368
-3.2622 -6.4719 2.2368
-3.0276 -6.5845 2.2368
-2.7890 -6.6887 2.2368
-2.5470 -6.7842 2.2368
-2.3016 -6.8710 2.2368
-2.0533 -6.9489 2.2368
-1.8025 -7.0179 2.2368
-1.5492 -7.0780 2.2368
-1.2941 -7.1289 2.2368
-1.0372 -7.1706 2.2368
-0.7791 -7.2031 2.2368
-0.5199 -7.2264 2.2368
-0.2601 -7.2404 2.2368
0.0001 -6.7055 2.2368
0.2409 -6.7012 2.2368
0.4813 -6.6883 2.2368
0.7212 -6.6668 2.2368
0.9601 -6.6367 2.2368
1.1979 -6.5981 2.2368
1.4341 -6.5510 2.2368
1.6684 -6.4955 2.2368
1.9007 -6.4316 2.2368
2.0321 -6.0660 2.1335
2.2487 -5.9893 2.1335
2.4625 -5.9050 2.1335
2.6731 -5.8131 2.1335
2.8803 -5.7137 2.1335
3.0837 -5.6069 2.1335
3.2833 -5.4930 2.1335
3.4787 -5.3719 2.1335
3.6696 -5.2439 2.1335
3.8558 -5.1092 2.1335
4.0371 -4.9678 2.1335
4.2132 -4.8201 2.1335
4.3839 -4.6661 2.1335
4.5491 -4.5061 2.1335
4.7083 -4.3403 2.1335
4.8616 -4.1688 2.1335
5.0087 -3.9920 2.1335
2.3168 -1.7142 0.9599
2.3494 -1.6111 0.9487
2.3775 -1.5078 0.9375
2.4194 -1.4152 0.9333
2.4907 -1.3393 0.9415
5.7501 -2.8307 2.1335
5.8487 -2.6227 2.1335
5.9398 -2.4113 2.1335
6.0889 -2.2208 2.1568
6.1654 -2.0010 2.1568
6.2340 -1.7786 2.1568
6.2946 -1.5538 2.1568
6.3471 -1.3270 2.1568
5.9646 -1.0251 2.0127
6.0716 -0.8203 2.0374
6.0820 -0.6003 2.0320
6.1004 -0.3816 2.0320
6.1109 -0.1624 2.0320
6.1136 0.0570 2.0320
6.1084 0.2765 2.0320
6.0953 0.4956 2.0320
6.0778 0.7146 2.0332
6.0684 0.9354 2.0397
6.0665 1.1594 2.0515
6.0666 1.3868 2.0668
6.0666 1.6180 2.0850
6.0666 1.8537 2.1062
6.0666 2.0945 2.1307
6.0615 2.3394 2.1568
2.3208 0.9928 0.8378
5.8160 2.7390 2.1335
5.7146 2.9463 2.1335
5.6058 3.1499 2.1335
5.4897 3.3494 2.1335
5.3665 3.5446 2.1335
5.2364 3.7353 2.1335
5.0995 3.9212 2.1335
4.9560 4.1021 2.1335
4.8060 4.2778 2.1335
4.6498 4.4479 2.1335
4.4876 4.6123 2.1335
4.3196 4.7708 2.1335
4.1459 4.9231 2.1335
3.9669 5.0691 2.1335
3.7827 5.2086 2.1335
3.5936 5.3413 2.1335
3.3998 5.4672 2.1335
3.2016 5.5860 2.1335
2.9993 5.6977 2.1335
2.7930 5.8019 2.1335
2.5832 5.8987 2.1335
2.3699 5.9879 2.1335
2.1536 6.0693 2.1335
1.9700 6.2558 2.1727
1.7958 6.5091 2.2368
1.5611 6.5695 2.2368
1.3244 6.6214 2.2368
1.0860 6.6648 2.2368
0.8461 6.6996 2.2368
0.6052 6.7257 2.2368
0.3634 6.7431 2.2368
0.1212 6.7518 2.2368
-0.1211 6.7518 2.2368
-0.3633 6.7431 2.2368
-0.6050 6.7256 2.2368
-0.8460 6.6995 2.2368
-1.0858 6.6646 2.2368
-1.3242 6.6212 2.2368
-1.5609 6.5692 2.2368
-1.7956 6.5088 2.2368
-2.0279 6.4399 2.2368
-2.2576 6.3627 2.2368
-2.4843 6.2773 2.2368
-2.7079 6.1838 2.2368
-2.9279 6.0823 2.2368
-3.1441 5.9729 2.2368
-3.3562 5.8559 2.2368
-3.5639 5.7313 2.2368
-3.7670 5.5993 2.2368
-3.9652 5.4601 2.2368
-4.1583 5.3139 2.2368
-4.3459 5.1608 2.2368
-4.5279 5.0011 2.2368
-4.7041 4.8349 2.2368
-4.8741 4.6626 2.2368
-5.0378 4.4842 2.2368
-5.1950 4.3001 2.2368
-5.3454 4.1105 2.2368
-5.4889 3.9156 2.2368
-5.6253 3.7157 2.2368
-5.7544 3.5110 2.2368
-5.8761 3.3018 2.2368
-5.9901 3.0884 2.2368
-6.0791 2.8630 2.2304
-6.0791 2.6007 2.1950
-6.0834 2.3480 2.1650
-6.0894 2.1024 2.1391
-6.1446 1.8775 2.1337
-6.2072 1.6556 2.1337
-6.2714 1.4337 2.1369
-6.3084 1.2057 2.1337
-6.3469 0.9783 2.1337
-6.3771 0.7498 2.1337
-6.3991 0.5203 2.1337
-6.4128 0.2903 2.1337
-6.4183 0.0599 2.1337
-6.4155 -0.1706 2.1337
-6.4044 -0.4007 2.1337
-6.3851 -0.6303 2.1337
-6.3576 -0.8589 2.1337
-6.3219 -1.0865 2.1337
-6.2780 -1.3126 2.1337
-6.2261 -1.5369 2.1337
-6.1661 -1.7592 2.1337
-6.0983 -1.9792 2.1337
-6.0860 -2.2198 2.1562
-6.0797 -2.4682 2.1842
-6.0797 -2.7264 2.2182
-6.0273 -2.9672 2.2368
-5.9162 -3.1813 2.2368
-5.7976 -3.3913 2.2368
-5.6715 -3.5969 2.2368
-5.5381 -3.7978 2.2368
-5.3976 -3.9938 2.2368
-5.2502 -4.1846 2.2368
-5.0961 -4.3700 2.2368
-4.9355 -4.5497 2.2368
-4.7685 -4.7236 2.2368
-4.5954 -4.8913 2.2368
-4.4165 -5.0528 2.2368
-4.2319 -5.2077 2.2368
-4.0418 -5.3559 2.2368
-3.8467 -5.4972 2.2368
-3.6466 -5.6314 2.2368
-3.4418 -5.7583 2.2368
-3.2326 -5.8778 2.2368
-3.0193 -5.9898 2.2368
-2.8021 -6.0940 2.2368
-2.5813 -6.1904 2.2368
-2.3573 -6.2788 2.2368
-2.1302 -6.3592 2.2368
-1.9005 -6.4313 2.2368
-1.6682 -6.4952 2.2368
-1.4339 -6.5508 2.2368
-1.1977 -6.5979 2.2368
-0.9600 -6.6365 2.2368
-0.7210 -6.6667 2.2368
-0.4812 -6.6882 2.2368
-0.2407 -6.7011 2.2368
0.0001 -6.2341 2.2368
0.2239 -6.2301 2.2368
0.4475 -6.2181 2.2368
0.6705 -6.1981 2.2368
0.8927 -6.1702 2.2368
1.1137 -6.1343 2.2368
1.3333 -6.0905 2.2368
1.5512 -6.0389 2.2368
1.7671 -5.9795 2.2368
1.9658 -5.8679 2.2199
2.0907 -5.5682 2.1335
2.2894 -5.4898 2.1335
2.4852 -5.4044 2.1335
2.6778 -5.3119 2.1335
2.8670 -5.2127 2.1335
3.0525 -5.1067 2.1335
3.2341 -4.9941 2.1335
3.4116 -4.8751 2.1335
3.5847 -4.7498 2.1335
3.7532 -4.6184 2.1335
3.9169 -4.4810 2.1335
4.0756 -4.3378 2.1335
4.2291 -4.1890 2.1335
4.3772 -4.0348 2.1335
4.5197 -3.8754 2.1335
4.6563 -3.7110 2.1335
2.1665 -1.6029 0.9656
2.1665 -1.4856 0.9411
2.2046 -1.3981 0.9351
2.2717 -1.3288 0.9427
2.3374 -1.2568 0.9505
2.4016 -1.1822 0.9586
5.4370 -2.4379 2.1335
5.5216 -2.2414 2.1335
5.5991 -2.0420 2.1335
5.6695 -1.8399 2.1335
5.7325 -1.6353 2.1335
5.7882 -1.4286 2.1335
5.8365 -1.2201 2.1335
5.8772 -1.0099 2.1335
5.9104 -0.7984 2.1335
5.9359 -0.5857 2.1335
5.9538 -0.3723 2.1335
5.9641 -0.1584 2.1335
5.9666 0.0558 2.1335
5.9615 0.2700 2.1335
5.9487 0.4839 2.1335
5.9282 0.6971 2.1335
5.9000 0.9096 2.1335
5.8643 1.1209 2.1335
5.8209 1.3308 2.1335
5.7701 1.5391 2.1335
5.7118 1.7454 2.1335
5.6461 1.9495 2.1335
5.5731 2.1511 2.1335
2.3204 0.9927 0.9013
5.4056 2.5459 2.1335
5.3113 2.7386 2.1335
5.2101 2.9277 2.1335
5.1022 3.1131 2.1335
4.9877 3.2946 2.1335
4.8667 3.4718 2.1335
4.7395 3.6446 2.1335
4.6060 3.8126 2.1335
4.4666 3.9758 2.1335
4.3214 4.1339 2.1335
4.1706 4.2867 2.1335
4.0145 4.4340 2.1335
3.8530 4.5755 2.1335
3.6866 4.7112 2.1335
3.5154 4.8408 2.1335
3.3397 4.9641 2.1335
3.1596 5.0811 2.1335
2.9754 5.1915 2.1335
2.7874 5.2952 2.1335
2.5957 5.3921 2.1335
0.8579 1.9590 0.7624
2.2025 5.5649 2.1335
2.0014 5.6406 2.1335
1.8848 5.9852 2.2368
1.6689 6.0492 2.2368
1.4508 6.1053 2.2368
1.2308 6.1536 2.2368
1.0092 6.1939 2.2368
0.7863 6.2262 2.2368
0.5624 6.2505 2.2368
0.3378 6.2667 2.2368
0.1127 6.2748 2.2368
-0.1126 6.2748 2.2368
-0.3376 6.2666 2.2368
-0.5623 6.2504 2.2368
-0.7862 6.2261 2.2368
-1.0091 6.1938 2.2368
-1.2306 6.1534 2.2368
-1.4506 6.1051 2.2368
-1.6687 6.0489 2.2368
-1.8846 5.9849 2.2368
-2.0981 5.9132 2.2368
-2.3088 5.8339 2.2368
-0.8578 1.9590 0.7625
-0.9276 1.9269 0.7625
-2.9219 5.5511 2.2368
-3.1190 5.4423 2.2368
-3.3121 5.3265 2.2368
-3.5009 5.2039 2.2368
-3.6851 5.0746 2.2368
-3.8645 4.9387 2.2368
-4.0390 4.7964 2.2368
-4.2082 4.6480 2.2368
-4.3719 4.4936 2.2368
-4.5299 4.3335 2.2368
-4.6821 4.1677 2.2368
-4.8282 3.9967 2.2368
-4.9681 3.8204 2.2368
-5.1015 3.6393 2.2368
-5.2283 3.4536 2.2368
-5.3483 3.2634 2.2368
-5.4614 3.0690 2.2368
-5.5674 2.8707 2.2368
-5.6663 2.6687 2.2368
-5.7578 2.4634 2.2368
-5.8418 2.2549 2.2368
-5.9183 2.0435 2.2368
-5.9871 1.8296 2.2368
-6.0483 1.6133 2.2368
-6.0792 1.3899 2.2286
-6.0793 1.1620 2.2122
-6.0793 0.9372 2.1988
-6.0793 0.7149 2.1883
-6.0799 0.4945 2.1810
-6.0810 0.2754 2.1767
-6.0814 0.0569 2.1750
-6.0812 -0.1615 2.1758
-6.0805 -0.3803 2.1793
-6.0795 -0.5999 2.1855
-6.0795 -0.8212 2.1950
-6.0795 -1.0447 2.2074
-6.0795 -1.2709 2.2228
-6.0673 -1.4976 2.2368
-6.0089 -1.7142 2.2368
-5.9428 -1.9286 2.2368
-5.8691 -2.1405 2.2368
-5.7878 -2.3495 2.2368
-5.6991 -2.5555 2.2368
-5.6031 -2.7582 2.2368
-5.4999 -2.9573 2.2368
-5.3896 -3.1525 2.2368
-5.2724 -3.3437 2.2368
-5.1485 -3.5305 2.2368
-5.0179 -3.7127 2.2368
-4.8809 -3.8901 2.2368
-4.7377 -4.0625 2.2368
-4.5884 -4.2296 2.2368
-4.4332 -4.3912 2.2368
-4.2723 -4.5472 2.2368
-4.1059 -4.6973 2.2368
-3.9343 -4.8414 2.2368
-3.7577 -4.9792 2.2368
-3.5762 -5.1105 2.2368
-3.3902 -5.2353 2.2368
-3.1998 -5.3534 2.2368
-3.0054 -5.4645 2.2368
-2.8071 -5.5686 2.2368
-2.6052 -5.6655 2.2368
-2.3999 -5.7552 2.2368
-2.1916 -5.8374 2.2368
-1.9805 -5.9121 2.2368
-1.7669 -5.9792 2.2368
-1.5510 -6.0386 2.2368
-1.3331 -6.0903 2.2368
-1.1135 -6.1341 2.2368
-0.8925 -6.1700 2.2368
-0.6704 -6.1980 2.2368
-0.4474 -6.2181 2.2368
-0.2238 -6.2301 2.2368
0.0001 -5.8185 2.2368
0.2090 -5.8148 2.2368
0.4177 -5.8036 2.2368
0.6259 -5.7849 2.2368
0.8332 -5.7588 2.2368
1.0395 -5.7253 2.2368
1.2444 -5.6844 2.2368
1.4478 -5.6362 2.2368
1.6493 -5.5808 2.2368
1.8487 -5.5181 2.2368
1.9727 -5.2539 2.1569
2.1368 -5.1237 2.1335
2.3195 -5.0439 2.1335
2.4993 -4.9576 2.1335
2.6758 -4.8650 2.1335
2.8490 -4.7660 2.1335
3.0185 -4.6609 2.1335
3.1841 -4.5498 2.1335
3.3456 -4.4329 2.1335
3.5029 -4.3102 2.1335
3.6557 -4.1820 2.1335
3.8038 -4.0483 2.1335
3.9470 -3.9094 2.1335
4.0852 -3.7655 2.1335
4.2181 -3.6167 2.1335
4.3457 -3.4632 2.1335
2.1894 -1.6198 1.0456
2.1894 -1.5013 1.0191
2.1665 -1.3738 0.9847
2.1665 -1.2671 0.9633
2.1999 -1.1828 0.9585
2.3491 -1.1563 1.0047
5.0740 -2.2750 2.1335
5.1530 -2.0916 2.1335
5.2253 -1.9055 2.1335
5.2909 -1.7168 2.1335
5.3497 -1.5260 2.1335
5.4016 -1.3331 2.1335
5.4466 -1.1384 2.1335
5.4846 -0.9423 2.1335
5.5155 -0.7449 2.1335
5.5393 -0.5465 2.1335
5.5560 -0.3473 2.1335
5.5655 -0.1476 2.1335
5.5678 0.0522 2.1335
5.5630 0.2521 2.1335
5.5510 0.4517 2.1335
5.5318 0.6507 2.1335
5.5055 0.8489 2.1335
5.4721 1.0461 2.1335
5.4316 1.2420 2.1335
5.3842 1.4363 2.1335
5.3297 1.6288 2.1335
5.2684 1.8192 2.1335
5.2002 2.0073 2.1335
2.3199 0.9926 0.9657
5.0439 2.3757 2.1335
4.9559 2.5554 2.1335
4.8615 2.7319 2.1335
4.7607 2.9049 2.1335
4.6538 3.0742 2.1335
4.5409 3.2395 2.1335
4.4222 3.4007 2.1335
4.2977 3.5575 2.1335
4.1676 3.7098 2.1335
4.0321 3.8573 2.1335
3.8914 3.9998 2.1335
3.7456 4.1372 2.1335
3.5950 4.2692 2.1335
3.4397 4.3958 2.1335
3.2800 4.5167 2.1335
3.1160 4.6318 2.1335
2.9479 4.7409 2.1335
2.7761 4.8439 2.1335
2.6006 4.9406 2.1335
0.8656 1.7982 0.7626
0.8005 1.8281 0.7626
0.7344 1.8557 0.7625
0.6674 1.8809 0.7625
0.5994 1.9036 0.7625
0.5308 1.9239 0.7625
0.4614 1.9417 0.7624
0.3914 1.9570 0.7624
0.9416 5.7790 2.2368
0.7336 5.8091 2.2368
0.5247 5.8318 2.2368
0.3151 5.8469 2.2368
0.1051 5.8544 2.2368
-0.1050 5.8544 2.2368
-0.3150 5.8468 2.2368
-0.5246 5.8317 2.2368
-0.7335 5.8090 2.2368
-0.9414 5.7789 2.2368
-0.3914 1.9570 0.7625
-0.4614 1.9417 0.7625
-0.5307 1.9239 0.7625
-0.5994 1.9036 0.7625
-0.6673 1.8809 0.7625
-0.7344 1.8557 0.7626
-0.8005 1.8281 0.7626
-0.8656 1.7982 0.7626
-0.9295 1.7660 0.7627
-2.9101 5.0779 2.2368
-3.0902 4.9699 2.2368
-3.2664 4.8555 2.2368
-3.4383 4.7348 2.2368
-3.6057 4.6081 2.2368
-3.7685 4.4754 2.2368
-3.9264 4.3369 2.2368
-4.0791 4.1929 2.2368
-4.2266 4.0435 2.2368
-4.3686 3.8889 2.2368
-4.5050 3.7293 2.2368
-4.6355 3.5649 2.2368
-4.7600 3.3959 2.2368
-4.8783 3.2226 2.2368
-4.9904 3.0451 2.2368
-5.0959 2.8638 2.2368
-5.1949 2.6788 2.2368
-5.2871 2.4903 2.2368
-5.3726 2.2987 2.2368
-5.4510 2.1042 2.2368
-5.5224 1.9070 2.2368
-5.5867 1.7074 2.2368
-5.6438 1.5056 2.2368
-5.6936 1.3019 2.2368
-5.7360 1.0966 2.2368
-5.7710 0.8899 2.2368
-5.7986 0.6821 2.2368
-5.8187 0.4734 2.2368
-5.8312 0.2642 2.2368
-5.8363 0.0547 2.2368
-5.8338 -0.1548 2.2368
-5.8239 -0.3641 2.2368
-5.8064 -0.5728 2.2368
-5.7814 -0.7808 2.2368
-5.7490 -0.9877 2.2368
-5.7092 -1.1934 2.2368
-5.6621 -1.3974 2.2368
-5.6077 -1.5996 2.2368
-5.5460 -1.7997 2.2368
-5.4773 -1.9974 2.2368
-5.4015 -2.1925 2.2368
-5.3187 -2.3848 2.2368
-5.2291 -2.5740 2.2368
-5.1328 -2.7598 2.2368
-5.0299 -2.9420 2.2368
-4.9206 -3.1204 2.2368
-4.8049 -3.2947 2.2368
-4.6831 -3.4648 2.2368
-4.5553 -3.6304 2.2368
-4.4216 -3.7913 2.2368
-4.2823 -3.9473 2.2368
-4.1375 -4.0982 2.2368
-3.9873 -4.2438 2.2368
-3.8321 -4.3839 2.2368
-3.6720 -4.5184 2.2368
-3.5071 -4.6470 2.2368
-3.3378 -4.7696 2.2368
-3.1642 -4.8861 2.2368
-2.9865 -4.9963 2.2368
-2.8050 -5.1000 2.2368
-2.6199 -5.1972 2.2368
-2.4315 -5.2877 2.2368
-2.2399 -5.3714 2.2368
-2.0455 -5.4481 2.2368
-1.8485 -5.5179 2.2368
-1.6491 -5.5805 2.2368
-1.4476 -5.6360 2.2368
-1.2443 -5.6842 2.2368
-1.0393 -5.7251 2.2368
-0.8331 -5.7587 2.2368
-0.6257 -5.7848 2.2368
-0.4176 -5.8035 2.2368
-0.2089 -5.8147 2.2368
0.0001 -5.4488 2.2368
0.1957 -5.4454 2.2368
0.3912 -5.4349 2.2368
0.5861 -5.4174 2.2368
0.7803 -5.3929 2.2368
0.9735 -5.3615 2.2368
1.1654 -5.3232 2.2368
1.3559 -5.2781 2.2368
1.5446 -5.2262 2.2368
1.7313 -5.1675 2.2368
1.9158 -5.1022 2.2368
2.0011 -4.7981 2.1335
2.1780 -4.7361 2.1393
2.3405 -4.6426 2.1335
2.5059 -4.5558 2.1335
2.6680 -4.4631 2.1335
2.8267 -4.3647 2.1335
2.9818 -4.2606 2.1335
3.1331 -4.1511 2.1335
3.2803 -4.0362 2.1335
3.4234 -3.9161 2.1335
3.5621 -3.7909 2.1335
3.6962 -3.6608 2.1335
3.8256 -3.5260 2.1335
3.9500 -3.3867 2.1335
4.0694 -3.2429 2.1335
2.1894 -1.6197 1.1166
2.1894 -1.5012 1.0883
2.1895 -1.3883 1.0627
2.1895 -1.2805 1.0396
2.1895 -1.1771 1.0188
2.3493 -1.1563 1.0730
4.7513 -2.1302 2.1335
4.8252 -1.9584 2.1335
4.8929 -1.7841 2.1335
4.9543 -1.6075 2.1335
5.0093 -1.4287 2.1335
5.0579 -1.2481 2.1335
5.1000 -1.0658 2.1335
5.1355 -0.8822 2.1335
5.1644 -0.6973 2.1335
5.1867 -0.5115 2.1335
5.2023 -0.3250 2.1335
5.2112 -0.1381 2.1335
5.2133 0.0490 2.1335
5.2088 0.2362 2.1335
5.1975 0.4230 2.1335
5.1795 0.6094 2.1335
5.1549 0.7950 2.1335
5.1235 0.9796 2.1335
5.0856 1.1630 2.1335
5.0411 1.3449 2.1335
4.9901 1.5251 2.1335
4.9327 1.7034 2.1335
4.8688 1.8796 2.1335
2.3194 0.9924 1.0312
4.7224 2.2244 2.1335
4.6400 2.3927 2.1335
4.5515 2.5579 2.1335
4.4572 2.7199 2.1335
4.3571 2.8783 2.1335
4.2514 3.0331 2.1335
4.1402 3.1840 2.1335
4.0236 3.3308 2.1335
3.9018 3.4733 2.1335
3.7749 3.6114 2.1335
3.6431 3.7448 2.1335
3.5067 3.8734 2.1335
3.3657 3.9970 2.1335
3.2203 4.1155 2.1335
3.0707 4.2286 2.1335
2.9172 4.3364 2.1335
2.7598 4.4385 2.1335
2.5989 4.5349 2.1335
0.8704 1.6536 0.7627
0.8105 1.6838 0.7627
0.7496 1.7118 0.7627
0.6877 1.7376 0.7627
0.6249 1.7612 0.7626
0.5613 1.7825 0.7626
0.4970 1.8015 0.7626
0.4320 1.8181 0.7626
0.3665 1.8325 0.7626
0.3005 1.8444 0.7626
0.2341 1.8540 0.7625
0.1675 1.8612 0.7625
0.1006 1.8661 0.7625
0.0335 1.8685 0.7625
-0.0335 1.8685 0.7625
-0.1005 1.8661 0.7625
-0.1674 1.8613 0.7626
-0.2341 1.8540 0.7626
-0.3005 1.8444 0.7626
-0.3665 1.8325 0.7626
-0.4320 1.8181 0.7626
-0.4969 1.8015 0.7626
-0.5613 1.7825 0.7626
-0.6248 1.7612 0.7627
-0.6876 1.7376 0.7627
-0.7495 1.7118 0.7627
-0.8105 1.6838 0.7628
-0.8703 1.6536 0.7628
-0.9291 1.6213 0.7628
-2.8931 4.6530 2.2368
-3.0580 4.5459 2.2368
-3.2189 4.4329 2.2368
-3.3757 4.3143 2.2368
-3.5281 4.1901 2.2368
-3.6759 4.0605 2.2368
-3.8190 3.9256 2.2368
-3.9571 3.7858 2.2368
-4.0900 3.6410 2.2368
-4.2177 3.4916 2.2368
-4.3399 3.3377 2.2368
-4.4565 3.1795 2.2368
-4.5673 3.0173 2.2368
-4.6722 2.8512 2.2368
-4.7711 2.6814 2.2368
-4.8638 2.5082 2.2368
-4.9502 2.3318 2.2368
-5.0302 2.1524 2.2368
-5.1037 1.9703 2.2368
-5.1706 1.7856 2.2368
-5.2308 1.5987 2.2368
-5.2842 1.4098 2.2368
-5.3309 1.2191 2.2368
-5.3706 1.0269 2.2368
-5.4035 0.8333 2.2368
-5.4293 0.6388 2.2368
-5.4481 0.4434 2.2368
-5.4600 0.2476 2.2368
-5.4647 0.0514 2.2368
-5.4625 -0.1448 2.2368
-5.4532 -0.3407 2.2368
-5.4368 -0.5362 2.2368
-5.4135 -0.7310 2.2368
-5.3832 -0.9247 2.2368
-5.3460 -1.1173 2.2368
-5.3019 -1.3083 2.2368
-5.2509 -1.4977 2.2368
-5.1932 -1.6850 2.2368
-5.1289 -1.8702 2.2368
-5.0579 -2.0529 2.2368
-4.9805 -2.2330 2.2368
-4.8966 -2.4101 2.2368
-4.8065 -2.5841 2.2368
-4.7101 -2.7548 2.2368
-4.6078 -2.9219 2.2368
-4.4995 -3.0852 2.2368
-4.3854 -3.2444 2.2368
-4.2658 -3.3995 2.2368
-4.1406 -3.5502 2.2368
-4.0101 -3.6963 2.2368
-3.8745 -3.8376 2.2368
-3.7340 -3.9740 2.2368
-3.5886 -4.1052 2.2368
-3.4386 -4.2311 2.2368
-3.2843 -4.3516 2.2368
-3.1257 -4.4665 2.2368
-2.9631 -4.5756 2.2368
-2.7968 -4.6788 2.2368
-2.6268 -4.7759 2.2368
-2.4535 -4.8670 2.2368
-2.2771 -4.9517 2.2368
-2.0977 -5.0301 2.2368
-1.9156 -5.1020 2.2368
-1.7311 -5.1673 2.2368
-1.5444 -5.2260 2.2368
-1.3557 -5.2779 2.2368
-1.1652 -5.3231 2.2368
-0.9733 -5.3614 2.2368
-0.7801 -5.3928 2.2368
-0.5860 -5.4173 2.2368
-0.3910 -5.4348 2.2368
-0.1956 -5.4453 2.2368
0.0001 -5.1177 2.2368
0.1838 -5.1144 2.2368
0.3674 -5.1045 2.2368
0.5505 -5.0881 2.2368
0.7329 -5.0651 2.2368
0.9143 -5.0356 2.2368
1.0946 -4.9997 2.2368
1.2735 -4.9573 2.2368
1.4507 -4.9085 2.2368
1.6261 -4.8534 2.2368
1.7994 -4.7920 2.2368
1.9660 -4.7138 2.2317
2.0402 -4.4362 2.1335
2.1983 -4.3603 2.1335
2.3536 -4.2788 2.1335
2.5058 -4.1917 2.1335
2.6549 -4.0993 2.1335
2.8006 -4.0015 2.1335
2.9426 -3.8986 2.1335
3.0809 -3.7907 2.1335
3.2153 -3.6779 2.1335
3.3455 -3.5603 2.1335
3.4714 -3.4381 2.1335
3.5929 -3.3115 2.1335
3.7098 -3.1806 2.1335
3.8219 -3.0456 2.1335
2.1894 -1.6197 1.1889
2.1894 -1.5011 1.1587
2.1895 -1.3883 1.1315
2.1895 -1.2804 1.1069
2.1895 -1.1770 1.0848
2.3494 -1.1563 1.1426
4.4622 -2.0004 2.1335
4.5316 -1.8391 2.1335
4.5951 -1.6754 2.1335
4.6528 -1.5095 2.1335
4.7044 -1.3416 2.1335
4.7500 -1.1720 2.1335
4.7895 -1.0008 2.1335
4.8229 -0.8283 2.1335
4.8500 -0.6547 2.1335
4.8709 -0.4802 2.1335
4.8855 -0.3051 2.1335
4.8938 -0.1296 2.1335
4.8958 0.0462 2.1335
4.8915 0.2219 2.1335
4.8809 0.3974 2.1335
4.8640 0.5724 2.1335
4.8408 0.7467 2.1335
4.8113 0.9201 2.1335
4.7757 1.0923 2.1335
4.7339 1.2631 2.1335
4.6860 1.4323 2.1335
4.6320 1.5998 2.1335
4.5720 1.7651 2.1335
2.3190 0.9923 1.0980
4.4345 2.0889 2.1335
4.3571 2.2469 2.1335
4.2740 2.4021 2.1335
4.1854 2.5541 2.1335
4.0914 2.7029 2.1335
3.9921 2.8483 2.1335
3.8876 2.9899 2.1335
3.7781 3.1278 2.1335
3.6637 3.2616 2.1335
3.5446 3.3912 2.1335
3.4209 3.5165 2.1335
3.2927 3.6372 2.1335
3.1603 3.7533 2.1335
3.0238 3.8645 2.1335
2.8833 3.9707 2.1335
2.7392 4.0719 2.1335
2.5914 4.1678 2.1335
0.8726 1.5226 0.7629
0.8174 1.5529 0.7628
0.7611 1.5813 0.7628
0.7039 1.6076 0.7628
0.6458 1.6318 0.7628
0.5868 1.6540 0.7627
0.5271 1.6740 0.7627
0.4667 1.6918 0.7627
0.4057 1.7075 0.7627
0.3442 1.7209 0.7627
0.2822 1.7322 0.7627
0.2199 1.7412 0.7627
0.1573 1.7479 0.7627
0.0944 1.7525 0.7627
0.0315 1.7547 0.7627
-0.0315 1.7547 0.7627
-0.0944 1.7525 0.7627
-0.1572 1.7479 0.7627
-0.2198 1.7412 0.7627
-0.2822 1.7322 0.7627
-0.3441 1.7209 0.7627
-0.4057 1.7075 0.7627
-0.4667 1.6918 0.7627
-0.5271 1.6739 0.7628
-0.5868 1.6540 0.7628
-0.6457 1.6318 0.7628
-0.7039 1.6076 0.7628
-0.7611 1.5813 0.7629
-0.8173 1.5529 0.7629
-0.8725 1.5226 0.7629
-0.9266 1.4903 0.7630
-0.9795 1.4561 0.7630
-3.0225 4.1626 2.2368
-3.1697 4.0512 2.2368
-3.3128 3.9346 2.2368
-3.4517 3.8129 2.2368
-3.5860 3.6863 2.2368
-3.7157 3.5550 2.2368
-3.8405 3.4191 2.2368
-3.9605 3.2788 2.2368
-4.0752 3.1343 2.2368
-4.1847 2.9858 2.2368
-4.2888 2.8334 2.2368
-4.3874 2.6774 2.2368
-4.4802 2.5180 2.2368
-4.5673 2.3554 2.2368
-4.6484 2.1898 2.2368
-4.7236 2.0213 2.2368
-4.7926 1.8503 2.2368
-4.8554 1.6770 2.2368
-4.9120 1.5015 2.2368
-4.9622 1.3241 2.2368
-5.0061 1.1450 2.2368
-5.0434 0.9645 2.2368
-5.0743 0.7827 2.2368
-5.0986 0.6000 2.2368
-5.1163 0.4166 2.2368
-5.1274 0.2326 2.2368
-5.1319 0.0484 2.2368
-5.1298 -0.1358 2.2368
-5.1211 -0.3198 2.2368
-5.1058 -0.5034 2.2368
-5.0839 -0.6863 2.2368
-5.0555 -0.8683 2.2368
-5.0206 -1.0491 2.2368
-4.9792 -1.2286 2.2368
-4.9314 -1.4064 2.2368
-4.8772 -1.5824 2.2368
-4.8168 -1.7563 2.2368
-4.7502 -1.9279 2.2368
-4.6775 -2.0970 2.2368
-4.5987 -2.2634 2.2368
-4.5141 -2.4268 2.2368
-4.4236 -2.5871 2.2368
-4.3275 -2.7440 2.2368
-4.2259 -2.8974 2.2368
-4.1188 -3.0470 2.2368
-4.0064 -3.1927 2.2368
-3.8889 -3.3342 2.2368
-3.7663 -3.4714 2.2368
-3.6390 -3.6042 2.2368
-3.5070 -3.7323 2.2368
-3.3705 -3.8555 2.2368
-3.2296 -3.9738 2.2368
-3.0847 -4.0870 2.2368
-2.9357 -4.1949 2.2368
-2.7831 -4.2973 2.2368
-2.6268 -4.3943 2.2368
-2.4672 -4.4856 2.2368
-2.3044 -4.5711 2.2368
-2.1387 -4.6507 2.2368
-1.9702 -4.7243 2.2368
-1.7992 -4.7918 2.2368
-1.6259 -4.8532 2.2368
-1.4505 -4.9083 2.2368
-1.2733 -4.9571 2.2368
-1.0944 -4.9995 2.2368
-0.9142 -5.0355 2.2368
-0.7327 -5.0650 2.2368
-0.5504 -5.0880 2.2368
-0.3673 -5.1045 2.2368
-0.1837 -5.1144 2.2368
0.0001 -4.8189 2.2368
0.1731 -4.8159 2.2368
0.3460 -4.8066 2.2368
0.5184 -4.7911 2.2368
0.6901 -4.7695 2.2368
0.8610 -4.7417 2.2368
1.0307 -4.7078 2.2368
1.1992 -4.6679 2.2368
1.3661 -4.6219 2.2368
1.5312 -4.5700 2.2368
1.6944 -4.5123 2.2368
1.8554 -4.4487 2.2368
1.9661 -4.2749 2.1834
2.0700 -4.1057 2.1335
2.2162 -4.0289 2.1335
2.3596 -3.9469 2.1335
2.4999 -3.8599 2.1335
2.6371 -3.7678 2.1335
2.7709 -3.6709 2.1335
2.9011 -3.5693 2.1335
3.0276 -3.4630 2.1335
3.1502 -3.3523 2.1335
3.2688 -3.2372 2.1335
3.3832 -3.1180 2.1335
3.4932 -2.9948 2.1335
3.5988 -2.8676 2.1335
2.1894 -1.6196 1.2626
2.1894 -1.5010 1.2306
2.1895 -1.3882 1.2017
2.1895 -1.2804 1.1756
2.1895 -1.1770 1.1521
2.3496 -1.1563 1.2135
4.2015 -1.8834 2.1335
4.2668 -1.7315 2.1335
4.3266 -1.5774 2.1335
4.3809 -1.4212 2.1335
4.4295 -1.2631 2.1335
4.4724 -1.1034 2.1335
4.5096 -0.9422 2.1335
4.5409 -0.7798 2.1335
4.5665 -0.6163 2.1335
4.5861 -0.4520 2.1335
4.5998 -0.2871 2.1335
4.6076 -0.1218 2.1335
4.6095 0.0436 2.1335
4.6054 0.2091 2.1335
4.5954 0.3743 2.1335
4.5794 0.5391 2.1335
4.5576 0.7031 2.1335
4.5299 0.8664 2.1335
4.4963 1.0285 2.1335
4.4569 1.1893 2.1335
4.4118 1.3486 2.1335
4.3609 1.5063 2.1335
4.3045 1.6619 2.1335
2.3187 0.9923 1.1661
4.1749 1.9668 2.1335
4.1020 2.1155 2.1335
4.0238 2.2616 2.1335
3.9404 2.4047 2.1335
3.8518 2.5448 2.1335
3.7583 2.6816 2.1335
3.6600 2.8150 2.1335
3.5569 2.9447 2.1335
3.4492 3.0707 2.1335
3.3370 3.1927 2.1335
3.2205 3.3106 2.1335
3.0998 3.4243 2.1335
2.9752 3.5335 2.1335
2.8466 3.6382 2.1335
2.7144 3.7382 2.1335
2.5787 3.8334 2.1335
0.8725 1.4032 0.7630
0.8216 1.4336 0.7630
0.7696 1.4622 0.7629
0.7166 1.4889 0.7629
0.6628 1.5136 0.7629
0.6080 1.5365 0.7629
0.5525 1.5573 0.7629
0.4963 1.5761 0.7628
0.4394 1.5929 0.7628
0.3820 1.6077 0.7628
0.3241 1.6203 0.7628
0.2657 1.6309 0.7628
0.2070 1.6394 0.7628
0.1481 1.6458 0.7628
0.0889 1.6500 0.7628
0.0297 1.6522 0.7628
-0.0296 1.6522 0.7628
-0.0889 1.6500 0.7628
-0.1480 1.6458 0.7628
-0.2070 1.6394 0.7628
-0.2657 1.6309 0.7628
-0.3240 1.6203 0.7628
-0.3819 1.6077 0.7628
-0.4394 1.5929 0.7628
-0.4962 1.5761 0.7629
-0.5525 1.5573 0.7629
-0.6080 1.5364 0.7629
-0.6627 1.5136 0.7629
-0.7166 1.4889 0.7630
-0.7696 1.4622 0.7630
-0.8215 1.4336 0.7630
-0.8724 1.4032 0.7631
-0.9222 1.3710 0.7631
-0.9708 1.3370 0.7631
-2.9840 3.8140 2.2368
-3.1188 3.7042 2.2368
-3.2495 3.5897 2.2368
-3.3760 3.4705 2.2368
-3.4981 3.3469 2.2368
-3.6156 3.2190 2.2368
-3.7285 3.0869 2.2368
-3.8366 2.9509 2.2368
-3.9397 2.8111 2.2368
-4.0377 2.6677 2.2368
-4.1305 2.5208 2.2368
-4.2179 2.3708 2.2368
-4.2999 2.2177 2.2368
-4.3763 2.0617 2.2368
-4.4471 1.9032 2.2368
-4.5121 1.7422 2.2368
-4.5713 1.5790 2.2368
-4.6246 1.4137 2.2368
-4.6719 1.2467 2.2368
-4.7132 1.0781 2.2368
-4.7484 0.9082 2.2368
-4.7775 0.7371 2.2368
-4.8004 0.5651 2.2368
-4.8171 0.3924 2.2368
-4.8276 0.2192 2.2368
-4.8318 0.0457 2.2368
-4.8299 -0.1277 2.2368
-4.8217 -0.3010 2.2368
-4.8073 -0.4739 2.2368
-4.7867 -0.6461 2.2368
-4.7600 -0.8174 2.2368
-4.7271 -0.9877 2.2368
-4.6882 -1.1566 2.2368
-4.6432 -1.3241 2.2368
-4.5922 -1.4898 2.2368
