ply
format ascii 1.0
element vertex 2173
property float32 x
property float32 y
property float32 z
end_header
8.1135 -8.0382 2.1569
5.8725 -5.4143 1.5082
5.8725 -5.0366 1.4605
6.0780 -4.8452 1.4671
6.5278 -4.8309 1.5325
9.4278 -6.4664 2.1569
9.6560 -6.1251 2.1569
9.8718 -5.7757 2.1569
10.0750 -5.4188 2.1569
9.7683 -4.8100 2.0525
9.9369 -4.4573 2.0525
5.9029 -2.3971 1.2004
6.4081 -2.3380 1.2849
10.3659 -3.3655 2.0525
6.4211 -1.8327 1.2572
10.5857 -2.6143 2.0525
11.2186 -2.3468 2.1569
11.2984 -1.9430 2.1569
10.2407 -1.3847 1.9438
10.2407 -1.0120 1.9351
10.2408 -0.6419 1.9291
11.4716 -0.3062 2.1569
11.4781 0.1058 2.1569
11.4697 0.5178 2.1569
11.4466 0.9294 2.1569
11.4087 1.3401 2.1569
11.3561 1.7491 2.1569
11.2887 2.1562 2.1569
11.2068 2.5606 2.1569
11.1103 2.9619 2.1569
10.9995 3.3596 2.1569
10.8744 3.7531 2.1569
10.7352 4.1420 2.1569
10.5820 4.5256 2.1569
10.1598 4.7835 2.1040
9.9877 5.1482 2.1049
9.8028 5.5069 2.1058
9.6052 5.8591 2.1067
9.3952 6.2043 2.1077
9.1746 6.5434 2.1092
8.9423 6.8749 2.1108
2.4924 2.0627 0.6053
8.4429 7.5136 2.1142
8.1764 7.8201 2.1160
7.8997 8.1180 2.1181
7.6124 8.4063 2.1203
7.3148 8.6848 2.1226
7.0070 8.9528 2.1249
6.6894 9.2098 2.1272
6.3625 9.4557 2.1295
6.0267 9.6902 2.1320
5.6806 9.9100 2.1338
5.3219 10.1086 2.1338
4.9562 10.2942 2.1338
4.5840 10.4664 2.1338
4.2058 10.6252 2.1338
3.8221 10.7701 2.1338
3.4334 10.9011 2.1338
3.0401 11.0180 2.1338
2.6429 11.1207 2.1338
2.2422 11.2089 2.1338
1.9274 11.8276 2.2369
1.5017 11.8895 2.2369
1.0741 11.9360 2.2369
0.6451 11.9669 2.2369
0.2152 11.9824 2.2369
-0.2150 11.9823 2.2369
-0.6449 11.9667 2.2369
-1.0739 11.9355 2.2369
-1.5015 11.8889 2.2369
-1.9271 11.8268 2.2369
-2.3502 11.7494 2.2369
-2.7701 11.6568 2.2369
-3.1865 11.5490 2.2369
-3.5986 11.4263 2.2369
-4.0060 11.2889 2.2369
-4.4081 11.1367 2.2369
-4.8045 10.9702 2.2369
-5.1945 10.7895 2.2369
-5.5777 10.5949 2.2369
-5.9536 10.3865 2.2369
-6.0838 9.7824 2.1527
-6.3735 9.4723 2.1338
-6.7083 9.2360 2.1338
-7.0343 8.9878 2.1338
-7.3511 8.7281 2.1338
-7.6582 8.4571 2.1338
-7.9554 8.1753 2.1337
-8.2421 7.8830 2.1337
-8.5181 7.5807 2.1337
-8.7829 7.2686 2.1337
-9.0362 6.9473 2.1337
-9.2778 6.6171 2.1337
-9.5073 6.2785 2.1337
-9.7250 5.9323 2.1338
-9.9295 5.5782 2.1338
-10.1831 5.2491 2.1469
-10.3626 4.8790 2.1469
-10.5286 4.5029 2.1469
-10.6810 4.1211 2.1469
-10.8194 3.7342 2.1469
-6.5421 1.9982 1.2834
-11.0541 2.9470 2.1469
-11.1500 2.5477 2.1469
-11.2315 2.1453 2.1469
-11.2985 1.7403 2.1469
-11.3508 1.3333 2.1469
-11.3886 0.9248 2.1469
-11.4115 0.5152 2.1469
-11.4198 0.1052 2.1469
-11.4134 -0.3047 2.1469
-11.3922 -0.7140 2.1469
-11.3564 -1.1222 2.1469
-11.3060 -1.5288 2.1469
-11.2411 -1.9332 2.1469
-10.8525 -2.2702 2.0874
-10.8526 -2.6803 2.1051
-10.8528 -3.0976 2.1259
-10.8383 -3.5189 2.1469
-10.7024 -3.9048 2.1469
-10.5529 -4.2855 2.1469
-10.3899 -4.6605 2.1469
-10.2137 -5.0294 2.1469
-9.9632 -5.3588 2.1338
-9.7623 -5.7118 2.1338
-9.5490 -6.0573 2.1338
-9.3235 -6.3949 2.1338
-9.0861 -6.7242 2.1338
-8.8371 -7.0447 2.1338
-8.5769 -7.3561 2.1338
-8.3057 -7.6579 2.1338
-8.0240 -7.9497 2.1338
-7.7322 -8.2313 2.1338
-7.4305 -8.5022 2.1338
-7.1193 -8.7622 2.1338
-6.7991 -9.0108 2.1338
-6.4703 -9.2478 2.1338
-6.1333 -9.4729 2.1338
-6.0682 -10.1537 2.2369
-5.6990 -10.3639 2.2369
-5.3227 -10.5606 2.2369
-4.9396 -10.7439 2.2369
-4.5502 -10.9133 2.2369
-4.1551 -11.0687 2.2369
-3.7547 -11.2099 2.2369
-3.3496 -11.3367 2.2369
-2.9403 -11.4490 2.2369
-2.5272 -11.5466 2.2369
-2.1109 -11.6294 2.2369
-1.6919 -11.6973 2.2369
-1.2708 -11.7503 2.2369
-0.8481 -11.7881 2.2369
-0.4243 -11.8109 2.2369
0.0001 -10.5167 2.2369
0.3777 -10.5100 2.2369
0.7548 -10.4899 2.2369
1.1310 -10.4563 2.2369
1.5058 -10.4093 2.2369
1.8787 -10.3489 2.2369
2.1453 -9.8010 2.1336
2.4960 -9.7183 2.1336
2.8435 -9.6230 2.1336
3.1874 -9.5154 2.1336
3.5273 -9.3956 2.1336
3.8627 -9.2637 2.1336
4.1933 -9.1199 2.1336
4.5185 -8.9644 2.1336
4.8380 -8.7974 2.1336
5.1513 -8.6190 2.1336
5.4581 -8.4295 2.1336
5.5159 -7.8832 2.0439
5.4463 -7.2174 1.9206
5.6889 -7.0012 1.9159
6.5529 -7.4977 2.1145
6.6548 -7.0839 2.0636
7.2183 -7.1509 2.1569
5.8725 -5.4141 1.6953
5.8725 -5.0363 1.6417
6.0783 -4.8452 1.6492
6.5281 -4.8309 1.7228
8.3867 -5.7520 2.1569
8.5894 -5.4482 2.1569
8.3560 -4.8886 2.0525
8.5278 -4.5864 2.0525
8.6887 -4.2781 2.0525
8.8385 -3.9643 2.0525
5.8312 -2.3678 1.3332
5.8686 -2.1409 1.3231
5.8188 -1.8890 1.2954
5.9868 -1.7086 1.3180
9.8935 -2.4430 2.1569
9.9770 -2.0868 2.1569
8.2907 -1.4255 1.7797
8.2907 -1.1208 1.7696
8.2908 -0.8190 1.7618
10.1820 -0.6379 2.1569
10.2006 -0.2720 2.1569
10.2061 0.0943 2.1569
10.1984 0.4607 2.1569
10.1776 0.8267 2.1569
10.1436 1.1917 2.1569
10.0965 1.5554 2.1569
10.0364 1.9173 2.1569
9.9633 2.2768 2.1569
9.8773 2.6335 2.1569
9.7785 2.9869 2.1569
9.6670 3.3367 2.1569
9.5430 3.6823 2.1569
9.4067 4.0233 2.1569
9.2580 4.3592 2.1569
9.0726 4.6768 2.1510
8.7397 4.9100 2.1121
8.5644 5.2245 2.1133
8.3779 5.5329 2.1146
8.1808 5.8349 2.1160
7.9735 6.1304 2.1176
2.4919 2.0623 0.6809
7.5278 6.6995 2.1210
7.2898 6.9725 2.1228
7.0422 7.2371 2.1246
6.7849 7.4928 2.1265
6.5184 7.7396 2.1284
6.2431 7.9770 2.1304
5.9593 8.2049 2.1325
5.6653 8.4198 2.1338
2.5455 4.0930 1.0133
2.4416 4.2596 1.0321
4.7291 8.9829 2.1338
4.4041 9.1477 2.1338
4.0733 9.3007 2.1338
3.7372 9.4416 2.1338
3.3962 9.5704 2.1338
3.0508 9.6867 2.1338
2.7013 9.7905 2.1338
2.3484 9.8816 2.1338
1.9923 9.9599 2.1338
1.7126 10.5097 2.2369
1.3344 10.5647 2.2369
0.9544 10.6059 2.2369
0.5732 10.6334 2.2369
0.1912 10.6472 2.2369
-0.1910 10.6471 2.2369
-0.5730 10.6332 2.2369
-0.9542 10.6056 2.2369
-1.3341 10.5642 2.2369
-1.7123 10.5091 2.2369
-2.0882 10.4404 2.2369
-2.4614 10.3581 2.2369
-2.8314 10.2625 2.2369
-3.1976 10.1535 2.2369
-3.5597 10.0315 2.2369
-3.9170 9.8964 2.2369
-4.2693 9.7485 2.2369
-4.6159 9.5881 2.2369
-4.9565 9.4152 2.2369
-5.2906 9.2302 2.2369
-5.6178 9.0333 2.2369
-5.9376 8.8247 2.2369
-6.0781 8.3687 2.1755
-6.2515 7.9879 2.1338
-6.5331 7.7572 2.1338
-6.8062 7.5165 2.1338
-7.0704 7.2662 2.1338
-7.3254 7.0066 2.1338
-7.5708 6.7380 2.1338
-7.8064 6.4608 2.1337
-8.0320 6.1755 2.1338
-8.2470 5.8822 2.1338
-8.4512 5.5813 2.1338
-8.6444 5.2734 2.1338
-8.8263 4.9587 2.1338
-8.9968 4.6378 2.1338
-9.1556 4.3110 2.1338
-9.3025 3.9788 2.1338
-9.4373 3.6416 2.1338
-9.5599 3.2998 2.1338
-6.5413 1.9982 1.4434
-9.7678 2.6043 2.1338
-9.8528 2.2516 2.1338
-9.9251 1.8960 2.1338
-9.9845 1.5382 2.1338
-10.0310 1.1786 2.1338
-10.0646 0.8176 2.1338
-10.0852 0.4556 2.1338
-10.0928 0.0933 2.1338
-10.0874 -0.2690 2.1338
-10.0690 -0.6308 2.1338
-10.0376 -0.9916 2.1338
-9.9933 -1.3510 2.1338
-9.9362 -1.7085 2.1338
-9.8663 -2.0636 2.1338
-9.7838 -2.4160 2.1338
-9.6886 -2.7650 2.1338
-9.5811 -3.1104 2.1338
-9.4613 -3.4516 2.1338
-9.3294 -3.7883 2.1338
-9.1855 -4.1199 2.1338
-9.0298 -4.4462 2.1338
-8.8627 -4.7665 2.1338
-8.6841 -5.0807 2.1338
-8.4946 -5.3882 2.1338
-8.2941 -5.6886 2.1338
-8.0831 -5.9817 2.1338
-7.8618 -6.2669 2.1338
-7.6304 -6.5441 2.1338
-7.3894 -6.8127 2.1338
-7.1389 -7.0725 2.1338
-6.8793 -7.3231 2.1338
-6.6110 -7.5643 2.1338
-6.3343 -7.7957 2.1338
-6.0870 -8.0668 2.1471
-6.0352 -8.6256 2.2369
-5.7209 -8.8356 2.2369
-5.3994 -9.0343 2.2369
-5.0710 -9.2214 2.2369
-4.7361 -9.3966 2.2369
-4.3953 -9.5597 2.2369
-4.0489 -9.7106 2.2369
-3.6973 -9.8490 2.2369
-3.3411 -9.9747 2.2369
-2.9806 -10.0876 2.2369
-2.6164 -10.1876 2.2369
-2.2488 -10.2745 2.2369
-1.8784 -10.3482 2.2369
-1.5055 -10.4087 2.2369
-1.1308 -10.4558 2.2369
-0.7546 -10.4896 2.2369
-0.3775 -10.5099 2.2369
0.0001 -9.4641 2.2369
0.3399 -9.4581 2.2369
0.6793 -9.4399 2.2369
1.0179 -9.4097 2.2369
1.3551 -9.3673 2.2369
1.6907 -9.3130 2.2369
1.9692 -8.9961 2.1763
2.2462 -8.7454 2.1336
2.5589 -8.6596 2.1336
2.8684 -8.5627 2.1336
3.1742 -8.4548 2.1336
3.4761 -8.3361 2.1336
3.7735 -8.2066 2.1336
4.0661 -8.0666 2.1336
4.3535 -7.9162 2.1336
4.6354 -7.7556 2.1336
4.9115 -7.5850 2.1336
5.1813 -7.4046 2.1336
5.4444 -7.2147 2.1336
5.6891 -7.0012 2.1293
5.9497 -6.8072 2.1336
6.0674 -6.4584 2.0910
6.1190 -6.0617 2.0321
5.8725 -5.4138 1.8842
5.8725 -5.0361 1.8247
6.0786 -4.8452 1.8331
6.5285 -4.8309 1.9149
7.5454 -5.1747 2.1569
7.3535 -4.6641 2.0525
7.5176 -4.3978 2.0525
7.6720 -4.1258 2.0525
7.8166 -3.8485 2.0525
7.9512 -3.5660 2.0525
5.8312 -2.3676 1.4820
5.8526 -2.1349 1.4668
5.8526 -1.8998 1.4484
5.9875 -1.7086 1.4654
8.8993 -2.1973 2.1569
8.9742 -1.8767 2.1569
8.2907 -1.4253 1.9786
8.2907 -1.1206 1.9674
8.2908 -0.8188 1.9587
9.1579 -0.5734 2.1569
9.1744 -0.2444 2.1569
9.1792 0.0851 2.1569
9.1721 0.4146 2.1569
9.1531 0.7438 2.1569
9.1224 1.0720 2.1569
9.0798 1.3991 2.1569
9.0256 1.7244 2.1569
8.9596 2.0477 2.1569
8.8821 2.3684 2.1569
8.7931 2.6862 2.1569
8.6927 3.0007 2.1569
8.5810 3.3114 2.1569
8.4582 3.6179 2.1569
8.3244 3.9199 2.1569
8.1799 4.2169 2.1569
8.0246 4.5085 2.1569
7.7226 4.7113 2.1195
7.5544 4.9893 2.1208
7.3764 5.2614 2.1221
7.1888 5.5274 2.1235
2.4914 2.0620 0.7572
6.7853 6.0390 2.1265
6.5700 6.2842 2.1280
6.3459 6.5218 2.1297
6.1134 6.7516 2.1313
5.8747 6.9755 2.1338
5.6213 7.1828 2.1338
2.7272 3.7550 1.0856
2.5272 3.7561 1.0589
2.5520 4.1035 1.1301
2.4199 4.2218 1.1379
4.2510 8.0751 2.1338
3.9589 8.2232 2.1338
3.6615 8.3606 2.1338
3.3593 8.4872 2.1338
3.0528 8.6029 2.1338
2.7423 8.7074 2.1338
2.4282 8.8007 2.1338
2.1109 8.8825 2.1338
1.8773 9.3855 2.2369
1.5394 9.4471 2.2369
1.1994 9.4964 2.2369
0.8579 9.5335 2.2369
0.5152 9.5582 2.2369
0.1719 9.5706 2.2369
-0.1717 9.5705 2.2369
-0.5150 9.5580 2.2369
-0.8577 9.5332 2.2369
-1.1992 9.4960 2.2369
-1.5391 9.4465 2.2369
-1.8770 9.3848 2.2369
-2.2125 9.3110 2.2369
-2.5451 9.2250 2.2369
-2.8743 9.1272 2.2369
-3.1998 9.0175 2.2369
-3.5210 8.8962 2.2369
-3.8377 8.7633 2.2369
-4.1493 8.6192 2.2369
-4.4555 8.4639 2.2369
-4.7559 8.2977 2.2369
-5.0501 8.1208 2.2369
-5.3376 7.9334 2.2369
-5.6182 7.7358 2.2369
-5.8915 7.5282 2.2369
-6.0761 7.2148 2.2075
-6.1189 6.7578 2.1338
-6.3566 6.5329 2.1338
-6.5859 6.2996 2.1338
-6.8067 6.0582 2.1338
-7.0187 5.8091 2.1338
-7.2214 5.5526 2.1338
-7.4148 5.2889 2.1338
-7.5986 5.0185 2.1338
-7.7724 4.7417 2.1338
-7.9362 4.4589 2.1338
-8.0896 4.1704 2.1338
-8.2326 3.8767 2.1338
-8.3648 3.5780 2.1338
-8.4862 3.2749 2.1338
-8.5967 2.9676 2.1338
-6.4587 1.9731 1.5848
-8.7839 2.3423 2.1338
-8.8606 2.0251 2.1338
-8.9258 1.7054 2.1338
-8.9794 1.3836 2.1338
-9.0215 1.0602 2.1338
-9.0519 0.7356 2.1338
-9.0706 0.4101 2.1338
-9.0776 0.0842 2.1338
-9.0729 -0.2417 2.1338
-9.0566 -0.5671 2.1338
-9.0285 -0.8917 2.1338
-8.9889 -1.2149 2.1338
-8.9377 -1.5365 2.1338
-8.8750 -1.8560 2.1338
-8.8009 -2.1730 2.1338
-8.7156 -2.4871 2.1338
-8.6190 -2.7978 2.1338
-8.5114 -3.1048 2.1338
-8.3929 -3.4078 2.1338
-8.2636 -3.7062 2.1338
-8.1237 -3.9997 2.1338
-7.9735 -4.2880 2.1338
-7.8130 -4.5708 2.1338
-7.6426 -4.8475 2.1338
-7.4624 -5.1179 2.1338
-7.2726 -5.3817 2.1338
-7.0736 -5.6384 2.1338
-6.8656 -5.8878 2.1338
-6.6488 -6.1296 2.1338
-6.4235 -6.3635 2.1338
-6.1900 -6.5891 2.1338
-6.0792 -6.9555 2.1806
-5.9751 -7.3534 2.2369
-5.7066 -7.5623 2.2369
-5.4307 -7.7615 2.2369
-5.1480 -7.9506 2.2369
-4.8587 -8.1295 2.2369
-4.5633 -8.2979 2.2369
-4.2620 -8.4556 2.2369
-3.9553 -8.6025 2.2369
-3.6436 -8.7383 2.2369
-3.3273 -8.8629 2.2369
-3.0067 -8.9761 2.2369
-2.6823 -9.0778 2.2369
-2.3545 -9.1678 2.2369
-2.0237 -9.2461 2.2369
-1.6904 -9.3124 2.2369
-1.3549 -9.3669 2.2369
-1.0177 -9.4093 2.2369
-0.6791 -9.4397 2.2369
-0.3397 -9.4579 2.2369
0.0001 -8.5946 2.2369
0.3087 -8.5892 2.2369
0.6169 -8.5727 2.2369
0.9244 -8.5452 2.2369
1.2307 -8.5067 2.2369
1.5354 -8.4574 2.2369
1.8382 -8.3971 2.2369
2.0399 -7.9418 2.1336
2.3239 -7.8639 2.1336
2.6049 -7.7758 2.1336
2.8826 -7.6778 2.1336
3.1567 -7.5699 2.1336
3.4267 -7.4523 2.1336
3.6924 -7.3251 2.1336
3.9534 -7.1884 2.1336
4.2094 -7.0425 2.1336
4.4600 -6.8875 2.1336
4.7050 -6.7237 2.1336
4.9439 -6.5512 2.1336
5.1765 -6.3702 2.1336
5.4026 -6.1810 2.1336
5.6218 -5.9838 2.1336
5.8338 -5.7789 2.1336
5.8725 -5.4136 2.0751
5.8725 -5.0359 2.0096
6.0789 -4.8452 2.0190
6.3535 -4.7012 2.0525
6.5192 -4.4707 2.0525
6.6766 -4.2345 2.0525
6.8254 -3.9927 2.0525
6.9655 -3.7457 2.0525
7.0967 -3.4938 2.0525
7.2188 -3.2373 2.0525
5.8312 -2.3674 1.6324
5.8526 -2.1347 1.6156
5.8526 -1.8996 1.5955
5.9882 -1.7086 1.6144
8.0789 -1.9944 2.1569
8.1468 -1.7034 2.1569
8.2042 -1.4102 2.1569
8.2510 -1.1149 2.1569
8.2873 -0.8182 2.1569
8.3129 -0.5203 2.1569
8.3277 -0.2216 2.1569
8.3319 0.0775 2.1569
8.3253 0.3766 2.1569
8.3080 0.6753 2.1569
8.2799 0.9733 2.1569
8.2411 1.2701 2.1569
8.1917 1.5654 2.1569
8.1318 1.8587 2.1569
8.0613 2.1498 2.1569
7.9803 2.4382 2.1569
7.8891 2.7235 2.1569
7.7876 3.0054 2.1569
7.6760 3.2836 2.1569
7.5545 3.5575 2.1569
7.4232 3.8270 2.1569
7.2822 4.0916 2.1569
7.1318 4.3511 2.1569
6.9721 4.6049 2.1569
6.7092 4.7858 2.1270
6.5379 5.0271 2.1283
2.4908 2.0616 0.8343
6.1699 5.4915 2.1309
5.9736 5.7140 2.1323
5.7689 5.9290 2.1336
5.5531 6.1330 2.1336
5.3305 6.3296 2.1338
5.1005 6.5175 2.1338
2.7279 3.7560 1.1967
2.5271 3.7561 1.1670
2.5520 4.1037 1.2456
2.4198 4.2218 1.2541
3.8570 7.3268 2.1338
3.5919 7.4611 2.1338
3.3221 7.5858 2.1338
3.0479 7.7006 2.1338
2.7698 7.8055 2.1338
2.4880 7.9003 2.1338
2.2030 7.9849 2.1338
1.9504 8.2074 2.1731
1.7033 8.5154 2.2369
1.3966 8.5712 2.2369
1.0882 8.6160 2.2369
0.7783 8.6496 2.2369
0.4674 8.6721 2.2369
0.1559 8.6832 2.2369
-0.1558 8.6832 2.2369
-0.4672 8.6719 2.2369
-0.7781 8.6494 2.2369
-1.0880 8.6157 2.2369
-1.3964 8.5708 2.2369
-1.7030 8.5148 2.2369
-2.0074 8.4479 2.2369
-2.3091 8.3699 2.2369
-2.6078 8.2812 2.2369
-2.9031 8.1818 2.2369
-3.1946 8.0717 2.2369
-3.4819 7.9513 2.2369
-3.7647 7.8206 2.2369
-4.0426 7.6797 2.2369
-4.3152 7.5290 2.2369
-4.5821 7.3685 2.2369
-4.8431 7.1986 2.2369
-5.0977 7.0194 2.2369
-5.3457 6.8311 2.2369
-5.5867 6.6340 2.2369
-5.8205 6.4284 2.2369
-6.0466 6.2146 2.2369
-6.0804 5.8163 2.1710
-6.1766 5.4976 2.1338
-6.3690 5.2717 2.1338
-6.5531 5.0389 2.1338
-6.7287 4.7997 2.1338
-6.8955 4.5544 2.1338
-7.0534 4.3033 2.1338
-7.2021 4.0467 2.1338
-7.3415 3.7850 2.1338
-7.4713 3.5185 2.1338
-7.5915 3.2475 2.1338
-7.7018 2.9724 2.1338
-7.8021 2.6936 2.1338
-6.4519 1.9713 1.7444
-7.9724 2.1261 2.1338
-8.0421 1.8383 2.1338
-8.1014 1.5481 2.1338
-8.1502 1.2561 2.1338
-8.1885 0.9626 2.1338
-8.2163 0.6679 2.1338
-8.2334 0.3725 2.1338
-8.2399 0.0767 2.1338
-8.2358 -0.2191 2.1338
-8.2211 -0.5145 2.1338
-8.1958 -0.8092 2.1338
-8.1600 -1.1027 2.1338
-8.1137 -1.3946 2.1338
-8.0569 -1.6847 2.1338
-7.9898 -1.9725 2.1338
-7.9124 -2.2576 2.1338
-7.8249 -2.5398 2.1338
-7.7273 -2.8186 2.1338
-7.6198 -3.0936 2.1338
-7.5026 -3.3646 2.1338
-7.3757 -3.6312 2.1338
-7.2394 -3.8930 2.1338
-7.0938 -4.1498 2.1338
-6.9392 -4.4011 2.1338
-6.7757 -4.6467 2.1338
-6.6035 -4.8862 2.1338
-6.4229 -5.1194 2.1338
-6.2340 -5.3460 2.1338
-6.0859 -5.6105 2.1510
-6.0784 -6.0213 2.2237
-5.8924 -6.2720 2.2369
-5.6627 -6.4788 2.2369
-5.4258 -6.6772 2.2369
-5.1820 -6.8669 2.2369
-4.9316 -7.0478 2.2369
-4.6749 -7.2196 2.2369
-4.4122 -7.3821 2.2369
-4.1440 -7.5352 2.2369
-3.8704 -7.6785 2.2369
-3.5919 -7.8119 2.2369
-3.3089 -7.9353 2.2369
-3.0216 -8.0485 2.2369
-2.7305 -8.1513 2.2369
-2.4359 -8.2437 2.2369
-2.1383 -8.3255 2.2369
-1.8379 -8.3966 2.2369
-1.5351 -8.4569 2.2369
-1.2304 -8.5064 2.2369
-0.9242 -8.5449 2.2369
-0.6168 -8.5725 2.2369
-0.3085 -8.5891 2.2369
0.0001 -7.8637 2.2369
0.2825 -7.8587 2.2369
0.5645 -7.8436 2.2369
0.8458 -7.8184 2.2369
1.1260 -7.7832 2.2369
1.4049 -7.7380 2.2369
1.6819 -7.6829 2.2369
1.9568 -7.6179 2.2369
2.1263 -7.1949 2.1336
2.3834 -7.1143 2.1336
2.6375 -7.0246 2.1336
2.8882 -6.9258 2.1336
3.1353 -6.8182 2.1336
3.3783 -6.7017 2.1336
3.6171 -6.5767 2.1336
3.8513 -6.4431 2.1336
4.0806 -6.3013 2.1336
4.3046 -6.1513 2.1336
4.5232 -5.9934 2.1336
4.7360 -5.8278 2.1336
4.9428 -5.6547 2.1336
5.1432 -5.4742 2.1336
5.3371 -5.2866 2.1336
5.5242 -5.0923 2.1336
5.7042 -4.8913 2.1336
5.8770 -4.6840 2.1336
5.9358 -4.3919 2.0961
5.9638 -4.0896 2.0525
6.1077 -3.8734 2.0525
6.2438 -3.6522 2.0525
6.3718 -3.4262 2.0525
6.4918 -3.1957 2.0525
6.6034 -2.9611 2.0525
5.8312 -2.3672 1.7846
5.8526 -2.1345 1.7662
5.8526 -1.8994 1.7442
5.9888 -1.7086 1.7651
7.3896 -1.8241 2.1569
7.4516 -1.5579 2.1569
7.5040 -1.2896 2.1569
7.5468 -1.0195 2.1569
7.5798 -0.7481 2.1569
7.6031 -0.4756 2.1569
7.6166 -0.2024 2.1569
7.6203 0.0711 2.1569
7.6141 0.3447 2.1569
7.5981 0.6179 2.1569
7.5724 0.8903 2.1569
7.5368 1.1618 2.1569
7.4915 1.4318 2.1569
7.4366 1.7000 2.1569
7.3720 1.9662 2.1569
7.2979 2.2299 2.1569
7.2143 2.4908 2.1569
6.7094 2.5896 2.0321
6.6556 2.8473 2.0451
6.6556 3.1345 2.0781
6.3952 3.2973 2.0321
6.6589 3.7417 2.1569
6.5213 3.9788 2.1569
6.3752 4.2109 2.1569
6.2208 4.4376 2.1569
6.0584 4.6586 2.1569
2.4903 2.0613 0.9122
5.6485 5.0277 2.1336
5.4652 5.2278 2.1336
5.2746 5.4212 2.1336
5.0773 5.6077 2.1336
4.8733 5.7869 2.1336
4.6630 5.9587 2.1336
2.7278 3.7560 1.3089
2.5270 3.7561 1.2763
2.3855 3.8361 1.2735
2.3737 4.1415 1.3456
3.5263 6.6989 2.1338
3.2839 6.8216 2.1338
3.0372 6.9355 2.1338
2.7865 7.0405 2.1338
2.5322 7.1363 2.1338
2.2747 7.2229 2.1338
2.0141 7.3002 2.1338
1.8355 7.7241 2.2369
1.5572 7.7852 2.2369
1.2769 7.8363 2.2369
0.9949 7.8772 2.2369
0.7116 7.9079 2.2369
0.4273 7.9284 2.2369
0.1426 7.9387 2.2369
-0.1424 7.9386 2.2369
-0.4271 7.9283 2.2369
-0.7114 7.9077 2.2369
-0.9946 7.8769 2.2369
-1.2766 7.8359 2.2369
-1.5569 7.7848 2.2369
-1.8352 7.7236 2.2369
-2.1111 7.6524 2.2369
-2.3841 7.5713 2.2369
-2.6541 7.4804 2.2369
-2.9207 7.3798 2.2369
-3.1834 7.2698 2.2369
-3.4419 7.1503 2.2369
-3.6960 7.0216 2.2369
-3.9452 6.8838 2.2369
-4.1893 6.7372 2.2369
-4.4280 6.5818 2.2369
-4.6608 6.4180 2.2369
-4.8876 6.2460 2.2369
-5.1080 6.0659 2.2369
-5.3218 5.8779 2.2369
-5.5286 5.6825 2.2369
-5.7283 5.4797 2.2369
-5.9204 5.2699 2.2369
-6.0775 5.0306 2.2268
-6.0817 4.6767 2.1657
-6.1526 4.3891 2.1338
-6.3053 4.1648 2.1338
-6.4497 3.9353 2.1338
-6.5858 3.7007 2.1338
-6.7133 3.4614 2.1338
-6.8322 3.2177 2.1338
-6.9421 2.9699 2.1338
-7.0431 2.7184 2.1338
-7.1350 2.4635 2.1338
-6.4451 1.9694 1.9054
-7.2909 1.9446 2.1338
-7.3547 1.6814 2.1338
-7.4091 1.4161 2.1338
-7.4539 1.1490 2.1338
-7.4890 0.8806 2.1338
-7.5145 0.6111 2.1338
-7.5303 0.3409 2.1338
-7.5363 0.0704 2.1338
-7.5327 -0.2002 2.1338
-7.5194 -0.4704 2.1338
-7.4963 -0.7399 2.1338
-7.4637 -1.0083 2.1338
-7.4214 -1.2754 2.1338
-7.3696 -1.5407 2.1338
-7.3083 -1.8040 2.1338
-7.2376 -2.0649 2.1338
-7.1577 -2.3230 2.1338
-7.0685 -2.5780 2.1338
-6.9703 -2.8297 2.1338
-6.8631 -3.0776 2.1338
-6.7472 -3.3215 2.1338
-6.6226 -3.5611 2.1338
-6.4895 -3.7960 2.1338
-6.3481 -4.0260 2.1338
-6.1986 -4.2507 2.1338
-6.0861 -4.5032 2.1497
-6.0783 -4.8445 2.2073
-5.9788 -5.1269 2.2369
-5.7902 -5.3376 2.2369
-5.5941 -5.5414 2.2369
-5.3909 -5.7380 2.2369
-5.1808 -5.9272 2.2369
-4.9641 -6.1087 2.2369
-4.7411 -6.2824 2.2369
-4.5120 -6.4480 2.2369
-4.2772 -6.6052 2.2369
-4.0369 -6.7540 2.2369
-3.7915 -6.8940 2.2369
-3.5412 -7.0252 2.2369
-3.2864 -7.1473 2.2369
-3.0275 -7.2602 2.2369
-2.7647 -7.3638 2.2369
-2.4983 -7.4580 2.2369
-2.2288 -7.5425 2.2369
-1.9564 -7.6174 2.2369
-1.6816 -7.6824 2.2369
-1.4046 -7.7376 2.2369
-1.1258 -7.7829 2.2369
-0.8456 -7.8182 2.2369
-0.5643 -7.8434 2.2369
-0.2823 -7.8586 2.2369
0.0001 -7.2400 2.2369
0.2601 -7.2354 2.2369
0.5197 -7.2215 2.2369
0.7787 -7.1983 2.2369
1.0368 -7.1659 2.2369
1.2935 -7.1243 2.2369
1.5485 -7.0735 2.2369
1.8016 -7.0136 2.2369
1.9754 -6.6841 2.1529
2.1944 -6.5500 2.1336
2.4283 -6.4673 2.1336
2.6591 -6.3763 2.1336
2.8866 -6.2772 2.1336
3.1104 -6.1699 2.1336
3.3302 -6.0548 2.1336
3.5458 -5.9318 2.1336
3.7568 -5.8011 2.1336
3.9631 -5.6630 2.1336
4.1643 -5.5176 2.1336
4.3601 -5.3651 2.1336
4.5505 -5.2056 2.1336
4.7350 -5.0395 2.1336
4.9134 -4.8668 2.1336
5.0856 -4.6878 2.1336
5.2513 -4.5027 2.1336
5.4103 -4.3118 2.1336
5.5623 -4.1153 2.1336
5.7073 -3.9135 2.1336
5.8449 -3.7065 2.1336
5.9359 -3.4719 2.1197
5.9359 -3.1916 2.0771
5.9759 -2.9416 2.0525
6.0785 -2.7255 2.0525
5.8312 -2.3670 1.9387
5.8526 -2.1343 1.9188
5.8526 -1.8992 1.8949
5.9895 -1.7086 1.9178
6.8019 -1.6787 2.1569
6.4620 -1.3508 2.0321
6.6552 -1.1435 2.0783
6.6553 -0.8989 2.0666
6.6553 -0.6566 2.0576
6.6553 -0.4161 2.0513
6.6553 -0.1767 2.0477
6.6553 0.0623 2.0468
6.6554 0.3015 2.0484
6.6554 0.5414 2.0528
6.6554 0.7827 2.0598
6.6554 1.0261 2.0695
6.6554 1.2722 2.0821
6.6555 1.5217 2.0975
6.6452 1.7726 2.1126
6.5841 2.0120 2.1145
6.5086 2.2474 2.1145
6.1744 2.3833 2.0321
6.0858 2.6037 2.0321
6.0681 2.8580 2.0589
6.0681 3.1289 2.0953
6.1277 3.4434 2.1569
5.9363 3.6221 2.1336
5.8032 3.8333 2.1336
5.6627 4.0396 2.1336
5.5147 4.2408 2.1336
2.4897 2.0609 0.9912
5.1976 4.6266 2.1336
5.0288 4.8107 2.1336
4.8535 4.9886 2.1336
4.6718 5.1601 2.1336
4.4841 5.3250 2.1336
4.2906 5.4830 2.1336
2.7277 3.7560 1.4225
2.5269 3.7561 1.3871
2.3737 3.8172 1.3772
2.3737 4.1417 1.4624
3.2443 6.1634 2.1336
3.0213 6.2762 2.1336
2.7945 6.3815 2.1338
2.5638 6.4780 2.1338
2.3299 6.5662 2.1338
2.0928 6.6459 2.1338
1.9426 7.0415 2.2369
1.6888 7.1069 2.2369
1.4327 7.1631 2.2369
1.1748 7.2101 2.2369
0.9153 7.2478 2.2369
0.6547 7.2760 2.2369
0.3932 7.2949 2.2369
0.1312 7.3043 2.2369
-0.1310 7.3043 2.2369
-0.3930 7.2948 2.2369
-0.6545 7.2759 2.2369
-0.9151 7.2475 2.2369
-1.1746 7.2098 2.2369
-1.4325 7.1628 2.2369
-1.6885 7.1065 2.2369
-1.9423 7.0410 2.2369
-2.1936 6.9664 2.2369
-2.4420 6.8828 2.2369
-2.6873 6.7903 2.2369
-2.9290 6.6891 2.2369
-3.1669 6.5792 2.2369
-3.4007 6.4608 2.2369
-3.6301 6.3341 2.2369
-3.8547 6.1992 2.2369
-4.0743 6.0564 2.2369
-4.2886 5.9057 2.2369
-4.4973 5.7474 2.2369
-4.7001 5.5817 2.2369
-4.8969 5.4088 2.2369
-5.0872 5.2290 2.2369
-5.2710 5.0425 2.2369
-5.4479 4.8495 2.2369
-5.6177 4.6503 2.2369
-5.7802 4.4451 2.2369
-5.9352 4.2342 2.2369
-6.0776 4.0146 2.2351
-6.0776 3.7084 2.1850
-6.0870 3.4206 2.1431
-6.1779 3.1856 2.1338
-6.2874 2.9614 2.1338
-6.3886 2.7334 2.1338
-6.4817 2.5019 2.1338
-6.5663 2.2673 2.1338
-6.4382 1.9675 2.0682
-6.7099 1.7899 2.1338
-6.7688 1.5476 2.1338
-6.8189 1.3035 2.1338
-6.8602 1.0577 2.1338
-6.8926 0.8107 2.1338
-6.9161 0.5626 2.1338
-6.9308 0.3140 2.1338
-6.9364 0.0650 2.1338
-6.9332 -0.1840 2.1338
-6.9210 -0.4327 2.1338
-6.8999 -0.6808 2.1338
-6.8699 -0.9279 2.1338
-6.8311 -1.1737 2.1338
-6.7835 -1.4180 2.1338
-6.7271 -1.6603 2.1338
-6.6622 -1.9005 2.1338
-6.5887 -2.1381 2.1338
-6.5067 -2.3729 2.1338
-6.4163 -2.6046 2.1338
-6.3177 -2.8329 2.1338
-6.2111 -3.0574 2.1338
-6.0964 -3.2780 2.1338
-6.0809 -3.5568 2.1720
-6.0782 -3.8546 2.2194
-5.9820 -4.1020 2.2369
-5.8301 -4.3135 2.2369
-5.6708 -4.5195 2.2369
-5.5042 -4.7197 2.2369
-5.3305 -4.9137 2.2369
-5.1501 -5.1013 2.2369
-4.9630 -5.2824 2.2369
-4.7697 -5.4566 2.2369
-4.5702 -5.6238 2.2369
-4.3649 -5.7837 2.2369
-4.1540 -5.9362 2.2369
-3.9379 -6.0810 2.2369
-3.7167 -6.2180 2.2369
-3.4907 -6.3470 2.2369
-3.2603 -6.4678 2.2369
-3.0258 -6.5802 2.2369
-2.7874 -6.6842 2.2369
-2.5454 -6.7797 2.2369
-2.3002 -6.8664 2.2369
-2.0521 -6.9442 2.2369
-1.8013 -7.0132 2.2369
-1.5483 -7.0731 2.2369
-1.2932 -7.1239 2.2369
-1.0366 -7.1656 2.2369
-0.7786 -7.1981 2.2369
-0.5196 -7.2214 2.2369
-0.2599 -7.2353 2.2369
0.0001 -6.7011 2.2369
0.2407 -6.6968 2.2369
0.4811 -6.6840 2.2369
0.7208 -6.6625 2.2369
0.9596 -6.6325 2.2369
1.1972 -6.5939 2.2369
1.4333 -6.5469 2.2369
1.6675 -6.4915 2.2369
1.8997 -6.4277 2.2369
2.0311 -6.0623 2.1336
2.2476 -5.9858 2.1336
2.4612 -5.9015 2.1336
2.6718 -5.8097 2.1336
2.8788 -5.7104 2.1336
3.0823 -5.6038 2.1336
3.2818 -5.4899 2.1336
3.4771 -5.3690 2.1336
3.6680 -5.2411 2.1336
3.8542 -5.1065 2.1336
4.0354 -4.9653 2.1336
4.2115 -4.8177 2.1336
4.3823 -4.6639 2.1336
4.5474 -4.5040 2.1336
4.7067 -4.3383 2.1336
4.8600 -4.1670 2.1336
5.0071 -3.9903 2.1336
5.1478 -3.8084 2.1336
5.2819 -3.6216 2.1336
5.4092 -3.4300 2.1336
5.5296 -3.2340 2.1336
5.6429 -3.0338 2.1336
5.7490 -2.8297 2.1336
5.8477 -2.6218 2.1336
5.8312 -2.3668 2.0950
5.8526 -2.1341 2.0735
5.8526 -1.8990 2.0477
5.9902 -1.7086 2.0727
6.0678 -1.4974 2.0793
6.0678 -1.2682 2.0621
6.0678 -1.0424 2.0477
6.0727 -0.8200 2.0378
6.0821 -0.5999 2.0321
6.1007 -0.3813 2.0321
6.1114 -0.1620 2.0321
6.1142 0.0574 2.0321
6.1091 0.2769 2.0321
6.0961 0.4961 2.0321
6.0791 0.7152 2.0334
6.0698 0.9360 2.0399
6.0680 1.1601 2.0517
6.0680 1.3876 2.0669
6.0680 1.6188 2.0850
6.0680 1.8545 2.1063
6.0681 2.0955 2.1307
6.0634 2.3406 2.1569
5.9118 2.5295 2.1336
5.8181 2.7404 2.1336
5.7167 2.9479 2.1336
5.6080 3.1515 2.1336
5.4920 3.3512 2.1336
5.3688 3.5466 2.1336
5.2387 3.7374 2.1336
5.1019 3.9235 2.1336
2.4892 2.0606 1.0711
4.8084 4.2803 2.1336
4.6522 4.4506 2.1336
4.4900 4.6151 2.1336
4.3219 4.7738 2.1336
4.1482 4.9263 2.1336
3.9691 5.0724 2.1336
2.7276 3.7560 1.5376
2.5268 3.7561 1.4994
2.3737 3.8174 1.4888
2.3737 4.1418 1.5809
3.0012 5.7016 2.1336
2.7948 5.8060 2.1336
2.5848 5.9029 2.1336
2.3715 5.9922 2.1336
2.1551 6.0737 2.1336
1.9713 6.2602 2.1728
1.7970 6.5138 2.2369
1.5622 6.5743 2.2369
1.3253 6.6263 2.2369
1.0867 6.6698 2.2369
0.8467 6.7046 2.2369
0.6056 6.7307 2.2369
0.3637 6.7482 2.2369
0.1214 6.7569 2.2369
-0.1212 6.7568 2.2369
-0.3635 6.7481 2.2369
-0.6054 6.7306 2.2369
-0.8465 6.7044 2.2369
-1.0865 6.6695 2.2369
-1.3251 6.6260 2.2369
-1.5619 6.5740 2.2369
-1.7967 6.5134 2.2369
-2.0292 6.4444 2.2369
-2.2590 6.3671 2.2369
-2.4859 6.2816 2.2369
-2.7095 6.1880 2.2369
-2.9296 6.0864 2.2369
-3.1459 5.9769 2.2369
-3.3581 5.8597 2.2369
-3.5659 5.7350 2.2369
-3.7690 5.6028 2.2369
-3.9673 5.4635 2.2369
-4.1604 5.3171 2.2369
-4.3481 5.1639 2.2369
-4.5301 5.0040 2.2369
-4.7063 4.8377 2.2369
-4.8763 4.6651 2.2369
-5.0400 4.4866 2.2369
-5.1971 4.3024 2.2369
-5.3476 4.1126 2.2369
-5.4910 3.9175 2.2369
-5.6273 3.7175 2.2369
-5.7564 3.5127 2.2369
-5.8780 3.3034 2.2369
-5.9919 3.0899 2.2369
-6.0777 2.8628 2.2294
-6.0777 2.6005 2.1940
-6.0822 2.3480 2.1642
-6.0882 2.1025 2.1384
-6.1458 1.8783 2.1338
-6.2083 1.6563 2.1338
-6.2701 1.4338 2.1363
-6.3093 1.2063 2.1338
-6.3475 0.9789 2.1338
-6.3776 0.7503 2.1338
-6.3995 0.5208 2.1338
-6.4131 0.2907 2.1338
-6.4184 0.0603 2.1338
-6.4155 -0.1701 2.1338
-6.4043 -0.4002 2.1338
-6.3848 -0.6298 2.1338
-6.3571 -0.8584 2.1338
-6.3213 -1.0859 2.1338
-6.2773 -1.3120 2.1338
-6.2252 -1.5363 2.1338
-6.1652 -1.7585 2.1338
-6.0972 -1.9784 2.1338
-6.0845 -2.2187 2.1562
-6.0781 -2.4671 2.1842
-6.0781 -2.7252 2.2183
-6.0257 -2.9660 2.2369
-5.9145 -3.1800 2.2369
-5.7958 -3.3898 2.2369
-5.6696 -3.5953 2.2369
-5.5362 -3.7961 2.2369
-5.3957 -3.9919 2.2369
-5.2483 -4.1826 2.2369
-5.0941 -4.3678 2.2369
-4.9335 -4.5474 2.2369
-4.7665 -4.7212 2.2369
-4.5934 -4.8888 2.2369
-4.4145 -5.0500 2.2369
-4.2299 -5.2048 2.2369
-4.0399 -5.3529 2.2369
-3.8448 -5.4940 2.2369
-3.6447 -5.6281 2.2369
-3.4400 -5.7549 2.2369
-3.2309 -5.8743 2.2369
-3.0177 -5.9861 2.2369
-2.8006 -6.0903 2.2369
-2.5799 -6.1866 2.2369
-2.3560 -6.2749 2.2369
-2.1290 -6.3552 2.2369
-1.8994 -6.4273 2.2369
-1.6673 -6.4911 2.2369
-1.4331 -6.5466 2.2369
-1.1970 -6.5936 2.2369
-0.9594 -6.6323 2.2369
-0.7206 -6.6623 2.2369
-0.4809 -6.6839 2.2369
-0.2406 -6.6968 2.2369
0.0001 -6.2303 2.2369
0.2238 -6.2264 2.2369
0.4473 -6.2144 2.2369
0.6702 -6.1944 2.2369
0.8923 -6.1665 2.2369
1.1132 -6.1306 2.2369
1.3326 -6.0869 2.2369
1.5504 -6.0354 2.2369
1.7663 -5.9760 2.2369
1.9676 -5.8725 2.2231
2.0897 -5.5651 2.1336
2.2883 -5.4868 2.1336
2.4841 -5.4014 2.1336
2.6766 -5.3091 2.1336
2.8657 -5.2099 2.1336
3.0512 -5.1040 2.1336
3.2328 -4.9915 2.1336
3.4102 -4.8727 2.1336
3.5833 -4.7475 2.1336
3.7518 -4.6162 2.1336
3.9155 -4.4789 2.1336
4.0742 -4.3358 2.1336
4.2277 -4.1872 2.1336
4.3758 -4.0331 2.1336
4.5183 -3.8738 2.1336
4.6550 -3.7095 2.1336
4.7857 -3.5404 2.1336
4.9104 -3.3666 2.1336
5.0287 -3.1886 2.1336
5.1406 -3.0063 2.1336
5.2459 -2.8202 2.1336
5.3444 -2.6304 2.1336
5.4361 -2.4371 2.1336
5.5209 -2.2407 2.1336
5.5985 -2.0413 2.1336
5.6689 -1.8392 2.1336
5.7321 -1.6348 2.1336
5.7879 -1.4281 2.1336
5.8363 -1.2196 2.1336
5.8771 -1.0094 2.1336
5.9104 -0.7979 2.1336
5.9361 -0.5853 2.1336
5.9541 -0.3719 2.1336
5.9645 -0.1579 2.1336
5.9672 0.0563 2.1336
5.9622 0.2705 2.1336
5.9495 0.4844 2.1336
5.9291 0.6977 2.1336
5.9011 0.9102 2.1336
5.8654 1.1216 2.1336
5.8222 1.3315 2.1336
5.7714 1.5399 2.1336
5.7132 1.7463 2.1336
5.6476 1.9504 2.1336
5.5747 2.1522 2.1336
5.4946 2.3512 2.1336
5.4074 2.5472 2.1336
5.3132 2.7399 2.1336
5.2121 2.9292 2.1336
5.1042 3.1148 2.1336
4.9897 3.2963 2.1336
4.8688 3.4737 2.1336
4.7415 3.6466 2.1336
2.4886 2.0602 1.1523
4.4687 3.9781 2.1336
4.3235 4.1363 2.1336
4.1727 4.2892 2.1336
4.0165 4.4366 2.1336
3.8551 4.5783 2.1336
3.6886 4.7141 2.1336
2.7275 3.7560 1.6545
2.5267 3.7561 1.6134
2.3737 3.8175 1.6020
2.3737 4.1419 1.7012
2.7890 5.2987 2.1336
2.5972 5.3957 2.1336
0.8579 1.9592 0.7620
2.2038 5.5687 2.1336
2.0027 5.6444 2.1336
1.8860 5.9894 2.2369
1.6699 6.0534 2.2369
1.4517 6.1096 2.2369
1.2316 6.1579 2.2369
1.0099 6.1983 2.2369
0.7868 6.2306 2.2369
0.5628 6.2549 2.2369
0.3380 6.2711 2.2369
0.1128 6.2792 2.2369
-0.1126 6.2792 2.2369
-0.3378 6.2710 2.2369
-0.5626 6.2548 2.2369
-0.7866 6.2304 2.2369
-1.0096 6.1981 2.2369
-1.2314 6.1576 2.2369
-1.4515 6.1093 2.2369
-1.6697 6.0530 2.2369
-1.8857 5.9890 2.2369
-2.0993 5.9172 2.2369
-2.3101 5.8377 2.2369
-0.8578 1.9592 0.7621
-0.9275 1.9271 0.7621
-2.9235 5.5546 2.2369
-3.1207 5.4457 2.2369
-3.3138 5.3298 2.2369
-3.5026 5.2070 2.2369
-3.6869 5.0776 2.2369
-3.8664 4.9416 2.2369
-4.0409 4.7992 2.2369
-4.2100 4.6506 2.2369
-4.3738 4.4961 2.2369
-4.5318 4.3358 2.2369
-4.6840 4.1699 2.2369
-4.8301 3.9987 2.2369
-4.9699 3.8223 2.2369
-5.1033 3.6411 2.2369
-5.2300 3.4552 2.2369
-5.3500 3.2649 2.2369
-5.4630 3.0704 2.2369
-5.5690 2.8720 2.2369
-5.6677 2.6699 2.2369
-5.7591 2.4644 2.2369
-5.8431 2.2558 2.2369
-5.9195 2.0444 2.2369
-5.9882 1.8304 2.2369
-6.0492 1.6140 2.2369
-6.0778 1.3900 2.2279
-6.0778 1.1622 2.2115
-6.0778 0.9375 2.1981
-6.0778 0.7152 2.1877
-6.0786 0.4949 2.1805
-6.0796 0.2758 2.1762
-6.0800 0.0573 2.1745
-6.0798 -0.1610 2.1755
-6.0790 -0.3797 2.1790
-6.0779 -0.5993 2.1852
-6.0780 -0.8205 2.1947
-6.0780 -1.0440 2.2071
-6.0780 -1.2701 2.2226
-6.0665 -1.4969 2.2369
-6.0080 -1.7135 2.2369
-5.9418 -1.9278 2.2369
-5.8680 -2.1396 2.2369
-5.7866 -2.3486 2.2369
-5.6978 -2.5545 2.2369
-5.6017 -2.7571 2.2369
-5.4985 -2.9561 2.2369
-5.3881 -3.1512 2.2369
-5.2709 -3.3422 2.2369
-5.1469 -3.5289 2.2369
-5.0163 -3.7110 2.2369
-4.8792 -3.8883 2.2369
-4.7360 -4.0606 2.2369
-4.5866 -4.2276 2.2369
-4.4314 -4.3891 2.2369
-4.2706 -4.5449 2.2369
-4.1042 -4.6949 2.2369
-3.9326 -4.8389 2.2369
-3.7560 -4.9765 2.2369
-3.5746 -5.1078 2.2369
-3.3886 -5.2325 2.2369
-3.1983 -5.3504 2.2369
-3.0039 -5.4614 2.2369
-2.8057 -5.5654 2.2369
-2.6038 -5.6623 2.2369
-2.3987 -5.7518 2.2369
-2.1905 -5.8340 2.2369
-1.9795 -5.9086 2.2369
-1.7660 -5.9756 2.2369
-1.5502 -6.0350 2.2369
-1.3324 -6.0866 2.2369
-1.1129 -6.1304 2.2369
-0.8920 -6.1663 2.2369
-0.6700 -6.1943 2.2369
-0.4471 -6.2143 2.2369
-0.2237 -6.2263 2.2369
0.0001 -5.8151 2.2369
0.2089 -5.8114 2.2369
0.4175 -5.8002 2.2369
0.6256 -5.7816 2.2369
0.8328 -5.7555 2.2369
1.0390 -5.7220 2.2369
1.2439 -5.6812 2.2369
1.4471 -5.6331 2.2369
1.6486 -5.5777 2.2369
1.8479 -5.5152 2.2369
1.9739 -5.2564 2.1592
2.1359 -5.1210 2.1336
2.3185 -5.0413 2.1336
2.4982 -4.9551 2.1336
2.6748 -4.8625 2.1336
2.8479 -4.7637 2.1336
3.0173 -4.6587 2.1336
3.1829 -4.5477 2.1336
3.3444 -4.4308 2.1336
3.5017 -4.3082 2.1336
3.6545 -4.1801 2.1336
3.8026 -4.0466 2.1336
3.9458 -3.9078 2.1336
4.0840 -3.7640 2.1336
4.2170 -3.6153 2.1336
4.3445 -3.4619 2.1336
4.4665 -3.3040 2.1336
4.5828 -3.1419 2.1336
4.6932 -2.9756 2.1336
4.7976 -2.8055 2.1336
4.8958 -2.6318 2.1336
4.9877 -2.4546 2.1336
5.0733 -2.2743 2.1336
5.1523 -2.0909 2.1336
5.2247 -1.9048 2.1336
5.2904 -1.7162 2.1336
5.3493 -1.5254 2.1336
5.4014 -1.3326 2.1336
5.4464 -1.1379 2.1336
5.4845 -0.9418 2.1336
5.5155 -0.7444 2.1336
5.5395 -0.5460 2.1336
5.5562 -0.3469 2.1336
5.5659 -0.1472 2.1336
5.5683 0.0527 2.1336
5.5636 0.2526 2.1336
5.5517 0.4522 2.1336
5.5326 0.6512 2.1336
5.5064 0.8495 2.1336
5.4731 1.0467 2.1336
5.4327 1.2427 2.1336
5.3854 1.4371 2.1336
5.3310 1.6296 2.1336
5.2697 1.8201 2.1336
5.2017 2.0083 2.1336
5.1269 2.1940 2.1336
5.0455 2.3769 2.1336
4.9575 2.5567 2.1336
4.8631 2.7333 2.1336
4.7625 2.9064 2.1336
4.6556 3.0758 2.1336
4.5427 3.2412 2.1336
4.4240 3.4025 2.1336
2.4881 2.0598 1.2347
4.1694 3.7118 2.1336
4.0339 3.8594 2.1336
3.8932 4.0021 2.1336
3.7474 4.1396 2.1336
3.5968 4.2717 2.1336
3.4415 4.3984 2.1336
2.7274 3.7560 1.7733
2.5266 3.7561 1.7292
2.3737 3.8176 1.7171
2.3737 4.1421 1.8234
2.6021 4.9438 2.1336
0.8656 1.7984 0.7622
0.8005 1.8283 0.7622
0.7344 1.8558 0.7621
0.6674 1.8810 0.7621
0.5995 1.9038 0.7621
0.5308 1.9240 0.7621
0.4614 1.9419 0.7620
0.3914 1.9572 0.7620
0.9422 5.7829 2.2369
0.7341 5.8130 2.2369
0.5251 5.8357 2.2369
0.3153 5.8508 2.2369
0.1052 5.8584 2.2369
-0.1050 5.8583 2.2369
-0.3152 5.8507 2.2369
-0.5249 5.8356 2.2369
-0.7339 5.8129 2.2369
-0.9419 5.7827 2.2369
-0.3914 1.9572 0.7621
-0.4613 1.9419 0.7621
-0.5307 1.9240 0.7621
-0.5994 1.9038 0.7621
-0.6673 1.8810 0.7622
-0.7344 1.8559 0.7622
-0.8005 1.8283 0.7622
-0.8656 1.7984 0.7623
-0.9295 1.7661 0.7623
-2.9115 5.0809 2.2369
-3.0917 4.9728 2.2369
-3.2679 4.8583 2.2369
-3.4399 4.7375 2.2369
-3.6073 4.6107 2.2369
-3.7701 4.4778 2.2369
-3.9280 4.3393 2.2369
-4.0808 4.1951 2.2369
-4.2283 4.0456 2.2369
-4.3703 3.8908 2.2369
-4.5066 3.7311 2.2369
-4.6371 3.5666 2.2369
-4.7616 3.3975 2.2369
-4.8799 3.2241 2.2369
-4.9919 3.0465 2.2369
-5.0974 2.8651 2.2369
-5.1963 2.6799 2.2369
-5.2884 2.4914 2.2369
-5.3738 2.2997 2.2369
-5.4522 2.1051 2.2369
-5.5235 1.9078 2.2369
-5.5877 1.7081 2.2369
-5.6446 1.5063 2.2369
-5.6943 1.3025 2.2369
-5.7366 1.0972 2.2369
-5.7715 0.8904 2.2369
-5.7990 0.6826 2.2369
-5.8190 0.4739 2.2369
-5.8314 0.2647 2.2369
-5.8364 0.0552 2.2369
-5.8338 -0.1543 2.2369
-5.8237 -0.3636 2.2369
-5.8061 -0.5723 2.2369
-5.7811 -0.7803 2.2369
-5.7486 -0.9872 2.2369
-5.7087 -1.1928 2.2369
-5.6614 -1.3968 2.2369
-5.6069 -1.5989 2.2369
-5.5452 -1.7989 2.2369
-5.4763 -1.9966 2.2369
-5.4004 -2.1917 2.2369
-5.3176 -2.3839 2.2369
-5.2279 -2.5729 2.2369
-5.1316 -2.7586 2.2369
-5.0286 -2.9408 2.2369
-4.9193 -3.1191 2.2369
-4.8035 -3.2933 2.2369
-4.6817 -3.4633 2.2369
-4.5539 -3.6288 2.2369
-4.4202 -3.7896 2.2369
-4.2808 -3.9455 2.2369
-4.1360 -4.0963 2.2369
-3.9859 -4.2418 2.2369
-3.8306 -4.3818 2.2369
-3.6705 -4.5161 2.2369
-3.5057 -4.6446 2.2369
-3.3364 -4.7672 2.2369
-3.1628 -4.8836 2.2369
-2.9852 -4.9937 2.2369
-2.8037 -5.0973 2.2369
-2.6187 -5.1944 2.2369
-2.4304 -5.2848 2.2369
-2.2389 -5.3684 2.2369
-2.0445 -5.4451 2.2369
-1.8476 -5.5148 2.2369
-1.6483 -5.5774 2.2369
-1.4469 -5.6328 2.2369
-1.2436 -5.6810 2.2369
-1.0388 -5.7218 2.2369
-0.8326 -5.7554 2.2369
-0.6254 -5.7815 2.2369
-0.4173 -5.8002 2.2369
-0.2088 -5.8114 2.2369
0.0001 -5.4459 2.2369
0.1957 -5.4424 2.2369
0.3910 -5.4319 2.2369
0.5859 -5.4145 2.2369
0.7800 -5.3900 2.2369
0.9731 -5.3587 2.2369
1.1649 -5.3204 2.2369
1.3553 -5.2753 2.2369
1.5439 -5.2235 2.2369
1.7306 -5.1649 2.2369
1.9151 -5.0996 2.2369
2.0003 -4.7957 2.1336
2.1792 -4.7381 2.1414
2.3396 -4.6403 2.1336
2.5049 -4.5536 2.1336
2.6670 -4.4610 2.1336
2.8257 -4.3627 2.1336
2.9808 -4.2587 2.1336
3.1320 -4.1492 2.1336
3.2793 -4.0344 2.1336
3.4223 -3.9144 2.1336
3.5610 -3.7893 2.1336
3.6951 -3.6593 2.1336
3.8245 -3.5246 2.1336
3.9490 -3.3854 2.1336
4.0684 -3.2417 2.1336
4.1827 -3.0939 2.1336
4.2915 -2.9420 2.1336
4.3949 -2.7863 2.1336
4.4926 -2.6270 2.1336
4.5845 -2.4643 2.1336
4.6706 -2.2984 2.1336
4.7507 -2.1295 2.1336
4.8246 -1.9578 2.1336
4.8924 -1.7835 2.1336
4.9539 -1.6069 2.1336
5.0090 -1.4282 2.1336
5.0577 -1.2476 2.1336
5.0999 -1.0654 2.1336
5.1355 -0.8817 2.1336
5.1645 -0.6969 2.1336
5.1869 -0.5111 2.1336
5.2025 -0.3246 2.1336
5.2115 -0.1377 2.1336
5.2138 0.0495 2.1336
5.2093 0.2366 2.1336
5.1981 0.4235 2.1336
5.1802 0.6099 2.1336
5.1557 0.7956 2.1336
5.1245 0.9802 2.1336
5.0866 1.1637 2.1336
5.0422 1.3456 2.1336
4.9913 1.5259 2.1336
4.9339 1.7043 2.1336
4.8701 1.8805 2.1336
4.8001 2.0543 2.1336
4.7238 2.2255 2.1336
4.6414 2.3939 2.1336
4.5530 2.5592 2.1336
4.4587 2.7212 2.1336
4.3587 2.8798 2.1336
4.2530 3.0347 2.1336
4.1418 3.1856 2.1336
2.4875 2.0594 1.3185
3.9034 3.4752 2.1336
3.7765 3.6133 2.1336
3.6448 3.7469 2.1336
3.5083 3.8756 2.1336
3.3672 3.9993 2.1336
3.2218 4.1178 2.1336
2.7273 3.7560 1.8941
2.5265 3.7561 1.8470
2.3737 3.8178 1.8342
2.3737 4.1422 1.9477
0.8704 1.6538 0.7624
0.8105 1.6839 0.7624
0.7496 1.7120 0.7623
0.6877 1.7378 0.7623
0.6249 1.7613 0.7623
0.5613 1.7826 0.7622
0.4970 1.8016 0.7622
0.4320 1.8183 0.7622
0.3665 1.8326 0.7622
0.3005 1.8446 0.7622
0.2342 1.8542 0.7622
0.1675 1.8614 0.7622
0.1006 1.8662 0.7621
0.0336 1.8686 0.7621
-0.0335 1.8686 0.7622
-0.1005 1.8662 0.7622
-0.1674 1.8614 0.7622
-0.2341 1.8542 0.7622
-0.3005 1.8446 0.7622
-0.3665 1.8326 0.7622
-0.4320 1.8183 0.7622
-0.4969 1.8016 0.7623
-0.5612 1.7826 0.7623
-0.6248 1.7613 0.7623
-0.6876 1.7378 0.7623
-0.7495 1.7120 0.7624
-0.8104 1.6839 0.7624
-0.8703 1.6538 0.7625
-0.9291 1.6215 0.7625
-2.8944 4.6556 2.2369
-3.0593 4.5484 2.2369
-3.2203 4.4354 2.2369
-3.3771 4.3166 2.2369
-3.5295 4.1923 2.2369
-3.6774 4.0626 2.2369
-3.8204 3.9276 2.2369
-3.9585 3.7877 2.2369
-4.0915 3.6428 2.2369
-4.2191 3.4933 2.2369
-4.3413 3.3393 2.2369
-4.4579 3.1810 2.2369
-4.5687 3.0187 2.2369
-4.6736 2.8524 2.2369
-4.7724 2.6826 2.2369
-4.8650 2.5093 2.2369
-4.9513 2.3328 2.2369
-5.0313 2.1533 2.2369
-5.1047 1.9711 2.2369
-5.1715 1.7864 2.2369
-5.2316 1.5995 2.2369
-5.2850 1.4105 2.2369
-5.3316 1.2197 2.2369
-5.3712 1.0275 2.2369
-5.4039 0.8339 2.2369
-5.4297 0.6393 2.2369
-5.4484 0.4439 2.2369
-5.4602 0.2481 2.2369
-5.4648 0.0519 2.2369
-5.4625 -0.1443 2.2369
-5.4531 -0.3403 2.2369
-5.4366 -0.5357 2.2369
-5.4132 -0.7304 2.2369
-5.3828 -0.9242 2.2369
-5.3455 -1.1167 2.2369
-5.3013 -1.3077 2.2369
-5.2503 -1.4970 2.2369
-5.1925 -1.6844 2.2369
-5.1281 -1.8695 2.2369
-5.0570 -2.0521 2.2369
-4.9795 -2.2321 2.2369
-4.8956 -2.4092 2.2369
-4.8054 -2.5831 2.2369
-4.7090 -2.7537 2.2369
-4.6066 -2.9207 2.2369
-4.4983 -3.0839 2.2369
-4.3842 -3.2431 2.2369
-4.2645 -3.3981 2.2369
-4.1393 -3.5487 2.2369
-4.0088 -3.6947 2.2369
-3.8732 -3.8359 2.2369
-3.7327 -3.9722 2.2369
-3.5873 -4.1033 2.2369
-3.4374 -4.2291 2.2369
-3.2830 -4.3495 2.2369
-3.1245 -4.4643 2.2369
-2.9620 -4.5733 2.2369
-2.7956 -4.6764 2.2369
-2.6257 -4.7735 2.2369
-2.4524 -4.8644 2.2369
-2.2760 -4.9491 2.2369
-2.0967 -5.0274 2.2369
-1.9148 -5.0993 2.2369
-1.7303 -5.1645 2.2369
-1.5437 -5.2232 2.2369
-1.3550 -5.2751 2.2369
-1.1647 -5.3202 2.2369
-0.9728 -5.3585 2.2369
-0.7798 -5.3899 2.2369
-0.5857 -5.4143 2.2369
-0.3908 -5.4318 2.2369
-0.1955 -5.4424 2.2369
0.0001 -5.1150 2.2369
0.1838 -5.1117 2.2369
0.3673 -5.1019 2.2369
0.5503 -5.0855 2.2369
0.7326 -5.0625 2.2369
0.9140 -5.0331 2.2369
1.0942 -4.9971 2.2369
1.2730 -4.9548 2.2369
1.4502 -4.9060 2.2369
1.6255 -4.8510 2.2369
1.7987 -4.7897 2.2369
1.9677 -4.7173 2.2346
2.0394 -4.4341 2.1336
2.1975 -4.3583 2.1336
2.3528 -4.2768 2.1336
2.5050 -4.1898 2.1336
2.6540 -4.0974 2.1336
2.7997 -3.9998 2.1336
2.9417 -3.8969 2.1336
3.0800 -3.7891 2.1336
3.2144 -3.6763 2.1336
3.3446 -3.5588 2.1336
3.4705 -3.4368 2.1336
3.5921 -3.3102 2.1336
3.7090 -3.1794 2.1336
3.8211 -3.0445 2.1336
3.9284 -2.9056 2.1336
4.0306 -2.7629 2.1336
4.1276 -2.6167 2.1336
4.2193 -2.4671 2.1336
4.3057 -2.3142 2.1336
4.3865 -2.1584 2.1336
4.4617 -1.9997 2.1336
4.5311 -1.8385 2.1336
4.5947 -1.6748 2.1336
4.6525 -1.5090 2.1336
4.7042 -1.3411 2.1336
4.7499 -1.1715 2.1336
4.7894 -1.0004 2.1336
4.8229 -0.8279 2.1336
4.8501 -0.6543 2.1336
4.8710 -0.4798 2.1336
4.8857 -0.3047 2.1336
4.8941 -0.1291 2.1336
4.8962 0.0466 2.1336
4.8920 0.2224 2.1336
4.8815 0.3979 2.1336
4.8646 0.5729 2.1336
4.8415 0.7473 2.1336
4.8122 0.9207 2.1336
4.7766 1.0929 2.1336
4.7349 1.2638 2.1336
4.6870 1.4331 2.1336
4.6331 1.6006 2.1336
4.5732 1.7660 2.1336
4.5074 1.9292 2.1336
4.4357 2.0900 2.1336
4.3583 2.2480 2.1336
4.2753 2.4033 2.1336
4.1868 2.5554 2.1336
4.0928 2.7043 2.1336
3.9935 2.8497 2.1336
2.5921 1.9938 1.4221
2.4869 2.0591 1.4039
3.6652 3.2633 2.1336
3.5461 3.3930 2.1336
3.4223 3.5183 2.1336
3.2941 3.6392 2.1336
3.1617 3.7553 2.1336
3.0251 3.8666 2.1336
2.8847 3.9730 2.1336
2.7404 4.0742 2.1336
2.3737 3.8179 1.9534
0.8726 1.5228 0.7626
0.8174 1.5531 0.7625
0.7611 1.5815 0.7625
0.7039 1.6078 0.7625
0.6458 1.6320 0.7624
0.5868 1.6541 0.7624
0.5271 1.6741 0.7624
0.4667 1.6920 0.7624
0.4057 1.7076 0.7623
0.3442 1.7211 0.7623
0.2822 1.7323 0.7623
0.2199 1.7413 0.7623
0.1573 1.7481 0.7623
0.0945 1.7526 0.7623
0.0315 1.7549 0.7623
-0.0315 1.7549 0.7623
-0.0944 1.7526 0.7623
-0.1572 1.7481 0.7623
-0.2198 1.7413 0.7623
-0.2822 1.7323 0.7623
-0.3441 1.7211 0.7624
-0.4057 1.7076 0.7624
-0.4667 1.6920 0.7624
-0.5271 1.6741 0.7624
-0.5868 1.6541 0.7624
-0.6457 1.6320 0.7625
-0.7039 1.6078 0.7625
-0.7611 1.5814 0.7625
-0.8173 1.5531 0.7626
-0.8725 1.5228 0.7626
-0.9266 1.4905 0.7627
-0.9795 1.4562 0.7627
-3.0237 4.1648 2.2369
-3.1710 4.0533 2.2369
-3.3141 3.9366 2.2369
-3.4529 3.8148 2.2369
-3.5873 3.6881 2.2369
-3.7170 3.5567 2.2369
-3.8418 3.4207 2.2369
-3.9617 3.2803 2.2369
-4.0765 3.1358 2.2369
-4.1860 2.9871 2.2369
-4.2900 2.8347 2.2369
-4.3885 2.6786 2.2369
-4.4813 2.5192 2.2369
-4.5683 2.3564 2.2369
-4.6494 2.1907 2.2369
-4.7245 2.0222 2.2369
-4.7935 1.8511 2.2369
-4.8563 1.6777 2.2369
-4.9128 1.5022 2.2369
-4.9629 1.3247 2.2369
-5.0067 1.1456 2.2369
-5.0439 0.9650 2.2369
-5.0747 0.7833 2.2369
-5.0989 0.6005 2.2369
-5.1166 0.4171 2.2369
-5.1276 0.2331 2.2369
-5.1320 0.0489 2.2369
-5.1298 -0.1353 2.2369
-5.1210 -0.3194 2.2369
-5.1056 -0.5029 2.2369
-5.0837 -0.6858 2.2369
-5.0552 -0.8678 2.2369
-5.0201 -1.0486 2.2369
-4.9787 -1.2280 2.2369
-4.9308 -1.4058 2.2369
-4.8766 -1.5817 2.2369
-4.8161 -1.7556 2.2369
-4.7494 -1.9271 2.2369
-4.6766 -2.0962 2.2369
-4.5978 -2.2625 2.2369
-4.5131 -2.4259 2.2369
-4.4227 -2.5861 2.2369
-4.3265 -2.7429 2.2369
-4.2248 -2.8962 2.2369
-4.1177 -3.0457 2.2369
-4.0053 -3.1913 2.2369
-3.8877 -3.3328 2.2369
-3.7652 -3.4699 2.2369
-3.6379 -3.6026 2.2369
-3.5058 -3.7306 2.2369
-3.3693 -3.8538 2.2369
-3.2285 -3.9720 2.2369
-3.0836 -4.0851 2.2369
-2.9347 -4.1929 2.2369
-2.7820 -4.2953 2.2369
-2.6258 -4.3922 2.2369
-2.4662 -4.4834 2.2369
-2.3035 -4.5688 2.2369
-2.1378 -4.6483 2.2369
-1.9694 -4.7219 2.2369
-1.7985 -4.7894 2.2369
-1.6252 -4.8507 2.2369
-1.4499 -4.9058 2.2369
-1.2727 -4.9545 2.2369
-1.0940 -4.9969 2.2369
-0.9138 -5.0329 2.2369
-0.7324 -5.0624 2.2369
-0.5501 -5.0854 2.2369
-0.3671 -5.1018 2.2369
-0.1836 -5.1117 2.2369
0.0001 -4.8165 2.2369
0.1731 -4.8135 2.2369
0.3459 -4.8042 2.2369
0.5182 -4.7887 2.2369
0.6899 -4.7671 2.2369
0.8607 -4.7394 2.2369
1.0304 -4.7055 2.2369
1.1987 -4.6656 2.2369
1.3656 -4.6197 2.2369
1.5307 -4.5679 2.2369
1.6938 -4.5101 2.2369
1.8548 -4.4466 2.2369
1.9677 -4.2779 2.1861
2.0693 -4.1039 2.1336
2.2155 -4.0271 2.1336
2.3589 -3.9452 2.1336
2.4992 -3.8582 2.1336
2.6363 -3.7662 2.1336
2.7701 -3.6694 2.1336
2.9003 -3.5678 2.1336
3.0268 -3.4616 2.1336
3.1494 -3.3510 2.1336
3.2680 -3.2360 2.1336
3.3824 -3.1168 2.1336
3.4924 -2.9936 2.1336
3.5980 -2.8666 2.1336
3.6990 -2.7358 2.1336
3.7952 -2.6015 2.1336
3.8866 -2.4638 2.1336
3.9730 -2.3228 2.1336
4.0542 -2.1789 2.1336
4.1303 -2.0322 2.1336
4.2010 -1.8828 2.1336
4.2664 -1.7309 2.1336
4.3263 -1.5768 2.1336
4.3806 -1.4206 2.1336
4.4293 -1.2626 2.1336
4.4723 -1.1029 2.1336
4.5095 -0.9417 2.1336
4.5410 -0.7793 2.1336
4.5666 -0.6159 2.1336
4.5863 -0.4516 2.1336
4.6001 -0.2867 2.1336
4.6079 -0.1214 2.1336
4.6099 0.0441 2.1336
4.6059 0.2095 2.1336
4.5959 0.3748 2.1336
4.5800 0.5396 2.1336
4.5583 0.7037 2.1336
4.5306 0.8669 2.1336
4.4971 1.0291 2.1336
4.4578 1.1900 2.1336
4.4127 1.3494 2.1336
4.3619 1.5070 2.1336
4.3055 1.6628 2.1336
4.2435 1.8164 2.1336
4.1760 1.9677 2.1336
4.1032 2.1166 2.1336
4.0250 2.2627 2.1336
3.9416 2.4059 2.1336
3.8531 2.5461 2.1336
3.7596 2.6829 2.1336
2.4983 1.9218 1.4559
2.4280 2.0104 1.4559
2.4185 2.1534 1.4955
3.3383 3.1943 2.1336
3.2218 3.3123 2.1336
3.1011 3.4261 2.1336
2.9764 3.5354 2.1336
2.8479 3.6402 2.1336
2.7156 3.7403 2.1336
2.5798 3.8356 2.1336
0.8725 1.4034 0.7627
0.8216 1.4338 0.7627
0.7696 1.4623 0.7626
0.7166 1.4890 0.7626
0.6628 1.5138 0.7626
0.6080 1.5366 0.7625
0.5525 1.5574 0.7625
0.4963 1.5763 0.7625
0.4394 1.5931 0.7625
0.3820 1.6078 0.7625
0.3241 1.6205 0.7625
0.2657 1.6311 0.7624
0.2070 1.6396 0.7624
0.1481 1.6459 0.7624
0.0889 1.6502 0.7624
0.0297 1.6523 0.7624
-0.0296 1.6523 0.7624
-0.0889 1.6502 0.7624
-0.1480 1.6459 0.7624
-0.2070 1.6396 0.7624
-0.2657 1.6311 0.7625
-0.3240 1.6205 0.7625
-0.3819 1.6078 0.7625
-0.4394 1.5931 0.7625
-0.4962 1.5763 0.7625
-0.5525 1.5574 0.7626
-0.6080 1.5366 0.7626
-0.6627 1.5138 0.7626
-0.7166 1.4890 0.7627
-0.7695 1.4623 0.7627
-0.8215 1.4338 0.7627
-0.8724 1.4034 0.7628
-0.9222 1.3711 0.7628
-0.9708 1.3372 0.7629
-2.9852 3.8159 2.2369
-3.1199 3.7061 2.2369
-3.2506 3.5915 2.2369
-3.3771 3.4722 2.2369
-3.4992 3.3485 2.2369
-3.6168 3.2205 2.2369
-3.7297 3.0884 2.2369
-3.8377 2.9523 2.2369
-3.9408 2.8124 2.2369
-4.0388 2.6689 2.2369
-4.1315 2.5220 2.2369
-4.2189 2.3718 2.2369
-4.3009 2.2187 2.2369
-4.3773 2.0627 2.2369
-4.4480 1.9040 2.2369
-4.5129 1.7430 2.2369
-4.5721 1.5797 2.2369
-4.6253 1.4144 2.2369
-4.6725 1.2474 2.2369
-4.7137 1.0787 2.2369
-4.7489 0.9087 2.2369
-4.7778 0.7376 2.2369
-4.8007 0.5656 2.2369
-4.8173 0.3928 2.2369
-4.8277 0.2196 2.2369
-4.8319 0.0462 2.2369
-4.8299 -0.1273 2.2369
-4.8216 -0.3005 2.2369
-4.8072 -0.4734 2.2369
-4.7865 -0.6456 2.2369
-4.7597 -0.8169 2.2369
-4.7268 -0.9871 2.2369
-4.6878 -1.1561 2.2369
-4.6427 -1.3235 2.2369
-4.5917 -1.4891 2.2369
-4.5347 -1.6528 2.2369
-4.4720 -1.8144 2.2369
-4.4035 -1.9736 2.2369
-4.3293 -2.1302 2.2369
-4.2496 -2.2840 2.2369
-4.1644 -2.4349 2.2369
-4.0739 -2.5826 2.2369
-3.9781 -2.7270 2.2369
-3.8773 -2.8678 2.2369
-3.7715 -3.0049 2.2369
-3.6608 -3.1381 2.2369
-3.5454 -3.2672 2.2369
-3.4255 -3.3922 2.2369
-3.3012 -3.5127 2.2369
-3.1727 -3.6287 2.2369
-3.0401 -3.7401 2.2369
-2.9036 -3.8466 2.2369
-2.7634 -3.9481 2.2369
-2.6197 -4.0445 2.2369
-2.4726 -4.1358 2.2369
-2.3223 -4.2217 2.2369
-2.1691 -4.3021 2.2369
-2.0131 -4.3770 2.2369
-1.8545 -4.4463 2.2369
-1.6936 -4.5099 2.2369
-1.5304 -4.5676 2.2369
-1.3654 -4.6195 2.2369
-1.1985 -4.6654 2.2369
-1.0301 -4.7054 2.2369
-0.8605 -4.7392 2.2369
-0.6897 -4.7670 2.2369
-0.5180 -4.7886 2.2369
-0.3457 -4.8041 2.2369
-0.1729 -4.8134 2.2369
0.0001 -4.5457 2.2369
0.1634 -4.5428 2.2369
0.3264 -4.5340 2.2369
0.4891 -4.5194 2.2369
0.6511 -4.4990 2.2369
0.8123 -4.4728 2.2369
0.9725 -4.4409 2.2369
1.1314 -4.4032 2.2369
1.2888 -4.3599 2.2369
1.4447 -4.3110 2.2369
1.5986 -4.2565 2.2369
1.7506 -4.1965 2.2369
1.9002 -4.1311 2.2369
1.9745 -3.9157 2.1572
2.0910 -3.8006 2.1336
2.2262 -3.7232 2.1336
2.3587 -3.6411 2.1336
2.4881 -3.5543 2.1336
2.6143 -3.4629 2.1336
2.7372 -3.3670 2.1336
2.8566 -3.2668 2.1336
2.9723 -3.1624 2.1336
3.0842 -3.0538 2.1336
3.1921 -2.9414 2.1336
3.2960 -2.8251 2.1336
3.3956 -2.7052 2.1336
3.4909 -2.5817 2.1336
3.5817 -2.4549 2.1336
3.6679 -2.3250 2.1336
3.7494 -2.1920 2.1336
3.8260 -2.0561 2.1336
3.8978 -1.9176 2.1336
3.9646 -1.7766 2.1336
4.0262 -1.6333 2.1336
4.0827 -1.4879 2.1336
4.1340 -1.3405 2.1336
4.1799 -1.1913 2.1336
4.2204 -1.0406 2.1336
4.2556 -0.8885 2.1336
4.2852 -0.7353 2.1336
4.3093 -0.5810 2.1336
4.3279 -0.4260 2.1336
4.3409 -0.2704 2.1336
4.3483 -0.1144 2.1336
4.3501 0.0417 2.1336
4.3463 0.1979 2.1336
4.3369 0.3538 2.1336
4.3219 0.5093 2.1336
4.3013 0.6642 2.1336
4.2752 0.8182 2.1336
4.2435 0.9712 2.1336
4.2064 1.1230 2.1336
4.1639 1.2734 2.1336
4.1159 1.4222 2.1336
4.0627 1.5692 2.1336
4.0041 1.7141 2.1336
3.9405 1.8569 2.1336
3.8717 1.9973 2.1336
3.7979 2.1352 2.1336
3.7192 2.2703 2.1336
3.6357 2.4025 2.1336
2.6749 1.9090 1.6088
2.4856 1.9121 1.5351
2.4168 2.0012 1.5359
2.4148 2.1502 1.5826
3.1499 3.0142 2.1336
3.0399 3.1255 2.1336
2.9260 3.2328 2.1336
2.8084 3.3360 2.1336
2.6871 3.4348 2.1336
0.9161 1.2619 0.7629
0.8703 1.2939 0.7628
0.8233 1.3243 0.7628
0.7753 1.3530 0.7628
0.7262 1.3800 0.7627
0.6763 1.4052 0.7627
0.6254 1.4286 0.7627
0.5738 1.4501 0.7627
0.5214 1.4697 0.7626
0.4683 1.4875 0.7626
0.4147 1.5034 0.7626
0.3605 1.5173 0.7626
0.3058 1.5292 0.7626
0.2508 1.5392 0.7626
0.1954 1.5472 0.7625
0.1397 1.5533 0.7625
0.0839 1.5573 0.7625
0.0280 1.5593 0.7625
-0.0279 1.5593 0.7625
-0.0839 1.5573 0.7625
-0.1397 1.5533 0.7626
-0.1953 1.5472 0.7626
-0.2507 1.5392 0.7626
-0.3058 1.5292 0.7626
-0.3604 1.5173 0.7626
