ply
format ascii 1.0
element vertex 2028
property float32 x
property float32 y
property float32 z
end_header
-9.3724 -18.6002 -2.2355
-10.9333 -23.7861 -2.8098
-11.4116 -27.3759 -3.1835
-14.1197 -37.6213 -4.3132
-13.8599 -41.3878 -4.6850
-22.8352 -77.3013 -8.6520
-21.4020 -83.3533 -9.2375
-17.5666 -80.2771 -8.8211
-14.6756 -80.8664 -8.8224
-6.3158 -43.6728 -4.7369
-8.3822 -77.5154 -8.3697
2.3277 -16.0965 -1.3765
8.8698 -40.5359 -3.5121
10.4147 -40.5637 -3.5447
11.9919 -40.5965 -3.5830
13.0362 -38.9298 -3.4751
12.2848 -32.7334 -2.9595
11.7341 -28.1503 -2.5817
12.5816 -27.3729 -2.5503
13.8166 -27.4205 -2.5993
15.1037 -27.4739 -2.6542
16.4503 -27.5335 -2.7153
17.8647 -27.5998 -2.7834
19.3565 -27.6736 -2.8592
20.9370 -27.7559 -2.9436
47.5391 -58.5272 -6.3842
44.0531 -50.4233 -5.6693
41.7976 -44.5104 -5.1701
42.3758 -41.9975 -5.0519
45.3920 -41.8660 -5.2289
2.5324 -2.1727 -0.2826
47.5088 -37.8873 -5.1458
48.1119 -35.6198 -5.0694
48.9625 -33.5975 -5.0287
50.4084 -31.9905 -5.0561
52.7655 -30.8869 -5.1780
52.2337 -28.1084 -5.0236
31.0522 -15.2990 -2.9318
30.9690 -13.8996 -2.8750
30.8949 -12.5542 -2.8245
24.9825 -9.1212 -2.2526
27.0932 -8.8032 -2.4129
27.0909 -7.7391 -2.3864
27.8248 -6.8787 -2.4278
30.6415 -6.4174 -2.6518
30.6112 -5.2719 -2.6311
30.5869 -4.1434 -2.6146
27.4657 -2.7208 -2.3379
27.4684 -1.7283 -2.3314
30.5484 -0.8229 -2.5887
30.5467 0.2741 -2.5877
30.5505 1.3719 -2.5906
30.5598 2.4740 -2.5973
30.5747 3.5839 -2.6078
30.5954 4.7051 -2.6223
30.6219 5.8414 -2.6409
30.6546 6.9966 -2.6637
24.7256 6.5855 -2.1677
21.5111 6.5648 -1.9053
18.9988 6.5523 -1.7025
16.1589 6.2305 -1.4672
14.0966 6.0251 -1.2987
12.4639 5.8650 -1.1670
11.6091 5.9808 -1.1063
11.6415 6.5367 -1.1311
11.6772 7.1197 -1.1586
11.7165 7.7339 -1.1893
11.7599 8.3838 -1.2235
11.8078 9.0744 -1.2616
11.8592 9.8107 -1.3039
11.9131 10.5982 -1.3508
11.9734 11.4476 -1.4033
12.0408 12.3694 -1.4623
19.0870 21.0712 -2.4084
17.8723 21.2134 -2.3497
16.4951 21.0695 -2.2667
4.6787 6.4397 -0.6742
16.7072 24.8230 -2.5346
17.0150 27.3512 -2.7285
16.0610 28.0119 -2.7351
15.5765 29.5794 -2.8316
14.6125 30.3436 -2.8526
14.5246 33.1557 -3.0659
27.2174 86.3988 -7.6721
2.8207 11.8667 -1.0330
19.4650 97.2888 -8.4027
15.8610 97.3167 -8.3503
12.4632 98.6601 -8.4216
8.0182 89.0946 -7.5754
-14.4976 88.9454 -7.6304
-24.6878 89.4522 -7.8564
-27.1258 86.1051 -7.6429
-14.5757 41.0623 -3.6888
-14.6974 37.1209 -3.3799
-16.2616 37.1198 -3.4306
-17.8757 37.1188 -3.4875
-19.5465 37.1177 -3.5510
-21.2817 37.1166 -3.6216
-11.9673 17.7802 -1.8141
-58.4647 69.3933 -7.6797
-60.2062 66.4640 -7.5898
-60.5331 62.1849 -7.3445
-65.0379 62.1820 -7.6150
-78.4991 60.3272 -8.3779
-69.3365 49.4307 -7.2057
-67.0351 44.2491 -6.7968
-12.8258 7.8201 -1.2711
-12.6120 7.0816 -1.2239
-12.5685 6.4751 -1.1963
-12.5682 5.9141 -1.1753
-12.8243 5.4813 -1.1800
-12.8239 4.9446 -1.1629
-11.2622 3.8841 -1.0079
-11.2411 3.4306 -0.9944
-11.2228 2.9891 -0.9826
-11.2318 2.5636 -0.9747
-11.5538 2.2040 -0.9951
-12.8220 1.9718 -1.0975
-12.8217 1.5029 -1.0921
-12.8214 1.0380 -1.0882
-12.6135 0.5664 -1.0681
-12.5619 0.1127 -1.0627
-12.5672 -0.3385 -1.0635
-12.6432 -0.7955 -1.0716
-12.8199 -1.2699 -1.0898
-22.4557 -3.0419 -1.9169
-22.0417 -3.7960 -1.8920
-21.9816 -4.6037 -1.8998
-22.1143 -5.4670 -1.9270
-21.9072 -6.2582 -1.9273
-26.4994 -8.6102 -2.3569
-17.6053 -6.4277 -1.5854
-15.8153 -6.4265 -1.4440
-14.3167 -6.4256 -1.3274
-13.0404 -6.4247 -1.2297
-12.3352 -6.6378 -1.1849
-12.3348 -7.2202 -1.2090
-12.3344 -7.8276 -1.2357
-12.3340 -8.4633 -1.2653
-12.3336 -9.1311 -1.2981
-12.3331 -9.8353 -1.3344
-12.3326 -10.5810 -1.3746
-12.3321 -11.3740 -1.4192
-12.3316 -12.2213 -1.4687
-14.5278 -15.4704 -1.7953
-13.5156 -15.4698 -1.7378
-12.5651 -15.4691 -1.6859
-11.6686 -15.4686 -1.6392
-10.8198 -15.4686 -1.5970
-10.8199 -16.7158 -1.6845
-10.8190 -18.1078 -1.7845
-10.8829 -19.7958 -1.9112
-10.8430 -21.5187 -2.0386
-10.8155 -23.5298 -2.1910
-9.3957 -22.5398 -2.0661
-11.3586 -30.2644 -2.7350
-13.8599 -41.3879 -3.6929
-15.2776 -51.7176 -4.5628
-13.7542 -53.5679 -4.6796
-17.4059 -79.5430 -6.8898
-13.5995 -74.9371 -6.4445
-11.1602 -77.1715 -6.5981
-8.6176 -79.6928 -6.7829
2.3272 -16.0933 -1.0080
7.5532 -41.6229 -2.6226
8.6776 -39.6574 -2.5168
10.1870 -39.6767 -2.5397
11.7200 -39.6758 -2.5650
11.1521 -33.3032 -2.1776
10.7392 -28.6150 -1.8952
11.0966 -26.6210 -1.7884
12.2495 -26.6503 -1.8188
13.4451 -26.6832 -1.8529
14.6893 -26.7200 -1.8909
15.9888 -26.7610 -1.9333
17.3513 -26.8067 -1.9804
18.7856 -26.8574 -2.0328
20.3019 -26.9138 -2.0910
21.9119 -26.9766 -2.1557
42.8107 -49.0012 -4.0361
41.7647 -44.4752 -3.7846
42.3277 -41.9497 -3.6968
46.6999 -43.0722 -3.9411
2.5321 -2.1724 -0.2070
48.8267 -38.9383 -3.8745
48.1381 -35.6391 -3.7160
49.8041 -34.1748 -3.7475
50.5606 -32.0870 -3.7154
51.4909 -30.1407 -3.7020
29.8520 -16.0642 -2.1034
29.7890 -14.6766 -2.0606
29.7326 -13.3446 -2.0223
29.6824 -12.0615 -1.9882
26.2707 -9.5915 -1.7355
27.5496 -8.9515 -1.7976
27.5464 -7.8692 -1.7779
24.9811 -6.1757 -1.5970
29.5112 -6.1807 -1.8712
29.4906 -5.0789 -1.8572
29.4740 -3.9926 -1.8460
27.4657 -2.7208 -1.7130
27.4685 -1.7283 -1.7082
29.4475 -0.7932 -1.8284
29.4463 0.2642 -1.8278
29.4487 1.3225 -1.8297
29.4550 2.3846 -1.8343
29.4651 3.4538 -1.8414
29.4791 4.5334 -1.8513
29.4970 5.6268 -1.8639
24.6365 5.6230 -1.5686
21.4578 5.7151 -1.3784
18.9716 5.7898 -1.2312
16.2097 5.5904 -1.0644
14.1536 5.4573 -0.9416
12.5256 5.3536 -0.8456
11.2632 5.3000 -0.7727
11.2755 5.8089 -0.7873
11.2997 6.3447 -0.8044
11.3262 6.9057 -0.8234
11.3553 7.4955 -0.8446
11.3873 8.1181 -0.8681
11.4224 8.7782 -0.8942
11.4611 9.4814 -0.9233
11.4997 10.2304 -0.9554
11.5423 11.0355 -0.9912
11.5897 11.9061 -1.0313
11.6429 12.8531 -1.0764
17.8723 21.2134 -1.7217
16.6071 21.2126 -1.6721
4.6752 6.4349 -0.4936
15.6568 23.2623 -1.7403
15.6556 25.1658 -1.8394
15.8085 27.5715 -1.9724
14.4228 27.3886 -1.9210
14.5869 30.2903 -2.0864
14.8671 33.9375 -2.2993
21.1934 53.5290 -3.5727
26.9965 85.6975 -5.5754
2.8204 11.8654 -0.7568
19.4651 97.2888 -6.1561
15.8611 97.3167 -6.1177
12.4633 98.6601 -6.1699
8.0170 89.0801 -5.5490
4.7066 87.3142 -5.4248
-14.5137 89.0453 -5.5961
-14.5834 52.8410 -3.3997
-14.5791 46.2788 -3.0092
-14.5757 41.0625 -2.7022
-14.6974 37.1209 -2.4759
-16.2615 37.1198 -2.5130
-17.8756 37.1188 -2.5547
-19.5465 37.1177 -2.6012
-21.2816 37.1166 -2.6528
-6.3104 9.3757 -0.7007
-26.0729 33.3029 -2.6221
-26.0714 30.9447 -2.5085
-27.4593 30.3134 -2.5355
-29.7081 30.5187 -2.6401
-65.0377 62.1820 -5.5776
-62.4721 55.5765 -5.1828
-62.4855 51.6921 -5.0265
-78.6600 60.4509 -6.1488
-69.3490 49.4397 -5.2786
-67.1059 44.2959 -4.9834
-12.8258 7.8201 -0.9310
-12.8254 7.2014 -0.9115
-12.8250 6.6073 -0.8941
-12.8246 6.0348 -0.8783
-12.8243 5.4813 -0.8642
-10.8831 4.1963 -0.7228
-10.8022 3.7255 -0.7080
-10.7879 3.2923 -0.6989
-10.7754 2.8700 -0.6909
-10.8319 2.4723 -0.6884
-10.9997 2.0983 -0.6938
-11.7266 1.8034 -0.7351
-12.8217 1.5029 -0.7998
-12.8214 1.0380 -0.7969
-12.6135 0.5664 -0.7822
-12.5619 0.1127 -0.7783
-12.5672 -0.3385 -0.7788
-12.6432 -0.7955 -0.7848
-12.8199 -1.2699 -0.7981
-21.2500 -2.8785 -1.3285
-22.4108 -3.8596 -1.4088
-22.2444 -4.6587 -1.4079
-22.5934 -5.5854 -1.4418
-22.1848 -6.3375 -1.4293
-27.1251 -8.8135 -1.7668
-17.6053 -6.4277 -1.1610
-15.8153 -6.4265 -1.0575
-14.3167 -6.4256 -0.9721
-13.0404 -6.4247 -0.9005
-11.9947 -6.4546 -0.8438
-12.1122 -7.0899 -0.8694
-12.2805 -7.7935 -0.9010
-12.3340 -8.4633 -0.9266
-12.3336 -9.1311 -0.9506
-12.3331 -9.8353 -0.9772
-12.3326 -10.5810 -1.0067
-12.3321 -11.3740 -1.0393
-12.3316 -12.2213 -1.0756
-14.5277 -15.4704 -1.3148
-13.5156 -15.4698 -1.2726
-12.5651 -15.4691 -1.2347
-11.6686 -15.4686 -1.2004
-10.8194 -15.4680 -1.1695
-10.0119 -15.4675 -1.1416
-9.3740 -15.6894 -1.1324
-9.3731 -17.0496 -1.2055
-9.3721 -18.5997 -1.2905
-10.8155 -23.5299 -1.6046
-11.4802 -27.5405 -1.8488
-9.3683 -24.9616 -1.6521
-13.8599 -41.3881 -2.7047
-13.0491 -44.1740 -2.8544
-11.3341 -44.1426 -2.8243
-16.6976 -76.3067 -4.8408
-13.7325 -75.6708 -4.7662
-11.8890 -82.2116 -5.1482
-8.5528 -79.0946 -4.9307
2.3268 -16.0899 -0.6408
7.6964 -42.4116 -1.6990
8.4943 -38.8197 -1.5664
9.9697 -38.8299 -1.5803
10.0191 -33.9174 -1.3942
9.7473 -29.1079 -1.2102
9.7330 -25.9338 -1.0921
10.8167 -25.9493 -1.1085
11.9354 -25.9668 -1.1269
13.0940 -25.9864 -1.1475
14.2980 -26.0083 -1.1704
15.5537 -26.0327 -1.1960
16.8680 -26.0599 -1.2243
18.2489 -26.0900 -1.2558
19.7057 -26.1235 -1.2907
21.2492 -26.1607 -1.3295
22.8919 -26.2021 -1.3726
42.2696 -45.0127 -2.4361
44.4951 -44.0976 -2.4716
48.1421 -44.4022 -2.5840
2.5318 -2.1722 -0.1316
51.2428 -40.8649 -2.5863
58.3058 -43.1667 -2.8628
52.7506 -36.1966 -2.5247
52.5001 -33.3177 -2.4540
28.7064 -16.8035 -1.3128
28.6650 -15.4253 -1.2848
28.6282 -14.1046 -1.2597
28.5952 -12.8341 -1.2372
25.2407 -10.2566 -1.0755
27.0963 -9.8929 -1.1387
27.5496 -8.9515 -1.1436
27.5464 -7.8692 -1.1310
27.0909 -6.6972 -1.1018
26.9628 -5.6469 -1.0876
28.4519 -4.9000 -1.1399
27.4635 -3.7203 -1.0943
27.4657 -2.7208 -1.0898
27.4685 -1.7282 -1.0868
27.4717 -0.7400 -1.0852
28.4251 0.2551 -1.1225
28.4265 1.2766 -1.1237
28.4301 2.3016 -1.1264
28.4359 3.3332 -1.1307
25.1534 3.8682 -1.0050
22.1939 4.2337 -0.8923
20.3477 4.6442 -0.8243
18.9590 5.0496 -0.7749
16.6541 5.0825 -0.6877
14.9166 5.1445 -0.6232
13.4565 5.1885 -0.5696
12.2262 5.2256 -0.5251
11.2393 5.2887 -0.4906
11.2449 5.7932 -0.4996
11.2507 6.3172 -0.5096
11.2566 6.8633 -0.5207
11.2625 7.4342 -0.5330
11.2685 8.0334 -0.5465
11.2748 8.6647 -0.5616
11.2814 9.3327 -0.5782
11.2863 10.0405 -0.5966
11.2908 10.7950 -0.6169
11.2956 11.6038 -0.6395
11.3008 12.4754 -0.6647
11.2945 13.4058 -0.6922
16.6071 21.2126 -1.0638
4.6717 6.4300 -0.3137
15.7997 23.4745 -1.1173
15.7984 25.3954 -1.1809
15.7970 27.5514 -1.2539
14.7506 28.0110 -1.2499
13.4428 27.9144 -1.2232
13.5922 31.0271 -1.3373
13.7755 34.7933 -1.4773
27.0265 85.7922 -3.5506
2.8202 11.8641 -0.4813
19.4467 97.1963 -3.9122
15.8412 97.1939 -3.8865
12.2779 97.1916 -3.8661
8.0055 88.9512 -3.5244
4.7058 87.2974 -3.4498
-14.5370 89.1892 -3.5647
-18.6236 93.0800 -3.7443
-22.1255 93.0777 -3.7736
-14.5834 52.8413 -2.1620
-14.5791 46.2790 -1.9136
-14.5757 41.0627 -1.7184
-14.6973 37.1209 -1.5744
-16.2615 37.1198 -1.5980
-17.8756 37.1188 -1.6245
-19.5464 37.1177 -1.6540
-21.2816 37.1166 -1.6868
-6.3076 9.3715 -0.4453
-26.0729 33.3030 -1.6671
-26.5742 31.5417 -1.6256
-27.5660 30.4313 -1.6183
-28.9930 29.7842 -1.6381
-31.1174 29.7510 -1.6965
-62.6473 55.7324 -3.3041
-62.7117 51.8793 -3.2070
-67.4643 51.8471 -3.3525
-69.6289 49.6394 -3.3691
-66.4725 43.8779 -3.1379
-12.8258 7.8201 -0.5918
-12.8254 7.2014 -0.5794
-12.8250 6.6073 -0.5683
-12.8246 6.0348 -0.5583
-10.9436 4.6775 -0.4688
-10.6914 4.1224 -0.4513
-10.6667 3.6788 -0.4444
-10.6665 3.2552 -0.4392
-10.6662 2.8409 -0.4347
-10.7359 2.4504 -0.4337
-10.8947 2.0783 -0.4368
-11.4522 1.7612 -0.4563
-12.8217 1.5029 -0.5083
-12.8214 1.0380 -0.5065
-12.5370 0.5630 -0.4941
-12.4895 0.1121 -0.4918
-12.4914 -0.3365 -0.4920
-12.6432 -0.7955 -0.4988
-12.8199 -1.2699 -0.5072
-21.6685 -2.9352 -0.8609
-22.6299 -3.8973 -0.9041
-21.8554 -4.5773 -0.8791
-20.7248 -5.1234 -0.8405
-22.0701 -6.3047 -0.9036
-27.2391 -8.8506 -1.1275
-17.6053 -6.4277 -0.7378
-15.8153 -6.4265 -0.6721
-14.3167 -6.4256 -0.6178
-13.0404 -6.4247 -0.5723
-11.9947 -6.4546 -0.5362
-11.3323 -6.6334 -0.5169
-11.0868 -7.0359 -0.5169
-10.8270 -7.4293 -0.5169
-10.5532 -7.8131 -0.5169
-10.3878 -8.2840 -0.5231
-10.3874 -8.9121 -0.5388
-10.4583 -9.6458 -0.5601
-10.6061 -10.5113 -0.5879
-10.7757 -11.4750 -0.6198
-10.9716 -12.5580 -0.6566
-12.5651 -15.4691 -0.7847
-11.6685 -15.4686 -0.7629
-10.8194 -15.4680 -0.7433
-10.0119 -15.4675 -0.7255
-9.3740 -15.6894 -0.7197
-9.3732 -17.0496 -0.7662
-9.3721 -18.5997 -0.8202
-9.3710 -20.3873 -0.8837
-9.3696 -22.4774 -0.9591
-9.3680 -24.9609 -1.0501
-13.8599 -41.3882 -1.7192
-12.5277 -42.4089 -1.7418
-11.3870 -44.3488 -1.8036
-16.6667 -76.1657 -3.0714
-14.4066 -79.3857 -3.1785
-11.3257 -78.3172 -3.1175
-8.5520 -79.0882 -3.1342
2.3263 -16.0866 -0.2743
7.8500 -43.2573 -0.7420
8.3693 -38.2478 -0.6608
9.1458 -35.6208 -0.6208
9.1453 -30.9592 -0.5450
9.1449 -27.3088 -0.4863
9.6473 -25.7053 -0.4637
10.7146 -25.7043 -0.4704
11.8143 -25.7032 -0.4779
12.9507 -25.7020 -0.4862
14.1290 -25.7007 -0.4956
15.3546 -25.6993 -0.5059
16.6337 -25.6979 -0.5174
17.9736 -25.6963 -0.5301
19.3823 -25.6946 -0.5441
20.8693 -25.6928 -0.5597
22.4454 -25.6908 -0.5769
24.1232 -25.6887 -0.5960
43.6413 -43.2513 -1.0393
17.0561 -15.7311 -0.3925
2.5315 -2.1719 -0.0564
19.4938 -15.5458 -0.4219
19.9873 -14.7976 -0.4208
20.0006 -13.7241 -0.4105
27.9529 -17.7395 -0.5604
27.9521 -16.3620 -0.5483
27.9513 -15.0413 -0.5374
27.9506 -13.7707 -0.5276
24.9840 -11.2133 -0.4637
26.7129 -10.8548 -0.4883
27.0965 -9.8930 -0.4886
27.0940 -8.8034 -0.4825
27.0909 -7.7390 -0.4773
27.0909 -6.6972 -0.4728
24.9799 -5.2316 -0.4324
25.9362 -4.4667 -0.4459
27.4635 -3.7202 -0.4696
27.4658 -2.7208 -0.4677
27.4686 -1.7282 -0.4664
27.4717 -0.7400 -0.4658
27.9418 0.2507 -0.4736
27.9412 1.2548 -0.4741
26.7150 2.1628 -0.4543
24.3150 2.8502 -0.4150
22.2952 3.4287 -0.3824
20.5604 3.9221 -0.3549
19.0296 4.3433 -0.3309
19.0464 5.0729 -0.3342
17.0177 5.1935 -0.3017
15.1362 5.2202 -0.2715
13.5954 5.2421 -0.2470
12.3074 5.2603 -0.2269
11.2911 5.3131 -0.2116
11.2957 5.8194 -0.2154
11.3005 6.3452 -0.2197
11.3058 6.8933 -0.2245
11.3119 7.4668 -0.2298
11.3183 8.0689 -0.2357
11.3250 8.7034 -0.2421
11.3321 9.3746 -0.2493
11.3396 10.0880 -0.2573
11.3477 10.8494 -0.2661
11.3563 11.6662 -0.2760
11.3656 12.5470 -0.2870
11.3757 13.5022 -0.2992
16.6072 21.2126 -0.4566
4.6682 6.4253 -0.1345
15.9308 23.6693 -0.4835
15.9296 25.6062 -0.5110
15.5487 27.1183 -0.5296
14.7507 28.0110 -0.5363
14.5500 30.2135 -0.5681
14.5776 33.2764 -0.6154
14.4773 36.5656 -0.6661
27.0914 85.9980 -1.5268
2.8199 11.8628 -0.2064
19.4653 97.2888 -1.6796
15.8414 97.1939 -1.6669
12.2781 97.1916 -1.6580
7.9751 88.6117 -1.5056
4.7050 87.2806 -1.4790
-10.2115 62.6513 -1.0733
-18.6235 93.0800 -1.6048
-22.1254 93.0777 -1.6172
-14.5834 52.8416 -0.9265
-14.5791 46.2792 -0.8200
-14.5728 41.0546 -0.7361
-14.6972 37.1209 -0.6745
-16.2614 37.1198 -0.6846
-17.8755 37.1188 -0.6959
-14.2368 27.0351 -0.5160
-21.2815 37.1166 -0.7225
-6.2966 9.3553 -0.1904
-26.5742 31.5417 -0.6960
-27.5865 30.4541 -0.6933
-29.6215 30.4299 -0.7164
-62.6500 59.8993 -1.4621
-62.6473 55.7326 -1.4142
-36.8988 30.5253 -0.8076
-39.7175 30.5234 -0.8447
-42.8121 30.5214 -0.8865
-67.0384 44.2516 -1.3542
-12.8258 7.8201 -0.2532
-12.8254 7.2015 -0.2479
-12.8250 6.6073 -0.2431
-12.8246 6.0348 -0.2388
-12.8243 5.4813 -0.2350
-11.3240 4.3663 -0.2045
-12.8236 4.4227 -0.2285
-12.6887 3.8724 -0.2235
-12.6884 3.3795 -0.2212
-12.6881 2.8960 -0.2192
-12.7581 2.4337 -0.2187
-12.8220 1.9719 -0.2184
-12.8217 1.5030 -0.2174
-12.8214 1.0380 -0.2166
-12.8211 0.5758 -0.2161
-12.8208 0.1151 -0.2158
-12.8205 -0.3453 -0.2159
-12.8202 -0.8066 -0.2162
-12.8199 -1.2699 -0.2168
-22.7208 -3.0778 -0.3859
-21.8595 -3.7646 -0.3733
-21.2238 -4.4450 -0.3650
-20.7872 -5.1389 -0.3604
-22.2216 -6.3480 -0.3889
-27.5489 -8.9512 -0.4875
-17.6053 -6.4277 -0.3154
-15.8153 -6.4265 -0.2873
-14.2076 -6.3767 -0.2621
-13.0404 -6.4247 -0.2446
-12.3352 -6.6378 -0.2357
-12.3348 -7.2202 -0.2405
-12.2784 -7.7921 -0.2447
-12.3340 -8.4633 -0.2517
-12.2761 -9.0886 -0.2571
-12.2757 -9.7895 -0.2643
-12.3326 -10.5810 -0.2735
-12.3321 -11.3741 -0.2824
-12.3316 -12.2214 -0.2922
-14.5277 -15.4704 -0.3572
-10.8865 -12.4606 -0.2785
-12.5650 -15.4691 -0.3355
-11.7624 -15.5930 -0.3288
-10.8194 -15.4680 -0.3178
-10.0119 -15.4675 -0.3103
-9.3740 -15.6895 -0.3078
-9.4489 -17.1874 -0.3303
-9.3721 -18.5998 -0.3508
-9.3775 -20.4014 -0.3782
-9.3696 -22.4775 -0.4102
-9.3680 -24.9610 -0.4492
-13.8599 -41.3884 -0.7354
-15.2774 -51.7176 -0.9087
-11.8047 -45.9760 -0.7999
2.3258 -16.0832 0.0918
7.9269 -43.6810 0.2506
8.5248 -38.9586 0.2251
9.1895 -35.7908 0.2084
9.1864 -31.0985 0.1828
9.1841 -27.4257 0.1630
9.6565 -25.7300 0.1548
10.7257 -25.7308 0.1570
12.0079 -26.1243 0.1619
13.0189 -25.8371 0.1628
14.1471 -25.7336 0.1652
15.3757 -25.7346 0.1686
16.9124 -26.1283 0.1749
18.0019 -25.7368 0.1765
19.4150 -25.7379 0.1811
21.2259 -26.1318 0.1890
22.4887 -25.7404 0.1918
24.1732 -25.7418 0.1981
43.5473 -43.1581 0.3438
17.0562 -15.7311 0.1301
2.5312 -2.1717 0.0187
19.4938 -15.5458 0.1397
19.9873 -14.7975 0.1393
20.0006 -13.7240 0.1358
28.7012 -16.8004 0.1860
28.7410 -15.4662 0.1825
28.4013 -13.9928 0.1770
24.9821 -11.2124 0.1530
27.0993 -11.0118 0.1634
27.0967 -9.8930 0.1611
27.0942 -8.8034 0.1591
27.6850 -7.9087 0.1607
27.0910 -6.6972 0.1557
27.0908 -5.6737 0.1544
28.2698 -4.8686 0.1600
27.9553 -3.7868 0.1573
27.9579 -2.7695 0.1566
27.9606 -1.7592 0.1562
27.9637 -0.7532 0.1559
28.2850 0.2539 0.1576
28.2860 1.2703 0.1578
26.9230 2.1796 0.1505
25.0826 2.9401 0.1407
23.0011 3.5372 0.1296
21.2205 4.0480 0.1203
19.1863 4.3791 0.1096
19.0464 5.0729 0.1097
17.0177 5.1935 0.0991
15.1362 5.2202 0.0891
13.5954 5.2421 0.0811
12.3074 5.2604 0.0745
11.2911 5.3131 0.0695
11.2957 5.8194 0.0707
11.3005 6.3452 0.0722
11.3058 6.8933 0.0737
11.3119 7.4668 0.0755
11.3183 8.0689 0.0774
11.3250 8.7034 0.0795
11.3321 9.3746 0.0819
11.3396 10.0880 0.0845
11.3477 10.8494 0.0875
11.3563 11.6662 0.0907
11.3656 12.5470 0.0943
11.3757 13.5022 0.0984
16.6072 21.2126 0.1502
4.6647 6.4205 0.0443
15.9308 23.6693 0.1591
15.9296 25.6061 0.1682
15.5891 27.1887 0.1748
14.7507 28.0110 0.1767
13.6486 28.3417 0.1756
14.5776 33.2763 0.2028
14.4773 36.5656 0.2196
2.8196 11.8615 0.0682
17.5843 87.8866 0.5013
15.7796 96.8146 0.5488
12.2303 96.8123 0.5462
4.7042 87.2638 0.4895
-11.7338 71.9915 0.4095
-14.4037 71.9898 0.4123
-17.1121 71.9880 0.4157
-14.5834 52.8419 0.3081
-14.5791 46.2795 0.2728
-14.5757 41.0630 0.2451
-14.6972 37.1209 0.2247
-16.2613 37.1198 0.2281
-17.8754 37.1188 0.2320
-14.2367 27.0351 0.1721
-21.2814 37.1166 0.2411
-39.4295 63.3814 0.4209
-6.2896 9.3448 0.0635
-26.5742 31.5418 0.2329
-27.5864 30.4541 0.2321
-29.6214 30.4299 0.2400
-62.6674 59.9162 0.4902
-62.6473 55.7327 0.4742
-36.8987 30.5253 0.2709
-39.7174 30.5234 0.2835
-42.8120 30.5214 0.2977
-67.0410 44.2534 0.4550
-12.8258 7.8201 0.0851
-12.8254 7.2015 0.0834
-12.8250 6.6073 0.0818
-12.8246 6.0348 0.0804
-12.8243 5.4814 0.0791
-11.3440 4.3740 0.0690
-12.8236 4.4227 0.0770
-12.7405 3.8882 0.0756
-12.7183 3.3875 0.0747
-12.7179 2.9028 0.0741
-12.7581 2.4337 0.0738
-12.8220 1.9719 0.0737
-12.8217 1.5030 0.0734
-12.8214 1.0380 0.0731
-12.8211 0.5758 0.0730
-12.8208 0.1151 0.0729
-12.8205 -0.3453 0.0730
-12.8202 -0.8066 0.0731
-12.8200 -1.2699 0.0733
-22.0980 -2.9934 0.1269
-20.9793 -3.6130 0.1212
-21.2886 -4.4585 0.1238
-20.8498 -5.1543 0.1223
-22.3751 -6.3918 0.1325
-27.8721 -9.0562 0.1668
-17.6053 -6.4277 0.1067
-15.8154 -6.4265 0.0972
-14.2076 -6.3767 0.0887
-13.0404 -6.4247 0.0828
-12.3352 -6.6378 0.0797
-12.3348 -7.2203 0.0814
-12.3839 -7.8590 0.0835
-12.3340 -8.4633 0.0851
-12.3336 -9.1311 0.0873
-12.3331 -9.8353 0.0898
-12.3326 -10.5810 0.0925
-12.3334 -11.3753 0.0955
-12.3316 -12.2214 0.0988
-14.5277 -15.4704 0.1207
-10.8865 -12.4606 0.0941
-12.5650 -15.4691 0.1133
-11.7624 -15.5930 0.1110
-10.8193 -15.4680 0.1073
-10.0119 -15.4675 0.1047
-9.3740 -15.6895 0.1039
-9.4489 -17.1875 0.1114
-9.3721 -18.5998 0.1183
-9.3710 -20.3874 0.1274
-9.3696 -22.4776 0.1382
-9.3680 -24.9610 0.1513
-13.8599 -41.3885 0.2476
-15.2781 -51.7200 0.3059
-11.8058 -45.9804 0.2692
-16.5641 -75.6975 0.4392
-9.7901 -53.9479 0.3106
0.0001 -79.3463 2.2363
2.7173 -75.6452 2.1332
5.4313 -75.5043 2.1332
8.2269 -76.0814 2.1563
2.3254 -16.0798 0.4578
7.9270 -43.6810 1.2507
8.5248 -38.9583 1.1235
9.1895 -35.7905 1.0409
9.1864 -31.0983 0.9134
9.1841 -27.4256 0.8146
9.6566 -25.7300 0.7740
10.7257 -25.7308 0.7850
12.0080 -26.1243 0.8096
13.0189 -25.8370 0.8146
14.1472 -25.7336 0.8267
15.3758 -25.7346 0.8439
16.9124 -26.1283 0.8761
18.0020 -25.7368 0.8840
19.4151 -25.7379 0.9074
21.2260 -26.1318 0.9474
22.4888 -25.7404 0.9618
24.1732 -25.7418 0.9936
25.5179 -25.2897 1.0108
17.0563 -15.7312 0.6528
2.5309 -2.1714 0.0938
19.4939 -15.5458 0.7014
19.9873 -14.7975 0.6995
20.0006 -13.7240 0.6822
55.1781 -35.0170 1.8379
28.7012 -16.8004 0.9352
28.7410 -15.4662 0.9178
28.4013 -13.9927 0.8902
24.9811 -11.2119 0.7699
27.0993 -11.0117 0.8224
27.0967 -9.8930 0.8109
27.0942 -8.8034 0.8008
27.6850 -7.9087 0.8093
27.0910 -6.6972 0.7844
27.0908 -5.6737 0.7780
28.2696 -4.8685 0.8062
27.9551 -3.7868 0.7928
27.9580 -2.7695 0.7895
27.9607 -1.7591 0.7873
27.9635 -0.7532 0.7861
28.2848 0.2539 0.7948
28.2860 1.2703 0.7956
26.9237 2.1797 0.7590
25.0767 2.9395 0.7094
22.9972 3.5366 0.6537
21.2189 4.0477 0.6069
19.1862 4.3791 0.5529
19.0464 5.0729 0.5538
18.1434 5.5371 0.5330
16.1375 5.5655 0.4796
14.4948 5.5889 0.4364
12.3074 5.2604 0.3760
11.2911 5.3131 0.3506
11.2957 5.8194 0.3570
11.3005 6.3452 0.3641
11.7897 7.1883 0.3879
11.7960 7.7864 0.3971
11.5975 8.2679 0.4002
11.3250 8.7033 0.4013
11.3321 9.3746 0.4132
11.3396 10.0879 0.4264
11.3477 10.8494 0.4411
11.3563 11.6662 0.4575
11.3656 12.5470 0.4757
11.3757 13.5021 0.4961
16.6072 21.2126 0.7571
4.6613 6.4157 0.2229
15.9308 23.6692 0.8018
15.9296 25.6061 0.8476
15.5857 27.1827 0.8807
14.7507 28.0110 0.8898
13.5932 28.2265 0.8806
8.2674 18.8719 0.5792
7.8160 19.7409 0.5969
13.2762 37.4018 1.1158
11.7822 37.4008 1.1025
10.3218 37.3998 1.0909
2.8193 11.8603 0.3428
7.4826 37.3980 1.0725
6.0953 37.3971 1.0656
9.5062 75.2488 2.1332
6.7986 75.5371 2.1332
4.2797 79.3868 2.2363
1.4271 79.4835 2.2363
-1.4268 79.4778 2.2363
-4.2785 79.3693 2.2363
-7.1243 79.1585 2.2363
-9.5006 75.2058 2.1330
-10.2127 62.6596 1.7866
-14.8694 74.3183 2.1330
-17.5263 73.7310 2.1330
-14.5834 52.8422 1.5430
-12.9595 41.1382 1.2142
-13.8425 38.9975 1.1650
-14.6971 37.1209 1.1241
-16.2613 37.1198 1.1411
-17.8754 37.1188 1.1601
-14.2367 27.0351 0.8605
-21.2814 37.1166 1.2050
-37.6969 60.5964 2.0101
-11.9500 17.7548 0.6029
-37.0612 51.0105 1.7762
-26.3918 33.7106 1.2061
-26.3902 31.3235 1.1540
-27.3993 30.2475 1.1500
-29.4425 30.2462 1.1895
-55.4079 52.9756 2.1603
-56.5504 50.3090 2.1332
-36.8986 30.5253 1.3498
-39.7173 30.5234 1.4120
-42.8119 30.5214 1.4821
-44.4809 29.3617 1.5025
-12.8258 7.8202 0.4235
-12.8254 7.2015 0.4147
-12.8250 6.6073 0.4068
-12.8246 6.0348 0.3997
-12.8243 5.4814 0.3933
-11.3440 4.3740 0.3429
-12.8236 4.4227 0.3826
-12.7405 3.8883 0.3757
-12.7183 3.3875 0.3712
-12.7179 2.9028 0.3680
-12.7581 2.4338 0.3664
-12.8220 1.9719 0.3660
-12.8217 1.5030 0.3642
-12.8214 1.0380 0.3629
-12.8211 0.5758 0.3621
-12.8208 0.1151 0.3618
-12.8205 -0.3453 0.3619
-12.8202 -0.8066 0.3625
-12.8200 -1.2699 0.3635
-23.0554 -3.1231 0.6565
-20.7698 -3.5769 0.5947
-20.6808 -4.3312 0.5963
-20.9129 -5.1699 0.6079
-28.7279 -8.2066 0.8431
-28.6380 -9.3051 0.8498
-17.6053 -6.4277 0.5289
-15.8153 -6.4265 0.4818
-14.2076 -6.3767 0.4395
-13.0404 -6.4247 0.4103
-12.3352 -6.6378 0.3953
-12.3348 -7.2203 0.4033
-12.3839 -7.8590 0.4139
-12.3340 -8.4633 0.4221
-12.3336 -9.1311 0.4331
-12.3331 -9.8353 0.4451
-12.3326 -10.5810 0.4585
-12.3412 -11.3825 0.4737
-12.3316 -12.2214 0.4899
-14.5277 -15.4704 0.5988
-10.8865 -12.4606 0.4669
-12.5650 -15.4691 0.5623
-11.7623 -15.5930 0.5511
-10.8193 -15.4680 0.5325
-10.0118 -15.4675 0.5198
-9.3740 -15.6895 0.5156
-9.4489 -17.1875 0.5533
-9.3721 -18.5998 0.5875
-9.3710 -20.3874 0.6329
-9.3827 -22.5089 0.6878
-9.3680 -24.9611 0.7519
-13.8599 -41.3886 1.2309
-12.4202 -42.0457 1.2363
-11.3919 -44.3686 1.2917
-16.1718 -73.9053 2.1331
-9.7900 -53.9478 1.5458
-10.8290 -74.8843 2.1331
-8.1346 -75.2300 2.1331
-5.6918 -79.1301 2.2363
-2.8479 -79.2891 2.2363
0.0001 -44.0731 2.2363
1.5823 -44.0465 2.2363
3.0165 -41.9334 2.1330
4.5200 -41.7998 2.1330
2.3249 -16.0764 0.8241
7.1316 -39.2980 2.0261
8.5248 -38.9580 2.0230
9.1895 -35.7903 1.8744
9.1864 -31.0981 1.6448
6.0690 -18.1231 0.9694
6.8016 -18.1226 0.9818
7.5542 -18.1221 0.9957
8.3296 -18.1216 1.0114
9.1310 -18.1211 1.0290
9.9619 -18.1205 1.0486
10.8263 -18.1200 1.0703
11.7285 -18.1194 1.0944
12.6735 -18.1188 1.1211
13.6672 -18.1181 1.1506
14.7162 -18.1174 1.1834
15.8282 -18.1167 1.2196
17.0121 -18.1159 1.2598
18.2786 -18.1151 1.3045
17.0564 -15.7312 1.1762
2.5306 -2.1712 0.1690
19.3540 -15.4342 1.2547
19.8225 -14.6754 1.2500
20.0006 -13.7239 1.2293
35.9242 -22.7980 2.1563
28.3153 -16.5744 1.6627
28.3546 -15.2582 1.6317
28.3926 -13.9884 1.6039
24.9801 -11.2115 1.3874
27.0993 -11.0117 1.4822
27.0967 -9.8929 1.4616
27.0942 -8.8034 1.4434
27.6850 -7.9086 1.4588
27.0910 -6.6971 1.4139
27.0907 -5.6736 1.4023
28.2695 -4.8685 1.4533
27.9549 -3.7867 1.4291
27.9578 -2.7694 1.4233
27.9608 -1.7591 1.4192
27.9636 -0.7532 1.4171
28.2847 0.2539 1.4329
28.2860 1.2703 1.4343
26.9246 2.1798 1.3683
25.0729 2.9390 1.2787
22.9961 3.5365 1.1785
21.2183 4.0476 1.0941
19.1862 4.3791 0.9968
19.0464 5.0729 0.9984
18.1434 5.5371 0.9608
16.1375 5.5655 0.8646
14.4948 5.5889 0.7869
12.3074 5.2604 0.6779
11.2911 5.3131 0.6321
11.2957 5.8194 0.6436
11.3005 6.3452 0.6564
11.7897 7.1883 0.6994
11.7960 7.7864 0.7159
11.5975 8.2679 0.7214
11.3250 8.7033 0.7235
11.3321 9.3746 0.7450
11.3396 10.0879 0.7688
11.3477 10.8494 0.7953
11.3563 11.6662 0.8247
11.3656 12.5470 0.8576
11.3757 13.5021 0.8944
16.6072 21.2126 1.3647
4.6578 6.4109 0.4014
15.9308 23.6692 1.4454
15.9296 25.6060 1.5278
15.5032 27.0387 1.5791
14.7508 28.0110 1.6039
13.5880 28.2157 1.5867
8.2674 18.8719 1.0439
7.7778 19.6445 1.0705
13.2762 37.4018 2.0110
11.7823 37.4008 1.9870
10.3218 37.3998 1.9660
2.8190 11.8590 0.6177
7.4826 37.3980 1.9328
6.0954 37.3971 1.9203
5.2755 41.7587 2.1332
3.7729 41.9196 2.1332
2.2657 42.0263 2.1332
0.7921 44.1125 2.2363
-0.7918 44.1106 2.2363
-2.3746 44.0520 2.2363
-3.9542 43.9364 2.2363
-5.5286 43.7643 2.2363
-6.7681 41.5257 2.1330
-8.2540 41.2542 2.1330
-9.7291 40.9296 2.1330
-11.2086 40.6140 2.1363
-10.2010 32.3820 1.7215
-14.0924 39.7016 2.1363
-14.6970 37.1209 2.0246
-11.8947 27.1523 1.5033
-14.6608 30.4437 1.7137
-14.2367 27.0351 1.5497
-17.4315 30.4021 1.7775
-18.9387 30.4434 1.8186
-11.9485 17.7526 1.0855
-24.7536 34.0705 2.1363
-25.9594 33.1586 2.1363
-26.3902 31.3236 2.0779
-27.3993 30.2475 2.0705
-29.3252 30.1259 2.1330
-30.3865 29.0526 2.1330
-31.4101 27.9435 2.1331
-32.3923 26.7974 2.1332
-34.5766 26.5728 2.2128
-35.8830 25.5817 2.2363
-36.7766 24.2762 2.2363
-12.8258 7.8202 0.7624
-12.8254 7.2015 0.7465
-12.8250 6.6074 0.7322
-12.8246 6.0348 0.7194
-12.8243 5.4814 0.7079
-11.3440 4.3741 0.6171
-12.8236 4.4227 0.6886
-12.7405 3.8883 0.6762
-12.7183 3.3875 0.6681
-12.7179 2.9028 0.6622
-12.7581 2.4338 0.6594
-12.8220 1.9719 0.6586
-12.8217 1.5030 0.6554
-12.8214 1.0380 0.6531
-12.8211 0.5758 0.6516
-12.8208 0.1151 0.6510
-12.8205 -0.3453 0.6512
-12.8202 -0.8066 0.6522
-12.8200 -1.2699 0.6541
-18.2626 -2.4738 0.9358
-18.3889 -3.1669 0.9474
-18.3767 -3.8486 0.9533
-18.2613 -4.5144 0.9552
-21.4371 -6.1239 1.1321
-28.3393 -9.2080 1.5130
-17.6053 -6.4277 0.9517
-15.8154 -6.4265 0.8668
-14.2076 -6.3767 0.7908
-13.0404 -6.4247 0.7382
-12.3352 -6.6378 0.7113
-12.3348 -7.2203 0.7257
-12.3839 -7.8590 0.7448
-12.3340 -8.4634 0.7595
-12.3336 -9.1311 0.7792
-12.3331 -9.8353 0.8010
-12.3326 -10.5810 0.8251
-12.3490 -11.3896 0.8530
-12.3316 -12.2214 0.8815
-11.6975 -12.4566 0.8676
-10.8865 -12.4606 0.8401
-12.5650 -15.4691 1.0118
-11.7623 -15.5930 0.9916
-10.8193 -15.4680 0.9583
-10.0118 -15.4675 0.9354
-9.3740 -15.6896 0.9278
-9.4489 -17.1875 0.9957
-9.3721 -18.5999 1.0573
-9.3710 -20.3875 1.1390
-9.3954 -22.5396 1.2395
-9.3680 -24.9612 1.3533
-13.4272 -40.0969 2.1463
-11.9797 -40.5544 2.1463
-10.5166 -40.9598 2.1463
-8.9847 -41.0602 2.1332
-7.5052 -41.3577 2.1332
-6.0588 -41.8980 2.1484
-4.7373 -43.8124 2.2363
-3.1617 -43.9561 2.2363
-1.5819 -44.0429 2.2363
0.0001 -30.4885 2.2363
1.0946 -30.4697 2.2363
2.0867 -29.0076 2.1330
3.1267 -28.9148 2.1330
2.3244 -16.0731 1.1911
5.1935 -28.6177 2.1330
6.2854 -28.7235 2.1563
7.0357 -27.4016 2.0746
8.3305 -28.2003 2.1563
6.0690 -18.1231 1.4015
6.8016 -18.1226 1.4194
7.5542 -18.1221 1.4396
8.3296 -18.1216 1.4624
9.1311 -18.1211 1.4878
9.9620 -18.1205 1.5161
10.8263 -18.1200 1.5475
11.7285 -18.1194 1.5824
12.6736 -18.1188 1.6210
13.6673 -18.1181 1.6637
14.7163 -18.1174 1.7111
15.8282 -18.1167 1.7635
17.0122 -18.1159 1.8217
18.2786 -18.1151 1.8863
16.9795 -15.6602 1.6931
2.5303 -2.1709 0.2444
22.7122 -18.1122 2.1292
23.6458 -17.5059 2.1563
24.2596 -16.6463 2.1563
24.8422 -15.7652 2.1563
25.3927 -14.8637 2.1563
25.9105 -13.9429 2.1563
26.0763 -12.8472 2.1302
24.9791 -11.2110 2.0064
25.5941 -10.4000 2.0244
25.9515 -9.4748 2.0244
26.2754 -8.5373 2.0244
26.5654 -7.5888 2.0244
26.8213 -6.6305 2.0244
27.0425 -5.6635 2.0244
28.2694 -4.8684 2.1018
27.4628 -3.7200 2.0305
27.4659 -2.7207 2.0222
27.4687 -1.7282 2.0165
27.4713 -0.7399 2.0134
28.2845 0.2539 2.0723
28.2859 1.2703 2.0744
26.8474 2.1736 1.9733
24.4450 2.8654 1.8031
22.9928 3.5360 1.7043
21.2166 4.0473 1.5824
19.1862 4.3791 1.4417
19.0464 5.0729 1.4440
18.1434 5.5371 1.3897
16.1375 5.5655 1.2505
14.4948 5.5889 1.1381
12.3074 5.2604 0.9805
11.2911 5.3131 0.9142
11.2957 5.8194 0.9309
11.3005 6.3451 0.9494
11.7897 7.1883 1.0116
11.7960 7.7864 1.0355
11.5975 8.2679 1.0434
11.3250 8.7033 1.0464
11.3321 9.3746 1.0775
11.3396 10.0879 1.1119
11.3477 10.8494 1.1502
11.3563 11.6662 1.1928
11.3656 12.5469 1.2403
11.3757 13.5021 1.2935
15.7818 20.1582 1.8757
4.6543 6.4061 0.5802
14.8746 22.0999 1.9518
9.3746 15.0692 1.3003
9.3678 16.3380 1.3799
12.5671 23.8642 1.9762
7.3878 15.3409 1.2476
7.3704 16.8242 1.3459
7.3513 18.5671 1.4633
9.4198 26.5374 2.0635
8.5178 27.0381 2.0773
7.5867 27.4894 2.0898
2.8187 11.8577 0.8932
5.7109 28.5425 2.1332
4.6825 28.7284 2.1332
3.6481 28.8772 2.1332
2.6091 28.9887 2.1332
1.6426 30.4674 2.2363
0.5478 30.5059 2.2363
-0.5476 30.5050 2.2363
-1.6422 30.4649 2.2363
-2.7346 30.3854 2.2363
-3.8234 30.2667 2.2363
-4.9073 30.1091 2.2363
-5.9848 29.9126 2.2363
-7.0221 29.5417 2.2260
-7.8680 28.5096 2.1682
-8.7613 27.8117 2.1378
-9.7320 27.4174 2.1330
-10.7095 27.0495 2.1330
-11.6939 26.6941 2.1368
-12.8194 26.6201 2.1664
-14.0088 26.6025 2.2046
-15.1693 26.4567 2.2363
-16.1087 25.8943 2.2363
-11.8800 17.6509 1.5603
-17.9239 24.6703 2.2363
-18.7974 24.0103 2.2363
-19.6466 23.3194 2.2363
-20.4704 22.5985 2.2363
-21.2677 21.8484 2.2363
-22.0376 21.0703 2.2363
-22.7791 20.2651 2.2363
-22.4083 18.5379 2.1332
-23.0587 17.7211 2.1332
-23.6793 16.8815 2.1332
-24.2694 16.0202 2.1332
-12.8258 7.8202 1.1020
-12.8254 7.2015 1.0790
-12.8250 6.6074 1.0584
-12.8246 6.0349 1.0398
-12.8243 5.4814 1.0232
-11.3440 4.3741 0.8920
-12.8236 4.4227 0.9952
-12.7405 3.8883 0.9773
-12.7183 3.3875 0.9657
-12.7179 2.9028 0.9571
-12.7581 2.4338 0.9530
-12.8220 1.9719 0.9519
-12.8217 1.5030 0.9473
-12.8214 1.0381 0.9439
-12.8211 0.5758 0.9417
-12.8208 0.1151 0.9408
-12.8205 -0.3453 0.9411
-12.8202 -0.8066 0.9426
-12.8200 -1.2699 0.9454
-18.2626 -2.4738 1.3524
-18.2622 -3.1450 1.3599
-18.2618 -3.8246 1.3692
-18.2613 -4.5144 1.3804
-18.2609 -5.2165 1.3937
-18.2604 -5.9332 1.4090
-17.6053 -6.4277 1.3754
-15.8154 -6.4265 1.2528
-14.3167 -6.4256 1.1516
-13.0404 -6.4247 1.0668
-12.1038 -6.5134 1.0087
-12.3348 -7.2203 1.0489
-10.9068 -6.9217 0.9480
-12.3340 -8.4634 1.0977
-12.3336 -9.1311 1.1261
-12.3331 -9.8353 1.1576
-10.9051 -9.3563 1.0544
-12.3415 -11.3828 1.2320
-12.3316 -12.2214 1.2740
-14.1548 -15.0734 1.5173
-10.8865 -12.4606 1.2142
-12.5650 -15.4691 1.4624
-11.6685 -15.4686 1.4218
-10.8193 -15.4680 1.3851
-10.0118 -15.4675 1.3519
-9.3740 -15.6896 1.3410
-9.3732 -17.0498 1.4276
-9.3721 -18.5999 1.5282
-9.3710 -20.3875 1.6463
-9.3848 -22.5141 1.7896
-9.3680 -24.9613 1.9561
-9.2328 -27.5714 2.1332
-8.2374 -27.8858 2.1332
-7.2312 -28.1642 2.1332
-6.2157 -28.4063 2.1332
-5.4431 -29.9945 2.2363
-4.3630 -30.1714 2.2363
-3.2772 -30.3094 2.2363
-2.1872 -30.4083 2.2363
-1.0943 -30.4681 2.2363
0.0001 -23.2871 2.2363
0.8361 -23.2726 2.2363
1.6710 -23.2281 2.2363
2.3882 -22.0846 2.1330
2.3103 -15.9749 1.5499
3.9667 -21.8574 2.1330
4.7488 -21.7014 2.1330
5.5249 -21.5174 2.1330
6.3625 -21.5381 2.1563
6.0691 -18.1231 1.8350
6.8017 -18.1226 1.8584
7.5542 -18.1221 1.8850
5.6003 -12.1836 1.2873
9.1311 -18.1211 1.9480
9.9620 -18.1205 1.9851
10.8263 -18.1200 2.0263
11.7285 -18.1194 2.0720
12.6736 -18.1188 2.1225
13.5279 -17.9333 2.1563
14.1632 -17.4365 2.1563
14.7804 -16.9173 2.1563
15.3785 -16.3762 2.1563
15.9568 -15.8140 2.1563
16.5145 -15.2313 2.1563
2.5300 -2.1706 0.3199
17.5655 -14.0078 2.1563
18.0573 -13.3685 2.1563
18.5260 -12.7120 2.1563
18.9707 -12.0390 2.1563
19.3910 -11.3505 2.1563
19.7863 -10.6473 2.1563
20.1562 -9.9304 2.1563
19.5072 -8.7551 2.0519
19.8092 -8.0493 2.0519
20.0858 -7.3332 2.0519
20.8925 -6.7883 2.1080
21.6072 -6.1723 2.1563
21.8151 -5.3928 2.1563
21.9950 -4.6064 2.1563
22.1465 -3.8139 2.1563
22.2694 -3.0165 2.1563
22.3636 -2.2152 2.1563
22.4290 -1.4111 2.1563
22.4654 -0.6050 2.1563
22.4729 0.2018 2.1563
22.4514 1.0083 2.1563
22.4009 1.8136 2.1563
22.3216 2.6166 2.1563
22.2134 3.4162 2.1563
20.6885 3.9465 2.0207
19.1862 4.3791 1.8881
19.0464 5.0729 1.8910
18.1434 5.5371 1.8200
16.1375 5.5655 1.6377
14.4948 5.5889 1.4904
12.3074 5.2604 1.2841
11.2911 5.3131 1.1972
11.2957 5.8194 1.2191
11.3005 6.3451 1.2434
11.3058 6.8933 1.2704
11.3119 7.4668 1.3004
11.3183 8.0689 1.3336
11.3250 8.7033 1.3703
11.3321 9.3746 1.4110
11.3396 10.0879 1.4562
11.3477 10.8494 1.5063
11.3563 11.6662 1.5621
11.3656 12.5469 1.6243
11.3757 13.5021 1.6940
13.4698 17.2050 2.0965
4.6508 6.4013 0.7592
12.5305 18.6171 2.1532
9.4216 15.1447 1.7115
9.3678 16.3380 1.8071
9.3874 17.8262 1.9332
7.3534 15.2694 1.6262
7.3525 16.7833 1.7582
7.3472 18.5567 1.9152
7.1093 20.0282 2.0394
6.3857 20.2702 2.0394
5.9139 21.4280 2.1332
2.8184 11.8564 1.1695
4.3611 21.7963 2.1332
3.5758 21.9383 2.1332
2.7859 22.0521 2.1332
1.9925 22.1374 2.1332
1.2544 23.2668 2.2363
0.4184 23.2963 2.2363
-0.4181 23.2959 2.2363
-1.2541 23.2653 2.2363
-2.0883 23.2048 2.2363
-2.9199 23.1143 2.2363
-3.7476 22.9941 2.2363
-4.5705 22.8442 2.2363
-5.3875 22.6649 2.2363
-6.1974 22.4564 2.2363
-6.9994 22.2189 2.2363
-7.7922 21.9528 2.2363
-8.5750 21.6585 2.2363
-9.3467 21.3362 2.2363
-10.1064 20.9864 2.2363
-10.8529 20.6096 2.2363
-11.5854 20.2062 2.2363
-12.3030 19.7769 2.2363
-11.8596 17.6207 2.0394
-13.0584 17.9736 2.1332
-11.2904 14.4216 1.7586
-14.3134 16.9893 2.1331
-14.9135 16.4640 2.1331
-15.4944 15.9175 2.1331
-16.0552 15.3505 2.1331
-16.5954 14.7638 2.1330
-17.2205 14.2462 2.1463
-17.7204 13.6186 2.1463
-18.1975 12.9735 2.1463
-18.6511 12.3116 2.1463
-12.8258 7.8202 1.4427
-12.8254 7.2016 1.4127
-12.9135 6.6530 1.3952
-12.9131 6.0765 1.3707
-12.8243 5.4814 1.3395
-11.3440 4.3741 1.1678
-12.8236 4.4227 1.3029
-12.7405 3.8883 1.2795
-12.7183 3.3875 1.2642
-12.7179 2.9028 1.2530
-12.7581 2.4338 1.2476
-12.8220 1.9719 1.2461
-12.8217 1.5030 1.2401
-12.8214 1.0381 1.2357
-12.9095 0.5798 1.2414
-12.9092 0.1159 1.2401
-12.9089 -0.3477 1.2405
-12.8202 -0.8065 1.2340
-12.8200 -1.2699 1.2376
-18.2626 -2.4738 1.7704
-18.2622 -3.1450 1.7802
-18.2618 -3.8246 1.7924
-18.2613 -4.5144 1.8071
-18.2609 -5.2165 1.8245
-18.2604 -5.9332 1.8445
-17.6053 -6.4277 1.8005
-15.8154 -6.4265 1.6400
-14.3167 -6.4256 1.5076
-13.0404 -6.4247 1.3966
-12.1038 -6.5134 1.3205
-12.3348 -7.2203 1.3731
-10.9068 -6.9217 1.2410
-12.3340 -8.4634 1.4370
-12.3336 -9.1311 1.4742
-12.3331 -9.8353 1.5154
-10.9051 -9.3563 1.3803
-10.4557 -9.6435 1.3664
-11.4595 -11.3571 1.5499
-11.0167 -11.7317 1.5460
-10.6819 -12.2265 1.5596
-12.5650 -15.4691 1.9144
-11.6684 -15.4686 1.8613
-10.8193 -15.4680 1.8133
-10.0118 -15.4675 1.7699
-9.3740 -15.6896 1.7556
-9.3731 -17.0498 1.8689
-9.3721 -18.6000 2.0006
-9.2751 -20.1789 2.1332
-6.6594 -15.9759 1.6625
-7.8037 -20.7931 2.1332
-7.0524 -21.0602 2.1332
-6.2920 -21.3001 2.1332
-5.7903 -22.5523 2.2363
-4.9772 -22.7461 2.2363
-4.1575 -22.9105 2.2363
-3.3325 -23.0454 2.2363
-2.5032 -23.1507 2.2363
-1.6705 -23.2261 2.2363
-0.8358 -23.2716 2.2363
0.0001 -18.8220 2.2363
0.6758 -18.8102 2.2363
1.3506 -18.7742 2.2363
1.9800 -18.3095 2.1880
2.3080 -15.9594 1.9158
3.2061 -17.6660 2.1330
3.8382 -17.5399 2.1330
4.4654 -17.3911 2.1330
5.0869 -17.2200 2.1330
5.7019 -17.0266 2.1330
6.0784 -16.1956 2.0549
6.6658 -15.9906 2.0579
5.5607 -12.0976 1.5816
5.6797 -11.2715 1.4992
8.7456 -15.9080 2.1563
5.8582 -9.8047 1.3566
5.8908 -9.1007 1.2876
6.4056 -9.1578 1.3274
8.5637 -11.3524 1.6890
11.4467 -14.0921 2.1563
11.9453 -13.6723 2.1563
10.2480 -10.9128 1.7780
10.4371 -10.3437 1.7452
13.3467 -12.3096 2.1563
2.5297 -2.1704 0.3958
14.1959 -11.3207 2.1563
14.5934 -10.8040 2.1563
14.9721 -10.2734 2.1563
15.3315 -9.7295 2.1563
14.9121 -8.7288 2.0519
15.2161 -8.1880 2.0519
15.5004 -7.6366 2.0519
15.7648 -7.0754 2.0519
16.7125 -6.7910 2.1420
17.0584 -6.2279 2.1563
17.2711 -5.6116 2.1563
17.4617 -4.9881 2.1563
17.6297 -4.3582 2.1563
17.7750 -3.7226 2.1563
17.8974 -3.0821 2.1563
17.9966 -2.4377 2.1563
18.0727 -1.7902 2.1563
18.1255 -1.1403 2.1563
18.1549 -0.4889 2.1563
18.1609 0.1631 2.1563
17.6856 0.7944 2.1019
17.6458 1.4287 2.1019
17.5832 2.0612 2.1019
17.4980 2.6911 2.1019
17.3902 3.3175 2.1019
17.2600 3.9396 2.1019
17.1075 4.5566 2.1019
16.9330 5.1678 2.1019
16.1375 5.5655 2.0266
14.4948 5.5889 1.8443
12.3074 5.2604 1.5890
11.2911 5.3131 1.4815
11.2957 5.8194 1.5085
11.3005 6.3451 1.5386
11.3058 6.8933 1.5721
11.3119 7.4668 1.6092
11.3183 8.0689 1.6503
11.3250 8.7033 1.6957
11.3321 9.3746 1.7461
11.3396 10.0879 1.8019
11.3477 10.8493 1.8639
11.3563 11.6662 1.9330
11.3656 12.5469 2.0100
11.3757 13.5021 2.0962
11.1567 14.2505 2.1488
4.6474 6.3965 0.9387
10.1406 15.0663 2.1563
9.0731 14.5846 2.0394
8.2607 14.4072 1.9719
8.0032 15.1976 2.0394
7.3252 15.2107 2.0046
6.8920 15.7323 2.0394
6.3228 15.9693 2.0394
5.9767 16.8373 2.1215
5.3979 17.1346 2.1332
4.7793 17.3171 2.1332
2.8181 11.8551 1.4470
3.5245 17.6148 2.1332
2.8898 17.7297 2.1332
2.2515 17.8217 2.1332
1.6881 18.7554 2.2363
1.0138 18.8036 2.2363
0.3381 18.8275 2.2363
-0.3379 18.8272 2.2363
-1.0135 18.8026 2.2363
-1.6877 18.7537 2.2363
-2.3598 18.6807 2.2363
-3.0288 18.5836 2.2363
-3.6939 18.4626 2.2363
-4.3541 18.3177 2.2363
-5.0087 18.1493 2.2363
-5.6569 17.9575 2.2363
-6.2977 17.7425 2.2363
-6.9304 17.5046 2.2363
-7.5542 17.2443 2.2363
-7.7911 16.1787 2.1331
-8.3666 15.8882 2.1330
-8.9313 15.5772 2.1330
-9.4846 15.2463 2.1330
-10.0256 14.8957 2.1330
-10.5536 14.5260 2.1330
-11.1368 14.2254 2.1463
-11.6400 13.8162 2.1463
-12.1283 13.3892 2.1463
-12.6008 12.9450 2.1463
-13.0572 12.4841 2.1463
-13.4870 11.9986 2.1448
-13.8821 11.4845 2.1406
-14.2384 10.9426 2.1336
-14.5900 10.4016 2.1290
-14.9303 9.8555 2.1257
-12.8258 7.8202 1.7849
-12.8254 7.2016 1.7478
-12.9135 6.6530 1.7261
-12.9131 6.0765 1.6958
-12.8243 5.4814 1.6573
-11.3440 4.3741 1.4447
-12.8236 4.4228 1.6119
-12.7405 3.8883 1.5830
-12.7183 3.3875 1.5641
-12.7179 2.9029 1.5502
-12.7581 2.4338 1.5435
-12.8220 1.9719 1.5417
-12.8217 1.5030 1.5342
-12.8214 1.0381 1.5287
-12.9095 0.5798 1.5358
-12.9092 0.1159 1.5342
-12.9089 -0.3477 1.5347
-12.8202 -0.8065 1.5266
-12.8199 -1.2699 1.5311
-17.8958 -2.4241 2.1463
-17.7971 -3.0649 2.1463
-17.6756 -3.7018 2.1463
-17.5312 -4.3339 2.1463
-17.3594 -4.9590 2.1457
-17.1750 -5.5805 2.1463
-16.9636 -6.1934 2.1463
-15.8154 -6.4265 2.0289
-14.3167 -6.4256 1.8651
-13.0404 -6.4247 1.7277
-11.9361 -6.4231 1.6110
-11.0275 -6.4551 1.5186
-10.9768 -6.9661 1.5451
-10.8474 -7.4433 1.5635
-10.8471 -8.0306 1.6040
-10.8467 -8.6500 1.6488
-10.8464 -9.3059 1.6985
-10.4557 -9.6435 1.6905
-10.4373 -10.3441 1.7464
-10.4355 -11.1128 1.8117
-10.4337 -11.9424 1.8847
-10.2260 -12.5896 1.9276
-10.7968 -14.3130 2.1307
-10.2761 -14.6915 2.1307
-9.7422 -15.0511 2.1307
-9.2067 -15.4095 2.1332
-8.6477 -15.7302 2.1332
-8.0775 -16.0307 2.1332
-7.4970 -16.3105 2.1332
-6.6524 -15.9592 2.0547
-6.3076 -16.8068 2.1332
-5.9758 -17.8453 2.2363
-5.3314 -18.0486 2.2363
-4.6802 -18.2286 2.2363
-4.0229 -18.3851 2.2363
-3.3604 -18.5180 2.2363
-2.6936 -18.6269 2.2363
-2.0232 -18.7120 2.2363
-1.3502 -18.7728 2.2363
-0.6755 -18.8095 2.2363
0.0001 -15.7801 2.2363
0.5666 -15.7701 2.2363
1.1323 -15.7398 2.2363
1.6966 -15.6893 2.2363
2.1545 -14.8974 2.1330
2.6879 -14.8107 2.1330
3.2179 -14.7049 2.1330
3.7437 -14.5802 2.1330
4.2647 -14.4366 2.1330
4.7803 -14.2745 2.1330
5.2897 -14.0939 2.1330
5.7923 -13.8952 2.1330
5.5675 -12.1122 1.8888
5.6797 -11.2715 1.7883
7.3319 -13.3365 2.1563
5.8592 -9.8065 1.6185
5.8864 -9.0938 1.5348
6.3707 -9.1078 1.5747
8.3180 -11.0268 1.9569
8.4030 -10.3450 1.8882
5.8344 -6.6779 1.2563
10.2717 -10.9380 2.1257
10.4610 -10.3674 2.0865
6.4768 -5.9735 1.2482
2.5294 -2.1701 0.4721
11.3244 -9.0308 2.0519
11.6415 -8.6186 2.0519
11.9435 -8.1953 2.0519
12.2301 -7.7614 2.0519
12.5010 -7.3174 2.0519
10.6352 -5.7230 1.7107
10.6349 -5.2395 1.6793
13.8884 -6.2332 2.1563
14.1034 -5.7308 2.1563
14.3001 -5.2209 2.1563
14.4785 -4.7042 2.1563
14.6382 -4.1815 2.1563
14.7790 -3.6534 2.1563
14.9008 -3.1206 2.1563
15.0033 -2.5837 2.1563
15.0865 -2.0435 2.1563
15.1503 -1.5007 2.1563
15.1945 -0.9559 2.1563
15.2192 -0.4098 2.1563
15.2242 0.1367 2.1563
14.8256 0.6659 2.1019
14.7921 1.1977 2.1018
14.7395 1.7279 2.1018
14.6677 2.2558 2.1018
14.5769 2.7808 2.1017
14.4672 3.3021 2.1016
14.3389 3.8192 2.1015
14.1920 4.3313 2.1015
14.0266 4.8376 2.1013
13.8432 5.3377 2.1012
12.3074 5.2604 1.8956
11.2911 5.3131 1.7673
11.2957 5.8194 1.7996
11.3005 6.3451 1.8355
11.3058 6.8933 1.8753
11.3119 7.4668 1.9196
11.3183 8.0689 1.9686
11.3250 8.7033 2.0228
11.3321 9.3746 2.0829
11.3396 10.0879 2.1495
11.0046 10.5214 2.1563
10.6197 10.9096 2.1563
10.2212 11.2837 2.1563
9.8095 11.6432 2.1563
9.3852 11.9878 2.1563
4.6438 6.3917 1.1190
8.5008 12.6300 2.1563
8.0419 12.9269 2.1563
7.5726 13.2071 2.1563
6.6831 12.6908 2.0315
6.6054 13.7161 2.1563
6.1088 13.9442 2.1563
5.5442 14.0028 2.1332
5.0379 14.1926 2.1332
4.5251 14.3641 2.1332
4.0066 14.5171 2.1332
2.7988 11.7738 1.7142
2.9546 14.7668 2.1332
2.4226 14.8631 2.1332
1.9460 15.4030 2.1993
1.4152 15.7230 2.2363
0.8499 15.7634 2.2363
0.2835 15.7836 2.2363
-0.2833 15.7833 2.2363
-0.8496 15.7628 2.2363
-1.4149 15.7219 2.2363
-1.9783 15.6607 2.2363
-2.5391 15.5794 2.2363
-3.0967 15.4779 2.2363
-3.6502 15.3566 2.2363
-4.1990 15.2154 2.2363
-4.7424 15.0546 2.2363
-5.2797 14.8744 2.2363
-5.8101 14.6751 2.2363
-6.3330 14.4568 2.2363
-6.5321 13.5644 2.1332
-7.0146 13.3208 2.1332
-7.4881 13.0601 2.1331
-7.9518 12.7825 2.1331
-8.4054 12.4885 2.1331
-8.8480 12.1785 2.1331
-9.2792 11.8527 2.1331
-9.6985 11.5117 2.1331
-10.1052 11.1559 2.1330
-10.5643 10.8528 2.1463
-10.9469 10.4665 2.1463
-11.3143 10.0657 2.1461
-11.6538 9.6410 2.1434
-11.9780 9.2054 2.1409
-12.2867 8.7595 2.1385
-12.5796 8.3038 2.1362
-12.8258 7.8203 2.1290
-12.8254 7.2016 2.0847
-12.8250 6.6074 2.0447
-12.8246 6.0349 2.0088
-12.8243 5.4815 1.9767
-11.3510 4.3768 1.7243
-12.7925 4.4120 1.9180
-12.7405 3.8883 1.8880
-12.7183 3.3876 1.8655
-12.7179 2.9029 1.8490
-12.7581 2.4338 1.8410
-12.8220 1.9719 1.8388
-12.8217 1.5030 1.8299
-12.8214 1.0381 1.8233
-12.8211 0.5758 1.8192
-12.8249 0.1152 1.8180
-12.8207 -0.3453 1.8180
-12.8202 -0.8065 1.8209
-12.8199 -1.2699 1.8261
-15.0043 -2.0324 2.1463
-14.9216 -2.5697 2.1463
-14.8197 -3.1037 2.1463
-14.6987 -3.6336 2.1463
-14.5587 -4.1589 2.1463
-14.4000 -4.6788 2.1463
-14.2228 -5.1927 2.1463
-14.0271 -5.6999 2.1463
-13.8135 -6.1998 2.1463
-13.0404 -6.4247 2.0607
-11.9361 -6.4231 1.9214
-10.9683 -6.4204 1.8016
-10.8479 -6.8843 1.8212
-10.8476 -7.4435 1.8649
-10.8474 -8.0309 1.9132
-10.8471 -8.6503 1.9667
-10.8467 -9.3062 2.0259
-10.3854 -9.5786 2.0027
-10.2173 -10.1261 2.0391
-10.0745 -10.7283 2.0861
-9.9014 -11.3332 2.1332
-9.4883 -11.6814 2.1332
-9.0629 -12.0145 2.1332
-8.6259 -12.3322 2.1332
-8.1777 -12.6340 2.1332
-7.7190 -12.9195 2.1332
-7.2503 -13.1884 2.1332
-6.7723 -13.4403 2.1332
-6.2855 -13.6749 2.1332
-6.0684 -14.5582 2.2355
-5.5439 -14.7719 2.2363
-5.0101 -14.9616 2.2363
-4.4699 -15.1320 2.2363
-3.9239 -15.2828 2.2363
-3.3728 -15.4140 2.2363
-2.8173 -15.5254 2.2363
-2.2582 -15.6167 2.2363
-1.6962 -15.6879 2.2363
-1.1320 -15.7389 2.2363
-0.5663 -15.7697 2.2363
0.0001 -13.5725 2.2363
0.4873 -13.5639 2.2363
0.9739 -13.5379 2.2363
1.4593 -13.4944 2.2363
1.9428 -13.4335 2.2363
2.3119 -12.7386 2.1330
2.7677 -12.6476 2.1330
3.2199 -12.5403 2.1330
3.6681 -12.4168 2.1330
4.1115 -12.2773 2.1330
4.5496 -12.1220 2.1330
4.9819 -11.9510 2.1330
5.4077 -11.7646 2.1330
5.6797 -11.2715 2.0792
6.0751 -11.0503 2.0773
5.8592 -9.8065 1.8818
5.8864 -9.0938 1.7845
6.3708 -9.1078 1.8309
7.8832 -10.4503 2.1563
8.2534 -10.1608 2.1563
5.8358 -6.6795 1.4610
5.8569 -6.2368 1.4093
6.0408 -5.9866 1.4009
6.4743 -5.9712 1.4507
2.5291 -2.1698 0.5489
9.7397 -7.7670 2.0519
10.0123 -7.4124 2.0519
8.5728 -5.8824 1.7124
8.6851 -5.5116 1.6942
11.2988 -6.6137 2.1563
10.2445 -5.5127 1.9160
10.2442 -5.0470 1.8808
11.9447 -5.3609 2.1563
12.1296 -4.9287 2.1563
12.2988 -4.4902 2.1563
12.4521 -4.0458 2.1563
12.5895 -3.5963 2.1563
12.7105 -3.1421 2.1563
12.8153 -2.6838 2.1563
12.9034 -2.2221 2.1563
12.9750 -1.7575 2.1563
13.0298 -1.2906 2.1563
13.0678 -0.8221 2.1563
13.0890 -0.3525 2.1563
13.0933 0.1176 2.1563
12.7397 0.5722 2.1001
12.7109 1.0292 2.1000
12.6655 1.4848 2.1000
12.6039 1.9384 2.1000
12.5262 2.3896 2.1000
12.4323 2.8377 2.0999
12.3223 3.2821 2.0999
12.1964 3.7222 2.0999
12.0548 4.1576 2.0999
11.8976 4.5875 2.0998
11.7250 5.0116 2.0998
11.2911 5.3131 2.0549
11.2957 5.8194 2.0924
11.3005 6.3451 2.1342
11.1801 6.8167 2.1563
10.9281 7.2136 2.1563
10.6621 7.6012 2.1563
10.3824 7.9790 2.1563
10.0892 8.3465 2.1563
9.7831 8.7032 2.1563
9.4643 9.0488 2.1563
9.1334 9.3826 2.1563
8.7906 9.7043 2.1563
8.4366 10.0136 2.1563
8.0716 10.3099 2.1563
4.6404 6.3869 1.3001
7.3110 10.8623 2.1563
6.6485 10.6871 2.0728
6.1359 10.7013 2.0315
6.0606 11.5086 2.1421
5.6201 11.6701 2.1332
5.1975 11.8642 2.1332
4.7683 12.0430 2.1332
4.3328 12.2063 2.1332
3.8919 12.3538 2.1332
3.4459 12.4854 2.1332
2.7960 11.7620 1.9912
2.5412 12.7002 2.1332
2.0836 12.7831 2.1332
1.7018 13.4704 2.2363
1.2172 13.5227 2.2363
0.7310 13.5575 2.2363
0.2438 13.5748 2.2363
-0.2436 13.5746 2.2363
-0.7307 13.5570 2.2363
-1.2169 13.5218 2.2363
-1.7014 13.4692 2.2363
-2.1838 13.3993 2.2363
-2.6633 13.3121 2.2363
-3.1394 13.2077 2.2363
-3.6115 13.0864 2.2363
-4.0788 12.9481 2.2363
-4.5409 12.7932 2.2363
-4.9972 12.6217 2.2363
-5.4469 12.4340 2.2363
-5.8897 12.2303 2.2363
-6.1048 11.5932 2.1585
-6.4405 11.2330 2.1332
-6.8394 10.9944 2.1332
-7.2295 10.7415 2.1332
-7.6103 10.4749 2.1331
-7.9812 10.1947 2.1331
-8.3419 9.9015 2.1331
-8.6917 9.5954 2.1331
-9.0304 9.2771 2.1331
-9.3574 8.9468 2.1331
-9.6723 8.6049 2.1331
-9.9748 8.2520 2.1330
-10.3282 7.9376 2.1463
-10.6064 7.5616 2.1463
-10.8709 7.1759 2.1463
-11.1213 6.7810 2.1463
-11.3574 6.3773 2.1463
-11.5789 5.9655 2.1463
-11.7854 5.5459 2.1463
-11.9768 5.1192 2.1463
-11.1366 4.2942 1.9668
-11.1363 3.8409 1.9412
-11.1361 3.3987 1.9186
-11.2469 2.9957 1.9180
-11.3470 2.5900 1.9180
-11.4324 2.1809 1.9179
-12.8220 1.9719 2.1378
-12.8217 1.5030 2.1274
-12.8214 1.0381 2.1198
-12.8211 0.5759 2.1150
-12.8208 0.1151 2.1129
-12.8205 -0.3453 2.1136
-12.8202 -0.8065 2.1169
-12.8199 -1.2699 2.1231
-12.9057 -1.7481 2.1463
-12.8346 -2.2103 2.1463
-12.7469 -2.6696 2.1463
-12.6428 -3.1254 2.1463
-12.5225 -3.5772 2.1463
-12.3859 -4.0244 2.1463
-12.2335 -4.4664 2.1463
-12.0653 -4.9027 2.1463
-11.8815 -5.3326 2.1463
-11.6824 -5.7557 2.1463
-11.4683 -6.1713 2.1463
-10.9683 -6.4204 2.0945
-10.8479 -6.8843 2.1174
-10.7384 -7.3685 2.1463
-10.4670 -7.7493 2.1463
-10.1821 -8.1200 2.1463
-9.8238 -8.4286 2.1332
-9.5150 -8.7758 2.1332
-9.1938 -9.1118 2.1332
-8.8609 -9.4360 2.1332
-8.5165 -9.7480 2.1332
-8.1611 -10.0475 2.1332
-7.7953 -10.3341 2.1332
-7.4193 -10.6073 2.1332
-7.0338 -10.8669 2.1332
-6.6393 -11.1124 2.1332
-6.2362 -11.3437 2.1332
-6.0700 -12.0466 2.2229
-5.6676 -12.3305 2.2363
-5.2214 -12.5261 2.2363
-4.7684 -12.7056 2.2363
-4.3093 -12.8687 2.2363
-3.8446 -13.0152 2.2363
-3.3750 -13.1450 2.2363
-2.9010 -13.2578 2.2363
-2.4232 -13.3536 2.2363
-1.9423 -13.4321 2.2363
-1.4589 -13.4933 2.2363
-0.9736 -13.5372 2.2363
-0.4871 -13.5636 2.2363
0.0001 -11.8959 2.2363
0.4272 -11.8884 2.2363
0.8536 -11.8655 2.2363
1.2790 -11.8274 2.2363
1.7028 -11.7740 2.2363
2.0263 -11.1649 2.1330
2.4258 -11.0852 2.1330
2.8222 -10.9911 2.1330
3.2149 -10.8828 2.1330
3.6035 -10.7605 2.1330
3.9875 -10.6244 2.1330
4.3664 -10.4745 2.1330
