ply
format ascii 1.0
element vertex 2129
property float32 x
property float32 y
property float32 z
end_header
10.0510 6.1504 1.2027
10.4818 6.9444 1.2748
9.3877 6.7178 1.1622
8.4582 6.5252 1.0675
8.3253 6.9142 1.0729
8.2333 7.3539 1.0854
8.1481 7.8225 1.1010
8.0370 8.2914 1.1154
7.9317 8.7945 1.1332
7.8207 9.3247 1.1530
7.7032 9.8857 1.1753
7.5784 10.4819 1.2001
7.4452 11.1183 1.2279
7.3022 11.8011 1.2591
7.1481 12.5375 1.2940
6.9809 13.3361 1.3333
6.7985 14.2075 1.3777
6.3873 14.6805 1.3825
5.7162 14.5449 1.3317
5.4188 15.3900 1.3715
5.1740 16.5716 1.4391
4.8954 17.9165 1.5177
4.5679 19.4376 1.6078
4.5741 23.1693 1.8734
3.9568 24.6725 1.9520
3.4403 27.8001 2.1543
2.4206 27.6776 2.1029
1.4847 28.8902 2.1543
0.3567 23.0682 1.6900
-0.6040 29.5793 2.1311
-1.6933 30.0467 2.1311
-2.8183 30.4896 2.1311
-3.9791 30.9059 2.1311
-5.4268 32.8100 2.2343
-6.7193 33.1845 2.2343
-8.0495 33.5242 2.2343
-9.4169 33.8268 2.2343
-10.8211 34.0896 2.2343
-12.2614 34.3097 2.2343
-13.1031 32.8933 2.1312
-14.5430 33.0136 2.1312
-16.0141 33.0848 2.1312
-17.6224 33.3075 2.1443
-17.4634 30.3251 1.9544
-17.5733 28.1336 1.8184
-18.8300 27.8701 1.8099
-19.0842 26.1729 1.7112
-18.7835 23.9110 1.5772
-19.9915 23.6522 1.5776
-15.0092 16.5186 1.1169
-14.7081 15.0653 1.0353
-14.4390 13.7663 0.9642
-14.6008 12.9543 0.9277
-15.4792 12.7723 0.9383
-16.4096 12.5795 0.9514
-17.3123 12.3124 0.9626
-17.0936 11.2570 0.9137
-10.1018 6.1453 0.5204
-10.7203 6.0062 0.5335
-10.7542 5.5286 0.5183
-6.8010 3.1936 0.3182
-15.0208 6.4070 0.6837
-10.4412 4.0179 0.4636
-9.1007 3.1325 0.3950
-9.8259 2.9929 0.4179
-14.4915 3.8525 0.6054
-14.3716 3.2742 0.5912
-14.2557 2.7145 0.5787
-14.1431 2.1712 0.5680
-14.0335 1.6422 0.5589
-14.0557 1.1361 0.5564
-13.9499 0.6257 0.5503
-13.7188 0.1233 0.5405
-13.6175 -0.3657 0.5371
-13.5175 -0.8485 0.5351
-14.7575 -1.4587 0.5877
-22.2016 -3.0011 0.8915
-54.8268 -9.4224 2.2252
-54.3388 -11.3565 2.2343
-24.9035 -6.1436 1.0399
-52.5678 -14.9853 2.2343
-51.5230 -16.7054 2.2343
-50.3818 -18.3550 2.2343
-49.1517 -19.9294 2.2343
-45.6332 -20.4358 2.1312
-36.2568 -17.8229 1.7437
-42.3144 -22.7180 2.1006
-37.0256 -21.6222 1.9017
-32.7563 -20.7377 1.7447
-29.2294 -20.0069 1.6184
-26.2597 -19.3916 1.5152
-24.0765 -19.1497 1.4512
-35.0773 -30.0130 2.2143
-33.2005 -30.5344 2.2007
-30.7123 -30.3479 2.1435
-16.4682 -17.4827 1.2137
-15.0226 -17.1392 1.1725
-25.8774 -31.7503 2.1460
-24.0101 -31.7156 2.1227
-11.4626 -16.3257 1.0844
-20.9089 -32.1728 2.1250
-9.5595 -15.9314 1.0484
-8.8972 -16.1097 1.0581
-16.5145 -32.6120 2.1414
-14.5105 -31.3990 2.0645
-6.5266 -15.5650 1.0264
-8.1426 -21.5553 1.4275
-6.0324 -17.8839 1.1910
-9.4003 -31.5629 2.1167
-8.3313 -32.1448 2.1735
-5.0135 -22.6607 1.5467
-4.5648 -24.8224 1.7123
-4.0292 -27.4023 1.9125
-3.3334 -30.1482 2.1312
-2.2115 -29.7335 2.1312
-1.1243 -29.2940 2.1312
-0.0751 -23.1314 2.2343
0.7454 -22.8298 2.2343
1.5449 -22.5070 2.2343
2.3231 -22.1642 2.2343
3.0798 -21.8025 2.2343
3.8151 -21.4230 2.2343
4.5289 -21.0267 2.2343
5.2212 -20.6145 2.2343
5.8921 -20.1874 2.2343
6.3592 -19.1958 2.1720
6.8390 -18.4017 2.1312
7.4182 -17.9564 2.1312
7.9773 -17.4999 2.1312
8.5166 -17.0331 2.1312
9.0362 -16.5564 2.1312
9.5363 -16.0706 2.1312
10.0453 -15.6200 2.1372
10.5923 -15.2371 2.1543
11.0398 -14.7216 2.1543
11.4685 -14.1990 2.1543
11.8784 -13.6697 2.1543
12.2697 -13.1343 2.1543
12.6427 -12.5931 2.1543
12.9976 -12.0465 2.1543
13.3346 -11.4950 2.1543
13.6538 -10.9388 2.1543
13.9555 -10.3783 2.1543
13.9542 -9.6171 2.1111
13.7926 -8.7905 2.0483
13.6417 -8.0187 1.9915
13.5001 -7.2945 1.9402
12.6185 -6.2419 1.7877
15.2672 -6.8792 2.1349
12.3708 -5.0463 1.7096
12.2559 -4.4917 1.6758
12.1460 -3.9612 1.6450
12.0405 -3.4522 1.6171
16.1588 -4.0089 2.1543
16.2609 -3.4174 2.1543
16.3471 -2.8248 2.1543
16.4174 -2.2311 2.1543
16.4718 -1.6366 2.1543
11.4752 -0.7238 1.4973
16.5331 -0.4456 2.1543
11.3040 0.1028 1.4723
11.2203 0.5068 1.4622
11.1375 0.9061 1.4536
11.0555 1.3019 1.4465
10.9741 1.6951 1.4408
10.8929 2.0869 1.4365
10.8348 2.4836 1.4366
10.7534 2.8763 1.4351
10.6490 3.2638 1.4319
10.5670 3.6600 1.4331
10.4841 4.0598 1.4358
10.4003 4.4645 1.4399
10.3371 4.8855 1.4485
10.2438 5.3008 1.4547
10.1403 5.7193 1.4613
10.0499 6.1555 1.4717
10.4673 6.9414 1.5598
9.3749 6.7151 1.4239
8.4467 6.5228 1.3097
8.3240 6.9203 1.3199
8.2319 7.3604 1.3374
8.1358 7.8192 1.3570
8.0354 8.2991 1.3789
7.9299 8.8028 1.4035
7.8188 9.3338 1.4308
7.7011 9.8956 1.4613
7.5761 10.4927 1.4953
7.4427 11.1302 1.5333
7.2995 11.8141 1.5758
7.1451 12.5518 1.6234
6.9775 13.3520 1.6770
6.7947 14.2252 1.7373
6.3737 14.6778 1.7454
5.7031 14.5423 1.6860
5.4142 15.4125 1.7442
5.1687 16.5974 1.8357
4.8892 17.9463 1.9422
4.4806 19.1303 2.0281
3.8478 19.5679 2.0345
3.1645 19.8286 2.0242
2.5729 20.9221 2.0993
1.8709 21.5830 2.1311
1.1091 21.9088 2.1311
0.3265 22.2146 2.1311
-0.4767 22.4993 2.1311
-1.3002 22.7616 2.1311
-2.1437 23.0002 2.1311
-3.1524 24.3387 2.2343
-4.0771 24.5354 2.2343
-5.0212 24.7030 2.2343
-5.9839 24.8404 2.2343
-6.9643 24.9459 2.2343
-7.9615 25.0180 2.2343
-8.9744 25.0554 2.2343
-10.0017 25.0563 2.2343
-10.9671 24.8492 2.2191
-11.5363 23.7924 2.1312
-12.5494 23.6807 2.1312
-9.6681 16.7632 1.5184
-14.5969 23.3353 2.1312
-15.7235 23.2409 2.1443
-16.7621 22.9588 2.1443
-17.7999 22.6313 2.1443
-14.5574 17.2030 1.6574
-14.2441 15.6591 1.5377
-13.9590 14.2826 1.4333
-14.0467 13.3784 1.3759
-14.6127 12.9518 1.3692
-15.4912 12.7698 1.3922
-24.8144 19.0047 2.1443
-17.3096 12.2992 1.4418
-17.0912 11.2454 1.3755
-10.1083 6.1439 0.7878
-10.7191 6.0004 0.8108
-10.7532 5.5234 0.7912
-6.7970 3.1891 0.4875
-15.0196 6.4014 1.0523
-10.4405 4.0145 0.7161
-9.1033 3.1310 0.6125
-9.8303 2.9920 0.6501
-14.4908 3.8495 0.9439
-14.3711 3.2717 0.9239
-14.2553 2.7125 0.9064
-14.1428 2.1697 0.8911
-14.0333 1.6411 0.8779
-14.0555 1.1355 0.8748
-13.9498 0.6254 0.8656
-13.7188 0.1234 0.8503
-13.6176 -0.3653 0.8447
-13.5176 -0.8476 0.8409
-14.7451 -1.4561 0.9217
-22.1651 -2.9935 1.3950
-33.5628 -5.7630 2.1311
-33.2022 -6.9332 2.1311
-24.8307 -6.1204 1.6143
-33.8632 -9.6451 2.2343
-33.2985 -10.7873 2.2343
-32.6771 -11.8947 2.2343
-32.0018 -12.9644 2.2343
-31.2760 -13.9940 2.2343
-30.5030 -14.9812 2.2343
-29.6864 -15.9239 2.2343
-27.4995 -16.0445 2.1312
-26.6475 -16.8545 2.1312
-25.7642 -17.6182 2.1312
-24.8529 -18.3349 2.1312
-23.7509 -18.8718 2.1164
-21.5439 -18.4145 1.9998
-19.6068 -18.0131 1.9007
-17.8888 -17.6572 1.8159
-16.3509 -17.3385 1.7429
-14.9629 -17.0510 1.6799
-13.7007 -16.7894 1.6252
-12.5452 -16.5500 1.5777
-11.4807 -16.3295 1.5364
-10.4945 -16.1251 1.5006
-9.5760 -15.9348 1.4694
-8.9011 -16.0909 1.4731
-12.3364 -24.3197 2.2143
-11.3026 -24.4126 2.2143
-6.5368 -15.5583 1.4081
-6.3035 -16.6503 1.5058
-6.0282 -17.8285 1.6136
-5.7325 -19.1959 1.7412
-5.4031 -20.7830 1.8918
-5.0220 -22.6188 2.0688
-4.2768 -23.1580 2.1311
-3.3982 -22.9893 2.1311
-2.5379 -22.7943 2.1312
-1.6964 -22.5744 2.1312
-0.9165 -23.4107 2.2343
-0.0752 -18.7186 2.2343
0.5904 -18.5183 2.2343
1.2419 -18.2987 2.2343
1.8790 -18.0607 2.2343
2.5013 -17.8050 2.2343
3.1086 -17.5325 2.2343
3.7006 -17.2439 2.2343
4.2771 -16.9400 2.2343
4.8380 -16.6215 2.2343
5.3832 -16.2891 2.2343
5.6396 -15.2079 2.1312
6.1293 -14.8662 2.1312
6.6036 -14.5133 2.1312
7.0627 -14.1495 2.1312
7.5064 -13.7755 2.1312
7.9348 -13.3918 2.1312
8.3479 -12.9990 2.1312
8.7458 -12.5976 2.1312
9.2272 -12.3201 2.1543
9.5985 -11.8982 2.1543
9.9545 -11.4690 2.1543
10.2952 -11.0329 2.1543
10.6207 -10.5903 2.1543
10.9310 -10.1416 2.1543
11.2263 -9.6872 2.1543
11.5065 -9.2274 2.1543
11.7718 -8.7626 2.1543
12.0222 -8.2932 2.1543
12.2578 -7.8193 2.1543
12.4787 -7.3414 2.1543
12.6849 -6.8598 2.1543
12.6197 -6.2477 2.1114
13.0535 -5.8865 2.1543
12.3717 -5.0507 2.0167
12.2567 -4.4955 1.9758
12.1467 -3.9645 1.9387
12.0411 -3.4549 1.9050
13.7224 -3.4070 2.1543
13.8133 -2.9051 2.1543
13.8899 -2.4018 2.1543
13.9522 -1.8974 2.1543
14.0004 -1.3919 2.1543
11.4753 -0.7242 1.7615
14.0543 -0.3789 2.1543
11.3039 0.1030 1.7320
11.2202 0.5073 1.7202
11.1374 0.9069 1.7103
11.0553 1.3030 1.7022
10.9738 1.6966 1.6959
10.8925 2.0887 1.6912
13.7954 3.1649 2.1543
13.7013 3.6680 2.1543
10.6485 3.2664 1.6877
10.5664 3.6629 1.6899
10.4834 4.0631 1.6940
13.1805 5.6629 2.1543
13.0139 6.1561 2.1543
10.2284 5.2977 1.7172
10.1393 5.7240 1.7286
10.0489 6.1606 1.7422
10.4528 6.9384 1.8458
9.3620 6.7124 1.6865
8.4352 6.5204 1.5528
8.3228 6.9263 1.5684
8.2305 7.3670 1.5909
8.1343 7.8263 1.6160
8.0338 8.3068 1.6441
7.9282 8.8112 1.6754
7.8169 9.3429 1.7103
7.6991 9.9055 1.7491
7.5739 10.5036 1.7924
7.4402 11.1421 1.8407
7.2967 11.8273 1.8946
7.1420 12.5663 1.9550
6.9742 13.3680 2.0229
6.7910 14.2431 2.0994
6.3591 14.6728 2.1095
5.6898 14.5392 2.0416
5.2524 14.9871 2.0581
4.9762 16.0207 2.1543
4.4387 16.3405 2.1543
3.8857 16.6466 2.1543
3.3174 16.9381 2.1543
2.7043 17.0283 2.1311
2.1123 17.2855 2.1311
1.5057 17.5259 2.1311
0.8848 17.7488 2.1311
0.2500 17.9535 2.1311
-0.3983 18.1389 2.1311
-1.0597 18.3044 2.1311
-1.8177 19.3429 2.2343
-2.5371 19.4717 2.2343
-3.2684 19.5768 2.2343
-4.0110 19.6573 2.2343
-4.7641 19.7123 2.2343
-5.5268 19.7408 2.2343
-6.2983 19.7419 2.2343
-7.0775 19.7148 2.2343
-7.8632 19.6585 2.2343
-8.6545 19.5723 2.2343
-9.4498 19.4553 2.2343
-9.7752 18.4160 2.1312
-9.6308 16.6731 1.9478
-11.3005 18.0396 2.1312
-12.0614 17.8038 2.1312
-12.8190 17.5355 2.1312
-13.6551 17.3402 2.1443
-13.7783 16.2632 2.0509
-13.4743 14.7962 1.9075
-13.5592 13.8586 1.8310
-13.7917 13.1219 1.7818
-14.6246 12.9494 1.8125
-15.5032 12.7673 1.8479
-16.3944 12.5442 1.8840
-17.3068 12.2860 1.9220
-17.0888 11.2338 1.8382
-10.1149 6.1425 1.0562
-10.7180 5.9947 1.0887
-10.7521 5.5183 1.0647
-6.7930 3.1846 0.6571
-15.0184 6.3958 1.4218
-10.4398 4.0111 0.9692
-9.1060 3.1295 0.8307
-9.8347 2.9911 0.8831
-14.4902 3.8465 1.2833
-14.3706 3.2692 1.2576
-14.2549 2.7105 1.2349
-14.1425 2.1681 1.2150
-14.0331 1.6400 1.1978
-13.9309 1.1247 1.1835
-13.8276 0.6196 1.1714
-13.7189 0.1235 1.1609
-13.6177 -0.3648 1.1532
-13.5178 -0.8468 1.1476
-14.7328 -1.4536 1.2562
-22.1285 -2.9859 1.8983
-24.6457 -4.2282 2.1311
-24.4068 -5.0922 2.1311
-24.1262 -5.9417 2.1311
-24.9584 -7.1027 2.2343
-24.5804 -7.9562 2.2343
-24.1629 -8.7879 2.2343
-23.7076 -9.5960 2.2343
-23.2161 -10.3787 2.2343
-22.6905 -11.1343 2.2343
-22.1327 -11.8614 2.2343
-21.5446 -12.5586 2.2343
-20.9285 -13.2249 2.2343
-20.2865 -13.8592 2.2343
-18.7907 -13.8490 2.1398
-18.0595 -14.3351 2.1312
-17.3849 -14.8443 2.1312
-16.6939 -15.3207 2.1311
-15.9883 -15.7640 2.1311
-15.2702 -16.1741 2.1311
-14.5414 -16.5511 2.1311
-13.7211 -16.7937 2.1183
-12.5644 -16.5540 2.0503
-11.4989 -16.3332 1.9907
-10.5118 -16.1287 1.9384
-9.5925 -15.9382 1.8925
-8.8180 -15.9150 1.8706
-8.0009 -15.7457 1.8351
-7.2293 -15.5859 1.8043
-6.5470 -15.5516 1.7911
-6.2882 -16.5736 1.9020
-6.0337 -17.8016 2.0387
-5.5757 -18.6205 2.1311
-4.8522 -18.6068 2.1311
-4.1373 -18.5681 2.1311
-3.4320 -18.5050 2.1312
-2.7369 -18.4186 2.1312
-2.0528 -18.3095 2.1312
-1.4469 -19.0579 2.2343
-0.7544 -18.8987 2.2343
-0.0752 -15.7061 2.2343
0.4842 -15.5633 2.2343
1.0335 -15.4032 2.2343
1.5723 -15.2264 2.2343
2.1002 -15.0337 2.2343
2.6170 -14.8256 2.2343
3.1222 -14.6027 2.2343
3.6157 -14.3656 2.2343
4.0971 -14.1148 2.2343
4.5662 -13.8510 2.2343
5.0229 -13.5747 2.2343
5.2347 -12.7221 2.1394
5.6260 -12.3876 2.1312
6.0250 -12.0914 2.1312
6.4116 -11.7853 2.1312
6.7857 -11.4697 2.1312
7.1472 -11.1451 2.1312
7.4960 -10.8119 2.1312
7.8321 -10.4707 2.1312
8.1554 -10.1217 2.1312
8.4660 -9.7654 2.1312
8.8587 -9.5042 2.1543
8.8210 -8.8053 2.0776
9.0509 -8.4060 2.0695
9.6838 -8.3646 2.1543
9.9329 -7.9732 2.1543
10.1690 -7.5767 2.1543
10.3921 -7.1753 2.1543
10.6023 -6.7693 2.1543
10.7995 -6.3592 2.1543
10.9839 -5.9450 2.1543
11.1553 -5.5273 2.1543
11.3138 -5.1062 2.1543
11.4595 -4.6821 2.1543
11.5923 -4.2551 2.1543
11.7122 -3.8256 2.1543
11.8193 -3.3938 2.1543
11.9136 -2.9601 2.1543
11.9951 -2.5246 2.1543
12.0638 -2.0876 2.1543
12.1198 -1.6493 2.1543
12.1629 -1.2100 2.1543
11.4754 -0.7246 2.0275
12.2108 -0.3293 2.1543
11.3039 0.1033 1.9935
11.2200 0.5079 1.9800
11.1372 0.9078 1.9688
11.0551 1.3042 1.9597
10.9735 1.6980 1.9527
10.8922 2.0904 1.9477
11.9754 2.7497 2.1543
11.8904 3.1859 2.1543
10.6480 3.2691 1.9452
10.5657 3.6659 1.9485
10.4828 4.0664 1.9539
11.4212 4.9114 2.1543
11.2715 5.3366 2.1543
10.2268 5.3016 1.9833
10.1383 5.7287 1.9977
10.0478 6.1657 2.0147
10.4382 6.9354 2.1331
9.3491 6.7098 1.9503
8.4236 6.5180 1.7970
8.3215 6.9324 1.8186
8.2291 7.3736 1.8461
8.1328 7.8335 1.8769
8.0321 8.3146 1.9112
7.9264 8.8197 1.9493
7.8149 9.3521 1.9918
7.6970 9.9156 2.0391
7.5716 10.5145 2.0917
7.4377 11.1541 2.1504
7.0914 11.5115 2.1543
6.7184 11.8396 2.1543
6.3324 12.1583 2.1543
5.7000 11.9766 2.0695
5.4251 12.5420 2.1165
4.9363 12.6407 2.0861
4.6608 13.3302 2.1543
4.2116 13.5948 2.1543
3.7502 13.8470 2.1543
3.2417 13.9351 2.1312
2.7617 14.1583 2.1312
2.2704 14.3675 2.1312
1.7681 14.5620 2.1312
1.2550 14.7414 2.1312
0.7315 14.9050 2.1312
0.1980 15.0521 2.1312
-0.3451 15.1811 2.1311
-0.9407 16.0346 2.2343
-1.5286 16.1334 2.2343
-2.1250 16.2124 2.2343
-2.7292 16.2709 2.2343
-3.3405 16.3085 2.2343
-3.9582 16.3243 2.2343
-4.5815 16.3178 2.2343
-5.2097 16.2885 2.2343
-5.8417 16.2357 2.2343
-6.4768 16.1589 2.2343
-7.1138 16.0577 2.2343
-7.7518 15.9315 2.2343
-8.3896 15.7798 2.2343
-9.0262 15.6025 2.2343
-9.2145 14.6885 2.1312
-9.8157 14.4692 2.1312
-10.4121 14.2246 2.1312
-11.0024 13.9544 2.1312
-11.5853 13.6586 2.1312
-12.1594 13.3372 2.1312
-12.8016 13.0701 2.1443
-13.3575 12.6956 2.1443
-13.9003 12.2957 2.1443
-14.4288 11.8709 2.1443
-14.9412 11.4214 2.1443
-15.4363 10.9480 2.1443
-15.9126 10.4511 2.1443
-10.1215 6.1412 1.3259
-10.7168 5.9889 1.3676
-10.7510 5.5131 1.3392
-6.7890 3.1802 0.8271
-15.0173 6.3902 1.7926
-10.4391 4.0076 1.2233
-9.1086 3.1280 1.0498
-9.8391 2.9902 1.1173
-14.4896 3.8434 1.6240
-14.3701 3.2667 1.5925
-14.2544 2.7085 1.5646
-14.1422 2.1666 1.5402
-14.0328 1.6389 1.5189
-13.9261 1.1237 1.5007
-13.8215 0.6191 1.4853
-13.7189 0.1236 1.4727
-13.6178 -0.3643 1.4628
-13.5180 -0.8460 1.4555
-14.7205 -1.4510 1.5913
-19.6014 -2.6426 2.1311
-19.4567 -3.3351 2.1311
-19.2801 -4.0191 2.1311
-19.0722 -4.6930 2.1311
-18.8337 -5.3552 2.1311
-19.4651 -6.2951 2.2343
-19.1538 -6.9601 2.2343
-18.8135 -7.6084 2.2343
-18.4454 -8.2386 2.2343
-18.0505 -8.8495 2.2343
-17.6304 -9.4399 2.2343
-17.1863 -10.0088 2.2343
-16.7195 -10.5553 2.2343
-16.2317 -11.0784 2.2343
-15.7241 -11.5775 2.2343
-15.1984 -12.0519 2.2343
-14.6559 -12.5011 2.2343
-14.0184 -12.8516 2.2217
-12.9026 -12.7075 2.1312
-12.3457 -13.0615 2.1312
-11.7784 -13.3903 2.1312
-11.2022 -13.6938 2.1312
-10.6184 -13.9720 2.1312
-10.0283 -14.2250 2.1311
-9.4331 -14.4528 2.1311
-8.8340 -14.6558 2.1311
-8.2323 -14.8342 2.1311
-7.6291 -14.9882 2.1311
-7.0253 -15.1181 2.1311
-6.4222 -15.2245 2.1311
-5.8208 -15.3081 2.1311
-5.2218 -15.3690 2.1311
-4.6261 -15.4075 2.1312
-4.0347 -15.4243 2.1312
-3.4482 -15.4201 2.1312
-2.8737 -15.4289 2.1359
-2.4039 -16.0926 2.2343
-1.8092 -16.0250 2.2343
-1.2224 -15.9376 2.2343
-0.6443 -15.8311 2.2343
-0.0753 -13.5168 2.2343
0.4067 -13.4097 2.2343
0.8811 -13.2871 2.2343
1.3475 -13.1496 2.2343
1.8056 -12.9977 2.2343
2.2549 -12.8317 2.2343
2.6952 -12.6523 2.2343
3.1260 -12.4598 2.2343
3.5473 -12.2548 2.2343
3.9586 -12.0377 2.2343
4.3597 -11.8090 2.2343
4.7505 -11.5691 2.2343
4.8941 -10.7962 2.1312
5.2465 -10.5474 2.1312
5.5886 -10.2891 2.1312
5.9202 -10.0219 2.1312
6.2411 -9.7461 2.1312
6.5513 -9.4621 2.1312
6.8505 -9.1703 2.1312
7.1389 -8.8710 2.1312
7.4162 -8.5646 2.1312
7.6825 -8.2515 2.1312
7.9376 -7.9320 2.1312
8.2322 -7.6537 2.1444
8.1705 -7.0646 2.0695
8.6903 -6.9827 2.1448
8.5894 -6.4059 2.0695
9.1422 -6.3181 2.1543
9.3316 -5.9634 2.1543
9.5094 -5.6044 2.1543
9.6757 -5.2415 2.1543
9.8305 -4.8750 2.1543
9.9737 -4.5051 2.1543
10.1054 -4.1322 2.1543
10.2255 -3.7564 2.1543
10.3340 -3.3781 2.1543
10.4309 -2.9975 2.1543
10.5163 -2.6149 2.1543
10.5900 -2.2305 2.1543
10.6522 -1.8446 2.1543
10.7028 -1.4575 2.1543
10.7418 -1.0693 2.1543
10.7691 -0.6804 2.1543
10.7849 -0.2909 2.1543
10.7891 0.0988 2.1543
10.7816 0.4886 2.1543
10.7625 0.8781 2.1543
10.7318 1.2672 2.1543
10.6894 1.6555 2.1543
10.6354 2.0429 2.1543
10.5698 2.4291 2.1543
10.4925 2.8138 2.1543
10.4035 3.1968 2.1543
10.3029 3.5778 2.1543
10.1906 3.9566 2.1543
10.0667 4.3328 2.1543
9.9311 4.7062 2.1543
9.7838 5.0766 2.1543
9.6248 5.4436 2.1543
9.4542 5.8070 2.1543
9.2719 6.1664 2.1543
9.0780 6.5216 2.1543
8.4120 6.5156 2.0425
8.3202 6.9386 2.0709
8.2277 7.3803 2.1035
8.1313 7.8407 2.1399
7.9344 8.2227 2.1543
7.6711 8.5456 2.1543
7.3963 8.8620 2.1543
7.1102 9.1714 2.1543
6.8128 9.4735 2.1543
6.2482 9.3835 2.0695
6.1004 9.9177 2.1251
5.6232 9.9255 2.0695
5.4025 10.3906 2.1116
5.1594 10.8606 2.1543
4.7963 11.1105 2.1543
4.4228 11.3501 2.1543
3.9956 11.4550 2.1312
3.6059 11.6707 2.1312
3.2064 11.8749 2.1312
2.7974 12.0672 2.1312
2.3792 12.2473 2.1312
1.9520 12.4145 2.1312
1.5161 12.5684 2.1312
1.0720 12.7086 2.1312
0.6198 12.8346 2.1312
0.1602 12.9459 2.1312
-0.3066 13.0420 2.1312
-0.8178 13.7573 2.2343
-1.3207 13.8249 2.2343
-1.8295 13.8751 2.2343
-2.3437 13.9075 2.2343
-2.8626 13.9216 2.2343
-3.3856 13.9171 2.2343
-3.9120 13.8934 2.2343
-4.4411 13.8502 2.2343
-4.9721 13.7871 2.2343
-5.5041 13.7038 2.2343
-6.0365 13.5999 2.2343
-6.5682 13.4752 2.2343
-7.0984 13.3294 2.2343
-7.6262 13.1622 2.2343
-8.1505 12.9736 2.2343
-8.3510 12.2933 2.1520
-8.7602 11.9524 2.1311
-9.2446 11.7105 2.1311
-9.7217 11.4480 2.1311
-10.1905 11.1650 2.1311
-10.6499 10.8615 2.1311
-11.0989 10.5378 2.1311
-11.5363 10.1942 2.1311
-12.0355 9.8922 2.1443
-12.4493 9.5075 2.1443
-12.8481 9.1039 2.1443
-13.2311 8.6821 2.1443
-10.1281 6.1398 1.5973
-10.7156 5.9831 1.6477
-10.6957 5.4801 1.6067
-6.7850 3.1757 0.9976
-14.8719 6.3232 2.1443
-10.4384 4.0042 1.4786
-9.1113 3.1265 1.2701
-9.8435 2.9893 1.3527
-14.4890 3.8404 1.9662
-14.3696 3.2642 1.9290
-14.2540 2.7065 1.8959
-14.1419 2.1651 1.8669
-14.0326 1.6378 1.8415
-13.9259 1.1230 1.8197
-13.8215 0.6188 1.8013
-13.7189 0.1237 1.7861
-13.6179 -0.3638 1.7739
-13.5182 -0.8451 1.7648
-14.7081 -1.4484 1.9275
-16.1732 -2.1784 2.1311
-16.0593 -2.7503 2.1311
-15.9200 -3.3158 2.1311
-15.7558 -3.8736 2.1311
-15.5672 -4.4226 2.1311
-16.0989 -5.2019 2.2343
-15.8520 -5.7553 2.2343
-15.5817 -6.2959 2.2343
-15.2888 -6.8227 2.2343
-14.9742 -7.3347 2.2343
-14.6388 -7.8310 2.2343
-14.2835 -8.3106 2.2343
-13.9094 -8.7729 2.2343
-13.5176 -9.2171 2.2343
-13.1091 -9.6426 2.2343
-12.6850 -10.0487 2.2343
-12.2464 -10.4350 2.2343
-11.7945 -10.8011 2.2343
-11.3303 -11.1466 2.2343
-10.8550 -11.4712 2.2343
-10.3696 -11.7746 2.2343
-9.8381 -12.0113 2.2259
-9.0522 -11.8957 2.1578
-8.4554 -11.9775 2.1312
-7.9645 -12.1853 2.1312
-7.4692 -12.3727 2.1312
-6.9703 -12.5398 2.1312
-6.4688 -12.6867 2.1312
-5.9655 -12.8135 2.1312
-5.4613 -12.9206 2.1311
-4.9572 -13.0082 2.1311
-4.5168 -13.2617 2.1612
-4.1107 -13.6537 2.2166
-3.6198 -13.7956 2.2343
-3.0991 -13.8094 2.2343
-2.5821 -13.8046 2.2343
-2.0696 -13.7817 2.2343
-1.5621 -13.7410 2.2343
-1.0602 -13.6829 2.2343
-0.5644 -13.6081 2.2343
-0.0753 -11.8524 2.2343
0.3477 -11.7690 2.2343
0.7648 -11.6717 2.2343
1.1756 -11.5610 2.2343
1.5798 -11.4371 2.2343
1.9769 -11.3005 2.2343
2.3666 -11.1516 2.2343
2.7486 -10.9908 2.2343
3.1227 -10.8185 2.2343
3.4885 -10.6350 2.2343
3.8459 -10.4407 2.2343
4.1945 -10.2361 2.2343
4.4012 -9.7273 2.1687
4.6404 -9.3451 2.1312
4.9468 -9.1224 2.1312
5.2442 -8.8912 2.1312
5.5325 -8.6520 2.1312
5.8113 -8.4049 2.1312
6.0808 -8.1504 2.1312
6.3407 -7.8888 2.1312
6.5909 -7.6205 2.1312
6.8314 -7.3457 2.1312
7.0620 -7.0648 2.1312
7.2827 -6.7780 2.1312
7.4934 -6.4858 2.1312
7.6941 -6.1883 2.1312
7.8625 -5.8694 2.1252
7.8316 -5.4174 2.0695
8.3152 -5.3187 2.1519
8.2553 -4.8696 2.0957
8.2976 -4.4988 2.0695
8.7784 -4.3569 2.1543
8.9088 -4.0274 2.1543
9.0288 -3.6949 2.1543
9.1382 -3.3596 2.1543
9.2371 -3.0219 2.1543
9.3255 -2.6819 2.1543
9.4034 -2.3399 2.1543
9.4706 -1.9962 2.1543
9.5273 -1.6510 2.1543
9.5734 -1.3046 2.1543
9.6089 -0.9571 2.1543
9.6338 -0.6090 2.1543
9.6481 -0.2603 2.1543
9.6517 0.0886 2.1543
9.6447 0.4375 2.1543
9.6271 0.7862 2.1543
9.5989 1.1345 2.1543
9.5601 1.4819 2.1543
9.5106 1.8285 2.1543
9.4504 2.1738 2.1543
9.3797 2.5176 2.1543
9.2983 2.8597 2.1543
9.2064 3.1998 2.1543
9.1038 3.5377 2.1543
8.9906 3.8731 2.1543
8.8669 4.2057 2.1543
8.7326 4.5353 2.1543
8.5877 4.8616 2.1543
8.4324 5.1843 2.1543
8.2665 5.5031 2.1543
8.0903 5.8178 2.1543
7.9036 6.1280 2.1543
7.7065 6.4334 2.1543
7.4991 6.7339 2.1543
7.2814 7.0289 2.1543
7.0535 7.3183 2.1543
6.8155 7.6017 2.1543
6.5675 7.8788 2.1543
6.0863 7.8609 2.0781
5.8637 8.1649 2.0909
5.7604 8.6634 2.1530
5.4766 8.9171 2.1543
5.1797 9.1575 2.1543
4.8735 9.3895 2.1543
4.5092 9.5096 2.1312
4.1883 9.7214 2.1312
3.8585 9.9237 2.1312
3.5202 10.1163 2.1312
3.1735 10.2987 2.1312
2.8187 10.4706 2.1312
2.4560 10.6316 2.1312
2.0857 10.7812 2.1312
1.7082 10.9192 2.1312
1.3236 11.0450 2.1312
0.9324 11.1585 2.1312
0.5349 11.2591 2.1312
0.1315 11.3464 2.1312
-0.2909 11.9726 2.2343
-0.7249 12.0353 2.2343
-1.1638 12.0831 2.2343
-1.6071 12.1155 2.2343
-2.0541 12.1321 2.2343
-2.5045 12.1328 2.2343
-2.9574 12.1170 2.2343
-3.4125 12.0846 2.2343
-3.8690 12.0353 2.2343
-4.3262 11.9687 2.2343
-4.7834 11.8847 2.2343
-5.2401 11.7831 2.2343
-5.6952 11.6636 2.2343
-6.1483 11.5262 2.2343
-6.5983 11.3706 2.2343
-7.0445 11.1970 2.2343
-7.4862 11.0051 2.2343
-7.9223 10.7950 2.2343
-7.9662 10.0785 2.1311
-8.3692 9.8437 2.1311
-8.7646 9.5917 2.1311
-9.1513 9.3229 2.1311
-9.5286 9.0374 2.1311
-9.8957 8.7355 2.1311
-10.2516 8.4176 2.1311
-10.5954 8.0840 2.1311
-10.9265 7.7351 2.1311
-11.2439 7.3715 2.1311
-11.6187 7.0372 2.1443
-10.7776 6.0125 1.9407
-12.1817 6.2362 2.1443
-6.7840 3.1726 1.1695
-10.3805 4.4100 1.7558
-12.8984 4.9439 2.1443
-9.1139 3.1250 1.4918
-9.8480 2.9883 1.5897
-13.4464 3.5614 2.1443
-13.5892 3.0846 2.1443
-13.7111 2.6015 2.1443
-13.8120 2.1131 2.1443
-13.8916 1.6203 2.1443
-13.9258 1.1223 2.1407
-13.8214 0.6185 2.1191
-13.7189 0.1238 2.1013
-13.6180 -0.3634 2.0869
-13.5183 -0.8443 2.0760
-13.8259 -1.3603 2.1311
-13.7536 -1.8509 2.1311
-13.6600 -2.3374 2.1311
-13.5455 -2.8188 2.1311
-13.4103 -3.2941 2.1311
-13.2549 -3.7624 2.1311
-13.2370 -4.2735 2.1567
-13.5097 -4.9006 2.2343
-13.2863 -5.3637 2.2343
-13.0438 -5.8157 2.2343
-12.7831 -6.2558 2.2343
-12.5048 -6.6833 2.2343
-12.2097 -7.0974 2.2343
-11.8984 -7.4974 2.2343
-11.5720 -7.8828 2.2343
-11.2311 -8.2529 2.2343
-10.8766 -8.6073 2.2343
-10.5094 -8.9455 2.2343
-10.1304 -9.2671 2.2343
-9.7404 -9.5718 2.2343
-9.3404 -9.8592 2.2343
-8.9312 -10.1291 2.2343
-8.5138 -10.3814 2.2343
-8.0889 -10.6158 2.2343
-7.6574 -10.8322 2.2343
-7.2203 -11.0307 2.2343
-6.7784 -11.2112 2.2343
-6.3324 -11.3737 2.2343
-5.8832 -11.5182 2.2343
-5.4316 -11.6450 2.2343
-4.9783 -11.7540 2.2343
-4.5241 -11.8456 2.2343
-4.0697 -11.9198 2.2343
-3.6158 -11.9770 2.2343
-3.1629 -12.0173 2.2343
-2.7119 -12.0410 2.2343
-2.2633 -12.0484 2.2343
-1.8176 -12.0398 2.2343
-1.3755 -12.0156 2.2343
-0.9374 -11.9760 2.2343
-0.5038 -11.9215 2.2343
-0.0753 -10.5430 2.2343
0.3012 -10.4762 2.2343
0.6730 -10.3969 2.2343
1.0397 -10.3053 2.2343
1.4010 -10.2018 2.2343
1.7564 -10.0867 2.2343
2.1057 -9.9602 2.2343
2.4485 -9.8229 2.2343
2.7847 -9.6749 2.2343
3.1138 -9.5166 2.2343
3.4356 -9.3483 2.2343
3.7500 -9.1704 2.2343
4.0567 -8.9832 2.2343
4.1546 -8.3816 2.1312
4.4318 -8.1862 2.1312
4.7012 -7.9829 2.1312
4.9625 -7.7720 2.1312
5.2156 -7.5537 2.1312
5.4604 -7.3285 2.1312
5.6967 -7.0965 2.1312
5.9244 -6.8581 2.1312
6.1434 -6.6135 2.1312
6.3536 -6.3631 2.1312
6.5549 -6.1072 2.1312
6.7473 -5.8460 2.1312
6.9306 -5.5798 2.1312
7.1048 -5.3089 2.1312
7.2698 -5.0336 2.1312
7.4256 -4.7540 2.1312
7.5728 -4.4710 2.1314
7.7508 -4.2061 2.1427
7.9218 -3.9352 2.1543
8.0414 -3.6383 2.1543
8.1514 -3.3386 2.1543
8.2518 -3.0362 2.1543
8.3426 -2.7314 2.1543
8.4238 -2.4244 2.1543
8.4952 -2.1155 2.1543
8.5570 -1.8049 2.1543
8.6090 -1.4929 2.1543
8.6513 -1.1797 2.1543
8.6838 -0.8656 2.1543
8.7066 -0.5507 2.1543
8.7196 -0.2353 2.1543
8.7229 0.0803 2.1543
8.7164 0.3959 2.1543
8.7001 0.7112 2.1543
8.6740 1.0261 2.1543
8.6382 1.3403 2.1543
8.5926 1.6534 2.1543
8.5372 1.9654 2.1543
6.0757 1.6322 1.5450
5.9190 1.8220 1.5185
8.3126 2.8918 2.1543
8.2183 3.1965 2.1543
8.1143 3.4988 2.1543
8.0007 3.7984 2.1543
7.8774 4.0950 2.1543
7.7446 4.3884 2.1543
7.6022 4.6784 2.1543
7.4503 4.9646 2.1543
7.2889 5.2468 2.1543
7.1180 5.5246 2.1543
6.9379 5.7980 2.1543
6.7484 6.0664 2.1543
6.5497 6.3297 2.1543
6.3419 6.5876 2.1543
6.1250 6.8398 2.1543
5.8992 7.0859 2.1543
5.6645 7.3257 2.1543
5.4210 7.5589 2.1543
5.1689 7.7852 2.1543
4.8557 7.9183 2.1312
4.5897 8.1275 2.1312
4.3155 8.3288 2.1312
4.0334 8.5220 2.1312
3.7436 8.7068 2.1312
3.4461 8.8828 2.1312
3.1414 9.0497 2.1312
2.8294 9.2072 2.1312
2.5106 9.3550 2.1312
2.1851 9.4926 2.1312
1.8533 9.6199 2.1312
1.5153 9.7365 2.1312
1.1716 9.8420 2.1312
0.8224 9.9362 2.1312
0.4680 10.0187 2.1312
0.1142 10.5773 2.2343
-0.2669 10.6385 2.2343
-0.6521 10.6864 2.2343
-1.0411 10.7209 2.2343
-1.4334 10.7417 2.2343
-1.8284 10.7484 2.2343
-2.2258 10.7409 2.2343
-2.6249 10.7189 2.2343
-3.0252 10.6821 2.2343
-3.4261 10.6304 2.2343
-3.8271 10.5636 2.2343
-4.2276 10.4816 2.2343
-4.6268 10.3841 2.2343
-5.0242 10.2711 2.2343
-5.4192 10.1425 2.2343
-5.8109 9.9982 2.2343
-6.1988 9.8383 2.2343
-6.5821 9.6627 2.2343
-6.9601 9.4715 2.2343
-7.3321 9.2648 2.2343
-7.6717 9.0125 2.2269
-7.6829 8.3983 2.1311
-8.0163 8.1576 2.1311
-8.3411 7.9027 2.1311
-8.6567 7.6339 2.1311
-8.9623 7.3517 2.1311
-9.2573 7.0562 2.1311
-9.5410 6.7479 2.1311
-9.8127 6.4273 2.1311
-10.0717 6.0948 2.1311
-10.3175 5.7508 2.1311
-10.5494 5.3961 2.1311
-6.7837 3.1698 1.3427
-11.0377 4.6854 2.1443
-11.2259 4.2994 2.1443
-9.1166 3.1235 1.7151
-9.8525 2.9874 1.8286
-11.6921 3.0944 2.1443
-11.8134 2.6796 2.1443
-11.9171 2.2595 2.1443
-12.0029 1.8350 2.1443
-12.0705 1.4070 2.1443
-12.1198 0.9762 2.1443
-12.1507 0.5435 2.1443
-12.1630 0.1098 2.1443
-12.0816 -0.3219 2.1311
-12.0571 -0.7522 2.1311
-12.0142 -1.1809 2.1311
-11.9530 -1.6071 2.1311
-11.8738 -2.0299 2.1311
-11.7768 -2.4486 2.1311
-11.6623 -2.8622 2.1311
-11.5305 -3.2701 2.1311
-11.3818 -3.6713 2.1311
-11.7601 -4.2622 2.2343
-11.5702 -4.6668 2.2343
-11.3639 -5.0621 2.2343
-11.1418 -5.4477 2.2343
-10.9046 -5.8226 2.2343
-10.6526 -6.1865 2.2343
-10.3868 -6.5386 2.2343
-10.1075 -6.8785 2.2343
-9.8156 -7.2056 2.2343
-9.5117 -7.5195 2.2343
-9.1965 -7.8198 2.2343
-8.8708 -8.1061 2.2343
-8.5352 -8.3780 2.2343
-8.1905 -8.6354 2.2343
-7.8374 -8.8779 2.2343
-7.4767 -9.1053 2.2343
-7.1090 -9.3175 2.2343
-6.7351 -9.5144 2.2343
-6.3558 -9.6958 2.2343
-5.9716 -9.8617 2.2343
-5.5835 -10.0120 2.2343
-5.1919 -10.1469 2.2343
-4.7976 -10.2663 2.2343
-4.4012 -10.3703 2.2343
-4.0035 -10.4590 2.2343
-3.6049 -10.5325 2.2343
-3.2062 -10.5910 2.2343
-2.8078 -10.6347 2.2343
-2.4104 -10.6637 2.2343
-2.0145 -10.6783 2.2343
-1.6207 -10.6786 2.2343
-1.2294 -10.6650 2.2343
-0.8411 -10.6377 2.2343
-0.4562 -10.5969 2.2343
-0.0754 -9.4851 2.2343
0.2636 -9.4304 2.2343
0.5987 -9.3643 2.2343
0.9296 -9.2870 2.2343
1.2558 -9.1987 2.2343
1.5772 -9.0998 2.2343
1.8933 -8.9905 2.2343
2.2040 -8.8711 2.2343
2.5089 -8.7419 2.2343
2.8077 -8.6032 2.2343
3.1002 -8.4552 2.2343
3.3862 -8.2982 2.2343
3.6655 -8.1326 2.2343
3.9378 -7.9586 2.2343
4.0090 -7.4177 2.1312
4.2550 -7.2365 2.1312
4.4938 -7.0482 2.1312
4.7252 -6.8530 2.1312
4.9492 -6.6512 2.1312
5.1656 -6.4431 2.1312
5.3743 -6.2289 2.1312
5.5752 -6.0088 2.1312
5.7682 -5.7833 2.1312
5.9531 -5.5524 2.1312
6.1298 -5.3165 2.1312
6.2984 -5.0759 2.1312
6.4586 -4.8308 2.1312
6.6105 -4.5814 2.1312
6.7539 -4.3280 2.1312
6.8888 -4.0709 2.1312
7.0152 -3.8103 2.1312
7.1330 -3.5464 2.1312
7.3206 -3.3150 2.1543
7.4221 -3.0424 2.1543
7.2190 -2.6583 2.0695
7.5900 -2.4870 2.1519
7.6648 -2.2077 2.1519
7.6194 -1.8989 2.1209
7.5564 -1.5951 2.0880
7.5357 -1.3077 2.0695
7.5732 -1.0334 2.0695
7.9135 -0.7893 2.1543
7.9345 -0.5021 2.1543
7.9464 -0.2145 2.1543
7.9494 0.0733 2.1543
7.9433 0.3612 2.1543
7.9281 0.6488 2.1543
7.9039 0.9359 2.1543
7.8707 1.2223 2.1543
7.8284 1.5078 2.1543
7.7772 1.7921 2.1543
6.0107 1.6162 1.6780
5.9173 1.8231 1.6669
7.5695 2.6356 2.1543
7.4824 2.9129 2.1543
7.3863 3.1878 2.1543
7.2814 3.4601 2.1543
7.1676 3.7295 2.1543
7.0450 3.9958 2.1543
6.9137 4.2588 2.1543
6.7737 4.5182 2.1543
6.6250 4.7738 2.1543
6.4678 5.0252 2.1543
6.3020 5.2722 2.1543
6.1278 5.5146 2.1543
5.9452 5.7521 2.1543
5.7544 5.9844 2.1543
5.5554 6.2113 2.1543
5.3483 6.4325 2.1543
5.0782 6.5764 2.1312
4.8577 6.7830 2.1312
4.6296 6.9832 2.1312
4.3940 7.1766 2.1312
4.1511 7.3629 2.1312
3.9009 7.5420 2.1312
3.6438 7.7134 2.1312
3.3798 7.8769 2.1312
3.1092 8.0323 2.1312
2.8322 8.1792 2.1312
2.5490 8.3173 2.1312
2.2597 8.4464 2.1312
1.9648 8.5662 2.1312
1.6644 8.6764 2.1312
1.3588 8.7768 2.1312
1.0484 8.8670 2.1312
0.7357 8.9764 2.1383
0.4320 9.4092 2.2241
0.0951 9.5133 2.2343
-0.2475 9.5627 2.2343
-0.5935 9.6002 2.2343
-0.9424 9.6255 2.2343
-1.2939 9.6383 2.2343
-1.6474 9.6386 2.2343
-2.0026 9.6261 2.2343
-2.3589 9.6005 2.2343
-2.7158 9.5618 2.2343
-3.0729 9.5098 2.2343
-3.4296 9.4443 2.2343
-3.7853 9.3653 2.2343
-4.1396 9.2727 2.2343
-4.4919 9.1663 2.2343
-4.8415 9.0461 2.2343
-5.1879 8.9123 2.2343
-5.5305 8.7646 2.2343
-5.8686 8.6033 2.2343
-6.2017 8.4283 2.2343
-6.5292 8.2398 2.2343
-6.8503 8.0378 2.2343
-7.1646 7.8227 2.2343
-7.3553 7.4766 2.1996
-7.4107 7.0137 2.1311
-7.6871 6.7719 2.1311
-7.9545 6.5184 2.1311
-8.2123 6.2536 2.1311
-8.4600 5.9778 2.1311
-8.6971 5.6914 2.1311
-8.9230 5.3948 2.1311
-9.1371 5.0884 2.1311
-9.3391 4.7728 2.1311
-6.7111 3.1332 1.5010
-9.7044 4.1160 2.1311
-9.8670 3.7759 2.1311
-10.0155 3.4287 2.1311
-10.1498 3.0752 2.1311
-10.2694 2.7158 2.1311
-10.3740 2.3513 2.1311
-10.5285 1.9948 2.1443
-10.6030 1.6199 2.1443
-10.6617 1.2419 2.1443
-10.6383 0.8563 2.1311
-10.6650 0.4768 2.1311
-10.6758 0.0965 2.1311
-10.6706 -0.2840 2.1311
-10.6494 -0.6637 2.1311
-10.6124 -1.0422 2.1311
-10.5596 -1.4185 2.1311
-10.4911 -1.7920 2.1311
-10.4072 -2.1619 2.1311
-10.3080 -2.5276 2.1311
-10.1938 -2.8884 2.1311
-10.0649 -3.2437 2.1311
-10.1386 -3.6712 2.1776
-10.2375 -4.1255 2.2343
-10.0583 -4.4765 2.2343
-9.8653 -4.8191 2.2343
-9.6589 -5.1527 2.2343
-9.4396 -5.4768 2.2343
-9.2079 -5.7909 2.2343
-8.9644 -6.0945 2.2343
-8.7096 -6.3872 2.2343
-8.4441 -6.6686 2.2343
-8.1685 -6.9382 2.2343
-7.8834 -7.1958 2.2343
-7.5893 -7.4411 2.2343
-7.2869 -7.6737 2.2343
-6.9769 -7.8934 2.2343
-6.6597 -8.1001 2.2343
-6.3361 -8.2935 2.2343
-6.0067 -8.4735 2.2343
-5.6721 -8.6401 2.2343
-5.3328 -8.7930 2.2343
-4.9896 -8.9324 2.2343
-4.6429 -9.0581 2.2343
-4.2935 -9.1702 2.2343
-3.9418 -9.2687 2.2343
-3.5884 -9.3536 2.2343
-3.2339 -9.4251 2.2343
-2.8787 -9.4832 2.2343
-2.5235 -9.5280 2.2343
-2.1687 -9.5598 2.2343
-1.8149 -9.5786 2.2343
-1.4624 -9.5846 2.2343
-1.1118 -9.5781 2.2343
-0.7635 -9.5592 2.2343
-0.4179 -9.5281 2.2343
-0.0754 -8.6118 2.2343
0.2325 -8.5662 2.2343
0.5372 -8.5100 2.2343
0.8383 -8.4437 2.2343
1.1355 -8.3672 2.2343
1.4285 -8.2810 2.2343
1.7170 -8.1851 2.2343
2.0007 -8.0799 2.2343
2.2794 -7.9656 2.2343
2.5528 -7.8424 2.2343
2.8206 -7.7106 2.2343
3.0827 -7.5705 2.2343
3.3388 -7.4222 2.2343
3.5887 -7.2662 2.2343
3.8323 -7.1025 2.2343
3.8815 -6.6117 2.1312
4.1011 -6.4419 2.1312
4.3141 -6.2656 2.1312
4.5204 -6.0831 2.1312
4.7198 -5.8946 2.1312
4.9123 -5.7003 2.1312
5.0976 -5.5005 2.1312
5.2757 -5.2955 2.1312
5.4465 -5.0855 2.1312
5.6098 -4.8707 2.1312
5.7657 -4.6514 2.1312
5.9139 -4.4277 2.1312
6.0544 -4.2001 2.1312
6.1872 -3.9686 2.1312
6.3122 -3.7335 2.1312
6.4292 -3.4951 2.1312
6.5384 -3.2536 2.1312
6.6395 -3.0092 2.1312
6.7326 -2.7621 2.1312
6.8176 -2.5126 2.1312
6.8945 -2.2609 2.1312
7.0387 -2.0290 2.1543
6.9871 -1.7426 2.1201
6.9293 -1.4638 2.0870
6.9140 -1.2008 2.0695
6.9488 -0.9489 2.0695
7.2532 -0.7239 2.1519
7.2726 -0.4605 2.1519
7.2625 -0.1961 2.1456
7.2121 0.0667 2.1300
7.1584 0.3259 2.1158
7.1054 0.5820 2.1042
7.0528 0.8359 2.0951
7.0005 1.0882 2.0885
6.9484 1.3395 2.0843
6.8964 1.5906 2.0825
6.8443 1.8420 2.0831
5.8659 1.8089 1.8017
6.9413 2.4191 2.1543
6.8604 2.6732 2.1543
6.7712 2.9250 2.1543
6.6738 3.1744 2.1543
6.5683 3.4209 2.1543
6.4547 3.6645 2.1543
6.3330 3.9049 2.1543
6.2033 4.1419 2.1543
6.0656 4.3752 2.1543
5.9201 4.6045 2.1543
5.7667 4.8296 2.1543
5.6057 5.0504 2.1543
5.3787 5.2100 2.1312
5.2043 5.4188 2.1312
5.0226 5.6226 2.1312
4.8337 5.8210 2.1312
4.6376 6.0138 2.1312
4.4344 6.2007 2.1312
4.2244 6.3815 2.1312
4.0077 6.5559 2.1312
3.7844 6.7237 2.1312
3.5546 6.8847 2.1312
3.3186 7.0384 2.1312
3.0765 7.1848 2.1312
2.8285 7.3236 2.1312
2.5748 7.4544 2.1312
2.3157 7.5772 2.1312
2.0513 7.6915 2.1312
1.7819 7.7972 2.1312
1.5078 7.8940 2.1312
1.2292 7.9817 2.1312
0.9464 8.0601 2.1312
0.6706 8.2641 2.1667
0.3872 8.5840 2.2343
0.0793 8.6354 2.2343
-0.2316 8.6761 2.2343
-0.5453 8.7058 2.2343
-0.8613 8.7245 2.2343
-1.1793 8.7319 2.2343
-1.4989 8.7279 2.2343
-1.8196 8.7122 2.2343
-2.1410 8.6848 2.2343
-2.4628 8.6455 2.2343
-2.7843 8.5942 2.2343
-3.1051 8.5309 2.2343
-3.4248 8.4553 2.2343
-3.7429 8.3676 2.2343
-4.0588 8.2675 2.2343
-4.3720 8.1553 2.2343
-4.6821 8.0307 2.2343
-4.9885 7.8940 2.2343
-5.2906 7.7451 2.2343
-5.5880 7.5841 2.2343
-5.8800 7.4111 2.2343
-6.1662 7.2263 2.2343
-6.4460 7.0299 2.2343
-6.7189 6.8220 2.2343
-6.9842 6.6028 2.2343
-7.1027 6.2505 2.1915
-7.1442 5.8485 2.1311
-7.3729 5.6088 2.1311
-7.5924 5.3596 2.1311
-7.8024 5.1011 2.1311
-8.0023 4.8337 2.1311
-8.1917 4.5579 2.1311
-8.3703 4.2740 2.1311
-6.7022 3.1264 1.6730
-8.6930 3.6840 2.1311
-8.8365 3.3788 2.1311
-8.9676 3.0675 2.1311
-9.0861 2.7507 2.1311
-9.1915 2.4289 2.1311
-9.2838 2.1027 2.1311
-9.3627 1.7726 2.1311
-9.4279 1.4393 2.1311
-9.4794 1.1035 2.1311
-9.5170 0.7656 2.1311
-9.5406 0.4263 2.1311
-9.5501 0.0864 2.1311
-9.5456 -0.2537 2.1311
-9.5271 -0.5932 2.1311
-9.4946 -0.9315 2.1311
-9.4482 -1.2680 2.1311
-9.3880 -1.6021 2.1311
-9.3142 -1.9331 2.1311
-9.2269 -2.2605 2.1311
-9.1263 -2.5837 2.1311
-9.0128 -2.9020 2.1311
-9.3171 -3.3708 2.2343
-9.1717 -3.6927 2.2343
-9.0136 -4.0079 2.2343
-8.8432 -4.3158 2.2343
-8.6608 -4.6159 2.2343
-8.4670 -4.9078 2.2343
-8.2620 -5.1910 2.2343
-8.0465 -5.4650 2.2343
-7.8208 -5.7295 2.2343
-7.5854 -5.9842 2.2343
-7.3409 -6.2286 2.2343
-7.0877 -6.4624 2.2343
-6.8264 -6.6854 2.2343
-6.5575 -6.8973 2.2343
-6.2815 -7.0979 2.2343
-5.9989 -7.2870 2.2343
-5.7103 -7.4644 2.2343
-5.4163 -7.6299 2.2343
-5.1174 -7.7835 2.2343
-4.8140 -7.9251 2.2343
-4.5068 -8.0546 2.2343
-4.1962 -8.1719 2.2343
-3.8827 -8.2770 2.2343
-3.5670 -8.3700 2.2343
-3.2494 -8.4509 2.2343
-2.9305 -8.5197 2.2343
-2.6107 -8.5764 2.2343
-2.2906 -8.6213 2.2343
-1.9705 -8.6543 2.2343
-1.6509 -8.6756 2.2343
-1.3323 -8.6853 2.2343
-1.0150 -8.6836 2.2343
-0.6995 -8.6707 2.2343
-0.3862 -8.6467 2.2343
-0.0754 -7.8779 2.2343
0.2064 -7.8393 2.2343
0.4854 -7.7910 2.2343
0.7614 -7.7332 2.2343
1.0340 -7.6661 2.2343
1.3030 -7.5899 2.2343
1.5680 -7.5049 2.2343
1.8289 -7.4111 2.2343
2.0853 -7.3089 2.2343
2.3370 -7.1984 2.2343
2.5837 -7.0798 2.2343
2.8254 -6.9535 2.2343
3.0616 -6.8196 2.2343
3.2923 -6.6783 2.2343
3.5173 -6.5300 2.2343
3.6820 -6.2821 2.2019
3.7670 -5.9262 2.1312
3.9642 -5.7656 2.1312
4.1552 -5.5992 2.1312
4.3399 -5.4271 2.1312
4.5183 -5.2496 2.1312
4.6901 -5.0669 2.1312
4.8554 -4.8792 2.1312
5.0139 -4.6867 2.1312
5.1656 -4.4897 2.1312
5.3103 -4.2884 2.1312
5.4481 -4.0831 2.1312
5.5787 -3.8738 2.1312
5.7022 -3.6610 2.1312
5.8184 -3.4447 2.1312
5.9274 -3.2252 2.1312
6.0290 -3.0028 2.1312
6.1231 -2.7775 2.1312
6.2098 -2.5498 2.1312
6.2890 -2.3197 2.1312
6.3606 -2.0875 2.1312
6.4246 -1.8535 2.1312
6.4810 -1.6177 2.1312
6.5298 -1.3805 2.1312
6.5708 -1.1420 2.1312
6.6042 -0.9025 2.1312
6.6299 -0.6621 2.1312
6.7142 -0.4254 2.1525
6.6633 -0.1800 2.1329
6.6133 0.0613 2.1162
6.5640 0.2992 2.1021
6.5153 0.5342 2.0906
6.4671 0.7672 2.0816
6.4224 0.9992 2.0762
6.3785 1.2308 2.0735
6.3323 1.4618 2.0723
6.2837 1.6927 2.0729
5.9191 1.8270 1.9707
6.4027 2.2334 2.1543
6.3273 2.4678 2.1543
6.2442 2.6999 2.1543
6.1535 2.9296 2.1543
6.0552 3.1567 2.1543
5.9493 3.3810 2.1543
5.8360 3.6021 2.1543
5.6541 3.7791 2.1312
5.5274 3.9911 2.1312
5.3936 4.1995 2.1312
5.2526 4.4039 2.1312
5.1046 4.6041 2.1312
4.9496 4.7999 2.1312
4.7878 4.9912 2.1312
4.6193 5.1775 2.1312
4.4441 5.3588 2.1312
4.2623 5.5348 2.1312
4.0742 5.7052 2.1312
3.8799 5.8698 2.1312
3.6794 6.0285 2.1312
3.4729 6.1809 2.1312
3.2607 6.3268 2.1312
3.0428 6.4660 2.1312
2.8194 6.5983 2.1312
2.5908 6.7234 2.1312
2.3570 6.8412 2.1312
2.1184 6.9513 2.1312
1.8752 7.0537 2.1312
1.6275 7.1480 2.1312
1.3757 7.2340 2.1312
1.1199 7.3116 2.1312
0.8621 7.3947 2.1353
0.6266 7.8006 2.2343
0.3478 7.8541 2.2343
0.0661 7.8980 2.2343
-0.2182 7.9320 2.2343
-0.5048 7.9560 2.2343
-0.7933 7.9698 2.2343
-1.0834 7.9733 2.2343
-1.3747 7.9663 2.2343
-1.6668 7.9488 2.2343
-1.9592 7.9205 2.2343
-2.2517 7.8814 2.2343
-2.5438 7.8314 2.2343
-2.8350 7.7705 2.2343
-3.1250 7.6985 2.2343
-3.4132 7.6155 2.2343
-3.6993 7.5215 2.2343
-3.9827 7.4164 2.2343
-4.2630 7.3002 2.2343
-4.5398 7.1731 2.2343
-4.8125 7.0351 2.2343
-5.0807 6.8863 2.2343
-5.3439 6.7267 2.2343
-5.6017 6.5567 2.2343
-5.8535 6.3762 2.2343
-6.0989 6.1855 2.2343
-6.3374 5.9848 2.2343
-6.5685 5.7743 2.2343
-6.7918 5.5543 2.2343
-6.8945 5.2397 2.1985
-6.8800 4.8520 2.1311
-7.0681 4.6167 2.1311
-7.2472 4.3736 2.1311
-7.4167 4.1230 2.1311
-7.5765 3.8653 2.1311
-6.6933 3.1196 1.8462
-7.8651 3.3303 2.1311
-7.9934 3.0539 2.1311
-8.1106 2.7721 2.1311
-8.2164 2.4854 2.1311
-8.3106 2.1944 2.1311
-8.3930 1.8994 2.1311
-8.4634 1.6012 2.1311
-8.5216 1.3000 2.1311
-8.5676 0.9966 2.1311
-8.6012 0.6915 2.1311
-8.6223 0.3851 2.1311
-8.6309 0.0781 2.1311
-8.6270 -0.2289 2.1311
-8.6105 -0.5355 2.1311
-8.5816 -0.8411 2.1311
-8.5403 -1.1451 2.1311
-8.4867 -1.4470 2.1311
-8.4209 -1.7462 2.1311
-8.3431 -2.0422 2.1311
-8.2559 -2.3352 2.1317
-8.5471 -2.7496 2.2343
-8.4289 -3.0467 2.2343
-8.2991 -3.3383 2.2343
-8.1578 -3.6240 2.2343
-8.0055 -3.9033 2.2343
-7.8425 -4.1758 2.2343
-7.6690 -4.4410 2.2343
-7.4855 -4.6985 2.2343
-7.2925 -4.9479 2.2343
-7.0902 -5.1890 2.2343
-6.8791 -5.4212 2.2343
-6.6597 -5.6444 2.2343
-6.4323 -5.8583 2.2343
-6.1975 -6.0625 2.2343
-5.9557 -6.2569 2.2343
-5.7074 -6.4411 2.2343
-5.4529 -6.6151 2.2343
-5.1929 -6.7787 2.2343
-4.9277 -6.9317 2.2343
-4.6578 -7.0740 2.2343
-4.3838 -7.2055 2.2343
-4.1061 -7.3261 2.2343
-3.8251 -7.4358 2.2343
-3.5413 -7.5345 2.2343
-3.2551 -7.6223 2.2343
-2.9671 -7.6991 2.2343
-2.6776 -7.7650 2.2343
-2.3871 -7.8199 2.2343
-2.0961 -7.8641 2.2343
-1.8048 -7.8975 2.2343
-1.5138 -7.9202 2.2343
-1.2234 -7.9323 2.2343
-0.9340 -7.9340 2.2343
-0.6459 -7.9254 2.2343
-0.3596 -7.9066 2.2343
-0.0754 -7.2519 2.2343
0.1841 -7.2188 2.2343
0.4412 -7.1768 2.2343
0.6957 -7.1259 2.2343
0.9472 -7.0664 2.2343
1.1956 -6.9984 2.2343
1.4405 -6.9222 2.2343
1.6816 -6.8378 2.2343
1.9188 -6.7456 2.2343
2.1518 -6.6456 2.2343
2.3803 -6.5381 2.2343
2.6042 -6.4233 2.2343
2.8233 -6.3014 2.2343
3.0373 -6.1725 2.2343
3.2461 -6.0370 2.2343
3.4495 -5.8950 2.2343
3.5321 -5.5651 2.1637
3.6624 -5.3344 2.1312
3.8400 -5.1817 2.1312
4.0119 -5.0236 2.1312
4.1780 -4.8603 2.1312
4.3381 -4.6922 2.1312
4.4920 -4.5193 2.1312
4.6398 -4.3419 2.1312
4.7812 -4.1602 2.1312
4.9162 -3.9744 2.1312
5.0448 -3.7847 2.1312
5.1667 -3.5913 2.1312
5.2820 -3.3945 2.1312
5.3906 -3.1944 2.1312
5.4923 -2.9912 2.1312
5.5873 -2.7853 2.1312
5.6753 -2.5767 2.1312
5.7563 -2.3656 2.1312
5.8303 -2.1524 2.1312
5.8973 -1.9371 2.1312
5.9571 -1.7200 2.1312
6.0099 -1.5013 2.1312
6.0555 -1.2812 2.1312
6.0939 -1.0599 2.1312
6.1251 -0.8376 2.1312
6.1490 -0.6145 2.1312
6.1658 -0.3909 2.1312
6.1753 -0.1668 2.1312
6.1775 0.0574 2.1312
6.1725 0.2816 2.1312
6.1602 0.5056 2.1312
6.1406 0.7292 2.1312
6.1138 0.9521 2.1312
6.0798 1.1742 2.1312
6.0386 1.3953 2.1312
5.9902 1.6151 2.1312
5.9200 1.8290 2.1260
5.8718 2.0502 2.1312
5.8020 2.2650 2.1312
5.7251 2.4778 2.1312
5.6411 2.6883 2.1312
5.5502 2.8963 2.1312
5.4524 3.1016 2.1312
5.3476 3.3040 2.1312
5.2361 3.5033 2.1312
5.1178 3.6993 2.1312
4.9929 3.8917 2.1312
4.8613 4.0804 2.1312
4.7233 4.2651 2.1312
4.5788 4.4456 2.1312
4.4280 4.6217 2.1312
4.2710 4.7933 2.1312
4.1078 4.9600 2.1312
3.9387 5.1216 2.1312
3.7637 5.2780 2.1312
3.5830 5.4290 2.1312
3.3967 5.5743 2.1312
3.2049 5.7136 2.1312
3.0079 5.8469 2.1312
2.8057 5.9739 2.1312
2.5985 6.0944 2.1312
2.3866 6.2082 2.1312
2.1702 6.3150 2.1312
1.9493 6.4147 2.1312
1.7243 6.5072 2.1312
1.4953 6.5921 2.1312
1.2626 6.6693 2.1312
1.0265 6.7386 2.1312
0.8252 7.1289 2.2343
0.5711 7.1845 2.2343
0.3142 7.2314 2.2343
0.0548 7.2693 2.2343
-0.2068 7.2981 2.2343
-0.4704 7.3177 2.2343
-0.7355 7.3278 2.2343
-1.0019 7.3285 2.2343
-1.2692 7.3195 2.2343
-1.5370 7.3008 2.2343
-1.8051 7.2723 2.2343
-2.0729 7.2339 2.2343
-2.3402 7.1855 2.2343
-2.6065 7.1271 2.2343
-2.8715 7.0586 2.2343
-3.1347 6.9801 2.2343
-3.3957 6.8916 2.2343
-3.6542 6.7930 2.2343
-3.9097 6.6844 2.2343
-4.1618 6.5659 2.2343
-4.4100 6.4374 2.2343
-4.6540 6.2993 2.2343
-4.8933 6.1514 2.2343
-5.1274 5.9941 2.2343
-5.3560 5.8273 2.2343
-5.5787 5.6514 2.2343
-5.7950 5.4665 2.2343
-6.0045 5.2729 2.2343
-6.2068 5.0707 2.2343
-6.4016 4.8602 2.2343
-6.5884 4.6418 2.2343
-6.7263 4.3892 2.2209
-6.6614 4.0164 2.1457
-6.7693 3.7597 2.1311
-6.9137 3.5240 2.1311
-6.6843 3.1127 2.0209
-7.1743 3.0352 2.1311
-7.2901 2.7829 2.1311
-7.3958 2.5258 2.1311
-7.4913 2.2643 2.1311
-7.5763 1.9989 2.1311
-7.6506 1.7301 2.1311
-7.7141 1.4583 2.1311
-7.7667 1.1840 2.1311
-7.8082 0.9077 2.1311
-7.8385 0.6298 2.1311
-7.8575 0.3508 2.1311
-7.8654 0.0713 2.1311
-7.8619 -0.2083 2.1311
-7.8471 -0.4875 2.1311
-7.8211 -0.7658 2.1311
-7.7840 -1.0427 2.1311
-7.7357 -1.3177 2.1311
-7.6764 -1.5903 2.1311
-7.7794 -1.9025 2.1795
-7.8902 -2.2297 2.2343
-7.7944 -2.5052 2.2343
-7.6879 -2.7763 2.2343
-7.5708 -3.0425 2.2343
-7.4433 -3.3035 2.2343
-7.3058 -3.5588 2.2343
-7.1586 -3.8080 2.2343
-7.0019 -4.0507 2.2343
-6.8361 -4.2865 2.2343
-6.6615 -4.5152 2.2343
-6.4785 -4.7363 2.2343
-6.2874 -4.9496 2.2343
-6.0887 -5.1548 2.2343
-5.8826 -5.3516 2.2343
-5.6697 -5.5397 2.2343
-5.4503 -5.7190 2.2343
-5.2249 -5.8892 2.2343
-4.9937 -6.0502 2.2343
-4.7574 -6.2017 2.2343
-4.5162 -6.3437 2.2343
-4.2706 -6.4761 2.2343
-4.0210 -6.5986 2.2343
-3.7679 -6.7113 2.2343
-3.5116 -6.8141 2.2343
-3.2527 -6.9070 2.2343
-2.9914 -6.9899 2.2343
-2.7282 -7.0627 2.2343
-2.4634 -7.1256 2.2343
-2.1976 -7.1786 2.2343
-1.9310 -7.2216 2.2343
-1.6641 -7.2548 2.2343
-1.3972 -7.2782 2.2343
-1.1307 -7.2920 2.2343
-0.8650 -7.2961 2.2343
-0.6003 -7.2907 2.2343
-0.3370 -7.2759 2.2343
-0.0754 -6.7112 2.2343
0.1648 -6.6825 2.2343
0.4030 -6.6455 2.2343
0.6388 -6.6003 2.2343
0.8721 -6.5470 2.2343
1.1025 -6.4859 2.2343
1.3298 -6.4170 2.2343
1.5538 -6.3405 2.2343
1.7742 -6.2566 2.2343
1.9909 -6.1655 2.2343
2.2035 -6.0673 2.2343
2.4119 -5.9623 2.2343
2.6159 -5.8506 2.2343
2.8154 -5.7323 2.2343
3.0100 -5.6078 2.2343
3.1997 -5.4771 2.2343
3.3843 -5.3406 2.2343
3.4169 -4.9842 2.1423
3.5651 -4.8175 2.1312
3.7257 -4.6714 2.1312
3.8809 -4.5205 2.1312
4.0305 -4.3649 2.1312
4.1745 -4.2048 2.1312
4.3127 -4.0404 2.1312
4.4451 -3.8720 2.1312
4.5715 -3.6996 2.1312
4.6918 -3.5235 2.1312
4.8061 -3.3440 2.1312
4.9141 -3.1611 2.1312
5.0158 -2.9752 2.1312
5.1112 -2.7863 2.1312
5.2002 -2.5947 2.1312
5.2827 -2.4006 2.1312
5.3587 -2.2042 2.1312
5.4282 -2.0056 2.1312
5.4910 -1.8051 2.1312
5.5472 -1.6029 2.1312
5.5966 -1.3992 2.1312
5.6394 -1.1941 2.1312
5.6754 -0.9879 2.1312
5.7047 -0.7807 2.1312
5.7272 -0.5728 2.1312
5.7429 -0.3643 2.1312
5.7518 -0.1554 2.1312
5.7538 0.0536 2.1312
5.7491 0.2626 2.1312
5.7375 0.4714 2.1312
5.7191 0.6798 2.1312
5.6939 0.8876 2.1312
5.6620 1.0946 2.1312
5.6232 1.3005 2.1312
5.5777 1.5053 2.1312
5.5255 1.7087 2.1312
5.4666 1.9105 2.1312
5.4011 2.1105 2.1312
5.3289 2.3085 2.1312
5.2501 2.5044 2.1312
5.1648 2.6979 2.1312
5.0731 2.8888 2.1312
4.9749 3.0769 2.1312
4.8703 3.2620 2.1312
4.7595 3.4440 2.1312
4.6424 3.6225 2.1312
4.5193 3.7975 2.1312
4.3900 3.9688 2.1312
4.2548 4.1360 2.1312
4.1138 4.2991 2.1312
3.9669 4.4578 2.1312
3.8144 4.6119 2.1312
3.6564 4.7612 2.1312
3.4930 4.9056 2.1312
3.3243 5.0448 2.1312
3.1504 5.1786 2.1312
2.9716 5.3069 2.1312
2.7879 5.4294 2.1312
2.5995 5.5460 2.1312
2.4066 5.6564 2.1312
2.2093 5.7606 2.1312
2.0079 5.8582 2.1312
1.8026 5.9491 2.1312
1.5934 6.0332 2.1312
1.3807 6.1103 2.1312
1.1647 6.1801 2.1312
0.9914 6.5446 2.2343
0.7586 6.6022 2.2343
0.5232 6.6519 2.2343
0.2852 6.6933 2.2343
0.0451 6.7264 2.2343
-0.1970 6.7511 2.2343
-0.4407 6.7672 2.2343
-0.6857 6.7745 2.2343
-0.9317 6.7731 2.2343
-1.1784 6.7628 2.2343
-1.4254 6.7435 2.2343
-1.6725 6.7151 2.2343
-1.9193 6.6776 2.2343
-2.1654 6.6309 2.2343
-2.4104 6.5751 2.2343
-2.6541 6.5100 2.2343
-2.8960 6.4357 2.2343
-3.1358 6.3522 2.2343
-3.3731 6.2595 2.2343
-3.6076 6.1577 2.2343
-3.8387 6.0468 2.2343
-4.0662 5.9269 2.2343
-4.2897 5.7981 2.2343
-4.5087 5.6606 2.2343
-4.7230 5.5143 2.2343
-4.9321 5.3596 2.2343
-5.1356 5.1965 2.2343
-5.3332 5.0253 2.2343
-5.5246 4.8461 2.2343
-5.7093 4.6593 2.2343
-5.8870 4.4650 2.2343
-6.0574 4.2634 2.2343
-6.2200 4.0550 2.2343
-6.3748 3.8399 2.2343
-6.5212 3.6185 2.2343
-6.5217 3.3212 2.1882
-6.4843 3.0169 2.1343
-6.5886 2.7850 2.1311
-6.6940 2.5532 2.1311
-6.7902 2.3170 2.1311
-6.8770 2.0769 2.1311
-6.9544 1.8334 2.1311
-7.0220 1.5867 2.1311
-7.0797 1.3374 2.1311
-7.1275 1.0858 2.1311
-7.1652 0.8323 2.1311
-7.1928 0.5775 2.1311
-7.2102 0.3217 2.1311
-7.2173 0.0655 2.1311
-7.2142 -0.1909 2.1311
-7.2009 -0.4469 2.1311
-7.1773 -0.7021 2.1311
-7.1919 -0.9625 2.1455
-7.3124 -1.2444 2.1949
-7.3873 -1.5290 2.2343
-7.3205 -1.7886 2.2343
-7.2436 -2.0451 2.2343
-7.1566 -2.2980 2.2343
-7.0597 -2.5471 2.2343
-6.9532 -2.7917 2.2343
-6.8373 -3.0316 2.2343
-6.7121 -3.2664 2.2343
-6.5781 -3.4958 2.2343
-6.4354 -3.7193 2.2343
-6.2843 -3.9366 2.2343
-6.1252 -4.1474 2.2343
-5.9583 -4.3514 2.2343
-5.7840 -4.5484 2.2343
-5.6026 -4.7380 2.2343
-5.4145 -4.9200 2.2343
-5.2200 -5.0942 2.2343
-5.0195 -5.2604 2.2343
-4.8133 -5.4184 2.2343
-4.6018 -5.5679 2.2343
-4.3855 -5.7090 2.2343
-4.1645 -5.8413 2.2343
-3.9395 -5.9648 2.2343
-3.7107 -6.0794 2.2343
-3.4784 -6.1851 2.2343
-3.2432 -6.2816 2.2343
-3.0053 -6.3691 2.2343
-2.7651 -6.4474 2.2343
-2.5231 -6.5166 2.2343
-2.2795 -6.5766 2.2343
-2.0347 -6.6275 2.2343
-1.7891 -6.6692 2.2343
-1.5431 -6.7019 2.2343
-1.2969 -6.7255 2.2343
-1.0509 -6.7402 2.2343
-0.8054 -6.7461 2.2343
-0.5608 -6.7431 2.2343
-0.3174 -6.7314 2.2343
-0.0754 -6.2390 2.2343
0.1479 -6.2139 2.2343
0.3695 -6.1811 2.2343
0.5891 -6.1405 2.2343
0.8063 -6.0925 2.2343
1.0210 -6.0371 2.2343
1.2329 -5.9744 2.2343
1.4418 -5.9046 2.2343
1.6475 -5.8278 2.2343
1.8497 -5.7443 2.2343
2.0483 -5.6541 2.2343
2.2431 -5.5574 2.2343
2.4337 -5.4544 2.2343
2.6202 -5.3453 2.2343
2.8023 -5.2303 2.2343
2.9799 -5.1094 2.2343
3.1527 -4.9830 2.2343
3.3207 -4.8512 2.2343
3.3240 -4.4981 2.1319
3.4735 -4.3610 2.1312
3.6190 -4.2209 2.1312
3.7593 -4.0762 2.1312
3.8944 -3.9274 2.1312
4.0241 -3.7744 2.1312
4.1484 -3.6175 2.1312
4.2671 -3.4570 2.1312
4.3801 -3.2929 2.1312
4.4875 -3.1255 2.1312
4.5890 -2.9549 2.1312
4.6846 -2.7814 2.1312
4.7743 -2.6051 2.1312
4.8580 -2.4262 2.1312
4.9356 -2.2449 2.1312
5.0071 -2.0613 2.1312
5.0724 -1.8758 2.1312
5.1315 -1.6884 2.1312
5.1843 -1.4994 2.1312
5.2309 -1.3088 2.1312
5.2711 -1.1170 2.1312
5.3050 -0.9241 2.1312
5.3326 -0.7303 2.1312
5.3537 -0.5358 2.1312
5.3685 -0.3407 2.1312
5.3768 -0.1453 2.1312
5.3787 0.0503 2.1312
5.3742 0.2458 2.1312
5.3633 0.4412 2.1312
5.3460 0.6361 2.1312
5.3222 0.8305 2.1312
5.2921 1.0241 2.1312
5.2556 1.2167 2.1312
5.2128 1.4082 2.1312
5.1636 1.5983 2.1312
5.1081 1.7869 2.1312
5.0464 1.9739 2.1312
4.9785 2.1589 2.1312
4.9044 2.3418 2.1312
4.8241 2.5224 2.1312
4.7378 2.7006 2.1312
4.6455 2.8761 2.1312
4.5472 3.0488 2.1312
4.4430 3.2185 2.1312
4.3331 3.3849 2.1312
4.2174 3.5479 2.1312
4.0960 3.7073 2.1312
3.9691 3.8630 2.1312
3.8367 4.0146 2.1312
3.6989 4.1621 2.1312
3.5559 4.3053 2.1312
3.4078 4.4439 2.1312
3.2547 4.5778 2.1312
3.0966 4.7067 2.1312
2.9338 4.8306 2.1312
2.7664 4.9493 2.1312
2.5945 5.0625 2.1312
2.4184 5.1701 2.1312
0.8315 1.9587 0.7918
2.0537 5.3677 2.1312
1.8656 5.4574 2.1312
1.6739 5.5409 2.1312
1.4787 5.6179 2.1312
1.2804 5.6882 2.1312
1.1312 6.0301 2.2343
0.9172 6.0896 2.2343
0.7004 6.1417 2.2343
0.4813 6.1863 2.2343
0.2599 6.2233 2.2343
0.0366 6.2524 2.2343
