ply
format ascii 1.0
element vertex 2050
property float32 x
property float32 y
property float32 z
end_header
-13.1453 21.1558 -2.4725
-14.2204 21.1540 -2.5352
-14.4670 19.9371 -2.4550
-6.5525 8.3805 -1.0625
-14.5149 17.2512 -2.2568
-15.6037 17.2493 -2.3338
-13.9145 14.3146 -2.0078
-13.9128 13.3216 -1.9422
-13.9113 12.3947 -1.8835
-11.3823 9.4312 -1.4982
-11.3811 8.7612 -1.4597
-11.3921 8.1358 -1.4267
-11.6449 7.7009 -1.4268
-11.8830 7.2594 -1.4273
-12.0996 6.8081 -1.4272
-11.8229 6.1046 -1.3720
-12.4802 5.8868 -1.4271
-13.3097 5.7036 -1.5022
-14.5968 5.6442 -1.6287
-16.3060 5.6413 -1.8013
-18.4087 5.6377 -2.0163
-21.0664 5.6333 -2.2911
-59.2081 13.5760 -6.4026
-23.4848 4.5044 -2.5286
-23.4835 3.6358 -2.5210
-23.4822 2.7768 -2.5167
-23.4809 1.9252 -2.5157
-23.4796 1.0786 -2.5179
-13.7928 0.1380 -1.4824
-13.7919 -0.3573 -1.4875
-13.7911 -0.8534 -1.4946
-13.7903 -1.3517 -1.5036
-13.7894 -1.8535 -1.5146
-13.7885 -2.3602 -1.5276
-13.7877 -2.8730 -1.5427
-13.7868 -3.3935 -1.5601
-13.7859 -3.9233 -1.5797
-13.7850 -4.4640 -1.6017
-13.7840 -5.0173 -1.6263
-13.7831 -5.5853 -1.6536
-13.7821 -6.1700 -1.6838
-13.7811 -6.7737 -1.7171
-43.2114 -23.2020 -5.4994
-42.0451 -24.5607 -5.4744
-41.3743 -26.2060 -5.5205
-38.3518 -26.2679 -5.2531
-31.3993 -23.2056 -4.4231
-30.0038 -23.8873 -4.3551
-6.3853 -5.4696 -0.9570
-28.5971 -26.3349 -4.4349
-25.7736 -25.5055 -4.1455
-24.7384 -26.3061 -4.1370
-23.2123 -26.5319 -4.0467
-22.2311 -27.3327 -4.0521
-21.9663 -29.0822 -4.1993
-16.6869 -23.8264 -3.3574
-15.9015 -24.5362 -3.3802
-14.8022 -24.7448 -3.3387
-14.5021 -26.3481 -3.4874
-12.9020 -25.5755 -3.3261
-11.6737 -25.3685 -3.2466
-11.0333 -26.4394 -3.3345
-10.2093 -27.1730 -3.3821
-9.2365 -27.5527 -3.3890
-8.2991 -28.0651 -3.4160
-7.2627 -28.2570 -3.4079
-11.2891 -51.5392 -6.1669
-13.4703 -74.1547 -8.8139
-5.2897 -73.4794 -8.6235
-2.6571 -73.9345 -8.6610
0.0011 -74.4468 -7.0200
2.6923 -74.8564 -7.0622
5.2657 -73.1254 -6.9104
7.9640 -73.5777 -6.9729
10.7159 -74.0296 -7.0440
13.5319 -74.4957 -7.1253
12.8940 -23.4307 -2.4876
13.2186 -22.1017 -2.3908
14.3774 -22.1889 -2.4495
15.3787 -21.9631 -2.4787
16.9062 -22.3878 -2.5877
18.2944 -22.4977 -2.6683
19.7919 -22.6277 -2.7594
21.4175 -22.7804 -2.8626
23.1879 -22.9527 -2.9791
25.1294 -23.1479 -3.1109
27.2747 -23.3702 -3.2609
29.6650 -23.6248 -3.4327
31.9857 -23.6468 -3.5895
32.5106 -22.2748 -3.5450
2.2904 -1.4512 -0.2431
2.2120 -1.2926 -0.2289
2.2083 -1.1862 -0.2232
2.2458 -1.1044 -0.2221
2.4714 -1.1069 -0.2395
9.2604 -3.7547 -0.8805
9.2339 -3.3631 -0.8627
9.2099 -2.9845 -0.8467
9.1883 -2.6169 -0.8323
9.1690 -2.2589 -0.8195
9.1518 -1.9090 -0.8082
9.1366 -1.5659 -0.7982
9.1233 -1.2283 -0.7895
9.1118 -0.8951 -0.7821
9.1095 -0.5657 -0.7765
9.1088 -0.2379 -0.7720
9.1082 0.0891 -0.7686
9.1076 0.4164 -0.7662
9.1070 0.7447 -0.7647
9.1064 1.0748 -0.7643
9.1058 1.4078 -0.7648
9.1053 1.7444 -0.7664
9.1047 2.0856 -0.7690
9.1041 2.4324 -0.7727
9.1036 2.7859 -0.7775
8.8193 3.0491 -0.7590
7.8825 3.0461 -0.6846
7.5046 3.2141 -0.6588
7.7935 3.6742 -0.6926
7.7929 4.0218 -0.7023
7.7923 4.3824 -0.7132
7.7917 4.7579 -0.7256
7.7910 5.1501 -0.7396
7.7903 5.5613 -0.7553
7.7896 5.9941 -0.7729
7.7888 6.4513 -0.7926
7.7880 6.9365 -0.8147
7.7872 7.4536 -0.8394
7.7271 7.9465 -0.8604
7.4961 8.2839 -0.8646
7.4951 8.9051 -0.8982
8.8122 11.2669 -1.1008
8.7813 12.0978 -1.1474
8.4743 12.6022 -1.1627
8.1352 13.0886 -1.1771
7.5158 13.1196 -1.1523
10.3911 19.7491 -1.6971
10.6210 22.0731 -1.8592
10.9089 24.9218 -2.0611
29.5824 74.7751 -6.0821
28.8240 81.2658 -6.5118
26.8848 85.4059 -6.7526
25.2549 91.5763 -7.1554
-12.4193 45.0385 -3.5236
-11.0115 34.9844 -2.7700
-9.6126 27.1041 -2.1753
-10.7212 27.1022 -2.2083
-11.8616 27.1003 -2.2455
-11.4152 23.7249 -2.0024
-11.4407 21.7450 -1.8728
-12.1199 21.1576 -1.8626
-13.1487 21.1558 -1.9073
-14.2243 21.1540 -1.9569
-14.4670 19.9316 -1.8956
-6.5524 8.3779 -0.8209
-14.5191 17.2512 -1.7453
-15.6084 17.2493 -1.8060
-13.9145 14.3102 -1.5544
-13.9128 13.3173 -1.5047
-13.9821 12.4537 -1.4677
-13.9098 11.5215 -1.4206
-13.9084 10.7028 -1.3851
-13.9071 9.9282 -1.3534
-13.9059 9.1925 -1.3252
-13.9047 8.4909 -1.3000
-13.8571 7.7935 -1.2733
-11.8229 6.1017 -1.0697
-13.9014 6.5538 -1.2405
-13.9004 5.9534 -1.2253
-14.6056 5.6442 -1.2739
-16.4456 5.6858 -1.4213
-18.4224 5.6377 -1.5800
-21.0841 5.6332 -1.7971
-23.4861 5.3799 -1.9922
-23.4848 4.4992 -1.9852
-23.4835 3.6306 -1.9809
-23.4822 2.7717 -1.9793
-23.4809 1.9201 -1.9802
-23.4796 1.0735 -1.9837
-13.7928 0.1350 -1.1689
-13.7919 -0.3603 -1.1740
-13.7911 -0.8564 -1.1805
-13.7903 -1.3547 -1.1886
-13.7894 -1.8566 -1.1983
-13.7885 -2.3632 -1.2096
-13.7877 -2.8761 -1.2226
-13.7868 -3.3966 -1.2373
-13.7859 -3.9264 -1.2538
-13.7850 -4.4671 -1.2723
-13.7840 -5.0205 -1.2928
-13.7831 -5.5885 -1.3154
-13.7821 -6.1732 -1.3404
-13.7811 -6.7770 -1.3679
-13.7800 -7.4024 -1.3981
-13.7789 -8.0524 -1.4312
-41.2855 -26.1602 -4.3973
-37.6119 -25.7709 -4.1150
-36.4386 -26.9397 -4.1025
-30.2543 -24.0950 -3.5119
-6.3850 -5.4711 -0.7657
-29.0865 -26.7941 -3.6114
-25.6838 -25.4243 -3.3091
-24.4436 -26.0003 -3.2761
-23.5715 -26.9500 -3.2950
-22.9098 -28.1748 -3.3499
-21.3654 -28.2941 -3.2780
-24.2445 -34.6266 -3.9166
-16.4495 -25.3881 -2.8086
-15.4605 -25.8517 -2.8020
-15.1162 -27.4704 -2.9219
-14.2496 -28.2535 -2.9537
-11.8553 -25.7689 -2.6518
-10.9767 -26.3096 -2.6689
-11.3609 -30.2446 -3.0286
-10.3706 -30.9425 -3.0628
-8.3678 -28.3034 -2.7729
-13.0148 -50.6477 -4.9175
-11.2738 -51.4797 -4.9596
-13.4672 -74.1521 -7.0973
-10.7986 -74.6169 -7.1038
-7.9102 -73.1015 -6.9307
-5.2939 -73.5496 -6.9524
-2.6591 -73.9976 -6.9821
0.0008 -74.4885 -5.3348
2.6914 -74.8571 -5.3637
5.2650 -73.1366 -5.2487
7.9652 -73.6081 -5.2969
10.7219 -74.0894 -5.3521
13.5443 -74.5821 -5.4147
25.6221 -76.4591 -5.7304
28.0260 -74.6219 -5.6548
31.1139 -74.5879 -5.7225
34.2915 -74.5500 -5.7986
12.1611 -24.1169 -1.9044
12.3254 -22.4030 -1.7986
12.6112 -21.0916 -1.7242
13.7000 -21.1490 -1.7633
14.8495 -21.2131 -1.8068
15.6610 -20.7446 -1.8083
17.3664 -21.3625 -1.9093
18.7480 -21.4406 -1.9688
19.9578 -21.2343 -2.0075
21.8645 -21.6495 -2.1121
23.6316 -21.7753 -2.1976
25.5709 -21.9178 -2.2944
27.1277 -21.6117 -2.3535
30.1063 -22.2656 -2.5305
30.9754 -21.2312 -2.5271
2.2903 -1.4518 -0.1817
2.2120 -1.2932 -0.1709
2.2084 -1.1868 -0.1665
2.2507 -1.1073 -0.1658
2.4701 -1.1069 -0.1780
9.1254 -3.7021 -0.6446
9.1251 -3.3257 -0.6326
9.1249 -2.9590 -0.6216
9.1246 -2.6008 -0.6117
9.1243 -2.2499 -0.6027
9.1240 -1.9052 -0.5947
9.1236 -1.5657 -0.5874
9.1233 -1.2303 -0.5811
9.1229 -0.8982 -0.5755
9.1225 -0.5685 -0.5706
9.1221 -0.2403 -0.5665
9.1216 0.0873 -0.5632
9.1211 0.4150 -0.5606
9.1207 0.7438 -0.5587
9.1201 1.0745 -0.5575
9.1196 1.4079 -0.5571
9.1190 1.7450 -0.5574
9.1184 2.0867 -0.5584
9.1178 2.4340 -0.5602
9.1171 2.7879 -0.5628
8.8134 3.0450 -0.5474
7.8777 3.0424 -0.4931
7.7941 3.3362 -0.4923
8.0381 3.7875 -0.5132
8.0375 4.1460 -0.5196
7.9231 4.4540 -0.5195
7.8126 4.7687 -0.5204
7.8007 5.1545 -0.5289
7.7904 5.5593 -0.5387
7.7896 5.9920 -0.5505
7.7888 6.4492 -0.5638
7.7880 6.9343 -0.5787
7.7872 7.4513 -0.5954
7.7862 8.0050 -0.6143
7.4961 8.2816 -0.6118
8.4804 10.0731 -0.7183
8.8122 11.2639 -0.7771
8.7836 12.0978 -0.8094
8.4743 12.5990 -0.8191
8.3187 13.3805 -0.8471
7.6764 13.3967 -0.8275
9.5193 18.0878 -1.0922
9.6504 20.0512 -1.1857
9.8107 22.4080 -1.3000
10.0118 25.3015 -1.4427
21.8119 61.4825 -3.4514
19.3283 61.3875 -3.3983
16.9340 61.3911 -3.3568
14.5739 61.3415 -3.3184
16.4288 82.1526 -4.4038
14.1345 86.7632 -4.6159
-14.3013 60.2005 -3.2618
-12.4193 45.0276 -2.4666
-10.8929 34.5991 -1.9192
-10.9126 30.7622 -1.7308
-10.8809 27.4991 -1.5719
-11.8645 27.1003 -1.5766
-11.4138 23.7163 -1.4066
-11.4414 21.7410 -1.3169
-12.1228 21.1572 -1.3112
-13.1522 21.1558 -1.3441
-14.2281 21.1540 -1.3804
-14.4669 19.9261 -1.3383
-6.5522 8.3753 -0.5802
-14.5233 17.2512 -1.2354
-15.6130 17.2493 -1.2800
-13.9145 14.3058 -1.1027
-13.9128 13.3131 -1.0688
-13.9821 12.4496 -1.0440
-13.9098 11.5176 -1.0118
-13.9084 10.6989 -0.9880
-13.9071 9.9244 -0.9667
-13.9059 9.1888 -0.9479
-13.9047 8.4873 -0.9312
-13.9108 7.8201 -0.9171
-11.8229 6.0987 -0.7686
-13.9014 6.5504 -0.8926
-13.9004 5.9501 -0.8830
-14.6144 5.6442 -0.9200
-16.4456 5.6820 -1.0274
-18.4361 5.6377 -1.1447
-21.1018 5.6332 -1.3041
-23.4861 5.3747 -1.4467
-23.4848 4.4940 -1.4439
-23.4835 3.6255 -1.4430
-23.4821 2.7666 -1.4440
-23.4808 1.9150 -1.4468
-23.4795 1.0684 -1.4515
-13.7928 0.1320 -0.8566
-13.7919 -0.3633 -0.8616
-13.7911 -0.8594 -0.8676
-13.7902 -1.3577 -0.8748
-13.7894 -1.8596 -0.8832
-13.7885 -2.3662 -0.8928
-13.7877 -2.8791 -0.9036
-8.3044 -2.0478 -0.5516
-8.3039 -2.3669 -0.5597
-13.7850 -4.4702 -0.9441
-13.7840 -5.0237 -0.9605
-13.7831 -5.5917 -0.9786
-13.7821 -6.1765 -0.9984
-13.7811 -6.7803 -1.0201
-13.7800 -7.4058 -1.0438
-13.7789 -8.0558 -1.0697
-40.7345 -25.8214 -3.2462
-37.5155 -25.7146 -3.0743
-36.5689 -27.0458 -3.0870
-37.4341 -29.8233 -3.2613
-6.3846 -5.4726 -0.5752
-29.3741 -27.0676 -2.7423
-29.8289 -29.5365 -2.8923
-24.1569 -25.7027 -2.4386
-27.8061 -31.8006 -2.9301
-23.1722 -28.5053 -2.5561
-23.7629 -31.4774 -2.7524
-24.0573 -34.3681 -2.9360
-16.3963 -25.3124 -2.1163
-15.4108 -25.7748 -2.1126
-16.0765 -29.2226 -2.3519
-20.6670 -40.9872 -3.2440
-20.1486 -43.8055 -3.4145
-10.9209 -26.1817 -2.0127
-11.7324 -31.2405 -2.3716
-10.3113 -30.7722 -2.3100
-9.3486 -31.6274 -2.3507
-12.9073 -50.2396 -3.7016
-11.3624 -51.8946 -3.7949
-13.4792 -74.2329 -5.3942
-10.8085 -74.6992 -5.4001
-7.9094 -73.1074 -5.2637
-5.2941 -73.5640 -5.2813
-2.6594 -74.0152 -5.3043
0.0005 -74.4884 -3.6511
2.6915 -74.8854 -3.6719
5.2553 -73.0214 -3.5857
7.9506 -73.4916 -3.6177
10.7022 -73.9716 -3.6542
13.5194 -74.4629 -3.6954
16.1060 -73.5697 -3.6718
19.2616 -74.9841 -3.7679
22.1592 -74.9792 -3.7976
24.6329 -73.5249 -3.7578
28.3009 -75.3720 -3.8919
31.4122 -75.3215 -3.9342
11.8434 -25.7540 -1.3624
11.7507 -23.3088 -1.2506
11.6635 -21.2054 -1.1554
12.0587 -20.1727 -1.1179
13.0852 -20.2052 -1.1405
14.1656 -20.2415 -1.1656
15.3075 -20.2820 -1.1936
16.5199 -20.3271 -1.2247
17.8131 -20.3774 -1.2593
19.1938 -20.4276 -1.2976
20.6871 -20.4901 -1.3408
22.3058 -20.5603 -1.3892
24.0714 -20.6395 -1.4438
26.0106 -20.7291 -1.5055
28.1563 -20.8311 -1.5756
29.5825 -20.2843 -1.6034
2.2903 -1.4523 -0.1204
2.2120 -1.2938 -0.1130
2.2084 -1.1874 -0.1099
2.2496 -1.1073 -0.1091
2.2667 -1.0164 -0.1073
2.4109 -0.9786 -0.1115
9.1322 -3.3303 -0.4136
9.1318 -2.9633 -0.4053
9.1314 -2.6048 -0.3978
9.1311 -2.2536 -0.3908
9.1307 -1.9086 -0.3845
9.1303 -1.5688 -0.3787
9.1299 -1.2332 -0.3735
9.1295 -0.9008 -0.3687
9.1291 -0.5709 -0.3645
9.1286 -0.2424 -0.3608
9.1282 0.0854 -0.3575
9.1277 0.4134 -0.3547
9.1273 0.7424 -0.3523
9.1268 1.0733 -0.3504
9.1263 1.4069 -0.3490
9.1257 1.7443 -0.3480
9.1251 2.0862 -0.3475
9.1246 2.4338 -0.3474
9.1240 2.7880 -0.3479
8.8597 3.0590 -0.3387
8.2007 3.1652 -0.3148
7.7941 3.3344 -0.3009
8.0381 3.7856 -0.3126
8.0375 4.1441 -0.3154
8.0369 4.5160 -0.3188
8.0362 4.9032 -0.3228
8.0355 5.3076 -0.3275
8.0348 5.7316 -0.3328
8.0341 6.1779 -0.3390
8.0333 6.6493 -0.3461
8.0324 7.1496 -0.3541
8.0315 7.6828 -0.3632
7.9583 8.1795 -0.3702
7.5916 8.3847 -0.3643
8.4805 10.0703 -0.4212
8.5198 10.8871 -0.4393
8.5484 11.7708 -0.4593
8.4743 12.5958 -0.4765
8.4732 13.6257 -0.5007
7.8495 13.6954 -0.4899
9.0907 17.2693 -0.6025
9.0864 18.8750 -0.6436
9.0813 20.7375 -0.6924
9.0678 22.9107 -0.7505
9.1197 25.7010 -0.8275
18.5694 58.9647 -1.8695
16.2646 58.9521 -1.8439
14.0166 58.9841 -1.8231
12.2350 61.1689 -1.8717
-14.7054 90.2580 -2.7441
-17.8446 89.2210 -2.7365
-12.9163 54.3573 -1.6848
-9.4457 34.2386 -1.0743
-9.4385 29.9724 -0.9537
-9.6173 27.1041 -0.8762
-10.7265 27.1022 -0.8917
-11.8675 27.1003 -0.9092
-11.6022 24.1016 -0.8260
-11.5306 21.9050 -0.7684
-12.1956 21.2788 -0.7655
-13.2334 21.2809 -0.7867
-14.3092 21.2689 -0.8097
-14.4669 19.9206 -0.7826
-6.5521 8.3729 -0.3402
-14.5275 17.2512 -0.7267
-15.6176 17.2493 -0.7551
-13.9145 14.3014 -0.6523
-13.9128 13.3088 -0.6342
-13.9820 12.4454 -0.6214
-13.9098 11.5136 -0.6042
-13.9084 10.6951 -0.5919
-13.9071 9.9207 -0.5811
-13.9059 9.1851 -0.5717
-13.9047 8.4838 -0.5635
-13.9182 7.8208 -0.5571
-11.8229 6.0958 -0.4683
-13.9014 6.5471 -0.5457
-13.9004 5.9468 -0.5417
-14.6232 5.6441 -0.5667
-16.4456 5.6782 -0.6346
-18.4497 5.6377 -0.7101
-21.1195 5.6332 -0.8118
-23.4861 5.3695 -0.9028
-23.4848 4.4888 -0.9041
-23.5602 3.6321 -0.9095
-23.4831 2.7615 -0.9102
-23.4808 1.9099 -0.9149
-23.4795 1.0633 -0.9209
-13.7928 0.1290 -0.5452
-13.7919 -0.3662 -0.5500
-13.7911 -0.8624 -0.5556
-13.7916 -1.3609 -0.5620
-13.7965 -1.8635 -0.5693
-13.7948 -2.3703 -0.5771
-9.7895 -2.0464 -0.4157
-9.7889 -2.4160 -0.4225
-9.7550 -2.7827 -0.4284
-9.7263 -3.1563 -0.4352
-9.7010 -3.5378 -0.4428
-9.7004 -3.9376 -0.4523
-9.5420 -4.2785 -0.4551
-9.6989 -4.7742 -0.4738
-9.3129 -5.0073 -0.4666
-13.7789 -8.0592 -0.7092
-43.9507 -27.8713 -2.3272
-39.8771 -27.3436 -2.1758
-50.9683 -37.7088 -2.8706
-38.0596 -30.3320 -2.2166
-6.3843 -5.4741 -0.3852
-29.7114 -27.3869 -1.8612
-38.0022 -37.6410 -2.4767
-40.5466 -43.1538 -2.7558
-35.5303 -40.6457 -2.5247
-25.1216 -30.9117 -1.8714
-23.7379 -31.4527 -1.8595
-26.3867 -37.7054 -2.1808
-23.8578 -36.8405 -2.0881
-17.0141 -28.4633 -1.5834
-16.1037 -29.2789 -1.6011
-20.5930 -40.8501 -2.1991
-30.6070 -73.3934 -3.8445
-12.4113 -33.0557 -1.7113
-10.2661 -30.6439 -1.5699
-16.0910 -54.4492 -2.7635
-12.8938 -50.1976 -2.5270
-16.1238 -73.6562 -3.6820
-13.4564 -74.1219 -3.6833
-10.7902 -74.5873 -3.6885
-7.9080 -73.1077 -3.6017
-5.2933 -73.5642 -3.6142
-2.6584 -73.9933 -3.6292
0.0002 -74.4527 -1.9702
2.6924 -74.9356 -1.9833
5.2587 -73.0885 -1.9363
7.9559 -73.5594 -1.9523
10.7095 -74.0402 -1.9703
13.5287 -74.5324 -1.9904
16.0911 -73.5195 -1.9720
19.2347 -74.8974 -2.0195
22.1283 -74.8925 -2.0319
24.5935 -73.4246 -2.0063
28.2949 -75.3743 -2.0762
11.2663 -27.0215 -0.7511
11.2935 -24.5643 -0.6897
11.3060 -22.4324 -0.6370
11.3118 -20.5713 -0.5914
11.7836 -19.7177 -0.5746
12.7651 -19.7162 -0.5831
13.7932 -19.7147 -0.5926
14.8741 -19.7131 -0.6031
16.0151 -19.7115 -0.6148
17.2245 -19.7098 -0.6277
18.5120 -19.7080 -0.6420
19.8893 -19.7060 -0.6579
21.3698 -19.7040 -0.6757
22.9701 -19.7018 -0.6956
24.7098 -19.6994 -0.7179
26.6133 -19.6968 -0.7430
28.5233 -19.5656 -0.7664
2.2902 -1.4529 -0.0593
2.2120 -1.2943 -0.0553
2.2085 -1.1880 -0.0533
2.2259 -1.0962 -0.0520
2.4118 -1.0820 -0.0546
9.1749 -3.7265 -0.2013
9.1735 -3.3475 -0.1953
9.1721 -2.9785 -0.1898
9.1708 -2.6181 -0.1845
9.1694 -2.2652 -0.1796
9.1682 -1.9185 -0.1749
9.1669 -1.5771 -0.1706
9.1656 -1.2400 -0.1665
9.1643 -0.9063 -0.1626
9.1631 -0.5750 -0.1589
9.1619 -0.2453 -0.1555
9.1606 0.0837 -0.1523
9.1594 0.4128 -0.1493
9.1582 0.7429 -0.1465
9.1569 1.0748 -0.1438
9.1557 1.4095 -0.1413
9.1544 1.7477 -0.1391
9.1531 2.0906 -0.1370
9.1518 2.4390 -0.1350
9.1505 2.7940 -0.1332
9.1491 3.1568 -0.1316
8.1947 3.1610 -0.1167
7.7941 3.3326 -0.1099
8.0381 3.7837 -0.1124
8.0375 4.1422 -0.1117
8.0369 4.5140 -0.1111
8.0362 4.9012 -0.1107
8.0355 5.3056 -0.1104
8.0348 5.7295 -0.1104
8.0341 6.1757 -0.1106
8.0333 6.6471 -0.1111
8.0324 7.1473 -0.1118
8.0315 7.6804 -0.1128
7.9607 8.1795 -0.1131
8.4836 9.3672 -0.1223
8.4811 10.0682 -0.1245
8.4776 10.8304 -0.1272
8.4754 11.6672 -0.1304
8.4744 12.5928 -0.1344
8.4732 13.6223 -0.1391
9.1357 15.9357 -0.1562
9.1333 17.3463 -0.1635
9.1306 18.9625 -0.1724
9.1274 20.8380 -0.1833
9.1237 23.0469 -0.1966
9.1192 25.6941 -0.2131
18.0151 57.1924 -0.4625
15.7999 57.2557 -0.4527
13.6235 57.3179 -0.4444
11.4792 57.3791 -0.4374
14.4252 88.5132 -0.6655
-14.7054 90.2357 -0.6837
-10.9037 54.5042 -0.4194
-12.7833 53.7847 -0.4216
-9.5220 34.5068 -0.2763
-9.4385 29.9652 -0.2457
-9.6196 27.1041 -0.2282
-10.7291 27.1022 -0.2350
-11.9011 27.1704 -0.2433
-11.6005 24.0922 -0.2233
-11.5317 21.9015 -0.2107
-12.1991 21.2794 -0.2129
-13.2370 21.2811 -0.2221
-14.3092 21.2632 -0.2321
-14.4669 19.9152 -0.2279
-6.5528 8.3714 -0.1007
-14.5317 17.2512 -0.2186
-15.6223 17.2493 -0.2309
-13.9145 14.2970 -0.2027
-13.9128 13.3046 -0.2004
-13.9820 12.4413 -0.1996
-13.9098 11.5096 -0.1974
-13.9084 10.6912 -0.1966
-13.9071 9.9170 -0.1962
-13.9059 9.1815 -0.1961
-13.9047 8.4802 -0.1965
-13.9256 7.8215 -0.1975
-11.8229 6.0929 -0.1685
-13.9014 6.5437 -0.1994
-13.9004 5.9435 -0.2010
-14.6320 5.6441 -0.2136
-16.4456 5.6745 -0.2425
-18.4633 5.6377 -0.2755
-21.1371 5.6331 -0.3194
-23.4861 5.3643 -0.3599
-23.4848 4.4837 -0.3652
-23.5933 3.6321 -0.3728
-23.4830 2.7564 -0.3773
-23.4808 1.9048 -0.3840
-23.4795 1.0583 -0.3911
-13.7928 0.1261 -0.2343
-13.7919 -0.3692 -0.2391
-13.7911 -0.8654 -0.2442
-13.7919 -1.3639 -0.2497
-13.9137 -1.8824 -0.2577
-13.7998 -2.3742 -0.2617
-9.7895 -2.0485 -0.1903
-9.7889 -2.4182 -0.1952
-9.7882 -2.7944 -0.2005
-9.7876 -3.1784 -0.2060
-9.7869 -3.5714 -0.2119
-9.7863 -3.9747 -0.2182
-9.7856 -4.3900 -0.2249
-9.7538 -4.8035 -0.2314
-9.3127 -5.0095 -0.2282
-13.7789 -8.0626 -0.3493
-66.8508 -42.4101 -1.7552
-63.7061 -43.6995 -1.7347
-52.3192 -41.7104 -1.5389
-6.3839 -5.4756 -0.1956
-59.0499 -54.4471 -1.8885
-40.4032 -40.0312 -1.3511
-47.1383 -50.1839 -1.6518
-41.3922 -50.9463 -1.6038
-25.8917 -39.9912 -1.1921
-21.2791 -35.6071 -1.0453
-30.1351 -54.8032 -1.5864
-30.5414 -73.2525 -2.0472
-19.1371 -50.9798 -1.4112
-24.8683 -74.2467 -2.0377
-16.5807 -56.1183 -1.5285
-14.1463 -55.0848 -1.4904
-16.1350 -73.7222 -1.9832
-13.4658 -74.1882 -1.9861
-10.7978 -74.6540 -1.9906
-7.9028 -73.0730 -1.9423
-5.2899 -73.5292 -1.9499
-2.6580 -73.9886 -1.9592
-0.0001 -74.4527 -0.2930
2.6916 -74.9354 -0.2941
5.2581 -73.0998 -0.2857
7.9539 -73.5591 -0.2856
10.0136 -69.2460 -0.2667
13.5275 -74.5436 -0.2841
16.0898 -73.5309 -0.2767
19.2669 -75.0405 -0.2782
22.1486 -74.9792 -0.2731
24.6547 -73.6251 -0.2627
28.1603 -75.0340 -0.2615
11.3192 -27.1550 -0.0921
11.3424 -24.6768 -0.0811
11.3627 -22.5505 -0.0715
11.3803 -20.7011 -0.0630
11.8024 -19.7543 -0.0573
12.7853 -19.7526 -0.0542
13.8148 -19.7509 -0.0507
14.8971 -19.7491 -0.0469
16.0395 -19.7471 -0.0428
17.2503 -19.7451 -0.0381
18.5393 -19.7429 -0.0330
19.9179 -19.7406 -0.0274
21.3999 -19.7381 -0.0210
23.0015 -19.7354 -0.0140
24.7427 -19.7325 -0.0061
26.6474 -19.7292 0.0028
29.5685 -20.2904 0.0131
2.2902 -1.4535 0.0018
2.2120 -1.2949 0.0024
2.2085 -1.1885 0.0031
2.2329 -1.1002 0.0039
2.3889 -1.0723 0.0049
9.5525 -3.8821 0.0226
9.5547 -3.4888 0.0256
9.5568 -3.1056 0.0286
9.5588 -2.7311 0.0316
9.5608 -2.3640 0.0346
9.1682 -1.9205 0.0360
9.1669 -1.5791 0.0389
9.1656 -1.2420 0.0418
9.1643 -0.9082 0.0448
9.1631 -0.5770 0.0478
9.1619 -0.2472 0.0509
9.5531 0.0852 0.0563
9.5518 0.4285 0.0597
9.5505 0.7727 0.0631
9.5492 1.1188 0.0666
9.5479 1.4678 0.0702
9.1544 1.7457 0.0708
9.1531 2.0886 0.0745
9.1518 2.4370 0.0783
9.1505 2.7920 0.0822
9.1491 3.1548 0.0863
8.1888 3.1569 0.0811
7.7941 3.3308 0.0810
8.0381 3.7818 0.0876
8.0375 4.1402 0.0920
8.0369 4.5121 0.0965
8.0362 4.8992 0.1013
8.0355 5.3035 0.1064
8.0348 5.7274 0.1118
8.0341 6.1736 0.1176
8.0333 6.6449 0.1237
8.0324 7.1451 0.1303
8.0315 7.6781 0.1375
7.9630 8.1795 0.1440
8.4836 9.3645 0.1623
8.4811 10.0655 0.1719
9.0695 11.5835 0.1953
8.5977 11.8326 0.1971
8.4744 12.5896 0.2074
8.4732 13.6190 0.2221
9.1357 15.9319 0.2575
9.5245 18.0850 0.2898
9.5217 19.7702 0.3144
9.1274 20.8333 0.3290
9.4727 23.9233 0.3754
9.1193 25.6886 0.4009
18.1709 57.6749 0.8955
15.9271 57.7044 0.8919
13.7250 57.7334 0.8889
11.4864 57.4033 0.8808
13.4619 82.5863 1.2636
9.3718 74.1788 1.1322
8.0583 89.5276 1.3640
-14.7053 90.2135 1.3750
-17.8532 89.2210 1.3626
-12.9163 54.3311 0.8319
-9.5220 34.4986 0.5298
-9.4059 29.8545 0.4601
-9.6219 27.1041 0.4195
-10.7317 27.1022 0.4215
-11.9040 27.1704 0.4248
-11.4099 23.6904 0.3726
-11.3574 21.5650 0.3415
-12.0734 21.0547 0.3359
-13.0861 21.0330 0.3383
-14.1428 21.0104 0.3410
-14.4669 19.9097 0.3264
-6.5535 8.3699 0.1387
-14.5359 17.2512 0.2894
-15.6269 17.2493 0.2932
-13.9145 14.2926 0.2465
-13.9128 13.3004 0.2331
-13.9112 12.3742 0.2207
-13.9098 11.5057 0.2092
-13.9084 10.6874 0.1985
-13.9071 9.9132 0.1885
-13.9058 9.1779 0.1791
-13.9047 8.4767 0.1703
-13.9255 7.8180 0.1622
-11.8229 6.0900 0.1310
-13.9014 6.5404 0.1466
-13.9004 5.9402 0.1394
-14.6407 5.6441 0.1397
-16.3601 5.6412 0.1485
-18.4769 5.6376 0.1594
-21.1548 5.6331 0.1733
-23.4861 5.3590 0.1827
-23.4848 4.4785 0.1732
-23.5987 3.6278 0.1649
-23.4829 2.7513 0.1552
-23.4808 1.8997 0.1466
-23.4795 1.0532 0.1382
-13.7927 0.1231 0.0764
-13.7919 -0.3722 0.0716
-13.7911 -0.8683 0.0670
-13.7922 -1.3669 0.0625
-13.9137 -1.8854 0.0585
-13.7995 -2.3771 0.0536
-8.6091 -1.8034 0.0307
-9.7889 -2.4203 0.0319
-9.7882 -2.7966 0.0288
-9.7876 -3.1806 0.0258
-9.7869 -3.5736 0.0227
-9.7862 -3.9770 0.0197
-9.7855 -4.3923 0.0166
-9.7848 -4.8211 0.0135
-9.3085 -5.0094 0.0099
-13.7789 -8.0660 0.0103
-66.9248 -42.4739 0.0279
-52.4150 -41.8011 -0.0318
-6.3836 -5.4771 -0.0062
-36.6586 -72.7528 -0.2439
-35.3439 -76.8945 -0.2655
-30.5429 -73.2723 -0.2595
-27.7040 -73.8178 -0.2672
-24.9047 -74.3713 -0.2743
-22.1099 -74.8479 -0.2805
-18.8115 -73.2663 -0.2783
-6.3256 -28.9081 -0.1111
-13.4450 -74.0885 -0.2872
-10.7974 -74.6655 -0.2914
-7.9014 -73.0732 -0.2866
-5.2899 -73.5406 -0.2893
-2.6558 -73.9356 -0.2912
-0.0004 -74.4526 1.3838
2.6907 -74.9352 1.3947
5.2558 -73.0880 1.3648
7.9527 -73.5670 1.3809
7.4068 -51.2322 0.9686
9.2943 -51.2290 0.9774
11.2064 -51.2258 0.9883
13.1484 -51.2225 1.0012
15.1264 -51.2192 1.0163
17.1464 -51.2157 1.0337
19.2153 -51.2122 1.0535
11.3192 -27.1615 0.5706
11.3424 -24.6828 0.5307
11.3626 -22.5561 0.4973
11.3802 -20.7062 0.4692
11.7994 -19.7543 0.4610
12.7819 -19.7526 0.4757
13.8110 -19.7509 0.4921
15.2147 -20.1757 0.5212
16.0998 -19.8270 0.5323
17.2453 -19.7451 0.5523
18.5337 -19.7429 0.5769
19.9117 -19.7406 0.6042
21.3930 -19.7381 0.6346
23.4905 -20.1617 0.6829
18.6126 -14.8489 0.5317
18.8040 -13.9273 0.5290
16.3770 -11.2425 0.4547
2.2901 -1.4540 0.0629
2.2120 -1.2954 0.0602
2.2086 -1.1891 0.0596
2.2378 -1.1031 0.0601
2.4648 -1.1069 0.0659
9.5525 -3.8843 0.2549
9.5547 -3.4910 0.2548
9.5567 -3.1078 0.2550
9.5588 -2.7332 0.2555
9.5608 -2.3661 0.2564
9.1682 -1.9226 0.2470
9.1669 -1.5811 0.2485
9.1656 -1.2440 0.2502
9.1643 -0.9102 0.2523
9.1631 -0.5789 0.2547
9.1619 -0.2492 0.2574
9.5531 0.0832 0.2715
9.5518 0.4264 0.2750
9.5505 0.7706 0.2789
9.5492 1.1167 0.2831
9.5479 1.4657 0.2878
9.1544 1.7437 0.2808
9.1531 2.0866 0.2860
9.1518 2.4349 0.2916
9.1505 2.7899 0.2977
9.1491 3.1527 0.3043
8.1909 3.1558 0.2789
7.7941 3.3290 0.2719
8.0381 3.7799 0.2878
8.0375 4.1383 0.2956
8.0369 4.5101 0.3041
8.0362 4.8972 0.3133
8.0355 5.3015 0.3233
8.0348 5.7254 0.3341
8.0341 6.1714 0.3458
8.0333 6.6427 0.3586
8.0324 7.1428 0.3725
8.0315 7.6757 0.3878
7.9654 8.1795 0.4013
8.4836 9.3619 0.4469
8.4811 10.0627 0.4685
9.0695 11.5804 0.5267
8.6001 11.8328 0.5268
8.4744 12.5864 0.5493
8.4732 13.6156 0.5835
9.1357 15.9281 0.6712
9.5245 18.0808 0.7503
9.5217 19.7656 0.8088
9.1274 20.8287 0.8414
9.4748 23.9233 0.9553
9.1193 25.6831 1.0150
10.6362 33.7527 1.3216
9.3174 33.7505 1.3108
8.0246 33.7483 1.3014
6.7539 33.7461 1.2934
8.9976 55.1877 2.1046
5.7509 45.5106 1.7285
5.0611 56.2192 2.1287
3.0377 56.3375 2.1287
1.0617 59.1330 2.2318
-1.0625 59.1431 2.2318
-3.1871 59.0963 2.2318
-5.3114 58.9925 2.2318
-7.0913 56.1133 2.1287
-9.1147 55.9027 2.1286
-11.2055 55.9856 2.1418
-12.8794 54.1631 2.0840
-9.4476 34.2208 1.3256
-9.4081 29.8545 1.1656
-9.6242 27.1041 1.0677
-10.7343 27.1022 1.0784
-11.9069 27.1704 1.0933
-11.4086 23.6818 0.9649
-11.4450 21.7259 0.8974
-12.1357 21.1580 0.8872
-13.1656 21.1553 0.9018
-14.2428 21.1533 0.9181
-14.4669 19.9043 0.8809
-6.5541 8.3684 0.3783
-14.5400 17.2511 0.7979
-15.6315 17.2493 0.8178
-13.9145 14.2882 0.6959
-13.9128 13.2961 0.6667
-13.9112 12.3702 0.6401
-13.9098 11.5017 0.6159
-13.9084 10.6836 0.5936
-13.9071 9.9095 0.5732
-13.9058 9.1742 0.5544
-13.9047 8.4731 0.5371
-13.9147 7.8085 0.5216
-11.8229 6.0871 0.4306
-13.9014 6.5370 0.4927
-13.9004 5.9369 0.4800
-14.6496 5.6441 0.4935
-16.3710 5.6412 0.5386
-18.4906 5.6376 0.5950
-21.1725 5.6331 0.6671
-23.4861 5.3538 0.7253
-23.4848 4.4733 0.7118
-23.4834 3.6049 0.6993
-23.4821 2.7461 0.6878
-23.4808 1.8946 0.6772
-23.4795 1.0481 0.6676
-13.7927 0.1201 0.3871
-13.7919 -0.3752 0.3824
-13.7911 -0.8713 0.3783
-13.7926 -1.3699 0.3747
-13.9137 -1.8884 0.3748
-13.7991 -2.3801 0.3690
-8.6000 -1.8034 0.2286
-9.7889 -2.4225 0.2590
-9.7882 -2.7988 0.2581
-9.7876 -3.1828 0.2576
-9.7869 -3.5758 0.2574
-9.7862 -3.9792 0.2576
-9.7855 -4.3946 0.2582
-9.7848 -4.8235 0.2593
-9.3043 -5.0094 0.2479
-13.7789 -8.0694 0.3699
-37.4542 -23.7798 1.0149
-34.5334 -23.7061 0.9463
-77.1081 -57.1094 2.1414
-29.7894 -23.7652 0.8402
-6.3832 -5.4786 0.1833
-61.8708 -57.0838 1.8129
-57.5723 -57.0766 1.7261
-20.6440 -23.6361 0.6537
-46.3690 -57.1028 1.5164
-43.0864 -57.1344 1.4604
-16.5455 -23.6611 0.5836
-36.9609 -57.1167 1.3623
-21.2944 -35.6500 0.8242
-12.9837 -23.6232 0.5306
-28.7512 -57.0730 1.2480
-35.3365 -76.8958 1.6406
-9.9329 -23.8342 0.4972
-9.8609 -26.2801 0.5371
-10.1264 -30.2461 0.6068
-10.1026 -34.2071 0.6751
-14.6447 -57.0492 1.1098
-10.1078 -46.2021 0.8877
-10.1227 -55.7916 1.0608
-10.7938 -74.6547 1.4075
-7.9001 -73.0734 1.3688
-5.2882 -73.5294 1.3711
-2.6536 -73.8822 1.3741
-0.0005 -54.2638 2.2318
1.9459 -54.2122 2.2318
3.7076 -51.5728 2.1285
5.5507 -51.3602 2.1285
7.4050 -51.2322 2.1354
9.2921 -51.2290 2.1510
11.1083 -50.7897 2.1518
12.8967 -50.2539 2.1518
14.6571 -49.6419 2.1518
16.3857 -48.9552 2.1518
18.0791 -48.1955 2.1518
11.3191 -27.1680 1.2342
11.3423 -24.6888 1.1433
11.3626 -22.5616 1.0669
11.3802 -20.7114 1.0020
11.7963 -19.7543 0.9796
12.7785 -19.7527 1.0060
13.8073 -19.7509 1.0353
15.2105 -20.1757 1.0907
16.0998 -19.8327 1.1083
17.2402 -19.7451 1.1432
18.5281 -19.7429 1.1872
19.9055 -19.7406 1.2361
21.3861 -19.7381 1.2906
22.9861 -19.7354 1.3514
24.7253 -19.7325 1.4196
26.6278 -19.7293 1.4964
29.5458 -20.2904 1.6286
2.2901 -1.4546 0.1241
2.2120 -1.2960 0.1180
2.2087 -1.1897 0.1162
2.2452 -1.1073 0.1167
2.4636 -1.1069 0.1268
9.5525 -3.8865 0.4875
9.5547 -3.4932 0.4842
9.5567 -3.1100 0.4816
9.5588 -2.7354 0.4797
9.5608 -2.3682 0.4786
9.1682 -1.9246 0.4583
9.1669 -1.5831 0.4583
9.1656 -1.2460 0.4588
9.1643 -0.9122 0.4600
9.1631 -0.5809 0.4617
9.1619 -0.2512 0.4641
9.5531 0.0811 0.4870
9.5518 0.4243 0.4907
9.5505 0.7685 0.4950
9.5492 1.1147 0.5000
9.5479 1.4636 0.5057
9.1544 1.7417 0.4910
9.1531 2.0845 0.4978
9.1518 2.4329 0.5053
9.1505 2.7879 0.5135
9.1491 3.1506 0.5226
8.1957 3.1558 0.4772
7.7941 3.3272 0.4631
8.0381 3.7780 0.4881
8.0375 4.1364 0.4996
8.0369 4.5082 0.5120
8.0362 4.8952 0.5256
8.0355 5.2994 0.5405
8.0348 5.7233 0.5567
8.0341 6.1693 0.5744
8.0333 6.6405 0.5937
8.0324 7.1405 0.6150
8.0315 7.6734 0.6384
7.9677 8.1795 0.6590
8.4836 9.3592 0.7320
8.4811 10.0600 0.7654
9.0695 11.5773 0.8586
8.6025 11.8330 0.8570
8.4744 12.5833 0.8916
8.4732 13.6123 0.9453
9.1357 15.9243 1.0855
9.1973 17.4556 1.1698
9.1306 18.9495 1.2502
9.1275 20.8240 1.3545
9.1237 23.0317 1.4790
9.1193 25.6775 1.6299
10.6385 33.7527 2.1205
9.3193 33.7505 2.1012
8.0263 33.7483 2.0845
6.7552 33.7461 2.0704
5.6892 34.8890 2.1285
4.4294 35.0458 2.1285
3.1662 35.1644 2.1285
1.9136 35.4840 2.1430
0.6643 36.9985 2.2318
-0.6650 37.0025 2.2318
-1.9942 36.9663 2.2318
-3.3223 36.8900 2.2318
-4.6484 36.7734 2.2318
-5.9716 36.6166 2.2318
-6.9543 34.7374 2.1287
-8.2084 34.5112 2.1287
-9.4457 34.2057 2.1261
-9.4104 29.8544 1.8722
-9.6265 27.1041 1.7170
-10.7369 27.1022 1.7365
-11.8791 27.1003 1.7585
-11.4096 23.6780 1.5581
-11.4452 21.7207 1.4515
-12.1374 21.1554 1.4377
-13.1677 21.1532 1.4642
-14.1475 21.0062 1.4834
-14.1463 19.4579 1.4042
-6.5548 8.3669 0.6181
-14.5442 17.2511 1.3072
-15.6362 17.2493 1.3434
-13.9144 14.2838 1.1458
-13.9128 13.2919 1.1009
-13.9112 12.3661 1.0601
-12.1610 10.0522 0.8944
-12.5747 9.6556 0.8944
-12.9779 9.2439 0.8944
-13.3700 8.8172 0.8944
-13.7504 8.3756 0.8944
-13.9040 7.7990 0.8808
-11.8228 6.0843 0.7306
-13.9014 6.5337 0.8392
-13.9004 5.9337 0.8209
-14.6584 5.6441 0.8481
-14.7871 5.0920 0.8393
-14.7861 4.5048 0.8245
-14.7851 3.9304 0.8109
-14.7842 3.3669 0.7986
-14.8736 2.8298 0.7923
-15.0637 2.3091 0.7923
-23.4821 2.7410 1.2211
-23.4808 1.8895 1.2086
-23.4795 1.0430 1.1977
-13.7927 0.1171 0.6982
-13.7919 -0.3781 0.6936
-13.7911 -0.8743 0.6900
-13.7929 -1.3729 0.6873
-13.9137 -1.8914 0.6915
-13.7988 -2.3830 0.6848
-8.5972 -1.8047 0.4267
-9.7889 -2.4247 0.4864
-9.7882 -2.8009 0.4877
-9.7876 -3.1850 0.4897
-9.7869 -3.5780 0.4924
-9.7862 -3.9815 0.4959
-9.7855 -4.3969 0.5002
-9.7848 -4.8258 0.5053
-9.3001 -5.0094 0.4860
-13.7789 -8.0728 0.7300
-37.2574 -23.6643 2.0048
-34.4525 -23.6595 1.8866
-31.9274 -23.6552 1.7827
-29.6366 -23.6514 1.6909
-6.3829 -5.4801 0.3730
-25.6194 -23.6446 1.5368
-23.8642 -23.6658 1.4733
-33.9286 -36.1522 2.1617
-20.6383 -23.6361 1.3610
-30.0365 -36.9996 2.0568
-28.6348 -37.9809 2.0430
-16.5433 -23.6638 1.2344
-15.3609 -23.7435 1.2038
-14.1783 -23.7424 1.1723
-12.9806 -23.6232 1.1382
-22.0292 -43.7395 2.0604
-10.9865 -23.9132 1.1034
-9.9313 -23.8358 1.0793
-9.8601 -26.2837 1.1699
-10.1233 -30.2436 1.3257
-9.8926 -33.5033 1.4487
-13.2858 -51.7665 2.2118
-9.9737 -45.5983 1.9283
-9.2103 -50.7727 2.1286
-7.3916 -51.1330 2.1286
-5.8264 -53.9021 2.2318
-3.8909 -54.1085 2.2318
-1.9475 -54.2291 2.2318
-0.0005 -35.0294 2.2318
1.2559 -34.9998 2.2318
2.3937 -33.3057 2.1287
3.5849 -33.1789 2.1287
4.7691 -33.0033 2.1287
5.9442 -32.7792 2.1287
7.0777 -32.3687 2.1196
8.1905 -31.9231 2.1112
9.2830 -31.4478 2.1036
10.3604 -30.9610 2.0982
11.4289 -30.4746 2.0956
11.3191 -27.1745 1.8993
11.3423 -24.6948 1.7573
11.3625 -22.5672 1.6378
11.3802 -20.7166 1.5360
10.7428 -17.9948 1.3657
10.7338 -16.5963 1.2917
13.8036 -19.7509 1.5795
14.8847 -19.7491 1.6262
16.0258 -19.7472 1.6778
17.2352 -19.7451 1.7351
18.5225 -19.7430 1.7986
19.8993 -19.7406 1.8691
21.3791 -19.7381 1.9477
22.9784 -19.7354 2.0354
24.7167 -19.7325 2.1338
20.1542 -14.9383 1.6995
26.0702 -17.9106 2.1518
2.2900 -1.4551 0.1854
27.0533 -15.8574 2.1518
9.1795 -4.9469 0.7187
9.1779 -4.5289 0.7086
9.1764 -4.1255 0.6997
9.5525 -3.8888 0.7206
9.5547 -3.4954 0.7141
9.5567 -3.1121 0.7088
9.5588 -2.7375 0.7045
9.5608 -2.3704 0.7012
9.1682 -1.9266 0.6701
9.1669 -1.5852 0.6686
9.1656 -1.2480 0.6679
9.1644 -0.9142 0.6682
9.1631 -0.5829 0.6693
9.1619 -0.2532 0.6713
9.5531 0.0791 0.7030
9.5518 0.4223 0.7069
9.5505 0.7665 0.7117
9.5492 1.1126 0.7174
9.5479 1.4615 0.7241
9.1544 1.7397 0.7017
9.1531 2.0825 0.7100
9.1518 2.4309 0.7194
9.1505 2.7858 0.7298
9.1491 3.1486 0.7414
8.2006 3.1558 0.6761
7.7941 3.3254 0.6548
8.0381 3.7761 0.6890
8.0375 4.1344 0.7040
8.0369 4.5062 0.7204
8.0362 4.8932 0.7384
8.0355 5.2974 0.7581
8.0348 5.7212 0.7797
8.0341 6.1671 0.8034
8.0333 6.6383 0.8295
8.0324 7.1382 0.8581
8.0315 7.6710 0.8896
7.9701 8.1795 0.9176
8.4836 9.3565 1.0176
8.4811 10.0572 1.0629
9.0696 11.5742 1.1912
8.6048 11.8331 1.1882
8.4744 12.5801 1.2348
8.4732 13.6089 1.3080
9.1357 15.9204 1.5007
9.1334 17.3300 1.6048
9.1306 18.9451 1.7260
9.1275 20.8193 1.8688
9.1237 23.0266 2.0393
8.7358 24.5920 2.1518
7.5612 23.9842 2.0761
6.9312 25.0963 2.1518
6.0194 25.3047 2.1518
5.0471 25.2082 2.1285
4.1356 25.3563 2.1285
3.2204 25.4753 2.1285
2.3023 25.5651 2.1285
1.4492 26.8687 2.2318
0.4830 26.9014 2.2318
-0.4837 26.9036 2.2318
-1.4502 26.8749 2.2318
-2.4156 26.8156 2.2318
-3.3791 26.7256 2.2318
-4.3399 26.6050 2.2318
-5.2972 26.4537 2.2318
-6.1250 25.7459 2.1871
-6.8654 24.8557 2.1287
-7.7636 24.6242 2.1287
-8.6553 24.3637 2.1287
-9.5397 24.0744 2.1287
-10.4800 23.9026 2.1418
-11.3527 23.5539 2.1418
-11.4459 21.7166 2.0069
-12.1378 21.1508 1.9894
-13.1118 21.0579 2.0191
-13.4843 20.0160 1.9598
-13.4846 18.5426 1.8571
-6.5555 8.3654 0.8586
-14.5484 17.2511 1.8180
-15.6408 17.2493 1.8705
-13.9145 14.2794 1.5968
-13.9128 13.2877 1.5360
-13.8311 12.2908 1.4725
-11.4403 9.4532 1.1771
-11.5834 8.8912 1.1542
-11.7439 8.3618 1.1354
-11.7428 7.7410 1.1036
-11.7418 7.1491 1.0746
-11.7409 6.5827 1.0482
-11.7400 6.0387 1.0240
-12.1042 5.6861 1.0331
-13.3230 5.6841 1.1144
-14.6672 5.6441 1.2040
-14.8132 5.0976 1.1950
-14.8460 4.5197 1.1787
-14.8112 3.9340 1.1588
-14.8440 3.3772 1.1461
-14.8093 2.8143 1.1297
-14.8422 2.2719 1.1201
-14.8413 1.7291 1.1095
-14.8403 1.1910 1.1004
-14.8394 0.6560 1.0928
-13.7927 0.1141 1.0100
-13.7919 -0.3811 1.0055
-13.7911 -0.8773 1.0023
-13.7932 -1.3759 1.0007
-13.9137 -1.8945 1.0089
-13.7985 -2.3860 1.0014
-8.5972 -1.8066 0.6252
-9.7889 -2.4268 0.7144
-9.7882 -2.8031 0.7178
-9.7876 -3.1872 0.7223
-9.7869 -3.5803 0.7279
-9.7862 -3.9838 0.7347
-9.7855 -4.3992 0.7426
-9.7848 -4.8281 0.7519
-9.2959 -5.0094 0.7244
-13.7789 -8.0762 1.0910
-27.6947 -17.5975 2.2318
-27.1590 -18.6579 2.2318
-26.5807 -19.7009 2.2318
-24.7613 -19.7674 2.1287
-6.3825 -5.4815 0.5630
-23.4597 -21.6582 2.1287
-22.7511 -22.5688 2.1287
-22.0033 -23.4521 2.1285
-20.6325 -23.6361 2.0696
-19.1807 -23.6337 2.0012
-17.8116 -23.6314 1.9394
-16.5148 -23.6292 1.8837
-15.2817 -23.6271 1.8333
-12.1801 -20.4013 1.5439
-12.9775 -23.6232 1.7469
-11.9617 -23.7559 1.7197
-10.9109 -23.7541 1.6864
-9.9297 -23.8374 1.6625
-9.8595 -26.2881 1.8042
-9.8415 -29.4079 1.9894
-9.4087 -31.8711 2.1286
-8.2706 -32.2318 2.1286
-7.1173 -32.5458 2.1287
-6.0298 -33.2465 2.1569
-5.0050 -34.6296 2.2318
-3.7616 -34.8068 2.2318
-2.5116 -34.9328 2.2318
-1.2571 -35.0070 2.2318
-0.0004 -25.8429 2.2318
0.9263 -25.8224 2.2318
1.8513 -25.7651 2.2318
2.6448 -24.4852 2.1287
3.5193 -24.3605 2.1287
4.3876 -24.2013 2.1287
5.2483 -24.0078 2.1287
6.1660 -24.0384 2.1518
7.0163 -23.7748 2.1518
7.8545 -23.4781 2.1518
8.6794 -23.1489 2.1518
9.4895 -22.7878 2.1518
10.2837 -22.3956 2.1518
11.0606 -21.9731 2.1518
11.3801 -20.7218 2.0719
10.7400 -17.9948 1.8403
12.7718 -19.7527 2.0700
13.7998 -19.7509 2.1252
14.6463 -19.4382 2.1518
10.7281 -13.2231 1.5092
10.7452 -12.3136 1.4522
10.7251 -11.4352 1.3967
10.7237 -10.6416 1.3497
10.7225 -9.9027 1.3077
10.7213 -9.2113 1.2701
10.7206 -8.5618 1.2366
10.7192 -7.9480 1.2064
19.5533 -13.4386 2.1518
2.2900 -1.4557 0.2469
20.3341 -11.9241 2.1518
9.1795 -4.9492 0.9552
9.1779 -4.5311 0.9406
9.1764 -4.1277 0.9279
9.5525 -3.8910 0.9545
9.5547 -3.4977 0.9449
9.5567 -3.1143 0.9367
9.5588 -2.7397 0.9300
9.5608 -2.3725 0.9246
9.1682 -1.9287 0.8826
9.1669 -1.5872 0.8796
9.1656 -1.2500 0.8777
9.1644 -0.9162 0.8771
9.1631 -0.5849 0.8776
9.1619 -0.2552 0.8792
9.5531 0.0770 0.9197
9.5518 0.4202 0.9238
9.5505 0.7644 0.9290
9.5492 1.1105 0.9355
9.5479 1.4595 0.9432
9.1544 1.7377 0.9131
9.1531 2.0805 0.9230
9.1518 2.4288 0.9342
9.1505 2.7838 0.9468
9.1491 3.1465 0.9609
8.2055 3.1558 0.8760
7.7941 3.3235 0.8470
8.0381 3.7742 0.8905
8.0375 4.1325 0.9091
8.0369 4.5042 0.9295
8.0362 4.8911 0.9519
8.0355 5.2953 0.9765
8.0348 5.7190 1.0036
8.0341 6.1649 1.0333
8.0333 6.6361 1.0659
8.0324 7.1359 1.1019
8.0315 7.6687 1.1417
7.9725 8.1795 1.1771
8.4837 9.3539 1.3043
8.4811 10.0544 1.3615
9.0696 11.5711 1.5249
8.6072 11.8333 1.5207
8.4744 12.5769 1.5790
8.4732 13.6056 1.6718
9.1357 15.9166 1.9174
9.1334 17.3260 2.0494
8.9170 18.4975 2.1518
8.2358 18.7810 2.1518
7.1089 17.9373 2.0270
6.8499 19.2791 2.1518
6.1468 19.4935 2.1518
5.3789 19.4717 2.1285
4.6722 19.6375 2.1285
3.9611 19.7799 2.1285
3.2461 19.8990 2.1285
2.5280 19.9946 2.1285
1.8951 21.0401 2.2318
1.1377 21.0909 2.2318
0.3791 21.1170 2.2318
-0.3799 21.1182 2.2318
-1.1386 21.0948 2.2318
-1.8964 21.0465 2.2318
-2.6525 20.9735 2.2318
-3.4062 20.8758 2.2318
-4.1568 20.7534 2.2318
-4.9035 20.6064 2.2318
-5.6457 20.4349 2.2318
-6.1231 19.4160 2.1410
-6.7849 19.0941 2.1287
-7.4757 18.8610 2.1287
-8.1593 18.6050 2.1287
-8.8352 18.3263 2.1287
-9.5027 18.0250 2.1287
-10.2235 17.8102 2.1418
-10.8758 17.4622 2.1418
-11.5176 17.0921 2.1418
-12.1481 16.7002 2.1418
-6.5561 8.3639 1.0999
-13.3723 15.8519 2.1418
-13.9647 15.3962 2.1418
-13.9145 14.2750 2.0492
-13.9128 13.2834 1.9726
-11.1718 9.9243 1.5285
-11.1706 9.2272 1.4781
-11.1695 8.5704 1.4324
-11.4380 8.1410 1.4244
-11.4370 7.5365 1.3857
-11.4361 6.9600 1.3505
-11.4351 6.4084 1.3183
-11.4342 5.8786 1.2891
-12.1105 5.6861 1.3372
-13.3304 5.6840 1.4438
-14.6761 5.6440 1.5615
-14.8132 5.0942 1.5504
-14.8460 4.5163 1.5307
-14.8112 3.9306 1.5065
-14.8440 3.3739 1.4914
-14.8093 2.8110 1.4717
-14.8422 2.2686 1.4607
-14.8413 1.7259 1.4485
-14.8403 1.1878 1.4381
-14.8394 0.6528 1.4297
-13.7927 0.1112 1.3228
-13.7919 -0.3841 1.3184
-13.7911 -0.8803 1.3158
-13.7902 -1.3786 1.3148
-13.7894 -1.8805 1.3155
-13.7885 -2.3873 1.3180
-8.5972 -1.8085 0.8245
-9.7889 -2.4290 0.9431
-9.7882 -2.8053 0.9487
-9.7876 -3.1894 0.9558
-9.7869 -3.5825 0.9642
-9.7862 -3.9860 0.9743
-9.7855 -4.4015 0.9859
-9.7848 -4.8305 0.9993
-9.2917 -5.0094 0.9634
-13.7789 -8.0797 1.4531
-20.7708 -13.2033 2.2318
-20.3478 -13.9840 2.2318
-19.8941 -14.7503 2.2318
-19.4104 -15.5010 2.2318
-6.3822 -5.4830 0.7537
-18.3546 -16.9504 2.2318
-17.7836 -17.6464 2.2318
-17.1847 -18.3216 2.2318
-16.5588 -18.9748 2.2318
-15.9066 -19.6048 2.2318
-14.8516 -19.7095 2.1765
-13.8559 -19.8299 2.1287
-13.1637 -20.3574 2.1287
-12.1635 -20.3785 2.0797
-11.7160 -21.3318 2.1286
-10.9627 -21.7768 2.1286
-10.1914 -22.1926 2.1286
-9.4028 -22.5776 2.1286
-8.5990 -22.9323 2.1286
-7.7811 -23.2561 2.1286
-6.9500 -23.5472 2.1287
-6.2691 -24.4367 2.1852
-5.5082 -25.1928 2.2318
-4.6044 -25.3922 2.2318
-3.6928 -25.5555 2.2318
-2.7751 -25.6825 2.2318
-1.8527 -25.7727 2.2318
-0.9273 -25.8262 2.2318
-0.0004 -20.4570 2.2318
0.7330 -20.4415 2.2318
1.4652 -20.3973 2.2318
2.0935 -19.3858 2.1287
2.7860 -19.2894 2.1287
3.4739 -19.1662 2.1287
4.1561 -19.0163 2.1287
4.8315 -18.8402 2.1287
5.4990 -18.6380 2.1287
6.1553 -18.4034 2.1279
6.7420 -17.9862 2.1086
7.5246 -18.0739 2.1518
8.1571 -17.7689 2.1518
8.7766 -17.4401 2.1518
9.3821 -17.0882 2.1518
9.9728 -16.7137 2.1518
10.5478 -16.3174 2.1518
10.7553 -15.3977 2.0838
11.6473 -15.4623 2.1518
10.7281 -13.2268 1.8968
10.7420 -12.3136 1.8237
10.7251 -11.4387 1.7537
10.7237 -10.6449 1.6937
10.7225 -9.9059 1.6400
10.7213 -9.2145 1.5919
10.7202 -8.5645 1.5489
10.7192 -7.9509 1.5103
10.7418 -7.3855 1.4789
2.2899 -1.4563 0.3087
2.3197 -1.3608 0.3067
2.3179 -1.2503 0.3011
9.1779 -4.5333 1.1737
9.1764 -4.1299 1.1570
9.1750 -3.7394 1.1424
9.1735 -3.3603 1.1296
9.1722 -2.9911 1.1187
9.1708 -2.6306 1.1095
9.1695 -2.2775 1.1019
9.1682 -1.9307 1.0959
9.1669 -1.5892 1.0915
9.1656 -1.2520 1.0884
9.1644 -0.9182 1.0869
9.1631 -0.5869 1.0867
9.1619 -0.2572 1.0880
9.2265 0.0723 1.0985
9.1911 0.4023 1.0985
9.1582 0.7310 1.1001
9.1569 1.0629 1.1071
9.1557 1.3975 1.1155
9.1544 1.7357 1.1254
9.1531 2.0785 1.1368
9.1518 2.4268 1.1500
9.1505 2.7817 1.1648
9.1491 3.1444 1.1814
8.2104 3.1557 1.0770
7.7941 3.3217 1.0401
8.0381 3.7723 1.0929
8.0375 4.1305 1.1150
8.0369 4.5022 1.1395
8.0362 4.8891 1.1663
8.0355 5.2932 1.1959
8.0348 5.7169 1.2284
8.0341 6.1628 1.2641
8.0333 6.6338 1.3035
8.0324 7.1336 1.3469
8.0315 7.6663 1.3948
7.9749 8.1795 1.4379
8.4837 9.3512 1.5922
8.4811 10.0516 1.6614
9.0696 11.5680 1.8601
8.6096 11.8335 1.8548
8.4744 12.5737 1.9248
8.4082 13.4979 2.0216
7.9070 13.7725 2.0216
7.7004 14.6040 2.1044
7.0412 14.6029 2.0689
6.7655 15.4248 2.1518
6.2007 15.6422 2.1518
5.5686 15.6692 2.1285
4.9978 15.8463 2.1285
4.4219 16.0041 2.1285
3.8415 16.1425 2.1285
3.2571 16.2615 2.1285
2.6695 16.3609 2.1285
2.0791 16.4407 2.1285
1.5586 17.3012 2.2318
0.9357 17.3436 2.2318
0.3118 17.3652 2.2318
-0.3125 17.3661 2.2318
-0.9366 17.3462 2.2318
-1.5597 17.3056 2.2318
-2.1814 17.2443 2.2318
-2.8010 17.1623 2.2318
-3.4178 17.0597 2.2318
-4.0312 16.9366 2.2318
-4.6406 16.7930 2.2318
-5.2454 16.6290 2.2318
-5.8450 16.4449 2.2318
-6.1412 15.4904 2.1287
-6.7013 15.2765 2.1287
-7.2545 15.0438 2.1287
-7.8004 14.7923 2.1287
-8.3383 14.5223 2.1287
-8.8676 14.2340 2.1287
-9.3878 13.9276 2.1287
-9.8982 13.6034 2.1287
-6.5568 8.3624 1.3423
-10.9544 12.9819 2.1418
-11.4350 12.6034 2.1418
-11.9035 12.2081 2.1418
-12.3592 11.7963 2.1418
-10.8658 9.6493 1.8179
-10.8647 8.9714 1.7588
-10.8636 8.3327 1.7053
-10.8626 7.7284 1.6567
-11.1470 7.3424 1.6548
-11.1665 6.7931 1.6165
-11.1656 6.2545 1.5789
-11.1647 5.7373 1.5448
-12.1167 5.6861 1.6429
-13.3379 5.6840 1.7750
-14.6851 5.6440 1.9209
-14.8132 5.0907 1.9074
-14.8460 4.5129 1.8843
-14.8112 3.9273 1.8556
-14.8440 3.3705 1.8382
-14.8093 2.8077 1.8151
-14.8422 2.2653 1.8028
-14.8412 1.7226 1.7888
-14.8403 1.1845 1.7773
-14.8394 0.6495 1.7681
-13.7927 0.1082 1.6370
-13.7919 -0.3871 1.6327
-13.7910 -0.8833 1.6305
-13.7902 -1.3817 1.6304
-13.7894 -1.8836 1.6325
-13.7885 -2.3903 1.6367
-8.5972 -1.8104 1.0245
-9.7889 -2.4312 1.1728
-9.7882 -2.8075 1.1806
-9.7876 -3.1916 1.1902
-9.7869 -3.5848 1.2016
-9.7862 -3.9883 1.2149
-9.7855 -4.4038 1.2302
-9.7848 -4.8328 1.2477
-9.2875 -5.0094 1.2032
-13.7789 -8.0831 1.8168
-15.8341 -10.0692 2.1285
-15.5019 -10.6577 2.1285
-15.1470 -11.2346 2.1285
-15.4862 -12.3714 2.2318
-6.3818 -5.4845 0.9452
-14.6269 -13.5121 2.2318
-14.1640 -14.0590 2.2318
-13.6797 -14.5889 2.2318
-13.1746 -15.1011 2.2318
-12.6494 -15.5945 2.2318
-12.1047 -16.0684 2.2318
-11.5414 -16.5218 2.2318
-10.9601 -16.9539 2.2318
-10.3617 -17.3640 2.2318
-9.7471 -17.7513 2.2318
-9.1172 -18.1150 2.2318
-8.4728 -18.4546 2.2318
-7.8151 -18.7693 2.2318
-7.1449 -19.0586 2.2318
-6.4634 -19.3219 2.2318
-5.7715 -19.5588 2.2318
-5.0705 -19.7687 2.2318
-4.3613 -19.9513 2.2318
-3.6451 -20.1062 2.2318
-2.9232 -20.2332 2.2318
-2.1965 -20.3319 2.2318
-1.4664 -20.4021 2.2318
-0.7340 -20.4439 2.2318
-0.0004 -16.9145 2.2318
0.6059 -16.9020 2.2318
1.2112 -16.8662 2.2318
1.8145 -16.8071 2.2318
2.3034 -15.9523 2.1287
2.8725 -15.8520 2.1287
3.4370 -15.7299 2.1287
3.9961 -15.5863 2.1287
4.5489 -15.4215 2.1287
5.0945 -15.2357 2.1287
5.6323 -15.0293 2.1287
6.2281 -14.9633 2.1518
6.4870 -14.1344 2.0670
7.2677 -14.4455 2.1518
7.7711 -14.1577 2.1518
8.2627 -13.8513 2.1518
8.7416 -13.5269 2.1518
9.2072 -13.1849 2.1518
9.6588 -12.8261 2.1518
10.0959 -12.4510 2.1518
10.5179 -12.0603 2.1518
10.7251 -11.4422 2.1126
10.7237 -10.6483 2.0395
10.7225 -9.9092 1.9741
10.7213 -9.2176 1.9155
10.7202 -8.5676 1.8629
10.7192 -7.9539 1.8157
13.0055 -8.9454 2.1518
2.2899 -1.4568 0.3708
13.5539 -7.9550 2.1518
9.1795 -4.9538 1.4314
9.1780 -4.5356 1.4081
9.1764 -4.1321 1.3874
9.1750 -3.7416 1.3692
9.1735 -3.3625 1.3533
9.1722 -2.9932 1.3396
9.1708 -2.6327 1.3280
9.1695 -2.2796 1.3183
9.1682 -1.9328 1.3105
9.1669 -1.5913 1.3045
9.1656 -1.2541 1.3003
9.1644 -0.9203 1.2978
9.1631 -0.5889 1.2970
9.1619 -0.2592 1.2979
9.1607 0.0698 1.3004
9.1594 0.3989 1.3047
9.1582 0.7290 1.3106
9.1569 1.0609 1.3182
9.1557 1.3955 1.3276
9.1544 1.7337 1.3388
9.1531 2.0764 1.3519
9.1518 2.4247 1.3669
9.1505 2.7796 1.3839
9.1491 3.1423 1.4031
8.2153 3.1557 1.2793
7.7941 3.3199 1.2343
8.0381 3.7704 1.2963
8.0375 4.1286 1.3221
8.0369 4.5002 1.3506
8.0362 4.8871 1.3819
8.0356 5.2912 1.4164
8.0348 5.7148 1.4544
8.0341 6.1606 1.4962
8.0333 6.6316 1.5423
8.0324 7.1313 1.5931
8.0315 7.6639 1.6493
7.9773 8.1795 1.7003
8.4837 9.3485 1.8816
8.4812 10.0488 1.9629
8.3453 10.6413 2.0216
7.9465 10.9192 2.0216
7.5391 11.1831 2.0216
7.1235 11.4327 2.0216
6.7002 11.6677 2.0216
6.3578 12.0551 2.0500
6.2081 12.8720 2.1518
5.6741 12.9333 2.1285
5.2011 13.1176 2.1285
4.7226 13.2858 2.1285
4.2390 13.4375 2.1285
3.7510 13.5728 2.1285
3.2589 13.6916 2.1285
2.7634 13.7936 2.1285
2.2649 13.8789 2.1285
1.8496 14.6238 2.2318
1.3225 14.6778 2.2318
0.7939 14.7141 2.2318
0.2645 14.7325 2.2318
-0.2653 14.7331 2.2318
-0.7948 14.7160 2.2318
-1.3235 14.6810 2.2318
-1.8510 14.6282 2.2318
-2.3765 14.5577 2.2318
-2.8996 14.4695 2.2318
-3.4196 14.3637 2.2318
-3.9362 14.2403 2.2318
-4.4486 14.0995 2.2318
-4.9564 13.9414 2.2318
-5.4590 13.7661 2.2318
-5.9558 13.5737 2.2318
-6.1486 12.7471 2.1287
-6.6100 12.5316 2.1287
-7.0643 12.3003 2.1287
-7.5111 12.0534 2.1287
-7.9498 11.7912 2.1287
-8.3800 11.5138 2.1287
-6.4964 8.2830 1.5713
-9.2127 10.9146 2.1287
-9.6141 10.5933 2.1287
-10.0050 10.2579 2.1287
-10.4488 9.9697 2.1418
-10.5921 9.4031 2.0968
-10.5910 8.7423 2.0293
-10.5900 8.1198 1.9682
-10.5890 7.5309 1.9127
-10.7634 7.0869 1.8932
-10.8607 6.6042 1.8636
-10.8598 6.0805 1.8209
-11.0738 5.6878 1.8175
-12.1230 5.6861 1.9506
-13.3454 5.6840 2.1084
-13.7865 5.2954 2.1418
-13.9998 4.8079 2.1418
-14.1964 4.3121 2.1418
-14.3758 3.8085 2.1418
-14.5379 3.2977 2.1418
-14.6821 2.7803 2.1418
-14.8082 2.2569 2.1418
-14.8412 1.7193 2.1311
-14.8403 1.1812 2.1183
-14.8394 0.6463 2.1083
-13.7927 0.1051 1.9529
-13.7919 -0.3901 1.9487
-13.7910 -0.8863 1.9470
-13.7902 -1.3847 1.9478
-13.7894 -1.8866 1.9512
-13.7885 -2.3934 1.9571
-8.5972 -1.8123 1.2257
-9.7889 -2.4334 1.4037
-9.7882 -2.8097 1.4137
-9.7876 -3.1939 1.4259
-9.7573 -3.5762 1.4358
-9.7862 -3.9906 1.4568
-9.7855 -4.4061 1.4759
-9.7848 -4.8352 1.4975
-9.2832 -5.0094 1.4441
-13.4388 -7.8870 2.1285
-13.1757 -8.3820 2.1285
-12.8938 -8.8680 2.1285
-12.5934 -9.3440 2.1285
-12.2749 -9.8094 2.1285
-6.3814 -5.4860 1.1378
-11.5848 -10.7053 2.1285
-11.2140 -11.1343 2.1285
-11.3519 -12.1100 2.2318
-10.9290 -12.5307 2.2318
-10.4898 -12.9357 2.2318
-10.0350 -13.3244 2.2318
-9.5651 -13.6962 2.2318
-9.0807 -14.0503 2.2318
-8.5826 -14.3861 2.2318
-8.0714 -14.7031 2.2318
-7.5480 -15.0007 2.2318
-7.0130 -15.2784 2.2318
-6.4672 -15.5357 2.2318
-5.9115 -15.7722 2.2318
-5.3467 -15.9873 2.2318
-4.7737 -16.1807 2.2318
-4.1933 -16.3522 2.2318
-3.6064 -16.5013 2.2318
-3.0139 -16.6278 2.2318
-2.4168 -16.7314 2.2318
-1.8159 -16.8120 2.2318
-1.2123 -16.8695 2.2318
-0.6068 -16.9037 2.2318
-0.0004 -14.4052 2.2318
0.5158 -14.3947 2.2318
1.0313 -14.3646 2.2318
1.5451 -14.3149 2.2318
1.9748 -13.6802 2.1432
2.4463 -13.5031 2.1287
2.9272 -13.4003 2.1287
3.4037 -13.2792 2.1287
3.8750 -13.1402 2.1287
4.3404 -12.9836 2.1287
4.7992 -12.8094 2.1287
5.2507 -12.6182 2.1287
5.6943 -12.4102 2.1287
6.1248 -12.1768 2.1271
6.6187 -12.0612 2.1494
6.7689 -11.3502 2.0670
5.9095 -9.1469 1.7053
7.8554 -11.2523 2.1518
8.2426 -10.9486 2.1518
8.6176 -10.6310 2.1518
8.9801 -10.3000 2.1518
9.3293 -9.9562 2.1518
9.6650 -9.6001 2.1518
9.9867 -9.2322 2.1518
10.2939 -8.8532 2.1518
10.5864 -8.4636 2.1518
10.7192 -7.9569 2.1232
11.1257 -7.6554 2.1518
2.2898 -1.4574 0.4333
11.6020 -6.8124 2.1518
9.1795 -4.9561 1.6717
9.1780 -4.5379 1.6439
9.1764 -4.1344 1.6192
9.1750 -3.7438 1.5975
9.1735 -3.3646 1.5784
9.1722 -2.9954 1.5619
9.1708 -2.6348 1.5478
9.1695 -2.2817 1.5360
9.1682 -1.9348 1.5264
9.1669 -1.5933 1.5189
9.1656 -1.2561 1.5135
9.1644 -0.9223 1.5101
9.1631 -0.5909 1.5086
9.1619 -0.2612 1.5091
9.1607 0.0678 1.5116
9.1594 0.3969 1.5160
9.1582 0.7270 1.5224
9.1569 1.0589 1.5307
9.1557 1.3934 1.5411
9.1544 1.7316 1.5536
9.1531 2.0743 1.5683
9.1518 2.4226 1.5852
9.1505 2.7775 1.6044
9.1491 3.1401 1.6262
8.2203 3.1557 1.4832
7.7941 3.3180 1.4296
8.0381 3.7685 1.5011
8.0375 4.1266 1.5305
8.0369 4.4982 1.5630
8.0362 4.8850 1.5989
8.0356 5.2891 1.6384
8.0348 5.7126 1.6818
8.0341 6.1584 1.7297
8.0333 6.6293 1.7826
8.0324 7.1290 1.8409
8.0315 7.6615 1.9055
7.9797 8.1795 1.9645
7.8931 8.6951 2.0216
7.5654 8.9613 2.0216
7.2293 9.2158 2.0216
6.8851 9.4583 2.0216
6.5333 9.6886 2.0216
6.3624 10.2087 2.0833
6.1821 10.7627 2.1518
5.7232 10.8490 2.1285
5.3248 11.0380 2.1285
4.9205 11.2131 2.1285
4.5109 11.3742 2.1285
4.0963 11.5212 2.1285
2.6191 8.3007 1.5161
3.2540 11.7722 2.1285
2.8274 11.8760 2.1285
2.3976 11.9653 2.1285
1.9652 12.0398 2.1285
1.6049 12.6866 2.2318
1.1475 12.7338 2.2318
0.6889 12.7654 2.2318
0.2295 12.7815 2.2318
-0.2302 12.7820 2.2318
-0.6897 12.7669 2.2318
-1.1485 12.7361 2.2318
-1.6061 12.6899 2.2318
-2.0620 12.6281 2.2318
-2.5157 12.5508 2.2318
-2.9667 12.4581 2.2318
-3.4145 12.3501 2.2318
-3.8587 12.2269 2.2318
-4.2987 12.0885 2.2318
-4.7341 11.9351 2.2318
-5.1643 11.7668 2.2318
-5.5889 11.5839 2.2318
-6.0074 11.3863 2.2318
-6.1228 10.6582 2.1287
-6.5090 10.4426 2.1287
-6.8881 10.2136 2.1287
-7.2595 9.9714 2.1287
-6.4902 8.2727 1.8124
-7.9777 9.4486 2.1287
-8.3236 9.1685 2.1287
-8.6602 8.8762 2.1287
-8.9869 8.5721 2.1287
-9.3035 8.2564 2.1287
-9.6095 7.9294 2.1287
-9.9045 7.5915 2.1287
-10.2508 7.2875 2.1418
-10.5242 6.9266 2.1418
-10.5871 6.4351 2.1024
-10.5862 5.9246 2.0549
-11.0792 5.6878 2.1056
-11.4919 5.3873 2.1418
-11.7006 4.9806 2.1418
-11.8952 4.5661 2.1418
-12.0755 4.1442 2.1418
-12.2412 3.7154 2.1418
-12.3920 3.2801 2.1418
-12.5276 2.8389 2.1418
-12.6478 2.3922 2.1418
-12.7523 1.9407 2.1418
-12.8409 1.4847 2.1418
-12.9133 1.0250 2.1418
-12.9694 0.5620 2.1418
-13.0090 0.0963 2.1418
-13.0320 -0.3715 2.1418
