ply
format ascii 1.0
element vertex 2108
property float32 x
property float32 y
property float32 z
end_header
-18.8641 9.7187 0.1069
-18.8651 8.8774 0.1058
-18.9363 8.0939 0.1052
-18.8600 7.2722 0.1040
-18.8682 6.5075 0.1035
-18.8691 5.7587 0.1030
-18.8701 5.0261 0.1028
-18.8710 4.3073 0.1026
-18.9421 3.6135 0.1030
-18.8728 2.9025 0.1028
-18.8737 2.2125 0.1030
-14.3923 1.1653 0.0789
-14.3929 0.6465 0.0793
-14.3936 0.1293 0.0798
-14.4649 -0.3895 0.0809
-14.4656 -0.9100 0.0816
-14.3956 -1.4259 0.0820
-14.3962 -1.9500 0.0830
-14.3969 -2.4793 0.0840
-14.3976 -3.0152 0.0852
-14.3983 -3.5593 0.0865
-12.3205 -3.5195 0.0753
-14.3997 -4.6787 0.0896
-14.4067 -5.2598 0.0913
-14.4074 -5.8543 0.0932
-14.4020 -6.4638 0.0953
-14.4028 -7.0958 0.0975
-17.5346 -9.4356 0.1217
-12.3252 -7.2145 0.0878
-16.7594 -10.6357 0.1228
-16.7605 -11.5006 0.1265
-16.7617 -12.4093 0.1305
-16.7629 -13.3678 0.1349
-16.7642 -14.3830 0.1397
-16.7656 -15.4630 0.1450
-51.0259 -50.5694 0.4590
-67.9588 -72.3681 0.6374
-40.9469 -46.8670 0.4014
-39.7202 -48.9002 0.4082
-40.3393 -57.6711 0.4598
-37.1416 -57.3802 0.4483
-33.5815 -56.2055 0.4310
-18.4857 -33.6251 0.2534
-28.6747 -56.9069 0.4223
-18.5109 -40.2717 0.2946
-7.0565 -16.9282 0.1223
-15.1301 -40.3136 0.2878
-13.5068 -40.3339 0.2850
-11.9206 -40.3537 0.2826
-11.5675 -45.0519 0.3130
-11.1947 -51.1590 0.3530
-11.7759 -64.8896 0.4453
-9.0346 -62.4745 0.4268
-6.9102 -63.9060 0.4351
-3.2226 -44.8014 0.3043
-1.6141 -44.9347 0.3048
-0.0001 -44.9368 1.3172
1.6141 -44.9389 1.3182
3.1355 -43.5904 1.2811
4.7013 -43.4776 1.2819
2.4489 -16.9342 0.5015
7.9124 -43.5999 1.2986
9.5153 -43.4838 1.3043
11.1656 -43.4859 1.3152
12.5240 -42.3955 1.2946
6.3008 -18.8148 0.5809
5.6032 -14.9291 0.4666
7.8405 -18.8086 0.5961
8.6440 -18.8053 0.6051
9.4743 -18.8019 0.6152
10.3349 -18.7984 0.6265
11.2308 -18.7965 0.6391
12.1679 -18.7977 0.6531
13.1497 -18.7989 0.6687
14.1822 -18.8003 0.6859
2.3890 -2.9411 0.1103
12.2975 -14.0750 0.5434
12.2987 -13.0962 0.5219
12.2999 -12.1894 0.5026
12.3009 -11.3448 0.4852
12.3019 -10.5542 0.4695
12.3029 -9.8107 0.4553
12.3038 -9.1086 0.4425
12.3046 -8.4427 0.4308
12.3054 -7.8088 0.4203
13.0216 -7.6218 0.4346
15.4122 -8.2931 0.5035
16.8376 -8.2949 0.5393
18.4879 -8.2970 0.5815
5.6910 -2.3123 0.1761
5.6913 -2.0777 0.1734
5.6916 -1.8491 0.1711
5.6919 -1.6257 0.1690
5.6461 -1.3956 0.1658
5.6924 -1.1919 0.1656
5.6330 -0.9699 0.1625
5.6930 -0.7709 0.1631
5.6932 -0.5637 0.1622
5.6935 -0.3580 0.1615
5.6937 -0.1531 0.1610
5.6940 0.0513 0.1607
5.6943 0.2560 0.1606
5.6348 0.4564 0.1591
5.6948 0.6678 0.1611
5.6951 0.8761 0.1617
5.6953 1.0867 0.1624
5.6956 1.3003 0.1634
5.6959 1.5173 0.1646
5.6962 1.7387 0.1661
5.6367 1.9443 0.1661
20.6264 7.9539 0.6148
20.6123 8.8109 0.6226
62.8436 29.5742 1.9262
62.8472 32.3807 1.9580
62.8509 35.2933 1.9936
44.3585 27.0480 1.4350
44.8217 29.5884 1.4814
42.4700 30.2793 1.4369
41.4483 31.8554 1.4383
37.2896 30.8503 1.3299
35.1605 31.2814 1.2917
33.2151 31.7585 1.2598
30.9160 31.7614 1.2137
28.7718 31.7642 1.1722
5.7511 6.8265 0.2439
5.7436 7.3368 0.2543
5.7444 7.9068 0.2665
5.7452 8.5363 0.2803
5.7461 9.2370 0.2961
5.7471 10.0238 0.3142
5.7519 10.9232 0.3354
5.7495 11.9395 0.3598
5.7511 13.1285 0.3889
15.0433 37.9966 1.1080
13.4875 37.9986 1.0925
12.5464 39.8284 1.1308
12.4828 45.2322 1.2700
9.0335 38.0043 1.0567
7.6039 38.0062 1.0481
6.1946 38.0080 1.0409
4.4900 35.5441 0.9681
3.1990 35.5457 0.9641
1.9162 35.5474 0.9615
0.8221 45.7940 1.2369
-0.8240 45.8932 1.2394
-2.4768 45.9454 1.2424
-3.0796 34.2174 0.9277
-4.3233 34.2230 0.9315
-5.5898 34.2965 0.9385
-6.8478 34.2259 0.9428
-8.1351 34.2239 0.9504
-9.4454 34.2256 0.9596
-10.7855 34.2381 0.9705
-12.1496 34.2291 0.9823
-14.3636 36.2794 1.0558
-14.3681 32.7991 0.9694
-14.8566 30.8511 0.9275
-16.2467 30.8529 0.9450
-17.8397 31.1150 0.9727
-19.1760 30.8257 0.9852
-6.6944 9.9466 0.3257
-22.3984 30.8298 1.0358
-24.1373 30.8321 1.0652
-25.9986 30.8599 1.0987
-33.1067 36.5497 1.3440
-33.1100 34.0152 1.2949
-33.1130 31.6606 1.2510
-34.4149 30.6178 1.2592
-37.0129 30.6212 1.3146
-39.8473 30.6248 1.3768
-42.6384 30.3992 1.4363
-26.9678 17.8023 0.8873
-49.8178 30.3766 1.6042
-54.4104 30.5535 1.7178
-18.8641 9.7193 0.5849
-18.8651 8.8779 0.5754
-18.9363 8.0944 0.5691
-18.8600 7.2727 0.5594
-18.8682 6.5080 0.5531
-18.8691 5.7592 0.5475
-18.8701 5.0266 0.5427
-18.8710 4.3078 0.5387
-18.9421 3.6140 0.5374
-18.8728 2.9030 0.5329
-18.8737 2.2130 0.5311
-14.3923 1.1657 0.4042
-14.3929 0.6469 0.4039
-14.3936 0.1297 0.4041
-14.4649 -0.3891 0.4068
-14.4656 -0.9096 0.4081
-14.3956 -1.4255 0.4079
-14.3962 -1.9496 0.4103
-14.3969 -2.4789 0.4131
-14.3976 -3.0148 0.4166
-14.3983 -3.5589 0.4207
-12.3205 -3.5191 0.3639
-14.3997 -4.6783 0.4307
-14.4138 -5.2620 0.4371
-14.4146 -5.8568 0.4438
-14.4020 -6.4633 0.4509
-14.4028 -7.0954 0.4592
-17.5356 -9.4356 0.5703
-12.3252 -7.2141 0.4095
-16.7594 -10.6352 0.5699
-16.7605 -11.5000 0.5844
-16.7617 -12.4087 0.6003
-16.7629 -13.3672 0.6179
-16.7642 -14.3824 0.6373
-16.7656 -15.4623 0.6588
-42.9965 -42.6101 1.7505
-43.0005 -45.7887 1.8184
-30.8507 -35.3098 1.3588
-43.0096 -52.9480 1.9787
-44.7369 -59.3036 2.1568
-40.0719 -57.2869 2.0317
-37.1428 -57.3801 1.9881
-33.5808 -56.2024 1.9059
-18.4814 -33.6161 1.1176
-28.6754 -56.9063 1.8579
-18.5115 -40.2717 1.2931
-7.0559 -16.9264 0.5354
-15.1306 -40.3136 1.2579
-13.5073 -40.3339 1.2433
-11.9210 -40.3537 1.2305
-9.3612 -36.4578 1.1013
-8.0152 -36.6279 1.0974
-6.6197 -36.4757 1.0855
-5.3182 -36.7744 1.0883
-5.0945 -47.1117 1.3883
-3.2228 -44.8014 1.3162
-1.6142 -44.9347 1.3178
-0.0001 -39.4033 2.0439
1.4147 -39.3847 2.0443
2.8292 -39.3305 2.0454
4.4671 -41.3115 2.1554
2.4487 -16.9324 0.8874
7.2358 -39.8706 2.1017
8.6655 -39.5994 2.1022
10.2818 -40.0430 2.1437
11.7738 -39.8552 2.1545
6.3009 -18.8148 1.0285
5.6033 -14.9291 0.8263
7.8407 -18.8086 1.0557
8.6443 -18.8053 1.0720
9.4745 -18.8019 1.0902
10.3351 -18.7984 1.1104
11.2311 -18.7965 1.1330
12.1682 -18.7977 1.1582
13.1501 -18.7989 1.1862
14.1827 -18.8003 1.2171
2.3886 -2.9404 0.1957
12.2975 -14.0745 0.9650
12.2987 -13.0958 0.9272
12.2999 -12.1890 0.8932
12.3009 -11.3444 0.8626
12.3019 -10.5538 0.8351
12.3029 -9.8103 0.8103
12.3038 -9.1082 0.7878
12.3046 -8.4424 0.7675
12.3054 -7.8084 0.7490
13.0222 -7.6218 0.7750
15.4131 -8.2931 0.8984
16.8385 -8.2949 0.9628
18.4890 -8.2970 1.0387
5.6910 -2.3121 0.3146
5.6913 -2.0775 0.3101
5.6916 -1.8489 0.3061
5.6919 -1.6256 0.3025
5.6461 -1.3954 0.2970
5.6924 -1.1918 0.2967
5.6330 -0.9697 0.2914
5.6930 -0.7708 0.2927
5.6932 -0.5636 0.2912
5.6935 -0.3578 0.2901
5.6937 -0.1530 0.2895
5.6940 0.0515 0.2891
5.6943 0.2561 0.2892
5.6348 0.4566 0.2866
5.6948 0.6679 0.2904
5.6951 0.8762 0.2916
5.6953 1.0869 0.2932
5.6956 1.3004 0.2952
5.6959 1.5175 0.2976
5.6962 1.7388 0.3004
5.6367 1.9445 0.3006
20.3743 7.8573 1.0999
20.3814 8.7128 1.1156
17.5587 8.2637 0.9759
17.5265 9.0307 0.9908
17.5312 9.8450 1.0096
17.4843 10.6618 1.0275
37.2313 24.5789 2.2368
36.3509 25.9179 2.2368
34.2684 26.3384 2.1640
32.8578 27.1849 2.1338
31.8819 28.3657 2.1338
28.2271 26.9903 1.9515
29.9157 30.7350 2.1418
28.7707 31.7642 2.1389
5.7506 6.8262 0.4452
5.7436 7.3370 0.4645
5.7444 7.9071 0.4869
5.7452 8.5366 0.5124
5.7461 9.2373 0.5414
5.7471 10.0241 0.5748
5.7517 10.9230 0.6138
5.7495 11.9399 0.6587
5.7511 13.1289 0.7122
15.0428 37.9966 2.0297
13.4870 37.9986 2.0019
9.9123 31.4676 1.6375
11.3603 41.1661 2.1190
8.0909 34.0399 1.7356
7.6036 38.0062 1.9223
6.1943 38.0080 1.9095
4.3828 34.6962 1.7338
3.1225 34.6978 1.7269
1.8704 34.6994 1.7223
0.5665 31.5612 1.5644
-0.5663 31.5375 1.5632
-1.7005 31.5449 1.5655
-2.8215 31.3495 1.5598
-4.3227 34.2190 1.7093
-5.5774 34.2206 1.7184
-6.3107 31.5425 1.5944
-7.5081 31.5870 1.6095
-8.7355 31.6539 1.6281
-10.7825 34.2291 1.7796
-12.1493 34.2291 1.8015
-12.5148 31.6104 1.6867
-13.8560 31.6308 1.7137
-14.8413 30.8201 1.6981
-16.2300 30.8219 1.7297
-17.6723 30.8238 1.7650
-19.1755 30.8257 1.8040
-6.6942 9.9466 0.5960
-22.3977 30.8298 1.8953
-24.1365 30.8321 1.9483
-25.9978 30.8599 2.0088
-29.3402 32.3926 2.1768
-29.9779 30.7985 2.1418
-30.9297 29.5741 2.1338
-31.9529 28.4284 2.1338
-32.9331 27.2469 2.1338
-34.3826 26.4260 2.1661
-36.4388 25.9803 2.2368
-26.8859 17.7490 1.6113
-38.1582 23.2683 2.2368
-38.9420 21.8685 2.2368
-18.8641 9.7198 1.0636
-18.8651 8.8784 1.0457
-18.9363 8.0949 1.0336
-18.8600 7.2732 1.0153
-18.8682 6.5085 1.0033
-18.8691 5.7597 0.9925
-18.8701 5.0271 0.9832
-18.8710 4.3083 0.9753
-18.9421 3.6145 0.9724
-18.8728 2.9035 0.9636
-18.8737 2.2135 0.9598
-14.3923 1.1660 0.7299
-14.3929 0.6472 0.7288
-14.3936 0.1300 0.7288
-14.4649 -0.3888 0.7332
-14.4656 -0.9093 0.7350
-14.3956 -1.4251 0.7342
-14.3962 -1.9493 0.7379
-14.3969 -2.4785 0.7427
-14.3976 -3.0144 0.7484
-14.3983 -3.5585 0.7552
-12.3205 -3.5188 0.6530
-14.3997 -4.6779 0.7722
-14.4209 -5.2642 0.7836
-14.4218 -5.8594 0.7952
-14.4020 -6.4629 0.8070
-14.4028 -7.0950 0.8214
-17.5366 -9.4356 1.0195
-12.3252 -7.2137 0.7317
-16.7594 -10.6346 1.0177
-16.7605 -11.4995 1.0429
-16.7617 -12.4082 1.0707
-16.7629 -13.3667 1.1015
-16.7642 -14.3818 1.1356
-16.7653 -15.4614 1.1732
-30.8660 -30.5874 2.2368
-29.0398 -30.9216 2.1849
-27.2399 -31.1760 2.1336
-26.0886 -32.1158 2.1336
-24.9056 -33.0139 2.1336
-23.6922 -33.8692 2.1336
-22.4518 -34.6835 2.1338
-21.1364 -35.3739 2.1291
-18.4770 -33.6071 1.9825
-18.7048 -37.1186 2.1495
-16.4056 -35.6891 2.0321
-7.0554 -16.9245 0.9490
-11.8826 -31.6586 1.7506
-13.2259 -39.4926 2.1568
-11.7963 -39.9302 2.1568
-9.3245 -36.3137 1.9427
-7.9654 -36.3992 1.9311
-6.5956 -36.3418 1.9147
-5.9509 -41.1475 2.1556
-4.0636 -37.5774 1.9600
-2.9774 -41.3883 2.1520
-1.4149 -39.3865 2.0442
-0.0002 -30.0322 2.2368
1.0779 -30.0120 2.2368
2.1546 -29.9538 2.2368
3.2286 -29.8576 2.2368
2.4485 -16.9305 1.2741
5.3631 -29.5516 2.2368
6.4210 -29.3422 2.2368
7.4710 -29.0955 2.2368
8.5116 -28.8118 2.2368
6.3010 -18.8148 1.4771
5.6034 -14.9290 1.1869
7.8409 -18.8086 1.5165
8.6445 -18.8053 1.5400
9.4748 -18.8019 1.5662
10.3354 -18.7984 1.5955
11.2314 -18.7965 1.6281
12.1685 -18.7977 1.6646
13.1504 -18.7989 1.7049
14.1409 -18.7443 1.7444
2.3882 -2.9398 0.2813
12.2975 -14.0741 1.3876
12.2987 -13.0954 1.3333
12.2999 -12.1886 1.2847
12.3009 -11.3440 1.2410
12.3019 -10.5534 1.2016
12.3029 -9.8099 1.1660
12.3038 -9.1078 1.1339
12.3046 -8.4420 1.1048
12.3054 -7.8081 1.0785
13.0229 -7.6218 1.1162
15.4139 -8.2931 1.2941
16.8395 -8.2949 1.3872
18.4902 -8.2970 1.4970
5.6313 -2.2877 0.4487
5.6316 -2.0555 0.4424
5.6319 -1.8294 0.4367
5.6322 -1.6084 0.4318
5.6324 -1.3919 0.4274
5.6327 -1.1791 0.4237
5.6330 -0.9696 0.4206
5.6332 -0.7625 0.4181
5.6335 -0.5575 0.4161
5.6338 -0.3539 0.4147
5.6340 -0.1512 0.4138
5.6343 0.0511 0.4135
5.6345 0.2536 0.4137
5.6348 0.4567 0.4144
5.6351 0.6611 0.4157
5.6353 0.8672 0.4175
5.6356 1.0756 0.4198
5.6359 1.2869 0.4228
5.6361 1.5017 0.4264
5.6364 1.7207 0.4305
5.6367 1.9446 0.4354
20.2468 7.8087 1.5836
18.3308 7.8367 1.4540
17.3451 8.1637 1.3974
17.2897 8.9092 1.4171
17.3010 9.7163 1.4449
17.3074 10.5544 1.4754
17.5505 11.5868 1.5299
19.9508 14.2254 1.7816
23.2767 17.8911 2.1336
23.7253 19.6300 2.2368
23.0160 20.4784 2.2368
22.2760 21.3008 2.2368
21.5064 22.0963 2.2368
20.7081 22.8636 2.2368
5.7502 6.8260 0.6469
5.7436 7.3373 0.6751
5.7444 7.9073 0.7079
5.7452 8.5369 0.7450
5.7461 9.2376 0.7874
5.7471 10.0245 0.8360
5.7514 10.9228 0.8929
5.7495 11.9403 0.9583
5.7511 13.1294 1.0362
10.5667 26.6912 2.0747
9.4738 26.6926 2.0465
8.4084 26.6940 2.0217
7.5287 27.2825 2.0441
6.4431 27.1082 2.0121
5.4668 27.3263 2.0121
4.7542 29.1726 2.1338
3.7045 29.3279 2.1338
2.6497 29.4449 2.1338
1.5913 29.5233 2.1338
0.5306 29.5631 2.1338
-0.5309 29.5642 2.1338
-1.5917 29.5266 2.1338
-2.6505 29.4503 2.1338
-3.7058 29.3354 2.1338
-4.7561 29.1822 2.1338
-5.4693 27.3373 2.0121
-6.4891 27.3005 2.0254
-7.5343 27.3019 2.0445
-8.4155 26.7155 2.0221
-9.4828 26.7169 2.0470
-10.5777 26.7183 2.0752
-11.7044 26.7198 2.1070
-12.8138 26.6103 2.1338
-13.8921 26.3828 2.1546
-15.1258 26.3830 2.1981
-16.3417 26.2710 2.2368
-6.6940 9.9466 0.8671
-18.1737 25.0164 2.2368
-10.4836 13.3921 1.2307
-11.0227 13.0846 1.2385
-20.7368 22.8949 2.2368
-21.5373 22.1277 2.2368
-22.3092 21.3322 2.2368
-23.0514 20.5095 2.2368
-23.7629 19.6609 2.2368
-19.1593 14.7261 1.7533
-23.9323 17.0641 2.1336
-24.5183 16.1868 2.1336
-25.0719 15.2892 2.1336
-25.5924 14.3726 2.1336
-18.8640 9.7203 1.5433
-18.8651 8.8790 1.5171
-18.8662 8.0655 1.4937
-18.8672 7.2765 1.4729
-18.8682 6.5090 1.4545
-18.8691 5.7602 1.4385
-18.8701 5.0276 1.4246
-18.8710 4.3088 1.4129
-18.8719 3.6016 1.4031
-18.8728 2.9040 1.3953
-18.8737 2.2140 1.3894
-14.3923 1.1664 1.0563
-14.3929 0.6476 1.0546
-14.3936 0.1304 1.0542
-14.3142 -0.3843 1.0493
-14.3149 -0.8994 1.0516
-14.3956 -1.4248 1.0613
-14.3962 -1.9489 1.0664
-14.3969 -2.4782 1.0729
-14.3976 -3.0141 1.0810
-14.3983 -3.5581 1.0905
-12.3205 -3.5184 0.9426
-14.3997 -4.6775 1.1145
-14.4250 -5.2652 1.1310
-14.4254 -5.8604 1.1474
-14.4020 -6.4625 1.1638
-14.4028 -7.0946 1.1844
-17.5376 -9.4356 1.4698
-12.3252 -7.2134 1.0545
-16.7594 -10.6341 1.4664
-16.7605 -11.4989 1.5024
-16.7617 -12.4076 1.5422
-16.7629 -13.3661 1.5862
-16.7642 -14.3812 1.6349
-16.7653 -15.4608 1.6889
-20.4570 -20.2716 2.1336
-19.7082 -20.9845 2.1337
-18.9348 -21.6700 2.1337
-18.1378 -22.3273 2.1337
-18.1550 -24.0647 2.2368
-17.2732 -24.6921 2.2368
-16.3701 -25.2876 2.2368
-10.4318 -17.4579 1.5106
-12.0861 -21.9822 1.8639
-13.5439 -26.8760 2.2368
-12.5669 -27.3374 2.2368
-7.0548 -16.9226 1.3634
-10.5677 -28.1546 2.2368
-9.5481 -28.5095 2.2368
-8.5167 -28.8281 2.2368
-7.4750 -29.1099 2.2368
-6.4241 -29.3546 2.2368
-5.3654 -29.5620 2.2368
-4.3001 -29.7319 2.2368
-3.2296 -29.8639 2.2368
-2.1553 -29.9581 2.2368
-1.0783 -30.0141 2.2368
-0.0002 -23.0201 2.2368
0.8262 -23.0048 2.2368
1.6516 -22.9603 2.2368
2.4748 -22.8864 2.2368
2.4385 -16.8611 1.6554
4.1109 -22.6514 2.2368
4.6946 -21.4524 2.1336
5.4621 -21.2716 2.1336
6.2228 -21.0636 2.1336
5.5965 -16.7109 1.7118
5.6035 -14.9290 1.5487
8.4543 -20.2797 2.1336
9.1783 -19.9660 2.1336
9.8907 -19.6268 2.1336
10.5908 -19.2625 2.1336
12.9863 -21.7328 2.4568
11.9686 -18.4883 2.1368
12.6274 -18.0507 2.1368
13.2703 -17.5898 2.1368
2.3877 -2.9392 0.3672
12.2975 -14.0736 1.8116
12.2987 -13.0949 1.7409
12.2999 -12.1881 1.6775
12.3009 -11.3436 1.6206
12.3019 -10.5530 1.5693
12.3029 -9.8096 1.5230
12.3038 -9.1074 1.4811
12.3046 -8.4416 1.4433
12.3054 -7.8077 1.4091
13.0235 -7.6218 1.4585
15.4147 -8.2931 1.6913
16.8405 -8.2949 1.8132
18.4913 -8.2970 1.9568
5.6313 -2.2876 0.5866
5.6316 -2.0554 0.5784
5.6319 -1.8292 0.5710
5.6322 -1.6082 0.5646
5.6324 -1.3917 0.5590
5.6327 -1.1790 0.5543
5.6330 -0.9694 0.5503
5.6332 -0.7624 0.5471
5.6335 -0.5574 0.5446
5.6338 -0.3538 0.5428
5.6340 -0.1511 0.5417
5.6343 0.0513 0.5413
5.6345 0.2537 0.5416
5.6348 0.4569 0.5426
5.6351 0.6612 0.5444
5.6353 0.8673 0.5468
5.6356 1.0758 0.5500
5.6359 1.2871 0.5539
5.6361 1.5019 0.5587
5.6364 1.7209 0.5642
5.6367 1.9448 0.5706
20.2527 7.8115 2.0764
20.5488 8.7855 2.1368
17.3049 8.1453 1.8280
17.2872 8.9084 1.8580
17.2911 9.7113 1.8939
19.1106 11.6546 2.1368
17.3014 11.4230 1.9784
18.2391 13.0055 2.1368
17.7671 13.6568 2.1368
17.2716 14.2909 2.1368
16.7281 14.8844 2.1336
16.1888 15.4807 2.1336
15.6281 16.0573 2.1337
15.0467 16.6134 2.1337
5.7498 6.8257 0.8493
5.7436 7.3375 0.8865
5.7444 7.9076 0.9296
5.7452 8.5372 0.9784
5.7461 9.2379 1.0341
5.7471 10.0248 1.0981
5.7511 10.9227 1.1728
5.7495 11.9407 1.2589
5.7511 13.1298 1.3613
8.6712 21.9041 2.2368
7.8809 22.2052 2.2368
7.0800 22.4775 2.2368
4.2608 15.4409 1.5202
3.7789 15.8997 1.5507
4.6247 23.1178 2.2368
3.7924 23.2713 2.2368
2.9549 23.3946 2.2368
2.1135 23.4873 2.2368
1.2692 23.5495 2.2368
0.4232 23.5809 2.2368
-0.4235 23.5816 2.2368
-1.2696 23.5515 2.2368
-2.1141 23.4906 2.2368
-2.9558 23.3992 2.2368
-3.7937 23.2772 2.2368
-4.6265 23.1249 2.2368
-5.4531 22.9424 2.2368
-6.2725 22.7300 2.2368
-7.0836 22.4880 2.2368
-7.8853 22.2168 2.2368
-8.6765 21.9166 2.2368
-9.4562 21.5880 2.2368
-10.2234 21.2313 2.2368
-10.9769 20.8471 2.2368
-11.7159 20.4358 2.2368
-12.4394 19.9981 2.2368
-6.6938 9.9466 1.1390
-13.1972 18.1666 2.1336
-10.6975 13.6658 1.6495
-14.4592 17.1645 2.1336
-15.0620 16.6300 2.1336
-15.6448 16.0742 2.1336
-14.7883 14.1413 1.9468
-15.2818 13.5972 1.9468
-15.7550 13.0358 1.9468
-16.2075 12.4578 1.9468
-16.6386 11.8641 1.9468
-17.0478 11.2554 1.9468
-17.4346 10.6324 1.9468
-13.5893 7.6321 1.4864
-14.2730 7.3550 1.5319
-18.4560 8.6869 1.9468
-18.8662 8.0660 1.9590
-18.8672 7.2770 1.9315
-18.8682 6.5095 1.9072
-14.3491 4.3808 1.4342
-11.0989 2.9574 1.0985
-11.6123 2.6517 1.1396
-11.6983 2.2329 1.1399
-11.4155 1.7568 1.1060
-18.8737 2.2144 1.8204
-14.3923 1.1668 1.3838
-14.3929 0.6480 1.3814
-14.3936 0.1308 1.3807
-14.3942 -0.3861 1.3818
-14.3949 -0.9041 1.3847
-14.3956 -1.4244 1.3894
-14.3962 -1.9485 1.3959
-14.3969 -2.4778 1.4043
-14.3976 -3.0137 1.4146
-14.3983 -3.5577 1.4269
-12.3204 -3.5181 1.2333
-14.3997 -4.6770 1.4579
-14.4146 -5.2610 1.4782
-14.4148 -5.8557 1.4995
-14.4020 -6.4621 1.5219
-14.4028 -7.0941 1.5486
-17.5386 -9.4356 1.9217
-12.3252 -7.2130 1.3785
-16.7594 -10.6336 1.9167
-16.7605 -11.4984 1.9635
-16.7617 -12.4070 2.0153
-16.7629 -13.3655 2.0726
-16.7053 -14.3300 2.1284
-16.1957 -14.9349 2.1312
-15.6439 -15.5015 2.1312
-15.1002 -16.0774 2.1351
-14.5686 -16.6724 2.1439
-13.9754 -17.2029 2.1468
-13.3450 -17.6884 2.1468
-12.6979 -18.1511 2.1468
-12.0349 -18.5903 2.1468
-10.4217 -17.4406 1.9701
-10.5991 -19.2769 2.1336
-9.8979 -19.6404 2.1336
-9.1844 -19.9787 2.1336
-7.0223 -16.8440 1.7711
-8.0981 -21.5742 2.2368
-7.3171 -21.8473 2.2368
-6.5270 -22.0925 2.2368
-5.7289 -22.3094 2.2368
-4.9237 -22.4978 2.2368
-4.1124 -22.6576 2.2368
-3.2960 -22.7884 2.2368
-2.4756 -22.8902 2.2368
-1.6521 -22.9628 2.2368
-0.8266 -23.0061 2.2368
-0.0002 -18.6472 2.2368
0.6693 -18.6349 2.2368
1.3379 -18.5988 2.2368
1.9122 -17.6832 2.1336
2.4361 -16.8446 2.0416
3.1763 -17.5014 2.1336
3.8028 -17.3769 2.1336
4.4244 -17.2302 2.1336
5.0405 -17.0615 2.1336
5.6503 -16.8709 2.1336
5.6036 -14.9289 1.9120
5.5854 -13.3977 1.7403
7.4452 -16.1955 2.1368
8.0228 -15.9199 2.1368
8.5905 -15.6238 2.1368
9.1472 -15.3077 2.1368
9.6925 -14.9719 2.1368
10.2256 -14.6169 2.1368
10.7457 -14.2431 2.1368
2.3873 -2.9386 0.4534
11.7448 -13.4408 2.1368
12.2225 -13.0133 2.1368
12.2999 -12.1877 2.0720
12.3009 -11.3431 2.0018
12.3019 -10.5526 1.9385
12.3029 -9.8092 1.8815
12.3038 -9.1071 1.8299
12.3046 -8.4412 1.7833
12.3054 -7.8074 1.7411
13.0241 -7.6218 1.8024
15.4155 -8.2931 2.0902
16.0588 -7.9095 2.1368
16.3374 -7.3301 2.1368
5.6313 -2.2874 0.7251
5.6316 -2.0553 0.7149
5.6319 -1.8291 0.7060
5.6322 -1.6081 0.6981
5.6324 -1.3916 0.6912
5.6327 -1.1788 0.6854
5.6330 -0.9693 0.6805
5.6332 -0.7622 0.6766
5.6335 -0.5572 0.6735
5.6338 -0.3536 0.6714
5.6340 -0.1509 0.6701
5.6343 0.0514 0.6697
5.6345 0.2539 0.6701
5.6348 0.4570 0.6714
5.6351 0.6614 0.6736
5.6353 0.8675 0.6767
5.6356 1.0759 0.6807
5.6359 1.2872 0.6856
5.6361 1.5020 0.6915
5.6364 1.7211 0.6985
5.6367 1.9449 0.7064
16.8334 6.4932 2.1368
16.5950 7.0956 2.1368
16.3351 7.6892 2.1368
16.0538 8.2734 2.1368
15.7516 8.8471 2.1368
15.4288 9.4098 2.1368
15.0858 9.9606 2.1368
14.7231 10.4989 2.1368
14.3410 11.0239 2.1368
13.9402 11.5349 2.1368
13.5210 12.0313 2.1368
13.0841 12.5123 2.1368
12.6299 12.9773 2.1368
12.1592 13.4258 2.1368
5.7493 6.8254 1.0525
5.7436 7.3378 1.0987
5.7444 7.9079 1.1522
5.7452 8.5375 1.2128
5.7461 9.2382 1.2820
5.7471 10.0251 1.3614
5.7508 10.9226 1.4540
5.7495 11.9411 1.5608
5.7511 13.1302 1.6878
6.6710 16.8519 2.1337
6.0628 17.0832 2.1337
5.4465 17.2922 2.1337
5.0560 18.3233 2.2368
4.3956 18.4950 2.2368
3.7293 18.6427 2.2368
3.0581 18.7661 2.2368
2.3827 18.8652 2.2368
1.7042 18.9397 2.2368
1.0234 18.9896 2.2368
0.3412 19.0147 2.2368
-0.3415 19.0152 2.2368
-1.0238 18.9908 2.2368
-1.7047 18.9418 2.2368
-2.3834 18.8681 2.2368
-3.0590 18.7699 2.2368
-3.7306 18.6472 2.2368
-4.3972 18.5003 2.2368
-5.0580 18.3294 2.2368
-5.7122 18.1346 2.2368
-6.3588 17.9163 2.2368
-6.9970 17.6746 2.2368
-7.6260 17.4101 2.2368
-8.2449 17.1230 2.2368
-8.4443 16.0375 2.1336
-9.0131 15.7217 2.1336
-9.5700 15.3856 2.1336
-6.6936 9.9466 1.4120
-10.2939 14.1706 2.0632
-10.2952 13.1524 1.9679
-10.6434 12.6352 1.9468
-11.0876 12.2423 1.9468
-11.5173 11.8338 1.9468
-11.9318 11.4101 1.9468
-12.3306 10.9718 1.9468
-12.7132 10.5195 1.9468
-13.0791 10.0537 1.9468
-13.4279 9.5752 1.9468
-13.7591 9.0845 1.9468
-14.0723 8.5823 1.9468
-13.8295 7.7674 1.8740
-14.6429 7.5461 1.9468
-14.8998 7.0135 1.9468
-15.1372 6.4721 1.9468
-15.3548 5.9227 1.9468
-15.5524 5.3660 1.9468
-13.9230 4.2511 1.7232
-10.7314 2.8598 1.3151
-10.4171 2.3791 1.2657
-10.4795 2.0005 1.2642
-10.9555 1.6863 1.3139
-16.3067 1.9137 1.9468
-14.3923 1.1672 1.7128
-14.3929 0.6483 1.7096
-14.3936 0.1312 1.7086
-14.3942 -0.3857 1.7098
-14.3949 -0.9037 1.7133
-14.3956 -1.4240 1.7189
-14.3962 -1.9481 1.7269
-14.3969 -2.4774 1.7371
-14.3976 -3.0133 1.7497
-14.3983 -3.5574 1.7648
-12.3204 -3.5178 1.5252
-14.3997 -4.6766 1.8028
-14.4042 -5.2568 1.8265
-14.4042 -5.8509 1.8525
-14.4020 -6.4616 1.8815
-14.4028 -7.0937 1.9143
-15.6204 -8.4032 2.1156
-12.3251 -7.2126 1.7038
-14.9514 -9.4860 2.1133
-14.6055 -10.0195 2.1145
-14.2428 -10.5421 2.1161
-13.9130 -11.0927 2.1256
-13.5793 -11.6481 2.1378
-13.1833 -12.1565 2.1434
-12.7344 -12.6180 2.1433
-12.2869 -13.0816 2.1462
-11.8097 -13.5147 2.1468
-11.3142 -13.9266 2.1468
-10.8044 -14.3204 2.1468
-10.2176 -14.6050 2.1336
-9.6847 -14.9594 2.1336
-9.1396 -15.2945 2.1336
-8.5831 -15.6099 2.1337
-8.0158 -15.9052 2.1337
-7.4384 -16.1801 2.1337
-6.8517 -16.4343 2.1337
-6.3164 -16.8270 2.1542
-5.9264 -17.6943 2.2368
-5.2866 -17.8934 2.2368
-4.6403 -18.0695 2.2368
-3.9882 -18.2227 2.2368
-3.3311 -18.3524 2.2368
-2.6699 -18.4587 2.2368
-2.0053 -18.5414 2.2368
-1.3383 -18.6005 2.2368
-0.6696 -18.6358 2.2368
-0.0002 -15.6569 2.2368
0.5619 -15.6467 2.2368
1.1233 -15.6163 2.2368
1.6833 -15.5661 2.2368
2.1376 -14.7806 2.1336
2.6670 -14.6947 2.1336
3.1930 -14.5901 2.1336
3.7149 -14.4668 2.1336
4.2322 -14.3250 2.1336
4.7441 -14.1648 2.1336
5.2500 -13.9865 2.1336
5.7492 -13.7902 2.1336
6.2508 -13.5970 2.1368
5.5825 -11.0771 1.7710
7.2120 -13.1164 2.1368
7.6793 -12.8507 2.1368
8.1368 -12.5685 2.1368
8.5841 -12.2701 2.1368
9.0205 -11.9560 2.1368
2.3869 -2.9380 0.5400
9.8585 -11.2817 2.1368
10.2591 -10.9225 2.1368
10.6467 -10.5492 2.1368
11.0207 -10.1622 2.1368
11.3808 -9.7621 2.1368
11.7265 -9.3492 2.1368
12.0573 -8.9242 2.1368
12.3046 -8.4409 2.1251
12.3054 -7.8070 2.0750
12.9561 -7.5816 2.1368
13.2232 -7.1133 2.1368
13.4735 -6.6357 2.1368
5.5604 -2.4946 0.8669
5.6200 -2.2827 0.8626
5.6316 -2.0551 0.8523
5.6319 -1.8289 0.8416
5.6322 -1.6079 0.8322
5.6324 -1.3914 0.8241
5.6327 -1.1787 0.8172
5.6330 -0.9691 0.8114
5.6332 -0.7621 0.8068
5.6335 -0.5571 0.8032
5.6338 -0.3535 0.8007
5.6340 -0.1508 0.7992
5.6343 0.0516 0.7987
5.6345 0.2540 0.7993
5.6348 0.4572 0.8009
5.6351 0.6615 0.8036
5.6353 0.8677 0.8073
5.6356 1.0761 0.8121
5.6359 1.2874 0.8180
5.6361 1.5022 0.8251
5.6364 1.7212 0.8334
5.6367 1.9451 0.8430
14.1057 5.4414 2.1368
13.9052 5.9459 2.1368
13.6867 6.4430 2.1368
13.4503 6.9320 2.1368
13.1964 7.4124 2.1368
12.9253 7.8834 2.1368
12.6373 8.3444 2.1368
12.3329 8.7949 2.1368
12.0123 9.2342 2.1368
11.6760 9.6618 2.1368
11.3244 10.0771 2.1368
10.9579 10.4795 2.1368
10.5771 10.8685 2.1368
10.1824 11.2436 2.1368
5.7489 6.8252 1.2568
5.7436 7.3381 1.3122
5.7444 7.9082 1.3760
5.7452 8.5378 1.4485
5.7461 9.2385 1.5311
5.7471 10.0255 1.6260
5.7131 10.8512 1.7252
6.5901 13.6874 2.1368
6.0862 13.8959 2.1336
5.5843 14.1073 2.1336
5.0751 14.3006 2.1336
4.5592 14.4754 2.1336
4.0372 14.6314 2.1337
3.5098 14.7685 2.1337
2.9778 14.8864 2.1337
2.5598 15.7088 2.2368
1.9944 15.7915 2.2368
1.4265 15.8537 2.2368
0.8566 15.8954 2.2368
0.2855 15.9163 2.2368
-0.2859 15.9166 2.2368
-0.8570 15.8963 2.2368
-1.4269 15.8552 2.2368
-1.9950 15.7936 2.2368
-2.5605 15.7114 2.2368
-3.1227 15.6089 2.2368
-3.6807 15.4860 2.2368
-4.2339 15.3431 2.2368
-4.7815 15.1802 2.2368
-5.3228 14.9977 2.2368
-5.8572 14.7957 2.2368
-6.3838 14.5745 2.2368
-6.5834 13.6728 2.1336
-7.0691 13.4261 2.1336
-7.5455 13.1621 2.1336
-8.0119 12.8810 2.1336
-6.6934 9.9465 1.6866
-8.9126 12.2694 2.1336
-9.3457 11.9396 2.1336
-9.7665 11.5945 2.1336
-10.1745 11.2344 2.1336
-10.2985 10.5819 2.0790
-10.2995 9.8495 2.0069
-10.3258 9.1883 1.9468
-10.6467 8.8098 1.9468
-10.9536 8.4202 1.9468
-11.2461 8.0197 1.9468
-11.5240 7.6091 1.9468
-11.7869 7.1889 1.9468
-12.0343 6.7595 1.9468
-12.2660 6.3216 1.9468
-12.4818 5.8757 1.9468
-12.6813 5.4224 1.9468
-12.8643 4.9624 1.9468
-13.0305 4.4963 1.9468
-13.1799 4.0245 1.9468
-13.3121 3.5479 1.9468
-10.5819 2.4170 1.5343
-10.6371 2.0309 1.5312
-13.6045 2.0944 1.9468
-13.6669 1.6043 1.9468
-13.7117 1.1124 1.9468
-13.7387 0.6193 1.9468
-13.7480 0.1257 1.9468
-13.7395 -0.3678 1.9468
-13.7134 -0.8605 1.9468
-13.6696 -1.3518 1.9468
-13.6082 -1.8411 1.9468
-13.5293 -2.3277 1.9468
-13.4330 -2.8110 1.9468
-13.3376 -3.2949 1.9495
-12.3204 -3.5174 1.8186
-13.0592 -4.2409 1.9495
-12.8948 -4.7056 1.9495
-12.7140 -5.1640 1.9495
-12.5169 -5.6155 1.9495
-12.3038 -6.0596 1.9495
-12.2415 -6.5851 1.9764
-12.2423 -7.1637 2.0173
-12.7433 -8.0846 2.1468
-12.4416 -8.5346 2.1468
-12.1241 -8.9735 2.1468
-11.7913 -9.4006 2.1468
-11.4434 -9.8155 2.1468
-11.0811 -10.2176 2.1468
-10.7047 -10.6064 2.1468
-10.2511 -10.9137 2.1336
-9.8507 -11.2724 2.1336
-9.4377 -11.6164 2.1336
-9.0129 -11.9455 2.1336
-8.5767 -12.2592 2.1337
-8.1297 -12.5570 2.1337
-7.6724 -12.8387 2.1337
-7.2054 -13.1038 2.1337
-6.7293 -13.3521 2.1337
-6.2791 -13.6578 2.1455
-6.0302 -14.4633 2.2368
-5.5063 -14.6686 2.2368
-4.9756 -14.8551 2.2368
-4.4386 -15.0226 2.2368
-3.8960 -15.1708 2.2368
-3.3486 -15.2995 2.2368
-2.7969 -15.4087 2.2368
-2.2417 -15.4982 2.2368
-1.6838 -15.5678 2.2368
-1.1237 -15.6175 2.2368
-0.5623 -15.6472 2.2368
-0.0002 -13.4811 2.2368
0.4838 -13.4723 2.2368
0.9672 -13.4462 2.2368
1.4494 -13.4029 2.2368
1.8406 -12.7266 2.1336
2.2964 -12.6526 2.1336
2.7493 -12.5624 2.1336
3.1987 -12.4561 2.1336
3.6440 -12.3339 2.1336
4.0847 -12.1959 2.1336
4.5203 -12.0422 2.1336
4.9501 -11.8731 2.1336
5.3737 -11.6887 2.1336
5.7992 -11.5069 2.1368
6.2093 -11.2924 2.1368
5.6288 -9.4192 1.8193
5.6225 -8.6845 1.7151
7.3901 -10.5632 2.1368
7.7657 -10.2925 2.1368
2.3865 -2.9374 0.6271
8.4868 -9.7116 2.1368
8.8314 -9.4022 2.1368
9.1648 -9.0806 2.1368
9.4865 -8.7472 2.1368
9.7962 -8.4025 2.1368
10.0934 -8.0469 2.1368
10.3778 -7.6809 2.1368
10.6490 -7.3048 2.1368
10.9066 -6.9192 2.1368
11.1503 -6.5246 2.1368
11.3799 -6.1214 2.1368
11.5948 -5.7102 2.1368
5.4530 -2.4463 0.9879
5.4649 -2.2195 0.9748
5.4756 -1.9980 0.9630
5.4852 -1.7811 0.9526
5.4936 -1.5682 0.9434
5.5009 -1.3588 0.9355
5.5072 -1.1523 0.9287
5.5125 -0.9482 0.9230
5.5168 -0.7462 0.9184
5.5202 -0.5457 0.9149
5.5227 -0.3464 0.9124
5.5242 -0.1477 0.9110
5.5249 0.0507 0.9106
5.5246 0.2492 0.9112
5.5234 0.4483 0.9128
5.5213 0.6483 0.9155
5.5182 0.8498 0.9192
5.5142 1.0530 0.9240
5.5092 1.2586 0.9299
5.5032 1.4669 0.9369
5.4962 1.6786 0.9452
5.4881 1.8940 0.9546
12.1278 4.6788 2.1368
11.9550 5.1124 2.1368
11.7667 5.5395 2.1368
11.5630 5.9597 2.1368
11.3444 6.3724 2.1368
11.1109 6.7771 2.1368
10.8630 7.1732 2.1368
10.6009 7.5601 2.1368
10.3249 7.9375 2.1368
10.0355 8.3047 2.1368
9.7330 8.6614 2.1368
9.4178 9.0069 2.1368
9.0902 9.3410 2.1368
8.7507 9.6630 2.1368
5.7484 6.8249 1.4623
5.7436 7.3383 1.5269
5.7444 7.9085 1.6013
5.7452 8.5380 1.6857
5.6881 9.1456 1.7639
6.4897 11.3213 2.1368
6.0800 11.5485 2.1368
5.6538 11.7430 2.1336
5.2294 11.9399 2.1336
4.7981 12.1214 2.1336
4.3605 12.2872 2.1337
3.9171 12.4372 2.1337
3.4685 12.5710 2.1337
3.0154 12.6885 2.1337
2.5583 12.7896 2.1337
2.0978 12.8741 2.1338
1.7134 13.5671 2.2368
1.2255 13.6204 2.2368
0.7359 13.6561 2.2368
0.2453 13.6741 2.2368
-0.2456 13.6743 2.2368
-0.7362 13.6568 2.2368
-1.2259 13.6215 2.2368
-1.7139 13.5686 2.2368
-2.1998 13.4980 2.2368
-2.6827 13.4100 2.2368
-3.1621 13.3046 2.2368
-3.6374 13.1819 2.2368
-4.1079 13.0421 2.2368
-4.5730 12.8854 2.2368
-5.0322 12.7120 2.2368
-5.4847 12.5221 2.2368
-5.9300 12.3161 2.2368
-6.2561 11.8824 2.1977
-6.4830 11.3091 2.1336
-6.8839 11.0679 2.1336
-6.6932 9.9465 1.9627
-7.6581 10.5428 2.1336
-8.0304 10.2597 2.1336
-6.6521 7.8975 1.6912
-7.0968 7.8364 1.7319
-9.0824 9.3326 2.1336
-9.4099 8.9991 2.1336
-9.7251 8.6540 2.1336
-10.0275 8.2978 2.1336
-10.3020 7.9196 2.1305
-10.3027 7.3473 2.0752
-10.3034 6.8035 2.0252
-10.3041 6.2848 1.9801
-10.3441 5.8104 1.9468
-10.5436 5.4342 1.9468
-10.7295 5.0511 1.9468
-10.9013 4.6617 1.9468
-11.0591 4.2664 1.9468
-11.2024 3.8658 1.9468
-11.3312 3.4603 1.9468
-11.4453 3.0507 1.9468
-11.0200 2.5174 1.8584
-10.6952 2.0423 1.7905
-11.6982 1.8013 1.9468
-11.7523 1.3799 1.9468
-11.7913 0.9569 1.9468
-11.8150 0.5329 1.9468
-11.8234 0.1084 1.9468
-11.8167 -0.3160 1.9468
-11.7946 -0.7398 1.9468
-11.7574 -1.1624 1.9468
-11.7051 -1.5833 1.9468
-11.6377 -2.0019 1.9468
-11.4961 -2.4054 1.9368
-11.3994 -2.8158 1.9368
-12.2376 -3.4934 2.0998
-12.2382 -3.9740 2.1235
-12.2173 -4.4580 2.1468
-12.0465 -4.8925 2.1468
-11.8602 -5.3206 2.1468
-11.6588 -5.7415 2.1468
-11.4424 -6.1549 2.1468
-11.2115 -6.5602 2.1468
-10.9663 -6.9569 2.1468
-10.7071 -7.3444 2.1468
-10.4342 -7.7224 2.1468
-10.0855 -8.0403 2.1336
-9.7883 -8.3955 2.1336
-9.4788 -8.7398 2.1336
-9.1571 -9.0727 2.1336
-8.8239 -9.3939 2.1337
-8.4795 -9.7029 2.1337
-8.1242 -9.9993 2.1337
-7.7587 -10.2829 2.1337
-7.3834 -10.5531 2.1337
-6.9987 -10.8098 2.1337
-6.6052 -11.0525 2.1337
-6.2710 -11.4041 2.1570
-6.0734 -12.0502 2.2368
-5.6361 -12.2590 2.2368
-5.1918 -12.4519 2.2368
-4.7408 -12.6289 2.2368
-4.2839 -12.7897 2.2368
-3.8216 -12.9341 2.2368
-3.3545 -13.0618 2.2368
-2.8832 -13.1728 2.2368
-2.4082 -13.2670 2.2368
-1.9302 -13.3441 2.2368
-1.4498 -13.4042 2.2368
-0.9676 -13.4471 2.2368
-0.4842 -13.4727 2.2368
-0.0002 -11.8254 2.2368
0.4244 -11.8177 2.2368
0.8484 -11.7948 2.2368
1.2714 -11.7568 2.2368
1.6927 -11.7037 2.2368
2.0144 -11.0986 2.1336
2.4116 -11.0194 2.1336
2.8058 -10.9262 2.1336
3.1965 -10.8189 2.1336
3.5830 -10.6977 2.1336
3.9651 -10.5628 2.1336
4.3421 -10.4144 2.1336
4.7135 -10.2526 2.1336
5.0790 -10.0776 2.1336
5.4381 -9.8897 2.1336
5.7902 -9.6890 2.1336
6.1444 -9.4903 2.1368
6.4819 -9.2647 2.1368
5.5858 -7.4030 1.7524
2.3860 -2.9367 0.7149
7.4433 -8.5173 2.1368
7.7454 -8.2458 2.1368
8.0377 -7.9635 2.1368
8.3197 -7.6710 2.1368
8.5911 -7.3686 2.1368
8.8515 -7.0565 2.1368
9.1007 -6.7354 2.1368
9.3383 -6.4054 2.1368
9.5640 -6.0672 2.1368
9.7775 -5.7210 2.1368
9.9785 -5.3673 2.1368
10.1667 -5.0066 2.1368
5.4472 -2.4435 1.1255
5.4475 -2.2123 1.1082
5.4478 -1.9877 1.0928
5.4481 -1.7689 1.0792
5.4484 -1.5552 1.0673
5.4486 -1.3457 1.0569
5.4489 -1.1399 1.0481
5.4492 -0.9372 1.0408
5.4494 -0.7369 1.0349
5.4497 -0.5386 1.0304
5.4499 -0.3416 1.0272
5.4502 -0.1456 1.0254
5.4504 0.0502 1.0249
5.4507 0.2460 1.0257
5.4509 0.4426 1.0278
5.4512 0.6403 1.0313
5.4514 0.8396 1.0362
5.4517 1.0413 1.0424
5.4520 1.2457 1.0501
5.4522 1.4535 1.0593
5.4525 1.6654 1.0700
5.4528 1.8819 1.0824
5.4530 2.1040 1.0965
10.4750 4.4798 2.1368
10.3097 4.8539 2.1368
10.1309 5.2219 2.1368
9.9390 5.5833 2.1368
9.7342 5.9377 2.1368
9.5168 6.2845 2.1368
9.2869 6.6234 2.1368
9.0449 6.9538 2.1368
8.7912 7.2753 2.1368
8.5259 7.5875 2.1368
8.2496 7.8900 2.1368
7.9625 8.1825 2.1368
7.6649 8.4644 2.1368
5.7480 6.8246 1.6694
5.7004 7.2834 1.7302
6.7139 9.2436 2.1368
6.3787 9.4799 2.1368
6.0352 9.7041 2.1368
5.6751 9.9006 2.1336
5.3168 10.0993 2.1336
4.9516 10.2848 2.1336
4.5798 10.4572 2.1336
4.2020 10.6159 2.1337
3.8187 10.7610 2.1337
3.4304 10.8922 2.1337
3.0375 11.0092 2.1337
2.6407 11.1120 2.1337
2.2403 11.2004 2.1337
1.8370 11.2743 2.1338
1.5004 11.8810 2.2368
1.0731 11.9277 2.2368
0.6444 11.9589 2.2368
0.2148 11.9746 2.2368
-0.2151 11.9748 2.2368
-0.6447 11.9594 2.2368
-1.0735 11.9286 2.2368
-1.5009 11.8822 2.2368
-1.9263 11.8205 2.2368
-2.3493 11.7434 2.2368
-2.7691 11.6511 2.2368
-3.1853 11.5438 2.2368
-3.5974 11.4214 2.2368
-4.0047 11.2843 2.2368
-4.4068 11.1326 2.2368
-4.8032 10.9664 2.2368
-5.1932 10.7861 2.2368
-5.5765 10.5918 2.2368
-5.9524 10.3838 2.2368
-6.2510 10.0505 2.2122
-6.3721 9.4697 2.1336
-6.7071 9.2338 2.1336
-7.0333 8.9860 2.1336
-7.3503 8.7266 2.1336
-7.6577 8.4560 2.1336
-7.9551 8.1745 2.1336
-8.2421 7.8826 2.1336
-8.5183 7.5805 2.1336
-8.7835 7.2686 2.1336
-9.0371 6.9475 2.1336
-9.2790 6.6176 2.1336
-9.5089 6.2791 2.1336
-9.7263 5.9327 2.1336
-9.9311 5.5787 2.1336
-10.1229 5.2176 2.1336
-10.3059 4.8520 2.1345
-10.3065 4.4076 2.1009
-10.3070 3.9765 2.0710
-10.3076 3.5572 2.0445
-10.3081 3.1482 2.0213
-10.3086 2.7480 2.0012
-10.3091 2.3553 1.9840
-10.3096 1.9689 1.9697
-10.3101 1.5878 1.9581
-10.3106 1.2108 1.9491
-10.3332 0.8388 1.9468
-10.3543 0.4673 1.9468
-10.3621 0.0953 1.9468
-10.3564 -0.2767 1.9468
-10.3375 -0.6481 1.9468
-10.3134 -1.0194 1.9484
-10.3139 -1.3948 1.9571
-10.3144 -1.7740 1.9685
-10.3149 -2.1579 1.9826
-10.3154 -2.5477 1.9994
-10.3159 -2.9445 2.0192
-10.8463 -3.5217 2.1468
-10.7106 -3.9079 2.1468
-10.5611 -4.2890 2.1468
-10.3981 -4.6643 2.1468
-10.1595 -5.0028 2.1338
-9.9712 -5.3632 2.1338
-9.7703 -5.7165 2.1338
-9.5568 -6.0624 2.1338
-9.3306 -6.4000 2.1336
-9.0932 -6.7295 2.1336
-8.8441 -7.0503 2.1337
-8.5837 -7.3620 2.1337
-8.3124 -7.6641 2.1337
-8.0306 -7.9562 2.1337
-7.7385 -8.2380 2.1337
-7.4366 -8.5092 2.1337
-7.1252 -8.7694 2.1337
-6.8048 -9.0182 2.1337
-6.4757 -9.2555 2.1338
-6.2629 -9.6730 2.1770
-6.0732 -10.1620 2.2368
-5.7037 -10.3722 2.2368
-5.3270 -10.5690 2.2368
-4.9436 -10.7523 2.2368
-4.5539 -10.9217 2.2368
-4.1584 -11.0771 2.2368
-3.7577 -11.2182 2.2368
-3.3522 -11.3450 2.2368
-2.9425 -11.4572 2.2368
-2.5291 -11.5546 2.2368
-2.1125 -11.6373 2.2368
-1.6932 -11.7051 2.2368
-1.2718 -11.7578 2.2368
-0.8488 -11.7955 2.2368
-0.4247 -11.8180 2.2368
-0.0002 -10.5221 2.2368
0.3776 -10.5152 2.2368
0.7549 -10.4949 2.2368
1.1313 -10.4611 2.2368
1.5062 -10.4138 2.2368
1.7960 -9.8950 2.1378
2.1459 -9.8049 2.1336
2.4966 -9.7218 2.1336
2.8442 -9.6263 2.1336
3.1881 -9.5185 2.1336
3.5280 -9.3984 2.1336
3.8634 -9.2662 2.1336
4.1939 -9.1222 2.1336
4.5191 -8.9664 2.1336
4.8385 -8.7991 2.1336
5.1518 -8.6205 2.1336
5.4585 -8.4308 2.1336
5.7583 -8.2302 2.1336
6.0599 -8.0313 2.1368
2.3856 -2.9361 0.8034
5.6266 -6.4382 1.8156
5.5939 -5.9550 1.7346
7.1508 -7.0846 2.1368
7.4015 -6.8242 2.1368
7.6429 -6.5550 2.1368
7.8744 -6.2773 2.1368
8.0960 -5.9915 2.1368
8.3072 -5.6979 2.1368
8.5078 -5.3969 2.1368
8.6975 -5.0888 2.1368
8.8761 -4.7741 2.1368
9.0434 -4.4531 2.1368
5.4472 -2.4434 1.2653
5.4475 -2.2122 1.2459
5.4478 -1.9876 1.2286
5.4481 -1.7688 1.2134
5.4484 -1.5550 1.2000
5.4486 -1.3456 1.1884
5.4489 -1.1398 1.1785
5.4492 -0.9370 1.1703
5.4494 -0.7368 1.1637
5.4497 -0.5385 1.1586
5.4499 -0.3415 1.1551
5.4502 -0.1454 1.1531
5.4504 0.0503 1.1525
5.4507 0.2462 1.1535
5.4509 0.4427 1.1559
5.4512 0.6404 1.1599
5.4514 0.8398 1.1653
5.4517 1.0414 1.1724
5.4520 1.2458 1.1811
5.4522 1.4537 1.1914
5.4525 1.6655 1.2035
5.4528 1.8821 1.2175
5.4530 2.1041 1.2334
9.3123 3.9828 2.1368
9.1651 4.3153 2.1368
9.0060 4.6424 2.1368
8.8353 4.9636 2.1368
8.6530 5.2785 2.1368
8.4595 5.5866 2.1368
8.2550 5.8877 2.1368
8.0397 6.1813 2.1368
7.8140 6.4669 2.1368
7.5781 6.7443 2.1368
7.3324 7.0131 2.1368
7.0770 7.2729 2.1368
6.8125 7.5233 2.1368
5.7476 6.8243 1.8782
6.2570 7.9949 2.1368
5.9669 8.2154 2.1368
5.6603 8.4125 2.1336
5.3554 8.6114 2.1336
5.0435 8.7991 2.1336
4.7251 8.9755 2.1336
4.4004 9.1403 2.1336
4.0699 9.2933 2.1337
3.7342 9.4343 2.1337
3.3935 9.5631 2.1337
3.0484 9.6796 2.1337
2.6992 9.7835 2.1337
2.3466 9.8748 2.1337
1.9908 9.9532 2.1338
1.7112 10.5028 2.2368
1.3333 10.5579 2.2368
0.9536 10.5993 2.2368
0.5726 10.6270 2.2368
0.1908 10.6409 2.2368
-0.1912 10.6411 2.2368
-0.5729 10.6274 2.2368
-0.9539 10.6000 2.2368
-1.3337 10.5588 2.2368
-1.7118 10.5040 2.2368
-2.0876 10.4355 2.2368
-2.4607 10.3536 2.2368
-2.8305 10.2582 2.2368
-3.1967 10.1496 2.2368
-3.5587 10.0278 2.2368
-3.9161 9.8930 2.2368
-4.2683 9.7454 2.2368
-4.6149 9.5853 2.2368
-4.9556 9.4127 2.2368
-5.2897 9.2280 2.2368
-5.6170 9.0314 2.2368
-5.9369 8.8231 2.2368
-6.2490 8.6034 2.2368
-6.2661 8.0061 2.1389
-6.5324 7.7558 2.1336
-6.8056 7.5154 2.1336
-7.0701 7.2654 2.1336
-7.3252 7.0060 2.1336
-7.5709 6.7376 2.1336
-7.8067 6.4606 2.1336
-8.0323 6.1753 2.1336
-8.2475 5.8821 2.1336
-8.4519 5.5814 2.1336
-8.6453 5.2736 2.1336
-8.8275 4.9590 2.1336
-8.9983 4.6382 2.1336
-9.1573 4.3115 2.1336
-9.3045 3.9793 2.1336
-9.4396 3.6421 2.1336
-9.5624 3.3004 2.1336
-9.6729 2.9544 2.1336
-9.7708 2.6048 2.1336
-9.8560 2.2520 2.1336
-9.9286 1.8964 2.1336
-9.9890 1.5386 2.1338
-10.0358 1.1788 2.1338
-10.0696 0.8177 2.1338
-10.0904 0.4556 2.1338
-10.0982 0.0931 2.1338
-10.0929 -0.2694 2.1338
-10.0747 -0.6314 2.1338
-10.0435 -0.9924 2.1338
-9.9993 -1.3520 2.1338
-9.9423 -1.7097 2.1338
-9.8725 -2.0651 2.1338
-9.7901 -2.4177 2.1338
-9.6950 -2.7670 2.1338
-9.5875 -3.1127 2.1338
-9.4677 -3.4542 2.1338
-6.9969 -2.8413 1.5992
-6.7512 -3.0282 1.5672
-9.0363 -4.4494 2.1338
-8.8690 -4.7701 2.1338
-8.6905 -5.0845 2.1338
-8.5008 -5.3922 2.1338
-8.3003 -5.6929 2.1338
-8.0891 -5.9862 2.1338
-7.8677 -6.2717 2.1338
-7.6360 -6.5488 2.1337
-7.3948 -6.8177 2.1337
-7.1442 -7.0777 2.1337
-6.8845 -7.3286 2.1337
-6.6160 -7.5700 2.1337
-6.3390 -7.8015 2.1338
-6.2591 -8.2947 2.2060
-6.0397 -8.6319 2.2368
-5.7252 -8.8421 2.2368
-5.4034 -9.0409 2.2368
-5.0747 -9.2280 2.2368
-4.7396 -9.4033 2.2368
-4.3985 -9.5664 2.2368
-4.0518 -9.7173 2.2368
-3.7000 -9.8556 2.2368
-3.3435 -9.9813 2.2368
-2.9827 -10.0942 2.2368
-2.6182 -10.1941 2.2368
-2.2504 -10.2809 2.2368
-1.8797 -10.3545 2.2368
-1.5066 -10.4149 2.2368
-1.1317 -10.4618 2.2368
-0.7553 -10.4954 2.2368
-0.3780 -10.5155 2.2368
-0.0002 -9.4685 2.2368
0.3398 -9.4623 2.2368
0.6793 -9.4440 2.2368
1.0180 -9.4136 2.2368
1.3554 -9.3710 2.2368
1.6910 -9.3165 2.2368
1.9310 -8.8231 2.1336
2.2467 -8.7483 2.1336
2.5594 -8.6623 2.1336
2.8689 -8.5652 2.1336
3.1748 -8.4571 2.1336
3.4766 -8.3381 2.1336
3.7739 -8.2084 2.1336
4.0665 -8.0682 2.1336
4.3539 -7.9176 2.1336
4.6358 -7.7568 2.1336
4.9117 -7.5860 2.1336
5.1814 -7.4055 2.1336
5.4445 -7.2154 2.1336
2.3852 -2.9355 0.8927
5.9586 -6.8179 2.1368
6.2003 -6.6003 2.1368
6.4340 -6.3742 2.1368
5.5977 -5.1609 1.7961
5.5944 -4.7979 1.7384
7.0849 -5.6477 2.1368
7.2841 -5.3904 2.1368
7.4740 -5.1262 2.1368
7.6544 -4.8553 2.1368
7.8249 -4.5780 2.1368
7.9855 -4.2948 2.1368
8.1358 -4.0060 2.1368
5.4472 -2.4432 1.4065
5.4475 -2.2120 1.3850
5.4478 -1.9874 1.3658
5.4481 -1.7686 1.3488
5.4484 -1.5549 1.3339
5.4486 -1.3454 1.3211
5.4489 -1.1396 1.3102
5.4492 -0.9369 1.3011
5.4494 -0.7366 1.2937
5.4497 -0.5383 1.2881
5.4499 -0.3413 1.2842
5.4502 -0.1453 1.2820
5.4504 0.0505 1.2814
5.4507 0.2463 1.2825
5.4509 0.4429 1.2852
5.4512 0.6405 1.2896
5.4514 0.8399 1.2957
5.4517 1.0416 1.3036
5.4520 1.2460 1.3133
5.4522 1.4538 1.3248
5.4525 1.6657 1.3383
5.4528 1.8822 1.3539
5.4530 2.1043 1.3716
8.3740 3.5817 2.1368
8.2414 3.8807 2.1368
8.0982 4.1747 2.1368
7.9445 4.4634 2.1368
7.7805 4.7465 2.1368
7.6064 5.0235 2.1368
7.4224 5.2941 2.1368
7.2287 5.5580 2.1368
7.0256 5.8147 2.1368
6.8134 6.0640 2.1368
6.5924 6.3056 2.1368
6.3627 6.5390 2.1368
6.1248 6.7641 2.1368
5.8788 6.9805 2.1368
5.6167 7.1770 2.1336
5.3562 7.3749 2.1336
5.0887 7.5633 2.1336
4.8146 7.7419 2.1336
4.5341 7.9106 2.1336
4.2477 8.0691 2.1337
3.9558 8.2172 2.1337
3.6587 8.3546 2.1337
3.3568 8.4813 2.1337
3.0506 8.5970 2.1337
2.7403 8.7016 2.1337
2.4264 8.7950 2.1337
2.1094 8.8770 2.1337
1.8038 9.0190 2.1508
1.5383 9.4414 2.2368
1.1985 9.4909 2.2368
0.8571 9.5281 2.2368
0.5147 9.5530 2.2368
0.1715 9.5655 2.2368
-0.1719 9.5656 2.2368
-0.5150 9.5533 2.2368
-0.8575 9.5286 2.2368
-1.1989 9.4916 2.2368
-1.5387 9.4424 2.2368
-1.8766 9.3809 2.2368
-2.2119 9.3072 2.2368
-2.5444 9.2215 2.2368
-2.8736 9.1239 2.2368
-3.1990 9.0145 2.2368
-3.5203 8.8934 2.2368
-3.8369 8.7608 2.2368
-4.1486 8.6169 2.2368
-4.4548 8.4618 2.2368
-4.7552 8.2958 2.2368
-5.0495 8.1191 2.2368
-5.3371 7.9320 2.2368
-5.6178 7.7346 2.2368
-5.8911 7.5272 2.2368
-6.1568 7.3101 2.2368
-6.2565 6.9092 2.1818
-6.3562 6.5320 2.1336
-6.5857 6.2989 2.1336
-6.8066 6.0577 2.1336
-7.0187 5.8087 2.1336
-7.2217 5.5523 2.1336
-7.4152 5.2888 2.1336
-7.5991 5.0185 2.1336
-7.7732 4.7418 2.1336
-7.9371 4.4591 2.1336
-8.0908 4.1707 2.1336
-8.2339 3.8770 2.1336
-8.3664 3.5784 2.1336
-8.4880 3.2752 2.1336
-8.5986 2.9679 2.1336
-8.6981 2.6570 2.1336
-8.7863 2.3426 2.1336
-8.8632 2.0254 2.1336
-8.9292 1.7058 2.1338
-8.9831 1.3839 2.1338
-9.0253 1.0604 2.1338
-9.0559 0.7356 2.1338
-9.0748 0.4100 2.1338
-9.0820 0.0840 2.1338
-9.0774 -0.2420 2.1338
-9.0612 -0.5676 2.1338
-9.0333 -0.8923 2.1338
-8.9938 -1.2158 2.1338
-8.9427 -1.5376 2.1338
-8.8801 -1.8573 2.1338
-8.8061 -2.1745 2.1338
-8.7207 -2.4887 2.1338
-8.6242 -2.7997 2.1338
-8.5166 -3.1069 2.1338
-6.9793 -2.8339 1.7733
-6.7438 -3.0247 1.7402
-8.1289 -4.0024 2.1338
-7.9787 -4.2910 2.1338
-7.8182 -4.5739 2.1338
-7.6477 -4.8508 2.1338
-7.4674 -5.1214 2.1338
-7.2775 -5.3853 2.1338
-7.0784 -5.6423 2.1338
-6.8703 -5.8919 2.1338
-6.6533 -6.1338 2.1338
-6.4279 -6.3679 2.1338
-6.2636 -6.6674 2.1576
-6.2404 -7.1399 2.2368
-5.9792 -7.3584 2.2368
-5.7105 -7.5674 2.2368
-5.4344 -7.7666 2.2368
-5.1515 -7.9558 2.2368
-4.8620 -8.1348 2.2368
-4.5663 -8.3033 2.2368
-4.2649 -8.4610 2.2368
-3.9579 -8.6079 2.2368
-3.6460 -8.7437 2.2368
-3.3295 -8.8683 2.2368
-3.0087 -8.9815 2.2368
-2.6841 -9.0831 2.2368
-2.3561 -9.1731 2.2368
-2.0251 -9.2513 2.2368
-1.6915 -9.3176 2.2368
-1.3558 -9.3719 2.2368
-1.0184 -9.4142 2.2368
-0.6797 -9.4444 2.2368
-0.3401 -9.4625 2.2368
-0.0002 -8.5983 2.2368
0.3086 -8.5927 2.2368
0.6169 -8.5761 2.2368
0.9245 -8.5484 2.2368
1.2308 -8.5098 2.2368
1.5356 -8.4603 2.2368
1.7884 -8.1713 2.1760
2.0402 -7.9442 2.1336
2.3242 -7.8661 2.1336
2.6053 -7.7779 2.1336
2.8830 -7.6797 2.1336
3.1571 -7.5716 2.1336
3.4271 -7.4538 2.1336
3.6928 -7.3264 2.1336
3.9537 -7.1896 2.1336
4.2096 -7.0435 2.1336
4.4602 -6.8884 2.1336
4.7050 -6.7244 2.1336
4.9439 -6.5517 2.1336
2.3847 -2.9348 0.9829
5.4024 -6.1813 2.1336
5.6214 -5.9840 2.1336
5.8422 -5.7877 2.1368
6.0469 -5.5749 2.1368
6.2439 -5.3548 2.1368
6.4330 -5.1278 2.1368
6.6138 -4.8942 2.1368
5.6051 -3.8442 1.7650
5.6260 -3.5684 1.7298
7.1046 -4.1563 2.1368
7.2502 -3.8991 2.1368
7.3866 -3.6369 2.1368
5.4472 -2.4430 1.5492
5.4475 -2.2119 1.5255
5.4478 -1.9873 1.5043
5.4481 -1.7685 1.4857
5.4484 -1.5547 1.4694
5.4487 -1.3453 1.4552
5.4489 -1.1395 1.4432
5.4492 -0.9368 1.4332
5.4494 -0.7365 1.4251
5.4497 -0.5381 1.4190
5.4499 -0.3412 1.4147
5.4502 -0.1451 1.4123
5.4504 0.0506 1.4117
5.4507 0.2465 1.4129
5.4509 0.4430 1.4159
5.4512 0.6407 1.4208
5.4514 0.8401 1.4275
5.4517 1.0417 1.4362
5.4520 1.2461 1.4469
5.4522 1.4540 1.4597
5.4525 1.6658 1.4746
5.4528 1.8824 1.4917
5.4530 2.1045 1.5112
7.6000 3.2509 2.1368
7.4796 3.5222 2.1368
7.3495 3.7890 2.1368
7.2099 4.0509 2.1368
7.0610 4.3078 2.1368
6.9028 4.5591 2.1368
6.7357 4.8046 2.1368
6.5599 5.0440 2.1368
6.3756 5.2769 2.1368
6.1829 5.5031 2.1368
5.9822 5.7222 2.1368
5.7650 5.9250 2.1336
5.5493 6.1288 2.1336
5.3265 6.3249 2.1336
5.0967 6.5127 2.1336
4.8602 6.6922 2.1336
4.6174 6.8631 2.1336
4.3686 7.0251 2.1337
4.1141 7.1781 2.1337
3.8542 7.3218 2.1337
3.5893 7.4561 2.1337
3.3197 7.5808 2.1337
3.0458 7.6957 2.1337
2.7679 7.8006 2.1337
2.4863 7.8955 2.1337
2.2015 7.9801 2.1337
1.9139 8.0545 2.1338
1.7021 8.5106 2.2368
1.3957 8.5665 2.2368
1.0874 8.6114 2.2368
0.7777 8.6451 2.2368
0.4669 8.6677 2.2368
0.1556 8.6790 2.2368
-0.1559 8.6791 2.2368
-0.4673 8.6679 2.2368
-0.7780 8.6456 2.2368
-1.0878 8.6120 2.2368
-1.3961 8.5673 2.2368
-1.7026 8.5115 2.2368
-2.0069 8.4447 2.2368
-2.3086 8.3670 2.2368
-2.6073 8.2784 2.2368
-2.9025 8.1792 2.2368
-3.1940 8.0694 2.2368
-3.4813 7.9491 2.2368
-3.7641 7.8186 2.2368
-4.0420 7.6779 2.2368
-4.3146 7.5274 2.2368
-4.5816 7.3671 2.2368
-4.8427 7.1974 2.2368
-5.0974 7.0183 2.2368
-5.3455 6.8302 2.2368
-5.5866 6.6333 2.2368
-5.8204 6.4279 2.2368
-6.0467 6.2142 2.2368
-6.2554 5.9832 2.2334
-6.2629 5.5740 2.1635
-6.3690 5.2712 2.1336
-6.5532 5.0386 2.1336
-6.7290 4.7996 2.1336
-6.8959 4.5543 2.1336
-7.0540 4.3033 2.1336
-7.2029 4.0468 2.1336
-7.3424 3.7851 2.1336
-7.4724 3.5186 2.1336
-7.5927 3.2477 2.1336
-7.7032 2.9726 2.1336
-7.8037 2.6938 2.1336
-7.8941 2.4116 2.1336
-7.9743 2.1264 2.1336
-8.0442 1.8385 2.1336
-8.1043 1.5484 2.1338
-8.1533 1.2563 2.1338
-8.1917 0.9627 2.1338
-8.2196 0.6679 2.1338
-8.2369 0.3724 2.1338
-8.2436 0.0765 2.1338
-8.2396 -0.2195 2.1338
-8.2250 -0.5150 2.1338
-8.1998 -0.8098 2.1338
-8.1640 -1.1034 2.1338
-8.1178 -1.3955 2.1338
-8.0611 -1.6858 2.1338
-7.9940 -1.9737 2.1338
-7.9167 -2.2590 2.1338
-7.8292 -2.5414 2.1338
-7.7317 -2.8203 2.1338
-6.9616 -2.8265 1.9483
-6.7364 -3.0211 1.9147
-7.3800 -3.6335 2.1338
-7.2437 -3.8955 2.1338
-7.0981 -4.1524 2.1338
-6.9434 -4.4039 2.1338
-6.7798 -4.6496 2.1338
-6.6076 -4.8893 2.1338
-6.4268 -5.1227 2.1338
-6.2727 -5.3791 2.1456
-6.2643 -5.7750 2.2126
-6.1184 -6.0610 2.2368
-5.8961 -6.2760 2.2368
-5.6663 -6.4828 2.2368
-5.4292 -6.6813 2.2368
-5.1853 -6.8711 2.2368
-4.9347 -7.0521 2.2368
-4.6778 -7.2240 2.2368
-4.4150 -7.3866 2.2368
-4.1465 -7.5396 2.2368
-3.8728 -7.6830 2.2368
-3.5941 -7.8164 2.2368
-3.3109 -7.9398 2.2368
-3.0235 -8.0530 2.2368
-2.7322 -8.1558 2.2368
-2.4374 -8.2481 2.2368
-2.1396 -8.3299 2.2368
-1.8390 -8.4009 2.2368
-1.5361 -8.4611 2.2368
-1.2312 -8.5105 2.2368
-0.9248 -8.5490 2.2368
-0.6173 -8.5764 2.2368
-0.3089 -8.5929 2.2368
-0.0002 -7.8668 2.2368
0.2823 -7.8617 2.2368
0.5644 -7.8465 2.2368
0.8458 -7.8212 2.2368
1.1261 -7.7858 2.2368
1.4050 -7.7405 2.2368
1.6821 -7.6852 2.2368
1.8667 -7.2683 2.1336
2.1265 -7.1968 2.1336
2.3837 -7.1161 2.1336
2.6378 -7.0262 2.1336
2.8885 -6.9273 2.1336
3.1355 -6.8195 2.1336
3.3786 -6.7029 2.1336
3.6173 -6.5777 2.1336
3.8514 -6.4440 2.1336
4.0806 -6.3020 2.1336
4.3046 -6.1520 2.1336
4.5231 -5.9939 2.1336
2.3843 -2.9342 1.0742
4.9425 -5.6549 2.1336
5.1429 -5.4743 2.1336
5.3367 -5.2867 2.1336
5.5236 -5.0922 2.1336
5.7036 -4.8911 2.1336
5.8851 -4.6909 2.1368
6.0505 -4.4771 2.1368
6.2080 -4.2575 2.1368
6.3577 -4.0324 2.1368
6.4992 -3.8020 2.1368
6.6324 -3.5667 2.1368
5.6309 -2.7723 1.7807
5.4472 -2.4429 1.6935
5.4475 -2.2117 1.6676
5.4478 -1.9871 1.6446
5.4481 -1.7683 1.6242
5.4484 -1.5545 1.6063
5.4487 -1.3451 1.5909
5.4489 -1.1393 1.5778
5.4492 -0.9366 1.5669
5.4494 -0.7363 1.5581
5.4497 -0.5380 1.5514
5.4499 -0.3411 1.5467
5.4502 -0.1450 1.5441
5.4504 0.0508 1.5434
5.4507 0.2466 1.5448
5.4509 0.4432 1.5481
5.4512 0.6409 1.5535
5.4514 0.8403 1.5609
5.4517 1.0419 1.5704
5.4520 1.2463 1.5821
5.4522 1.4541 1.5961
5.4525 1.6660 1.6124
5.4528 1.8826 1.6311
5.4530 2.1046 1.6525
6.9501 2.9731 2.1368
6.8399 3.2212 2.1368
6.7209 3.4651 2.1368
6.5931 3.7046 2.1368
6.4568 3.9394 2.1368
6.3121 4.1692 2.1368
6.1593 4.3936 2.1368
5.9984 4.6125 2.1368
5.8298 4.8254 2.1368
5.6450 5.0245 2.1336
5.4617 5.2246 2.1336
5.2713 5.4179 2.1336
5.0741 5.6042 2.1336
4.8703 5.7834 2.1336
4.6601 5.9551 2.1336
4.4439 6.1192 2.1336
4.2219 6.2754 2.1337
3.9943 6.4235 2.1337
3.7616 6.5633 2.1337
3.5240 6.6947 2.1337
3.2817 6.8174 2.1337
3.0352 6.9313 2.1337
2.7847 7.0363 2.1337
2.5306 7.1322 2.1337
2.2732 7.2189 2.1337
2.0128 7.2963 2.1337
1.7926 7.5445 2.1860
1.5562 7.7811 2.2368
1.2760 7.8323 2.2368
0.9941 7.8733 2.2368
0.7110 7.9041 2.2368
0.4269 7.9247 2.2368
0.1422 7.9350 2.2368
-0.1426 7.9351 2.2368
-0.4272 7.9249 2.2368
-0.7113 7.9045 2.2368
-0.9945 7.8738 2.2368
-1.2764 7.8329 2.2368
-1.5567 7.7819 2.2368
-1.8349 7.7209 2.2368
-2.1107 7.6498 2.2368
-2.3837 7.5689 2.2368
-2.6537 7.4782 2.2368
-2.9202 7.3778 2.2368
-3.1829 7.2679 2.2368
-3.4415 7.1486 2.2368
-3.6956 7.0200 2.2368
-3.9448 6.8824 2.2368
-4.1890 6.7359 2.2368
-4.4277 6.5808 2.2368
-4.6606 6.4171 2.2368
-4.8874 6.2452 2.2368
-5.1079 6.0652 2.2368
-5.3218 5.8774 2.2368
-5.5287 5.6821 2.2368
-5.7285 5.4794 2.2368
-5.9208 5.2697 2.2368
-6.1054 5.0533 2.2368
-6.2571 4.8111 2.2279
-6.2623 4.4669 2.1715
-6.3056 4.1647 2.1336
-6.4716 3.9482 2.1407
-6.5864 3.7007 2.1336
-6.7141 3.4614 2.1336
-6.8330 3.2178 2.1336
-6.9432 2.9700 2.1336
-7.0443 2.7185 2.1336
-7.1363 2.4636 2.1336
-7.2190 2.2056 2.1336
-7.2925 1.9447 2.1336
-7.3570 1.6816 2.1338
-7.4115 1.4162 2.1338
