ply
format ascii 1.0
element vertex 2108
property float32 x
property float32 y
property float32 z
end_header
3.3231 -15.2041 0.5728
3.5685 -13.9116 0.5329
3.9107 -13.2494 0.5164
4.4692 -13.3554 0.5303
5.0507 -13.4658 0.5453
5.6582 -13.5811 0.5614
6.2951 -13.7020 0.5789
12.7658 -25.3451 1.0958
14.0639 -25.5915 1.1336
4.7890 -8.0181 0.3643
4.8796 -7.5408 0.3520
4.9637 -7.0981 0.3409
5.0420 -6.6854 0.3308
5.1154 -6.2988 0.3217
5.1845 -5.9350 0.3133
5.2498 -5.5911 0.3058
5.3117 -5.2647 0.2988
5.3707 -4.9538 0.2925
5.4272 -4.6565 0.2867
5.4163 -4.3193 0.2781
5.5335 -4.0966 0.2765
5.5838 -3.8313 0.2721
5.6326 -3.5742 0.2680
5.6800 -3.3244 0.2643
2.6566 -1.4293 0.1211
5.7714 -2.8429 0.2579
5.8157 -2.6095 0.2551
5.8593 -2.3801 0.2526
5.9022 -2.1540 0.2503
5.9446 -1.9306 0.2483
5.9867 -1.7092 0.2466
6.0284 -1.4892 0.2451
6.0700 -1.2701 0.2438
6.0970 -1.0488 0.2422
56.9449 -7.7015 2.2391
40.8079 -4.0332 1.5898
57.9541 -3.6325 2.2391
58.3849 -1.5582 2.2391
58.7655 0.5426 2.2391
59.0946 2.6698 2.2391
50.5473 4.1065 1.9063
59.5933 7.0030 2.2391
38.7560 5.9720 1.4521
44.2254 8.4505 1.6540
40.1310 9.1729 1.4995
38.0820 10.1562 1.4231
36.0703 11.0211 1.3494
33.3930 11.5294 1.2520
31.0319 11.9776 1.1673
30.5615 13.0752 1.1546
29.6613 13.9704 1.1269
30.6411 15.8000 1.1720
31.4148 17.6545 1.2113
31.7402 19.3686 1.2355
30.3041 20.0197 1.1925
14.3653 10.2494 0.5723
22.6124 17.3915 0.9136
21.6116 17.8924 0.8870
21.2967 18.9606 0.8896
21.0998 20.1888 0.8988
19.8653 20.4231 0.8649
18.6882 20.6465 0.8335
17.5615 20.8604 0.8045
17.4201 22.2682 0.8220
17.8641 24.6072 0.8710
18.3814 27.3322 0.9292
13.4515 21.6406 0.7078
12.5009 21.8211 0.6878
11.5736 21.9971 0.6691
10.6664 22.1693 0.6517
9.7765 22.3382 0.6356
8.9011 22.5044 0.6205
8.0381 22.6696 0.6066
7.1842 22.8322 0.5937
6.3369 22.9912 0.5817
6.2492 26.3276 0.6490
6.1989 31.0343 0.7464
5.0827 31.2462 0.7341
3.9706 31.5082 0.7240
2.1790 24.2926 0.5467
1.0787 20.1190 0.4441
0.3579 20.2558 0.4391
-0.3732 20.4718 0.4364
-1.1168 20.6130 0.4328
-1.8665 20.6781 0.4282
-2.6368 20.8304 0.4261
-3.4237 20.9737 0.4244
-4.2323 21.1272 0.4237
-5.0647 21.2852 0.4236
-5.9264 21.4554 0.4246
-6.8150 21.6174 0.4261
-7.7406 21.7932 0.4286
-9.5952 24.2210 0.4763
-9.9037 22.5959 0.4451
-10.1814 21.1326 0.4179
-10.4738 19.8815 0.3956
-12.0488 21.0066 0.4215
-13.1976 21.2078 0.4301
-14.4366 21.4430 0.4407
-10.9664 15.0899 0.3151
-17.2028 21.9681 0.4673
-16.9848 20.1554 0.4381
-20.3338 22.4430 0.4999
-20.1560 20.7025 0.4742
-22.0284 21.0579 0.4976
-28.4648 25.3195 0.6194
-28.7559 23.7860 0.6048
-29.0357 22.3120 0.5921
-31.7747 22.6507 0.6302
-35.3430 23.3281 0.6836
-38.9496 23.7471 0.7369
-43.9662 24.6864 0.8157
-50.7973 26.1701 0.9268
-58.8700 27.7026 1.0589
-91.8069 35.4017 1.6168
-39.3904 7.5171 0.6852
-46.7819 7.1983 0.8171
-33.3516 3.9125 0.5860
-28.1873 2.2849 0.4992
-28.4441 1.2805 0.5088
-23.7870 0.2163 0.4305
-19.8448 -0.5320 0.3641
-18.9651 -1.1906 0.3534
-19.0977 -1.8890 0.3620
-19.3064 -2.6122 0.3730
-19.4457 -3.3456 0.3835
-19.5143 -4.0834 0.3935
-19.6611 -4.8566 0.4060
-19.8128 -5.6558 0.4198
-19.9700 -6.4843 0.4347
-20.2104 -7.3741 0.4528
-20.3044 -8.2456 0.4690
-20.4832 -9.1879 0.4886
-19.2605 -9.4838 0.4751
-18.2193 -9.7987 0.4656
-16.9578 -9.9209 0.4498
-16.1168 -10.2224 0.4444
-16.2981 -11.1773 0.4680
-16.5766 -12.2657 0.4966
-16.7035 -13.3133 0.5232
-16.9325 -14.5195 0.5555
-17.1830 -15.8392 0.5918
-15.2208 -15.0762 0.5515
-20.7656 -22.1003 0.7936
-21.1666 -24.2128 0.8553
-21.6199 -26.6007 0.9263
-45.0895 -59.7365 2.0547
-42.8927 -61.2826 2.0858
-41.4531 -63.9988 2.1591
-38.5422 -64.4637 2.1591
-27.6553 -50.2679 1.6740
-25.5616 -50.6896 1.6808
-19.7673 -42.9701 1.4206
-12.2688 -29.4068 0.9706
-18.0602 -48.0755 1.5859
-16.2321 -48.4225 1.5985
-14.5437 -49.1779 1.6264
-12.9314 -50.2999 1.6684
-12.4487 -56.8075 1.8917
-10.3410 -56.8858 1.9038
-8.2506 -56.9335 1.9169
-6.1470 -56.6914 1.9221
-4.0981 -56.7407 1.9392
-2.0683 -57.1260 1.9698
-0.0189 -37.2169 2.1359
1.3094 -36.9644 2.1359
2.6202 -36.6733 2.1359
3.9127 -36.3447 2.1359
5.1862 -35.9792 2.1359
2.9479 -16.2854 0.9777
3.2642 -14.9482 0.9085
3.5673 -13.9176 0.8574
3.9080 -13.2489 0.8282
4.4666 -13.3549 0.8482
5.0206 -13.3918 0.8651
5.6157 -13.4848 0.8872
6.2373 -13.5811 0.9112
6.8886 -13.6812 0.9373
14.0593 -25.5906 1.7927
4.7887 -8.0197 0.5753
4.8794 -7.5421 0.5549
4.9635 -7.0993 0.5365
5.0418 -6.6864 0.5199
5.1152 -6.2997 0.5049
5.1843 -5.9357 0.4913
5.2496 -5.5917 0.4790
5.3116 -5.2652 0.4677
5.3707 -4.9542 0.4575
5.4271 -4.6568 0.4482
5.4162 -4.3195 0.4345
5.5334 -4.0967 0.4320
5.5838 -3.8313 0.4250
5.6326 -3.5742 0.4187
5.6801 -3.3243 0.4129
2.6564 -1.4291 0.1892
5.7715 -2.8426 0.4031
5.8158 -2.6092 0.3990
5.8593 -2.3798 0.3954
5.9023 -2.1536 0.3922
5.9447 -1.9301 0.3895
5.9867 -1.7087 0.3872
6.0285 -1.4886 0.3853
6.0701 -1.2695 0.3838
6.0971 -1.0481 0.3819
34.3922 -4.6472 2.1359
34.6475 -3.4199 2.1359
28.8362 -1.8035 1.7664
36.7460 -0.9754 2.2391
36.9009 0.3463 2.2391
37.0169 1.6783 2.2391
37.0937 3.0198 2.2391
37.1307 4.3699 2.2391
35.8989 5.5384 2.1650
35.3755 6.7664 2.1360
35.2934 8.0745 2.1360
35.1712 9.3875 2.1360
35.1406 10.7451 2.1441
33.3779 11.5322 2.0485
31.0181 11.9802 1.9173
29.0808 12.4496 1.8127
29.7391 14.0155 1.8719
24.9568 12.8764 1.5884
23.3843 13.1489 1.5072
25.8176 15.7632 1.6877
24.7986 16.3915 1.6467
14.3626 10.2530 0.9705
18.2850 14.0707 1.2595
19.8856 16.4721 1.3989
21.2990 18.9726 1.5334
21.0904 20.1905 1.5573
19.7896 20.3560 1.5023
18.7351 20.7096 1.4658
17.5532 20.8620 1.4194
17.4232 22.2846 1.4605
17.8677 24.6262 1.5577
18.3856 27.3545 1.6732
13.4443 21.6420 1.2824
12.4518 21.7490 1.2506
11.5667 21.9984 1.2296
10.6597 22.1706 1.2065
8.7563 20.0218 1.0624
7.9718 20.1707 1.0452
7.1981 20.3176 1.0297
6.4328 20.4629 1.0158
5.6741 20.6069 1.0033
6.2775 26.4771 1.2662
6.1912 31.0358 1.4599
5.0750 31.2476 1.4478
3.9630 31.5096 1.4401
2.1680 24.2346 1.0940
1.0740 20.1199 0.8983
0.3533 20.2567 0.8959
-0.3778 20.4727 0.8981
-1.1213 20.6138 0.8982
-1.8710 20.6789 0.8963
-2.6413 20.8315 0.8995
-3.4281 20.9745 0.9036
-4.2367 21.1280 0.9094
-5.0691 21.2860 0.9169
-5.9338 21.4674 0.9269
-6.8193 21.6183 0.9371
-7.7449 21.7940 0.9500
-9.5966 24.2136 1.0633
-9.9048 22.5896 1.0010
-10.1824 21.1272 0.9465
-10.4518 19.8334 0.9000
-10.8696 18.9453 0.8725
-11.9163 19.1440 0.8965
-13.0347 19.3563 0.9238
-14.5401 20.0035 0.9751
-15.5025 19.7932 0.9877
-16.9068 20.0598 1.0273
-18.4408 20.3510 1.0723
-20.1279 20.6713 1.1237
-22.0310 21.0584 1.1845
-28.4651 25.3178 1.4780
-28.7561 23.7848 1.4459
-29.0358 22.3113 1.4174
-31.7755 22.6509 1.5097
-35.3429 23.3280 1.6381
-38.9482 23.7468 1.7650
-43.9671 24.6881 1.9523
-48.9932 25.2426 2.1360
-49.7955 23.4348 2.1360
-51.9552 22.2107 2.1971
-53.6079 20.6754 2.2391
-54.1740 18.6901 2.2391
-54.6467 16.6847 2.2391
-44.1296 11.7604 1.7958
-52.7601 12.0510 2.1359
-39.3897 7.5212 1.5891
-40.6919 6.2660 1.6387
-33.4087 3.9234 1.3452
-28.1866 2.2886 1.1366
-28.3778 1.2815 1.1479
-23.8065 0.2201 0.9675
-19.8591 -0.5293 0.8122
-18.9645 -1.1874 0.7817
-19.0971 -1.8856 0.7946
-19.3057 -2.6086 0.8121
-19.4449 -3.3417 0.8282
-19.5135 -4.0793 0.8428
-19.6602 -4.8523 0.8625
-19.8119 -5.6511 0.8841
-19.9691 -6.4793 0.9080
-20.2094 -7.3688 0.9377
-20.3033 -8.2399 0.9629
-20.4821 -9.1817 0.9945
-19.2687 -9.4822 0.9594
-18.2271 -9.7972 0.9323
-16.9650 -9.9195 0.8930
-16.1156 -10.2161 0.8745
-16.2968 -11.1704 0.9134
-16.4461 -12.1627 0.9539
-16.7020 -13.3050 1.0045
-16.9307 -14.5104 1.0582
-17.1811 -15.8291 1.1184
-15.2271 -15.0745 1.0348
-20.7628 -22.0855 1.4768
-21.1634 -24.1960 1.5798
-21.6064 -26.5695 1.6978
-26.9853 -35.7312 2.2391
-25.4655 -36.3628 2.2391
-23.9388 -36.9368 2.2391
-22.4072 -37.4542 2.2391
-18.3737 -33.3757 1.9710
-19.3377 -38.3219 2.2391
-17.8035 -38.6739 2.2391
-12.2475 -29.3335 1.6853
-14.7449 -39.2188 2.2391
-13.2236 -39.4136 2.2391
-11.7099 -39.5579 2.2391
-10.2049 -39.6527 2.2391
-8.7101 -39.6990 2.2391
-7.2268 -39.6979 2.2391
-5.7559 -39.6504 2.2391
-4.2988 -39.5574 2.2391
-2.8564 -39.4200 2.2391
-1.4298 -39.2392 2.2391
-0.0196 -26.6929 2.1359
0.9349 -26.5579 2.1359
1.8828 -26.4332 2.1391
2.8192 -26.2386 2.1391
3.7446 -26.0150 2.1391
2.9378 -16.2480 1.3491
3.2203 -14.7602 1.2390
3.4587 -13.5041 1.1474
3.8469 -13.0502 1.1237
4.3972 -13.1546 1.1494
4.9700 -13.2633 1.1774
5.5684 -13.3769 1.2081
6.1959 -13.4960 1.2416
6.8562 -13.6214 1.2784
12.2539 -22.3111 2.1391
4.7884 -8.0213 0.7869
4.8791 -7.5435 0.7583
4.9632 -7.1005 0.7327
5.0416 -6.6874 0.7096
5.1151 -6.3005 0.6887
5.1842 -5.9364 0.6698
5.2495 -5.5922 0.6527
5.3115 -5.2656 0.6371
5.3706 -4.9545 0.6230
5.4271 -4.6570 0.6101
5.4161 -4.3196 0.5914
5.5334 -4.0968 0.5879
5.5838 -3.8313 0.5784
5.6326 -3.5741 0.5697
5.6801 -3.3242 0.5620
2.6561 -1.4289 0.2574
5.7715 -2.8424 0.5488
5.8158 -2.6089 0.5433
5.8594 -2.3794 0.5386
5.9024 -2.1532 0.5345
5.9448 -1.9297 0.5310
5.9868 -1.7081 0.5281
6.0286 -1.4881 0.5259
6.0702 -1.2689 0.5242
6.0973 -1.0474 0.5220
25.1432 -3.3944 2.1359
25.3082 -2.4948 2.1359
25.4454 -1.5880 2.1359
26.7898 -0.7072 2.2391
26.8744 0.2563 2.2391
26.9288 1.2253 2.2391
26.9528 2.1988 2.2391
26.9460 3.1761 2.2391
26.9082 4.1564 2.2391
26.8390 5.1389 2.2391
26.7382 6.1228 2.2391
26.6055 7.1071 2.2391
25.2233 7.7185 2.1360
25.0351 8.6558 2.1360
24.8159 9.5910 2.1360
24.5653 10.5231 2.1360
24.2831 11.4511 2.1360
23.8704 12.3230 2.1272
22.3505 12.5748 2.0209
23.7154 14.4877 2.1791
23.2978 15.4078 2.1791
14.3600 10.2565 1.3696
17.5215 13.4903 1.7073
16.8344 13.9521 1.6790
16.2420 14.4756 1.6616
15.2847 14.6403 1.6075
14.3903 14.8101 1.5596
13.5373 14.9720 1.5159
12.6971 15.0987 1.4731
17.4263 22.3010 2.1011
11.7580 16.2148 1.4783
12.0861 17.9925 1.5903
13.4370 21.6434 1.8581
12.4868 21.8237 1.8231
11.5598 21.9997 1.7912
9.2901 19.3354 1.5369
8.5143 19.4827 1.5142
7.7512 19.6276 1.4939
6.2074 17.5359 1.3090
6.2539 19.9118 1.4599
5.5157 20.0519 1.4462
6.3062 26.6282 1.8917
6.1834 31.0372 2.1750
5.0673 31.2491 2.1631
3.9554 31.5111 2.1576
2.1570 24.1768 1.6397
1.0693 20.1208 1.3536
0.3425 19.8968 1.3295
-0.3811 20.4043 1.3561
-1.1220 20.5444 1.3599
-1.8755 20.6798 1.3654
-2.6455 20.8303 1.3737
-3.4332 20.9794 1.3839
-3.6807 18.3370 1.2117
-5.0734 21.2868 1.4112
-5.9412 21.4795 1.4307
-6.8236 21.6191 1.4491
-7.1971 20.2419 1.3676
-9.5980 24.2063 1.6510
-8.4451 19.2528 1.3279
-9.3810 19.4575 1.3595
-10.3557 19.6450 1.3929
-10.8527 18.9106 1.3632
-11.8975 19.1089 1.4032
-13.0136 19.3208 1.4482
-14.2121 19.5483 1.4987
-15.5056 19.7938 1.5556
-16.9099 20.0604 1.6198
-18.4438 20.3516 1.6926
-20.1307 20.6718 1.7753
-22.0335 21.0589 1.8727
-26.5301 23.5950 2.1791
-26.9431 22.2840 2.1441
-27.6370 21.2356 2.1360
-28.3908 20.2378 2.1360
-29.1012 19.2083 2.1360
-29.7668 18.1493 2.1360
-31.8526 17.8865 2.2391
-32.4521 16.7214 2.2391
-33.0009 15.5325 2.2391
-33.4977 14.3222 2.2391
-33.9421 13.0930 2.2391
-34.3330 11.8476 2.2391
-33.0715 10.1002 2.1359
-33.3413 8.8885 2.1359
-33.5593 7.6687 2.1359
-31.2877 5.9776 1.9815
-27.8449 4.2910 1.7575
-28.0338 3.2957 1.7662
-28.1859 2.2922 1.7752
-28.3770 1.2855 1.7893
-23.8260 0.2238 1.5064
-19.8735 -0.5265 1.2617
-18.9639 -1.1843 1.2107
-19.0964 -1.8822 1.2279
-19.2259 -2.5943 1.2468
-19.3660 -3.3245 1.2686
-19.5127 -4.0752 1.2930
-19.6594 -4.8479 1.3197
-19.8110 -5.6464 1.3493
-19.9681 -6.4743 1.3820
-20.1316 -7.3354 1.4180
-20.3022 -8.2341 1.4577
-20.4809 -9.1755 1.5013
-19.2769 -9.4807 1.4450
-18.0735 -9.7091 1.3878
-16.9722 -9.9182 1.3373
-16.1144 -10.2097 1.3053
-16.2954 -11.1635 1.3594
-13.2744 -9.8118 1.1427
-12.9536 -10.3135 1.1531
-16.9290 -14.5012 1.5615
-17.1791 -15.8189 1.6457
-15.2334 -15.0727 1.5193
-20.2706 -21.5504 2.1101
-19.3941 -22.1612 2.1129
-18.5579 -22.8082 2.1224
-17.7507 -23.4905 2.1379
-16.8714 -24.0772 2.1475
-15.9141 -24.5404 2.1491
-14.9349 -24.9487 2.1491
-13.8624 -25.1648 2.1359
-12.8756 -25.4988 2.1360
-11.8840 -25.7970 2.1360
-10.8886 -26.0595 2.1360
-10.3679 -27.5548 2.2391
-9.3204 -27.7558 2.2391
-8.2728 -27.9205 2.2391
-7.2263 -28.0491 2.2391
-6.1820 -28.1424 2.2391
-5.1410 -28.2006 2.2391
-4.1043 -28.2243 2.2391
-3.0730 -28.2138 2.2391
-1.9535 -26.8709 2.1359
-0.9826 -26.7974 2.1359
-0.0200 -20.7922 2.1359
0.7244 -20.7073 2.1359
1.4628 -20.5981 2.1359
2.1945 -20.4650 2.1359
2.9234 -20.3394 2.1391
2.9362 -16.2569 1.7250
3.2189 -14.7674 1.5829
3.4576 -13.5099 1.4647
3.8443 -13.0497 1.4327
4.3946 -13.1541 1.4644
4.9674 -13.2628 1.4991
5.5658 -13.3764 1.5371
6.1933 -13.4955 1.5789
6.8537 -13.6209 1.6247
9.6433 -17.5631 2.1391
4.7881 -8.0229 0.9993
4.8789 -7.5449 0.9626
4.9630 -7.1017 0.9297
5.0414 -6.6884 0.9000
5.1149 -6.3014 0.8732
5.1841 -5.9371 0.8490
5.2494 -5.5928 0.8270
5.3114 -5.2661 0.8071
5.3705 -4.9549 0.7891
5.4270 -4.6573 0.7727
5.4161 -4.3198 0.7488
5.5334 -4.0969 0.7444
5.5838 -3.8314 0.7323
5.6326 -3.5741 0.7214
5.6801 -3.3241 0.7116
2.6559 -1.4287 0.3260
5.7716 -2.8422 0.6950
5.8159 -2.6086 0.6882
5.8595 -2.3791 0.6823
5.9024 -2.1528 0.6773
5.9449 -1.9292 0.6730
5.9869 -1.7076 0.6696
6.0287 -1.4875 0.6670
6.0704 -1.2682 0.6652
6.0974 -1.0468 0.6626
19.7987 -2.6705 2.1359
19.9188 -1.9609 2.1359
20.0162 -1.2464 2.1359
20.0906 -0.5275 2.1359
20.1418 0.1952 2.1359
21.1447 0.9655 2.2391
21.1492 1.7289 2.2391
21.1288 2.4942 2.2391
21.0833 3.2606 2.2391
21.0126 4.0275 2.2391
20.9165 4.7940 2.2391
20.7950 5.5595 2.2391
20.6478 6.3231 2.2391
20.4749 7.0841 2.2391
20.2762 7.8417 2.2391
19.9354 8.5452 2.2262
18.8895 8.9130 2.1360
18.6259 9.6212 2.1360
18.3376 10.3229 2.1360
18.0246 11.0173 2.1360
17.6870 11.7036 2.1360
14.2690 10.1970 1.7593
16.9383 13.0483 2.1360
16.5901 13.7569 2.1441
15.5708 13.8848 2.0668
15.2779 14.6416 2.0875
14.3837 14.8113 2.0280
13.5310 14.9732 1.9735
12.6898 15.0984 1.9201
13.8385 17.7194 2.1791
11.7521 16.2159 1.9324
12.0817 17.9965 2.0820
12.0152 19.3650 2.1791
11.3641 19.8740 2.1791
10.6922 20.3618 2.1791
9.0250 18.7967 1.9667
8.2710 18.9398 1.9404
7.5293 19.0806 1.9172
5.8654 16.5838 1.6366
5.2265 16.6560 1.6169
4.6008 16.7427 1.6010
5.4648 23.1015 2.1791
4.6529 23.3858 2.1791
2.7647 17.0762 1.5740
2.1542 17.1954 1.5701
1.5365 17.2680 1.5640
0.9139 17.2724 1.5538
0.2932 17.2646 1.5448
-0.3342 17.6814 1.5758
-1.1261 20.5375 1.8255
-1.8800 20.6806 1.8359
-2.2936 18.0295 1.6008
-2.9777 18.1731 1.6160
-3.6845 18.3379 1.6355
-5.0778 21.2877 1.9070
-5.9417 21.4662 1.9344
-6.8279 21.6199 1.9628
-7.1958 20.2279 1.8529
-7.4619 18.8106 1.7414
-8.2010 18.6887 1.7513
-9.3847 19.4582 1.8488
-10.3580 19.6431 1.8958
-10.8561 18.9112 1.8571
-11.9008 19.1096 1.9131
-13.0170 19.3214 1.9758
-14.2154 19.5489 2.0461
-15.5089 19.7945 2.1251
-16.3172 19.3543 2.1360
-17.0236 18.7820 2.1360
-17.7068 18.1807 2.1360
-18.3655 17.5514 2.1360
-18.9984 16.8953 2.1360
-19.6043 16.2133 2.1360
-21.1560 16.2551 2.2391
-21.7308 15.4900 2.2391
-22.2738 14.7019 2.2391
-22.7840 13.8921 2.2391
-23.2605 13.0623 2.2391
-23.7024 12.2139 2.2391
-24.1090 11.3486 2.2391
-24.4795 10.4678 2.2391
-24.8135 9.5734 2.2391
-23.9525 8.2673 2.1359
-24.1999 7.3928 2.1359
-24.4112 6.5101 2.1359
-24.5863 5.6208 2.1359
-24.8782 4.7558 2.1491
-24.9810 3.8526 2.1491
-25.0472 2.9477 2.1491
-24.8864 2.0272 2.1328
-24.6964 1.1222 2.1171
-23.8457 0.2275 2.0477
-19.8880 -0.5238 1.7132
-18.9633 -1.1811 1.6410
-19.0958 -1.8788 1.6624
-19.2311 -2.5915 1.6866
-19.3696 -3.3214 1.7139
-19.5119 -4.0711 1.7444
-19.6586 -4.8435 1.7782
-19.8101 -5.6417 1.8158
-19.9672 -6.4693 1.8573
-20.1306 -7.3300 1.9032
-20.3011 -8.2284 1.9538
-15.3854 -6.8884 1.5096
-14.8441 -7.2962 1.4874
-18.0812 -9.7077 1.8533
-16.9793 -9.9168 1.7833
-16.1132 -10.2033 1.7372
-16.2941 -11.1565 1.8067
-12.4756 -9.2164 1.4253
-12.0879 -9.6192 1.4259
-15.9685 -13.6712 1.9491
-15.3978 -14.1712 1.9491
-14.8119 -14.6478 1.9491
-15.0033 -15.9420 2.0577
-14.9937 -17.1237 2.1491
-14.3040 -17.5704 2.1491
-13.6021 -17.9902 2.1491
-12.8104 -18.2710 2.1360
-12.0908 -18.6335 2.1359
-9.3557 -15.6191 1.7587
-10.6270 -19.2793 2.1360
-9.8841 -19.5613 2.1360
-9.5760 -20.7723 2.2391
-8.7856 -21.0107 2.2391
-7.9910 -21.2206 2.2391
-7.1932 -21.4024 2.2391
-6.3931 -21.5559 2.2391
-5.5918 -21.6815 2.2391
-4.7900 -21.7793 2.2391
-3.9889 -21.8496 2.2391
-3.1891 -21.8926 2.2391
-2.3916 -21.9086 2.2391
-1.5235 -20.8881 2.1359
-0.7695 -20.8526 2.1359
-0.0202 -17.0138 2.1359
0.5893 -16.9548 2.1359
1.1947 -16.8756 2.1359
1.7954 -16.7764 2.1359
2.3907 -16.6575 2.1359
2.9345 -16.2658 2.1031
3.2175 -14.7746 1.9287
3.4565 -13.5159 1.7837
3.8417 -13.0492 1.7431
4.3919 -13.1536 1.7808
4.9648 -13.2623 1.8222
5.5632 -13.3759 1.8678
6.1907 -13.4951 1.9178
6.8511 -13.6204 1.9727
7.9423 -14.4694 2.1391
4.7878 -8.0245 1.2128
4.8786 -7.5463 1.1680
4.9628 -7.1028 1.1277
5.0413 -6.6894 1.0914
5.1148 -6.3022 1.0587
5.1839 -5.9378 1.0291
5.2493 -5.5934 1.0023
5.3114 -5.2666 0.9780
5.3705 -4.9552 0.9560
5.4270 -4.6576 0.9361
5.4160 -4.3199 0.9071
5.5334 -4.0970 0.9017
5.5838 -3.8314 0.8870
5.6326 -3.5741 0.8737
5.6801 -3.3240 0.8619
2.6556 -1.4285 0.3948
5.7716 -2.8419 0.8420
5.8160 -2.6084 0.8338
5.8595 -2.3787 0.8268
5.9025 -2.1524 0.8208
5.9450 -1.9288 0.8158
5.9870 -1.7071 0.8118
6.0288 -1.4869 0.8088
6.0705 -1.2676 0.8068
6.0976 -1.0461 0.8038
16.3146 -2.1985 2.1359
16.4084 -1.6132 2.1359
16.4831 -1.0241 2.1360
16.5385 -0.4318 2.1360
16.5743 0.1632 2.1360
16.5905 0.7603 2.1360
17.3873 1.4244 2.2391
17.3625 2.0527 2.2391
17.3167 2.6814 2.2391
17.2499 3.3097 2.2391
17.1619 3.9371 2.2391
17.0528 4.5628 2.2391
16.9224 5.1862 2.2391
16.7708 5.8066 2.2391
16.5978 6.4234 2.2391
16.4036 7.0357 2.2391
16.1882 7.6430 2.2391
15.9515 8.2446 2.2391
15.6938 8.8396 2.2391
15.3868 9.4103 2.2350
14.4840 9.5894 2.1456
14.1136 10.0915 2.1360
13.2013 10.1750 2.0451
13.0249 10.8064 2.0695
12.3342 11.0045 2.0143
12.6962 12.1739 2.1360
12.2943 12.6666 2.1360
11.8740 13.1467 2.1360
11.4355 13.6135 2.1360
10.9792 14.0662 2.1360
10.5453 14.5591 2.1441
10.0528 14.9831 2.1441
9.5436 15.3909 2.1441
9.0183 15.7818 2.1441
8.6158 16.4185 2.1791
8.0508 16.7791 2.1791
7.4710 17.1203 2.1791
6.8771 17.4415 2.1791
5.8600 16.5824 2.0367
5.2219 16.6567 2.0141
5.0176 18.2782 2.1791
4.3743 18.5129 2.1791
3.7206 18.7243 2.1791
2.7605 17.0770 1.9677
2.1500 17.1962 1.9644
1.5323 17.2680 1.9584
1.0182 19.3283 2.1791
0.2892 17.2651 1.9377
-0.3382 17.6821 1.9781
-1.0743 19.5145 2.1791
-1.7790 19.5237 2.1791
-2.2974 18.0303 2.0142
-2.9816 18.1740 2.0350
-3.6884 18.3388 2.0610
-4.2723 17.8958 2.0216
-4.9948 18.0330 2.0506
-5.9105 18.7040 2.1441
-6.5935 18.5253 2.1441
-7.2705 18.3198 2.1441
-7.9403 18.0875 2.1441
-8.5694 17.7614 2.1360
-9.2190 17.4775 2.1360
-9.8580 17.1677 2.1360
-10.4854 16.8324 2.1360
-11.0999 16.4722 2.1360
-11.7005 16.0874 2.1360
-12.2862 15.6786 2.1360
-12.8559 15.2464 2.1360
-13.5056 14.8986 2.1515
-14.6159 15.0054 2.2391
-15.1563 14.4831 2.2391
-15.6757 13.9393 2.2391
-16.1733 13.3751 2.2391
-16.6482 12.7911 2.2391
-17.0995 12.1886 2.2391
-17.5264 11.5684 2.2391
-17.9282 10.9317 2.2391
-18.3042 10.2795 2.2391
-9.8488 5.0755 1.1822
-18.9764 8.9335 2.2391
-19.2715 8.2419 2.2391
-18.6376 7.1919 2.1359
-18.8653 6.5129 2.1359
-19.0657 5.8260 2.1359
-19.2385 5.1324 2.1359
-19.3835 4.4333 2.1359
-10.0163 1.9159 1.0971
-11.0860 1.7110 1.2087
-11.1169 1.3097 1.2083
-10.1121 0.8251 1.0973
-17.9673 0.8190 1.9491
-17.9468 0.1739 1.9491
-14.5459 -0.3808 1.5838
-13.5682 -0.8428 1.4832
-17.7355 -1.7419 1.9491
-17.6162 -2.3706 1.9491
-17.4730 -2.9928 1.9491
-17.3063 -3.6074 1.9491
-15.3243 -3.7724 1.7450
-14.3884 -4.0945 1.6590
-16.6705 -5.3972 1.9491
-16.4150 -5.9730 1.9491
-16.1387 -6.5371 1.9491
-15.8422 -7.0886 1.9491
-15.5261 -7.6269 1.9491
-15.1911 -8.1513 1.9491
-14.8379 -8.6612 1.9491
-14.4672 -9.1560 1.9491
-14.0797 -9.6350 1.9491
-12.6299 -9.3254 1.8000
-12.3837 -9.8493 1.8207
-12.8238 -10.9731 1.9491
-12.3765 -11.3845 1.9491
-12.3364 -12.1932 2.0179
-12.5523 -13.3304 2.1380
-12.0106 -13.7092 2.1360
-11.4684 -14.0792 2.1360
-10.9152 -14.4283 2.1360
-10.3520 -14.7562 2.1360
-9.7796 -15.0627 2.1360
-9.1989 -15.3476 2.1360
-8.9872 -16.2938 2.2295
-8.4023 -16.6175 2.2391
-7.7723 -16.8477 2.2391
-7.1369 -17.0550 2.2391
-6.4970 -17.2393 2.2391
-5.8534 -17.4007 2.2391
-5.2068 -17.5392 2.2391
-4.5582 -17.6549 2.2391
-3.9081 -17.7479 2.2391
-3.2575 -17.8182 2.2391
-2.6070 -17.8661 2.2391
-1.9575 -17.8916 2.2391
-1.3095 -17.8950 2.2391
-0.6332 -17.0522 2.1359
-0.0204 -14.3848 2.1359
0.4953 -14.3412 2.1359
1.0079 -14.2803 2.1359
1.5169 -14.2021 2.1359
2.0217 -14.1070 2.1359
2.5219 -13.9950 2.1359
3.0170 -13.8665 2.1359
3.4553 -13.5218 2.1048
3.8390 -13.0487 2.0552
4.3893 -13.1531 2.0990
4.9435 -13.2120 2.1391
5.4063 -13.0041 2.1391
5.8611 -12.7813 2.1391
6.3074 -12.5438 2.1391
6.7450 -12.2919 2.1391
4.7875 -8.0262 1.4277
4.8783 -7.5477 1.3745
4.9626 -7.1040 1.3269
5.0411 -6.6905 1.2839
5.1146 -6.3031 1.2452
5.1838 -5.9385 1.2102
5.2492 -5.5940 1.1786
5.3113 -5.2670 1.1499
5.3704 -4.9556 1.1240
5.4269 -4.6578 1.1004
5.4159 -4.3201 1.0663
5.5334 -4.0971 1.0599
5.5838 -3.8314 1.0426
5.6326 -3.5740 1.0270
5.6801 -3.3239 1.0131
2.6554 -1.4282 0.4640
5.7717 -2.8417 0.9898
5.8160 -2.6080 0.9803
5.8596 -2.3784 0.9721
5.9026 -2.1520 0.9651
5.9451 -1.9283 0.9594
5.9871 -1.7066 0.9549
6.0289 -1.4864 0.9515
6.0706 -1.2670 0.9493
6.0977 -1.0454 0.9460
13.8609 -1.8662 2.1359
13.9375 -1.3685 2.1359
13.9975 -0.8677 2.1359
14.0408 -0.3645 2.1360
14.0673 0.1407 2.1360
14.0769 0.6474 2.1360
14.0695 1.1550 2.1360
14.7228 1.7433 2.2391
14.6790 2.2757 2.2391
14.6171 2.8075 2.2391
14.5372 3.3380 2.2391
14.4392 3.8667 2.2391
14.3231 4.3929 2.2391
14.1888 4.9161 2.2391
14.0365 5.4358 2.2391
13.8661 5.9512 2.2391
13.6778 6.4617 2.2391
13.4716 6.9669 2.2391
13.2475 7.4660 2.2391
13.0057 7.9585 2.2391
12.7465 8.4437 2.2391
12.4698 8.9210 2.2391
12.1759 9.3897 2.2391
11.8650 9.8493 2.2391
11.3956 10.1726 2.2116
10.7392 10.3029 2.1483
10.3340 10.6527 2.1360
9.7725 10.8258 2.0927
9.1828 10.9378 2.0430
8.6877 11.1366 2.0143
8.4511 11.6746 2.0491
7.9150 11.8040 2.0143
7.9632 12.8501 2.1360
7.5203 13.1686 2.1360
7.0648 13.4719 2.1360
6.5973 13.7595 2.1360
6.1183 14.0308 2.1360
5.6283 14.2855 2.1360
5.1278 14.5229 2.1360
4.6176 14.7426 2.1360
4.0981 14.9441 2.1360
3.5701 15.1270 2.1360
3.0342 15.2908 2.1360
2.4911 15.4352 2.1360
1.9415 15.5597 2.1360
1.3862 15.6641 2.1360
0.8258 15.7480 2.1360
0.2612 15.8111 2.1360
-0.3068 15.8531 2.1360
-0.8774 15.8738 2.1360
-1.4498 15.8731 2.1360
-2.0231 15.8507 2.1360
-2.5964 15.8065 2.1360
-3.1690 15.7405 2.1360
-3.7398 15.6526 2.1360
-4.3081 15.5427 2.1360
-4.8729 15.4110 2.1360
-5.1237 14.3882 2.0143
-5.6555 14.2438 2.0173
-6.1647 14.0372 2.0143
-6.7377 13.9599 2.0331
-7.4358 14.0925 2.0864
-8.1375 14.1674 2.1360
-8.7198 13.9946 2.1527
-9.5351 14.1468 2.2243
-10.1154 13.9051 2.2391
-10.6191 13.5487 2.2391
-11.1089 13.1725 2.2391
-11.5841 12.7772 2.2391
-12.0438 12.3633 2.2391
-12.4872 11.9314 2.2391
-12.9136 11.4823 2.2391
-13.3223 11.0166 2.2391
-13.7125 10.5352 2.2391
-14.0836 10.0386 2.2391
-14.4349 9.5279 2.2391
-14.7660 9.0038 2.2391
-15.0762 8.4671 2.2391
-9.8487 5.0758 1.4352
-15.6322 7.3599 2.2391
-15.1450 6.4780 2.1359
-15.3570 5.9271 2.1359
-15.5472 5.3686 2.1359
-15.7153 4.8036 2.1359
-15.8611 4.2329 2.1359
-15.9844 3.6575 2.1359
-10.0621 1.9257 1.3361
-9.8810 1.5262 1.3057
-9.9612 1.1748 1.3118
-14.8301 1.2120 1.9491
-14.8392 0.6785 1.9491
-14.8276 0.1459 1.9491
-14.7956 -0.3850 1.9491
-13.8143 -0.8558 1.8263
-14.6709 -1.4383 1.9491
-14.5786 -1.9591 1.9491
-14.4667 -2.4750 1.9491
-14.3356 -2.9852 1.9491
-14.1854 -3.4889 1.9491
-14.0166 -3.9855 1.9491
-13.8297 -4.4742 1.9491
-13.6249 -4.9543 1.9491
-13.4028 -5.4253 1.9491
-13.1637 -5.8864 1.9491
-12.9083 -6.3371 1.9491
-12.6370 -6.7768 1.9491
-12.3503 -7.2050 1.9491
-12.0487 -7.6211 1.9491
-11.7329 -8.0247 1.9491
-11.6544 -8.6005 1.9920
-11.8028 -9.3822 2.0799
-11.7312 -10.0328 2.1359
-11.3289 -10.4152 2.1359
-10.9150 -10.7825 2.1360
-10.4885 -11.1327 2.1360
-10.0510 -11.4662 2.1360
-9.6031 -11.7828 2.1360
-9.1455 -12.0822 2.1360
-8.6789 -12.3641 2.1360
-8.3329 -12.8268 2.1696
-8.0942 -13.4962 2.2391
-7.5811 -13.7356 2.2391
-7.0614 -13.9562 2.2391
-6.5360 -14.1576 2.2391
-6.0053 -14.3398 2.2391
-5.4702 -14.5029 2.2391
-4.9313 -14.6466 2.2391
-4.3893 -14.7712 2.2391
-3.8449 -14.8764 2.2391
-3.2988 -14.9625 2.2391
-2.7516 -15.0294 2.2391
-2.2039 -15.0773 2.2391
-1.6565 -15.1062 2.2391
-1.1098 -15.1162 2.2391
-0.5627 -15.0560 2.2315
-0.0205 -12.4494 2.1360
0.4260 -12.4155 2.1360
0.8701 -12.3665 2.1360
1.3113 -12.3024 2.1360
1.7492 -12.2234 2.1360
2.1833 -12.1297 2.1360
2.6132 -12.0215 2.1359
3.0383 -11.8989 2.1359
3.4583 -11.7622 2.1359
3.8727 -11.6116 2.1359
4.2876 -11.4647 2.1391
4.6903 -11.2868 2.1391
5.0861 -11.0956 2.1391
5.4747 -10.8914 2.1391
5.8557 -10.6746 2.1391
4.7872 -8.0278 1.6440
4.8781 -7.5491 1.5826
4.9623 -7.1052 1.5275
5.0409 -6.6915 1.4778
5.1144 -6.3039 1.4331
5.1837 -5.9392 1.3927
5.2491 -5.5946 1.3561
5.3112 -5.2675 1.3230
5.3703 -4.9560 1.2931
5.4269 -4.6581 1.2659
5.4158 -4.3202 1.2266
5.5333 -4.0972 1.2192
5.5838 -3.8314 1.1993
5.6327 -3.5740 1.1814
5.6802 -3.3237 1.1654
2.6551 -1.4280 0.5338
5.7717 -2.8415 1.1386
5.8161 -2.6078 1.1277
5.8597 -2.3780 1.1184
5.9027 -2.1516 1.1104
5.9451 -1.9278 1.1040
5.9872 -1.7061 1.0989
6.0291 -1.4858 1.0951
6.0707 -1.2663 1.0927
6.0978 -1.0447 1.0891
12.0380 -1.6193 2.1359
12.1024 -1.1867 2.1359
12.1523 -0.7516 2.1359
12.1876 -0.3146 2.1360
12.2081 0.1240 2.1360
12.2138 0.5637 2.1360
12.2045 1.0040 2.1360
12.1803 1.4445 2.1360
12.7271 1.9756 2.2391
12.6701 2.4361 2.2391
12.5974 2.8952 2.2391
12.5089 3.3525 2.2391
12.4046 3.8074 2.2391
12.2845 4.2594 2.2391
12.1488 4.7079 2.2391
11.9974 5.1524 2.2391
11.8305 5.5925 2.2391
11.6481 6.0275 2.2391
11.4503 6.4569 2.2391
11.2373 6.8802 2.2391
11.0091 7.2969 2.2391
10.7661 7.7063 2.2391
10.5083 8.1081 2.2391
10.2359 8.5016 2.2391
9.9493 8.8862 2.2391
9.6485 9.2616 2.2391
9.3339 9.6270 2.2391
9.0058 9.9821 2.2391
8.6645 10.3262 2.2391
8.3103 10.6589 2.2391
7.8469 10.8462 2.2119
7.3337 10.9435 2.1708
6.8435 11.0500 2.1360
6.4636 11.3255 2.1373
6.0443 11.5336 2.1285
5.5693 11.6237 2.1012
5.1034 11.7122 2.0771
4.6450 11.7992 2.0561
4.1929 11.8850 2.0381
3.7458 11.9704 2.0230
3.3084 12.0768 2.0143
2.8806 12.2194 2.0143
2.4467 12.3465 2.0143
2.0762 12.8848 2.0834
1.6154 12.9722 2.0816
1.1525 13.0601 2.0826
0.6864 13.1486 2.0864
0.2075 12.7406 2.0143
-0.2500 12.7696 2.0143
-0.7115 12.8203 2.0205
-1.1815 12.9052 2.0347
-1.6615 12.9963 2.0527
-2.1528 13.0896 2.0739
-2.6572 13.1854 2.0986
-3.1765 13.2839 2.1269
-3.6752 13.2502 2.1371
-4.1562 13.1367 2.1376
-4.7139 13.2305 2.1752
-5.2997 13.3417 2.2196
-5.8345 13.2799 2.2391
-6.3161 13.0818 2.2391
-6.7904 12.8652 2.2391
-7.2567 12.6303 2.2391
-7.7141 12.3775 2.2391
-8.1620 12.1069 2.2391
-8.5996 11.8190 2.2391
-9.0261 11.5142 2.2391
-9.4409 11.1930 2.2391
-9.8433 10.8557 2.2391
-10.2327 10.5029 2.2391
-10.6083 10.1352 2.2391
-10.9695 9.7530 2.2391
-11.3159 9.3569 2.2391
-11.6467 8.9477 2.2391
-11.9616 8.5259 2.2391
-12.2598 8.0922 2.2391
-12.5411 7.6473 2.2391
-12.8048 7.1918 2.2391
-9.8487 5.0762 1.6897
-12.6661 5.9640 2.1359
-12.8655 5.5038 2.1359
-13.0469 5.0364 2.1359
-13.2100 4.5626 2.1359
-13.3546 4.0832 2.1359
-13.4805 3.5989 2.1359
-13.5876 3.1105 2.1359
-12.4800 2.3898 1.9491
-10.0328 1.5508 1.5591
-10.1206 1.1949 1.5670
-12.6168 1.0328 1.9491
-12.6276 0.5792 1.9491
-12.6210 0.1261 1.9491
-12.5972 -0.3258 1.9491
-12.5563 -0.7757 1.9491
-12.4984 -1.2231 1.9491
-12.4237 -1.6673 1.9491
-12.3323 -2.1075 1.9491
-12.2246 -2.5431 1.9491
-12.1008 -2.9736 1.9491
-11.9611 -3.3983 1.9491
-11.8059 -3.8166 1.9491
-11.6355 -4.2280 1.9491
-11.4502 -4.6319 1.9491
-11.2504 -5.0277 1.9491
-11.0510 -5.4221 1.9517
-11.1569 -5.9796 2.0119
-11.2691 -6.5705 2.0784
-11.3026 -7.1452 2.1359
-7.4247 -5.0753 1.4402
-10.7063 -7.8965 2.1359
-10.3891 -8.2540 2.1359
-10.0598 -8.5988 2.1359
-9.7191 -8.9304 2.1359
-9.3675 -9.2487 2.1359
-9.0054 -9.5533 2.1359
-8.6336 -9.8438 2.1359
-8.2525 -10.1200 2.1359
-7.8912 -10.4190 2.1436
-7.8259 -11.1423 2.2391
-7.4010 -11.3853 2.2391
-6.9688 -11.6125 2.2391
-6.5300 -11.8235 2.2391
-6.0852 -12.0184 2.2391
-5.6349 -12.1969 2.2391
-5.1797 -12.3590 2.2391
-4.7203 -12.5046 2.2391
-4.2573 -12.6336 2.2391
-3.7912 -12.7460 2.2391
-3.3227 -12.8418 2.2391
-2.8522 -12.9211 2.2391
-2.3805 -12.9837 2.2391
-1.9080 -13.0298 2.2391
-1.4353 -13.0594 2.2391
-0.9629 -13.0726 2.2391
-0.4915 -13.0695 2.2391
-0.0216 -11.4913 2.2391
0.3727 -10.9352 2.1360
0.7641 -10.8946 2.1360
1.1531 -10.8407 2.1360
1.5394 -10.7735 2.1360
1.9225 -10.6932 2.1360
2.3020 -10.6000 2.1360
2.6775 -10.4940 2.1359
3.0485 -10.3754 2.1359
3.4148 -10.2445 2.1359
3.7758 -10.1012 2.1359
4.1313 -9.9460 2.1359
4.4808 -9.7790 2.1359
4.8314 -9.6150 2.1391
5.1686 -9.4249 2.1391
5.4987 -9.2236 2.1391
4.8329 -7.4810 1.7758
4.9409 -7.0761 1.7223
5.0407 -6.6925 1.6733
5.1143 -6.3048 1.6225
5.1835 -5.9399 1.5766
5.2490 -5.5952 1.5351
5.3111 -5.2680 1.4975
5.3702 -4.9563 1.4635
5.4268 -4.6584 1.4328
5.4157 -4.3204 1.3882
5.5333 -4.0973 1.3798
5.5838 -3.8315 1.3572
5.6327 -3.5739 1.3370
5.6802 -3.3236 1.3189
2.6549 -1.4278 0.6040
5.7718 -2.8412 1.2887
5.8161 -2.6075 1.2764
5.8597 -2.3777 1.2658
5.9027 -2.1512 1.2569
5.9452 -1.9274 1.2497
5.9873 -1.7056 1.2440
6.0292 -1.4852 1.2399
6.0708 -1.2657 1.2373
6.0980 -1.0440 1.2333
10.6290 -1.4284 2.1359
10.6845 -1.0462 2.1359
10.7271 -0.6620 2.1359
10.7566 -0.2761 2.1359
10.7730 0.1111 2.1360
10.7762 0.4991 2.1360
10.7661 0.8876 2.1360
10.7428 1.2760 2.1360
10.7061 1.6639 2.1360
10.6561 2.0510 2.1360
11.1039 2.5544 2.2391
11.0234 2.9569 2.2391
10.9291 3.3571 2.2391
10.8208 3.7545 2.2391
10.6986 4.1487 2.2391
10.5626 4.5392 2.2391
10.4130 4.9254 2.2391
10.2497 5.3070 2.2391
10.0729 5.6835 2.2391
9.8827 6.0543 2.2391
9.6793 6.4190 2.2391
9.4629 6.7772 2.2391
9.2335 7.1284 2.2391
8.9914 7.4720 2.2391
8.7369 7.8077 2.2391
8.4702 8.1349 2.2391
8.1914 8.4532 2.2391
7.9009 8.7622 2.2391
7.5989 9.0614 2.2391
7.2858 9.3503 2.2391
6.9619 9.6285 2.2391
6.6275 9.8957 2.2391
6.2829 10.1513 2.2391
5.9287 10.3949 2.2391
5.5650 10.6262 2.2391
5.1925 10.8448 2.2391
4.8114 11.0503 2.2391
4.4222 11.2422 2.2391
4.0254 11.4204 2.2391
3.6216 11.5844 2.2391
3.2085 11.7242 2.2373
2.7796 11.8048 2.2271
2.3521 11.8852 2.2199
1.9249 11.9655 2.2156
1.4970 12.0459 2.2142
1.0672 12.1267 2.2158
0.6343 12.2080 2.2203
0.1973 12.2913 2.2281
-0.2451 12.3762 2.2391
-0.6900 12.3845 2.2391
-1.1357 12.3759 2.2391
-1.5816 12.3506 2.2391
-2.0270 12.3086 2.2391
-2.4712 12.2499 2.2391
-2.9137 12.1744 2.2391
-3.3536 12.0823 2.2391
-3.7905 11.9734 2.2391
-4.2236 11.8480 2.2391
-4.6522 11.7061 2.2391
-5.0756 11.5479 2.2391
-5.4933 11.3735 2.2391
-5.9046 11.1833 2.2391
-6.3087 10.9772 2.2391
-6.7052 10.7558 2.2391
-7.0933 10.5192 2.2391
-7.4724 10.2677 2.2391
-7.8419 10.0018 2.2391
-8.2013 9.7217 2.2391
-8.5499 9.4279 2.2391
-8.8872 9.1208 2.2391
-9.2126 8.8009 2.2391
-9.5257 8.4686 2.2391
-9.8259 8.1245 2.2391
-10.1128 7.7690 2.2391
-10.3859 7.4027 2.2391
-10.6448 7.0262 2.2391
-10.8890 6.6400 2.2391
-10.6055 5.9569 2.1359
-9.8486 5.0766 1.9460
-10.9985 5.1794 2.1359
-11.1723 4.7801 2.1359
-11.3307 4.3747 2.1359
-11.4733 3.9636 2.1359
-11.6000 3.5477 2.1359
-11.7106 3.1275 2.1359
-11.8051 2.7037 2.1359
-10.8442 2.0778 1.9491
-10.9006 1.6863 1.9491
-10.1570 1.2005 1.8093
-10.9684 0.8994 1.9491
-10.9798 0.5052 1.9491
-10.9762 0.1113 1.9491
-10.9577 -0.2816 1.9491
-10.9245 -0.6731 1.9491
-10.8765 -1.0625 1.9491
-10.8140 -1.4492 1.9491
-10.7372 -1.8327 1.9491
-10.6461 -2.2125 1.9491
-10.5410 -2.5880 1.9491
-10.5926 -3.0071 1.9810
-10.6765 -3.4490 2.0224
-10.7637 -3.9085 2.0682
-10.8548 -4.3881 2.1188
-10.7543 -4.8030 2.1359
-10.5531 -5.1746 2.1359
-10.3386 -5.5378 2.1359
-10.1114 -5.8921 2.1359
-9.8718 -6.2371 2.1359
-7.3642 -5.0312 1.6350
-9.3570 -6.8976 2.1359
-9.0827 -7.2122 2.1359
-8.7978 -7.5159 2.1359
-8.5027 -7.8085 2.1359
-8.1978 -8.0895 2.1359
-7.8836 -8.3586 2.1359
-7.5607 -8.6157 2.1359
-7.5789 -9.2887 2.2391
-7.2235 -9.5320 2.2391
-6.8604 -9.7619 2.2391
-6.4902 -9.9781 2.2391
-6.1133 -10.1805 2.2391
-5.7304 -10.3689 2.2391
-5.3419 -10.5431 2.2391
-4.9483 -10.7031 2.2391
-4.5503 -10.8488 2.2391
-4.1482 -10.9800 2.2391
-3.7427 -11.0966 2.2391
-3.3342 -11.1988 2.2391
-2.9234 -11.2863 2.2391
-2.5105 -11.3592 2.2391
-2.0964 -11.4175 2.2391
-1.6812 -11.4612 2.2391
-1.2657 -11.4904 2.2391
-0.8503 -11.5051 2.2391
-0.4354 -11.5054 2.2391
-0.0217 -10.2554 2.2391
0.3460 -10.2198 2.2364
0.6800 -9.7267 2.1360
1.0276 -9.6804 2.1360
1.3729 -9.6221 2.1360
1.7154 -9.5520 2.1360
2.0547 -9.4703 2.1360
2.3906 -9.3771 2.1360
2.7227 -9.2726 2.1360
3.0505 -9.1568 2.1359
3.3737 -9.0300 2.1359
3.6920 -8.8924 2.1359
4.0051 -8.7441 2.1359
4.3126 -8.5854 2.1359
4.6142 -8.4165 2.1359
4.9170 -8.2500 2.1391
5.2063 -8.0610 2.1391
5.4887 -7.8623 2.1391
5.7640 -7.6543 2.1391
5.0760 -6.2587 1.8002
5.1367 -5.8871 1.7463
5.2397 -5.5860 1.7127
5.3110 -5.2685 1.6736
5.3702 -4.9567 1.6356
5.4268 -4.6587 1.6011
5.4157 -4.3205 1.5512
5.5333 -4.0974 1.5419
5.5838 -3.8315 1.5166
5.6327 -3.5739 1.4940
5.6802 -3.3235 1.4737
2.6546 -1.4276 0.6749
5.7718 -2.8410 1.4401
5.8162 -2.6072 1.4264
5.8598 -2.3773 1.4146
5.9028 -2.1508 1.4048
5.9453 -1.9269 1.3967
5.9874 -1.7050 1.3905
6.0293 -1.4846 1.3860
6.0709 -1.2651 1.3832
6.0981 -1.0433 1.3789
9.5064 -1.2763 2.1359
9.5550 -0.9344 2.1359
9.5920 -0.5906 2.1359
9.6173 -0.2454 2.1359
9.6307 0.1009 2.1360
9.6323 0.4478 2.1360
9.6219 0.7949 2.1360
5.7956 0.6894 1.2896
5.7749 0.8987 1.2896
5.7470 1.1073 1.2896
9.4610 2.1785 2.1360
9.8440 2.6427 2.2391
9.7579 2.9997 2.2391
9.6594 3.3540 2.2391
9.5485 3.7053 2.2391
9.4253 4.0530 2.2391
9.2898 4.3969 2.2391
9.1422 4.7364 2.2391
8.9825 5.0712 2.2391
8.8110 5.4009 2.2391
8.6277 5.7249 2.2391
8.4328 6.0429 2.2391
8.2264 6.3544 2.2391
8.0089 6.6591 2.2391
7.7802 6.9565 2.2391
7.5408 7.2463 2.2391
7.2907 7.5280 2.2391
7.0303 7.8011 2.2391
6.7599 8.0655 2.2391
6.4796 8.3205 2.2391
6.1899 8.5659 2.2391
5.8909 8.8013 2.2391
5.5831 9.0262 2.2391
5.2668 9.2405 2.2391
4.9423 9.4437 2.2391
4.6101 9.6354 2.2391
4.2705 9.8154 2.2391
3.9239 9.9834 2.2391
3.5707 10.1390 2.2391
3.2114 10.2819 2.2391
2.8464 10.4120 2.2391
2.4762 10.5289 2.2391
2.1013 10.6324 2.2391
1.7221 10.7224 2.2391
1.3392 10.7984 2.2391
0.9530 10.8605 2.2391
0.5642 10.9084 2.2391
0.1731 10.9420 2.2391
-0.2196 10.9612 2.2391
-0.6135 10.9658 2.2391
-1.0078 10.9558 2.2391
-1.4022 10.9312 2.2391
-1.7959 10.8918 2.2391
-2.1886 10.8376 2.2391
-2.5794 10.7688 2.2391
-2.9680 10.6853 2.2391
-3.3537 10.5872 2.2391
-3.7359 10.4745 2.2391
-4.1141 10.3474 2.2391
-4.4876 10.2059 2.2391
-4.8560 10.0504 2.2391
-5.2186 9.8809 2.2391
-5.5749 9.6976 2.2391
-5.9244 9.5009 2.2391
-6.2664 9.2909 2.2391
-6.6005 9.0679 2.2391
-6.9262 8.8322 2.2391
-7.2428 8.5842 2.2391
-7.5500 8.3242 2.2391
-7.8473 8.0526 2.2391
-8.1341 7.7698 2.2391
-8.4101 7.4762 2.2391
-8.6747 7.1722 2.2391
-8.9277 6.8583 2.2391
-9.1686 6.5349 2.2391
-9.3970 6.2026 2.2391
-9.6126 5.8618 2.2391
-9.3624 5.2589 2.1359
-9.5427 4.9193 2.1359
-9.7099 4.5731 2.1359
-9.8638 4.2209 2.1359
-10.0041 3.8632 2.1359
-10.1307 3.5006 2.1359
-10.2434 3.1337 2.1359
-10.3419 2.7629 2.1359
-10.4263 2.3890 2.1359
-9.6699 1.8539 1.9677
-9.7357 1.5073 1.9706
-9.8016 1.1598 1.9762
-9.8679 0.8105 1.9845
-9.9347 0.4585 1.9956
-10.0022 0.1030 2.0095
-10.0706 -0.2572 2.0263
-10.1400 -0.6230 2.0462
-10.2108 -0.9956 2.0692
-10.2830 -1.3761 2.0955
-10.3570 -1.7658 2.1253
-10.3224 -2.1431 2.1359
-10.2226 -2.5076 2.1359
-10.1094 -2.8676 2.1359
-9.9831 -3.2225 2.1359
-9.8440 -3.5720 2.1359
-9.6922 -3.9155 2.1359
-9.5281 -4.2526 2.1359
-9.3520 -4.5829 2.1359
-9.1642 -4.9058 2.1359
-8.9650 -5.2210 2.1359
-8.7547 -5.5282 2.1359
-7.3911 -5.0468 1.8499
-8.3024 -6.1168 2.1359
-8.0611 -6.3975 2.1359
-7.8103 -6.6686 2.1359
-7.5502 -6.9300 2.1359
-7.2815 -7.1813 2.1359
-7.3429 -7.7810 2.2391
-7.0440 -8.0224 2.2391
-6.7372 -8.2524 2.2391
-6.4230 -8.4708 2.2391
-6.1018 -8.6773 2.2391
-5.7741 -8.8718 2.2391
-5.4404 -9.0541 2.2391
-5.1010 -9.2240 2.2391
-4.7565 -9.3814 2.2391
-4.4074 -9.5261 2.2391
-4.0540 -9.6581 2.2391
-3.6969 -9.7773 2.2391
-3.3365 -9.8836 2.2391
-2.9734 -9.9769 2.2391
-2.6079 -10.0572 2.2391
-2.2405 -10.1246 2.2391
-1.8716 -10.1788 2.2391
-1.5018 -10.2201 2.2391
-1.1315 -10.2483 2.2391
-0.7611 -10.2636 2.2391
-0.3910 -10.2659 2.2391
-0.0218 -9.2507 2.2391
0.3104 -9.2312 2.2391
0.6163 -8.8443 2.1525
0.9254 -8.7361 2.1360
1.2372 -8.6847 2.1360
1.5466 -8.6227 2.1360
1.8533 -8.5501 2.1360
2.1569 -8.4670 2.1360
2.4571 -8.3736 2.1360
2.7535 -8.2701 2.1360
3.0458 -8.1565 2.1360
3.3337 -8.0330 2.1359
3.6170 -7.8999 2.1359
3.8952 -7.7572 2.1359
4.1681 -7.6052 2.1359
4.4354 -7.4441 2.1359
4.6968 -7.2740 2.1359
4.9520 -7.0952 2.1359
5.2087 -6.9184 2.1391
5.4512 -6.7225 2.1391
5.6867 -6.5185 2.1391
5.9150 -6.3067 2.1391
6.1358 -6.0874 2.1391
5.3221 -4.9128 1.7932
5.3770 -4.6163 1.7550
5.4156 -4.3207 1.7159
5.5333 -4.0975 1.7056
5.5838 -3.8315 1.6776
5.6327 -3.5738 1.6525
5.6802 -3.3234 1.6302
2.6544 -1.4273 0.7464
5.7718 -2.8407 1.5930
5.8162 -2.6069 1.5779
5.8599 -2.3770 1.5649
5.9029 -2.1504 1.5541
5.9454 -1.9264 1.5453
5.9875 -1.7045 1.5385
6.0294 -1.4840 1.5336
6.0711 -1.2644 1.5306
6.0983 -1.0426 1.5259
8.5900 -1.1522 2.1359
8.6332 -0.8431 2.1359
8.6659 -0.5323 2.1359
8.6878 -0.2203 2.1359
8.6991 0.0925 2.1359
5.2523 0.2450 1.2896
5.5482 0.4594 1.3639
5.6518 0.6734 1.3927
5.6859 0.8859 1.4063
5.6699 1.0936 1.4094
5.5501 1.2792 1.3883
5.3608 1.4404 1.3512
5.0710 1.5601 1.2896
8.7147 3.0282 2.2391
8.6132 3.3446 2.2391
8.5007 3.6579 2.2391
8.3771 3.9674 2.2391
8.2426 4.2730 2.2391
8.0972 4.5741 2.2391
7.9411 4.8705 2.2391
7.7745 5.1616 2.2391
7.5974 5.4473 2.2391
7.4100 5.7270 2.2391
7.2126 6.0004 2.2391
7.0053 6.2671 2.2391
6.7883 6.5268 2.2391
6.5619 6.7791 2.2391
6.3262 7.0237 2.2391
6.0815 7.2602 2.2391
5.8281 7.4882 2.2391
5.5662 7.7074 2.2391
5.2962 7.9176 2.2391
5.0183 8.1182 2.2391
4.7329 8.3092 2.2391
4.4403 8.4901 2.2391
4.1408 8.6607 2.2391
3.8347 8.8207 2.2391
3.5226 8.9697 2.2391
3.2047 9.1076 2.2391
2.8814 9.2342 2.2391
2.5531 9.3491 2.2391
2.2203 9.4521 2.2391
1.8834 9.5431 2.2391
1.5429 9.6219 2.2391
1.1991 9.6883 2.2391
0.8525 9.7422 2.2391
0.5036 9.7833 2.2391
0.1529 9.8116 2.2391
-0.1992 9.8270 2.2391
-0.5521 9.8294 2.2391
-0.9054 9.8188 2.2391
-1.2586 9.7950 2.2391
-1.6111 9.7581 2.2391
-1.9625 9.7081 2.2391
-2.3122 9.6449 2.2391
-2.6598 9.5687 2.2391
-3.0047 9.4795 2.2391
-3.3464 9.3773 2.2391
-3.6844 9.2624 2.2391
-4.0183 9.1347 2.2391
-4.3474 8.9944 2.2391
-4.6713 8.8417 2.2391
-4.9896 8.6769 2.2391
-5.3017 8.5001 2.2391
-5.6071 8.3114 2.2391
-5.9055 8.1113 2.2391
-6.1962 7.9000 2.2391
-6.4790 7.6777 2.2391
-6.7533 7.4447 2.2391
-7.0187 7.2015 2.2391
-7.2748 6.9483 2.2391
-7.5213 6.6856 2.2391
-7.7577 6.4136 2.2391
-7.9837 6.1328 2.2391
-8.1990 5.8437 2.2391
-8.4031 5.5466 2.2391
-8.5959 5.2420 2.2391
-8.3723 4.7030 2.1359
-8.5337 4.3994 2.1359
-8.6834 4.0900 2.1359
-8.8213 3.7753 2.1359
-8.9472 3.4557 2.1359
-9.0608 3.1316 2.1359
-9.1621 2.8037 2.1359
-9.2509 2.4724 2.1359
-9.3271 2.1381 2.1359
-9.3906 1.8014 2.1359
-9.4414 1.4628 2.1359
-9.4793 1.1228 2.1359
-9.5044 0.7820 2.1359
-9.5167 0.4406 2.1359
-9.5162 0.0994 2.1359
-9.5029 -0.2412 2.1359
-9.4769 -0.5807 2.1359
-9.4383 -0.9186 2.1359
-9.3871 -1.2544 2.1359
-9.3235 -1.5878 2.1359
-9.2477 -1.9180 2.1359
-9.1597 -2.2449 2.1359
-9.0598 -2.5678 2.1359
-8.9482 -2.8863 2.1359
-8.8250 -3.2000 2.1359
-8.6906 -3.5085 2.1359
-8.5450 -3.8114 2.1359
-8.3887 -4.1082 2.1359
-8.2218 -4.3987 2.1359
-8.0446 -4.6823 2.1359
-7.8575 -4.9589 2.1359
-7.3915 -5.0441 2.0608
-7.4547 -5.4891 2.1359
-7.2395 -5.7422 2.1359
-7.0551 -6.0205 2.1479
-7.1115 -6.5237 2.2391
-6.8598 -6.7617 2.2391
-6.6002 -6.9900 2.2391
-6.3329 -7.2084 2.2391
-6.0585 -7.4167 2.2391
-5.7772 -7.6146 2.2391
-5.4896 -7.8018 2.2391
-5.1959 -7.9784 2.2391
-4.8967 -8.1440 2.2391
-4.5923 -8.2986 2.2391
-4.2832 -8.4419 2.2391
-3.9697 -8.5739 2.2391
-3.6524 -8.6945 2.2391
-3.3315 -8.8035 2.2391
-3.0075 -8.9009 2.2391
-2.6809 -8.9867 2.2391
-2.3521 -9.0608 2.2391
-2.0214 -9.1232 2.2391
-1.6893 -9.1737 2.2391
-1.3562 -9.2126 2.2391
-1.0225 -9.2396 2.2391
-0.6886 -9.2550 2.2391
-0.3549 -9.2587 2.2391
-0.0218 -8.4171 2.2391
0.2805 -8.4004 2.2391
0.5816 -8.3732 2.2391
0.8406 -7.9518 2.1360
1.1246 -7.9061 2.1360
1.4065 -7.8505 2.1360
1.6859 -7.7853 2.1360
1.9626 -7.7105 2.1360
2.2362 -7.6262 2.1360
2.5065 -7.5326 2.1360
2.7730 -7.4298 2.1360
3.0356 -7.3180 2.1360
3.2940 -7.1973 2.1359
3.5478 -7.0679 2.1359
3.7968 -6.9299 2.1359
4.0407 -6.7835 2.1359
4.2792 -6.6289 2.1359
4.5121 -6.4663 2.1359
4.7391 -6.2959 2.1359
4.9601 -6.1179 2.1359
5.1746 -5.9324 2.1359
5.3908 -5.7486 2.1391
5.5923 -5.5488 2.1391
5.7868 -5.3422 2.1391
5.9740 -5.1291 2.1391
5.4155 -4.3208 1.8825
6.3258 -4.6845 2.1391
6.4900 -4.4534 2.1391
5.5886 -3.5458 1.7987
5.6276 -3.2925 1.7718
2.6541 -1.4271 0.8188
5.7286 -2.8192 1.7345
5.7900 -2.5948 1.7232
5.8485 -2.3720 1.7136
5.9030 -2.1499 1.7051
5.9455 -1.9259 1.6955
5.9876 -1.7040 1.6881
6.0295 -1.4834 1.6828
6.0712 -1.2638 1.6796
6.0984 -1.0419 1.6745
7.8271 -1.0489 2.1359
7.8659 -0.7670 2.1359
7.8951 -0.4838 2.1359
7.9145 -0.1995 2.1359
7.9240 0.0855 2.1359
4.7839 0.2240 1.2896
5.5026 0.4566 1.4852
5.6232 0.6711 1.5217
5.6608 0.8831 1.5377
5.6436 1.0898 1.5408
5.5234 1.2742 1.5177
5.3242 1.4318 1.4743
4.6152 1.4210 1.2896
7.9304 2.7577 2.2391
7.8371 3.0454 2.2391
7.7336 3.3300 2.2391
7.6201 3.6112 2.2391
7.4966 3.8887 2.2391
7.3633 4.1620 2.2391
7.2203 4.4310 2.2391
7.0677 4.6951 2.2391
6.9056 4.9541 2.2391
6.7342 5.2076 2.2391
6.5537 5.4553 2.2391
6.3643 5.6968 2.2391
6.1661 5.9319 2.2391
5.9593 6.1602 2.2391
5.7443 6.3813 2.2391
5.5211 6.5950 2.2391
5.2901 6.8009 2.2391
5.0514 6.9988 2.2391
4.8055 7.1884 2.2391
4.5524 7.3693 2.2391
4.2927 7.5414 2.2391
4.0264 7.7042 2.2391
3.7541 7.8576 2.2391
3.4759 8.0014 2.2391
3.1922 8.1352 2.2391
2.9034 8.2589 2.2391
2.6099 8.3722 2.2391
2.3119 8.4749 2.2391
2.0100 8.5669 2.2391
1.7044 8.6480 2.2391
1.3956 8.7180 2.2391
1.0839 8.7767 2.2391
0.7699 8.8241 2.2391
0.4539 8.8600 2.2391
0.1363 8.8843 2.2391
-0.1824 8.8969 2.2391
-0.5018 8.8978 2.2391
-0.8215 8.8869 2.2391
-1.1409 8.8642 2.2391
-1.4597 8.8296 2.2391
-1.7774 8.7832 2.2391
-2.0935 8.7250 2.2391
-2.4075 8.6550 2.2391
-2.7191 8.5733 2.2391
-3.0278 8.4800 2.2391
-3.3331 8.3751 2.2391
-3.6345 8.2588 2.2391
-3.9316 8.1313 2.2391
-4.2241 7.9925 2.2391
-4.5113 7.8429 2.2391
-4.7930 7.6825 2.2391
-5.0686 7.5115 2.2391
-5.3378 7.3302 2.2391
-5.6002 7.1387 2.2391
-5.8553 6.9375 2.2391
-6.1028 6.7268 2.2391
-6.3423 6.5068 2.2391
-6.5735 6.2778 2.2391
-6.7959 6.0403 2.2391
-7.0093 5.7945 2.2391
-7.2133 5.5408 2.2391
-7.4077 5.2796 2.2391
-7.5921 5.0113 2.2391
-7.7662 4.7362 2.2391
-7.6395 4.2916 2.1571
-7.7101 3.9752 2.1359
-7.8456 3.6958 2.1359
-7.9704 3.4116 2.1359
-8.0844 3.1230 2.1359
-8.1874 2.8304 2.1359
-8.2793 2.5343 2.1359
-8.3600 2.2351 2.1359
-8.4294 1.9332 2.1359
-8.4873 1.6291 2.1359
-8.5338 1.3233 2.1359
-8.5688 1.0161 2.1359
-8.5923 0.7081 2.1359
-8.6042 0.3997 2.1359
-8.6045 0.0913 2.1359
-8.5934 -0.2167 2.1359
-8.5708 -0.5237 2.1359
-8.5368 -0.8293 2.1359
-8.4916 -1.1331 2.1359
-8.4351 -1.4348 2.1359
-8.3676 -1.7337 2.1359
-8.2891 -2.0296 2.1359
-8.1999 -2.3221 2.1359
-8.1000 -2.6107 2.1359
-7.9897 -2.8950 2.1359
-7.8691 -3.1747 2.1359
-7.7385 -3.4494 2.1359
-7.5981 -3.7187 2.1359
-7.4481 -3.9823 2.1359
-7.2888 -4.2399 2.1359
-7.1205 -4.4911 2.1359
-6.9433 -4.7356 2.1359
-6.8656 -5.0525 2.1700
-6.8811 -5.4549 2.2391
-6.6696 -5.6884 2.2391
-6.4501 -5.9136 2.2391
-6.2229 -6.1305 2.2391
-5.9884 -6.3386 2.2391
-5.7470 -6.5378 2.2391
-5.4990 -6.7278 2.2391
-5.2447 -6.9085 2.2391
-4.9845 -7.0797 2.2391
-4.7188 -7.2412 2.2391
-4.4479 -7.3928 2.2391
-4.1722 -7.5343 2.2391
-3.8922 -7.6658 2.2391
-3.6081 -7.7870 2.2391
-3.3203 -7.8978 2.2391
-3.0293 -7.9981 2.2391
-2.7353 -8.0880 2.2391
-2.4389 -8.1672 2.2391
-2.1403 -8.2359 2.2391
-1.8400 -8.2938 2.2391
-1.5383 -8.3411 2.2391
-1.2355 -8.3776 2.2391
-0.9321 -8.4035 2.2391
-0.6285 -8.4186 2.2391
-0.3249 -8.4232 2.2391
-0.0219 -7.7135 2.2391
0.2552 -7.6991 2.2391
0.5313 -7.6751 2.2391
0.8060 -7.6414 2.2391
1.0294 -7.2484 2.1360
1.2880 -7.1982 2.1360
1.5444 -7.1390 2.1360
1.7984 -7.0711 2.1360
2.0495 -6.9944 2.1360
2.2976 -6.9091 2.1360
2.5424 -6.8154 2.1360
2.7835 -6.7133 2.1360
3.0208 -6.6030 2.1360
3.2539 -6.4847 2.1360
3.4826 -6.3584 2.1359
3.7066 -6.2244 2.1359
3.9257 -6.0829 2.1359
4.1397 -5.9340 2.1359
4.3483 -5.7778 2.1359
4.5513 -5.6147 2.1359
4.7484 -5.4447 2.1359
4.9395 -5.2680 2.1359
5.1243 -5.0850 2.1359
5.3027 -4.8957 2.1359
5.4744 -4.7005 2.1359
5.6478 -4.5064 2.1391
5.8058 -4.2996 2.1391
5.9566 -4.0874 2.1391
6.1000 -3.8702 2.1391
6.2359 -3.6482 2.1391
2.6539 -1.4269 0.8920
6.4843 -3.1908 2.1391
6.5966 -2.9558 2.1391
6.7007 -2.7171 2.1391
6.7966 -2.4749 2.1391
6.8841 -2.2294 2.1391
6.9631 -1.9809 2.1391
7.0335 -1.7297 2.1391
7.0845 -1.4739 2.1359
6.0986 -1.0412 1.8250
7.1815 -0.9614 2.1359
7.2167 -0.7027 2.1359
7.2430 -0.4428 2.1359
7.2603 -0.1819 2.1359
7.2685 0.0797 2.1359
4.9271 0.2316 1.4481
4.5164 0.3756 1.3292
4.3856 0.5242 1.2941
4.3533 0.6800 1.2896
4.3308 0.8372 1.2896
4.3028 0.9936 1.2896
4.3526 1.1716 1.3148
4.7737 1.4710 1.4552
7.2683 2.5293 2.2391
7.1819 2.7927 2.2391
7.0863 3.0533 2.2391
6.9814 3.3107 2.2391
6.8675 3.5645 2.2391
6.7445 3.8146 2.2391
6.6127 4.0605 2.2391
6.4720 4.3019 2.2391
6.3228 4.5386 2.2391
6.1650 4.7701 2.2391
5.9989 4.9963 2.2391
5.8247 5.2168 2.2391
5.6425 5.4312 2.2391
5.4525 5.6394 2.2391
5.2549 5.8410 2.2391
5.0499 6.0357 2.2391
4.8379 6.2233 2.2391
4.6189 6.4035 2.2391
4.3933 6.5759 2.2391
4.1613 6.7405 2.2391
3.9231 6.8968 2.2391
3.6792 7.0447 2.2391
3.4297 7.1839 2.2391
3.1749 7.3143 2.2391
2.9153 7.4356 2.2391
2.6510 7.5475 2.2391
2.3824 7.6500 2.2391
2.1099 7.7428 2.2391
1.8338 7.8257 2.2391
1.5545 7.8987 2.2391
1.2723 7.9615 2.2391
0.9877 8.0141 2.2391
0.7008 8.0563 2.2391
0.4123 8.0880 2.2391
0.1224 8.1091 2.2391
-0.1684 8.1196 2.2391
-0.4598 8.1195 2.2391
-0.7514 8.1086 2.2391
-1.0427 8.0869 2.2391
-1.3333 8.0545 2.2391
-1.6229 8.0113 2.2391
-1.9109 7.9573 2.2391
-2.1971 7.8927 2.2391
-2.4810 7.8175 2.2391
-2.7621 7.7317 2.2391
-3.0401 7.6354 2.2391
-3.3146 7.5288 2.2391
-3.5851 7.4119 2.2391
-3.8514 7.2849 2.2391
-4.1129 7.1480 2.2391
-4.3692 7.0014 2.2391
-4.6201 6.8452 2.2391
-4.8651 6.6796 2.2391
-5.1039 6.5049 2.2391
-5.3361 6.3213 2.2391
-5.5613 6.1290 2.2391
-5.7793 5.9284 2.2391
-5.9897 5.7197 2.2391
-6.1921 5.5032 2.2391
-6.3864 5.2792 2.2391
-6.5721 5.0481 2.2391
-6.7491 4.8101 2.2391
-6.9170 4.5657 2.2391
-7.0757 4.3151 2.2391
-7.2248 4.0588 2.2391
-7.1047 3.6633 2.1602
-7.1482 3.3676 2.1359
-7.2620 3.1089 2.1359
-7.3661 2.8461 2.1359
-7.4602 2.5797 2.1359
-7.5442 2.3100 2.1359
-7.6181 2.0375 2.1359
-7.6817 1.7626 2.1359
-7.7350 1.4856 2.1359
-7.7778 1.2070 2.1359
-7.8102 0.9272 2.1359
-7.8321 0.6466 2.1359
-7.8436 0.3655 2.1359
-7.8446 0.0844 2.1359
-7.8351 -0.1962 2.1359
-7.8152 -0.4761 2.1359
-7.7850 -0.7548 2.1359
-7.7445 -1.0319 2.1359
-7.6938 -1.3071 2.1359
-7.6330 -1.5799 2.1359
-7.5623 -1.8500 2.1359
-7.4817 -2.1169 2.1359
-7.3915 -2.3805 2.1359
-7.2917 -2.6402 2.1359
-7.1826 -2.8957 2.1359
-7.0643 -3.1468 2.1359
-6.9370 -3.3930 2.1359
-6.8097 -3.6387 2.1386
-6.6565 -3.8697 2.1359
-6.7039 -4.2259 2.2017
-6.6494 -4.5325 2.2391
-6.4725 -4.7605 2.2391
-6.2877 -4.9817 2.2391
-6.0954 -5.1957 2.2391
-5.8956 -5.4022 2.2391
-5.6889 -5.6011 2.2391
-5.4754 -5.7922 2.2391
-5.2554 -5.9751 2.2391
-5.0294 -6.1497 2.2391
-4.7976 -6.3158 2.2391
-4.5603 -6.4733 2.2391
-4.3179 -6.6219 2.2391
-4.0708 -6.7615 2.2391
-3.8191 -6.8920 2.2391
-3.5634 -7.0132 2.2391
-3.3039 -7.1251 2.2391
-3.0409 -7.2275 2.2391
-2.7749 -7.3204 2.2391
-2.5062 -7.4036 2.2391
-2.2351 -7.4772 2.2391
-1.9620 -7.5410 2.2391
-1.6871 -7.5951 2.2391
-1.4109 -7.6393 2.2391
-1.1338 -7.6738 2.2391
-0.8559 -7.6984 2.2391
-0.5778 -7.7132 2.2391
-0.2996 -7.7183 2.2391
-0.0219 -7.1113 2.2391
0.2336 -7.0987 2.2391
0.4883 -7.0772 2.2391
0.7417 -7.0468 2.2391
0.9787 -6.9021 2.2054
1.1865 -6.6392 2.1360
1.4232 -6.5852 2.1360
1.6576 -6.5230 2.1360
1.8895 -6.4527 2.1360
2.1185 -6.3745 2.1360
2.3446 -6.2884 2.1360
2.5673 -6.1946 2.1360
2.7864 -6.0932 2.1360
3.0017 -5.9843 2.1360
3.2130 -5.8681 2.1360
3.4200 -5.7448 2.1360
3.6224 -5.6144 2.1359
3.8201 -5.4771 2.1359
4.0128 -5.3332 2.1359
