ply
format ascii 1.0
element vertex 2140
property float32 x
property float32 y
property float32 z
end_header
7.7247 -20.5802 2.1336
8.4597 -20.2924 2.1336
9.1841 -19.9787 2.1336
9.8971 -19.6393 2.1336
10.5976 -19.2748 2.1336
11.2849 -18.8856 2.1336
5.6514 -8.7299 1.0083
12.6163 -18.0348 2.1336
13.2788 -17.6011 2.1368
13.9055 -17.1172 2.1368
14.5148 -16.6112 2.1368
12.3045 -13.1011 1.7406
12.3052 -12.1935 1.6772
12.3059 -11.3482 1.6202
12.3066 -10.5570 1.5689
2.3042 -1.8372 0.2851
12.3077 -9.1104 1.4807
12.3083 -8.4442 1.4429
12.3088 -7.8099 1.4087
12.3093 -7.2038 1.3777
12.3098 -6.6227 1.3498
13.1923 -6.4980 1.4196
15.9763 -7.1686 1.6897
17.6499 -7.1700 1.8376
19.6489 -7.1716 2.0168
21.0853 -6.8487 2.1368
21.3259 -6.0898 2.1368
21.5394 -5.3224 2.1368
5.6331 -1.1791 0.5541
5.6332 -0.9695 0.5501
5.6334 -0.7625 0.5468
5.6336 -0.5574 0.5443
5.6337 -0.3538 0.5425
5.6339 -0.1511 0.5415
5.6341 0.0512 0.5411
5.6342 0.2537 0.5414
5.6344 0.4568 0.5424
5.6346 0.6612 0.5441
5.6347 0.8672 0.5466
5.6349 1.0756 0.5498
5.6351 1.2869 0.5537
5.6353 1.5016 0.5584
5.6354 1.7205 0.5640
5.6356 1.9444 0.5704
5.6358 2.1738 0.5777
5.6360 2.4097 0.5860
5.6362 2.6529 0.5953
5.6364 2.9046 0.6057
17.3193 9.7270 1.8969
19.1112 11.6549 2.1368
18.6873 12.3378 2.1368
17.3319 12.3585 2.0306
17.7664 13.6562 2.1368
17.2706 14.2899 2.1368
16.7521 14.9055 2.1368
16.1867 15.4786 2.1336
15.6257 16.0547 2.1336
15.0440 16.6103 2.1336
14.4424 17.1447 2.1336
13.8217 17.6571 2.1337
11.1791 15.3888 1.8094
5.7411 8.5310 0.9779
5.7417 9.2307 1.0336
5.7423 10.0164 1.0975
5.7431 10.9073 1.1715
5.7439 11.9289 1.2580
5.7449 13.1155 1.3603
5.7461 14.5147 1.4828
7.8778 22.1963 2.2368
7.0771 22.4681 2.2368
4.5996 16.6683 1.6417
3.9854 16.7683 1.6362
4.6226 23.1068 2.2368
3.7906 23.2599 2.2368
2.9535 23.3828 2.2368
2.1125 23.4751 2.2368
1.2686 23.5368 2.2368
0.4230 23.5679 2.2368
-0.4232 23.5682 2.2368
-1.2688 23.5378 2.2368
-2.1128 23.4767 2.2368
-2.9540 23.3851 2.2368
-3.7913 23.2629 2.2368
-4.6235 23.1104 2.2368
-5.4496 22.9279 2.2368
-6.2685 22.7154 2.2368
-7.0790 22.4734 2.2368
-7.8801 22.2022 2.2368
-8.6708 21.9021 2.2368
-9.4499 21.5736 2.2368
-10.2165 21.2171 2.2368
-10.9695 20.8330 2.2368
-11.7080 20.4220 2.2368
-11.8571 19.0621 2.1336
-12.5310 18.6202 2.1336
-10.6800 14.7015 1.7278
-13.8280 17.6649 2.1336
-14.4495 17.1529 2.1336
-13.7343 15.1641 1.9468
-14.2658 14.6573 1.9468
-14.7785 14.1318 1.9468
-15.2717 13.5882 1.9468
-15.7447 13.0272 1.9468
-16.1970 12.4497 1.9468
-16.6279 11.8564 1.9468
-17.0371 11.2482 1.9468
-13.8826 8.4661 1.5511
-17.7877 9.9899 1.9468
-18.1283 9.3416 1.9468
-18.4451 8.6817 1.9468
-18.7378 8.0110 1.9468
-14.0012 5.4002 1.4342
-11.4293 3.9431 1.1559
-11.6746 3.5642 1.1675
-11.6304 3.0990 1.1516
-18.8731 4.3097 1.8530
-18.8737 3.6024 1.8400
-14.3921 2.2149 1.3950
-14.3925 1.6886 1.3888
-14.3930 1.1668 1.3845
-14.3934 0.6479 1.3820
-14.3938 0.1307 1.3812
-14.3942 -0.3862 1.3823
-14.3947 -0.9041 1.3851
-14.3951 -1.4244 1.3898
-14.3955 -1.9485 1.3963
-14.3959 -2.4777 1.4046
-14.3964 -3.0135 1.4149
-14.3968 -3.5575 1.4271
-14.4125 -4.1156 1.4430
-14.4125 -4.6813 1.4595
-14.3982 -5.2551 1.4768
-14.3987 -5.8492 1.4980
-17.5777 -7.8871 1.8577
-12.3211 -6.0689 1.3249
-16.7534 -9.0133 1.8358
-16.7541 -9.8050 1.8739
-16.7547 -10.6308 1.9162
-16.7555 -11.4951 1.9629
-16.7562 -12.4032 2.0146
-16.7570 -13.3609 2.0718
-16.7279 -14.3496 2.1312
-16.2195 -14.9570 2.1342
-15.7017 -15.5590 2.1389
-15.1607 -16.1421 2.1434
-14.5903 -16.6976 2.1468
-13.9777 -17.2059 2.1468
-13.3474 -17.6918 2.1468
-12.6221 -18.0430 2.1336
-11.9635 -18.4802 2.1336
-11.2899 -18.8936 2.1336
-10.6022 -19.2828 2.1336
-9.9010 -19.6469 2.1336
-9.1875 -19.9856 2.1336
-8.8719 -21.2808 2.2368
-8.1009 -21.5820 2.2368
-7.3197 -21.8556 2.2368
-6.5295 -22.1013 2.2368
-5.7312 -22.3187 2.2368
-4.9257 -22.5076 2.2368
-4.1141 -22.6678 2.2368
-3.2974 -22.7991 2.2368
-2.4767 -22.9012 2.2368
-1.6528 -22.9742 2.2368
-0.8270 -23.0179 2.2368
-0.0001 -18.6552 2.2368
0.6696 -18.6431 2.2368
1.3385 -18.6072 2.2368
2.0057 -18.5474 2.2368
2.3132 -15.9946 1.9377
3.1779 -17.5097 2.1336
3.8047 -17.3852 2.1336
4.4267 -17.2386 2.1336
5.0431 -17.0699 2.1336
5.6531 -16.8794 2.1336
6.2656 -16.6926 2.1368
5.5876 -13.4027 1.7400
7.4490 -16.2038 2.1368
8.0270 -15.9281 2.1368
8.5949 -15.6319 2.1368
9.1520 -15.3157 2.1368
5.6517 -8.7302 1.2453
10.2309 -14.6246 2.1368
10.7514 -14.2505 2.1368
11.2583 -13.8581 2.1368
11.7509 -13.4478 2.1368
12.2288 -13.0201 2.1368
12.3052 -12.1930 2.0718
12.3059 -11.3478 2.0016
12.3066 -10.5566 1.9383
2.3039 -1.8370 0.3522
12.3077 -9.1100 1.8296
12.3083 -8.4438 1.7829
12.3088 -7.8095 1.7408
12.3093 -7.2035 1.7027
12.3098 -6.6224 1.6683
13.1930 -6.4980 1.7547
15.9773 -7.1686 2.0888
16.6025 -6.7441 2.1368
16.8392 -6.1457 2.1368
17.0543 -5.5390 2.1368
17.2476 -4.9247 2.1368
17.4189 -4.3038 2.1368
5.6331 -1.1790 0.6852
5.6332 -0.9694 0.6803
5.6334 -0.7623 0.6763
5.6336 -0.5573 0.6733
5.6337 -0.3537 0.6711
5.6339 -0.1510 0.6699
5.6341 0.0514 0.6694
5.6342 0.2538 0.6699
5.6344 0.4570 0.6712
5.6346 0.6613 0.6734
5.6347 0.8674 0.6765
5.6349 1.0757 0.6805
5.6351 1.2870 0.6854
5.6353 1.5018 0.6913
5.6354 1.7207 0.6982
5.6356 1.9445 0.7062
5.6358 2.1739 0.7153
5.6360 2.4098 0.7256
5.6362 2.6531 0.7372
5.6364 2.9047 0.7502
15.7524 8.8474 2.1368
15.4293 9.4099 2.1368
15.0860 9.9606 2.1368
14.7229 10.4986 2.1368
14.3406 11.0234 2.1368
13.9395 11.5342 2.1368
13.5201 12.0303 2.1368
13.0830 12.5110 2.1368
12.6286 12.9758 2.1368
12.1577 13.4240 2.1368
11.6707 13.8549 2.1368
11.1684 14.2681 2.1368
10.6514 14.6629 2.1368
5.7411 8.5313 1.2122
5.7417 9.2310 1.2812
5.7423 10.0167 1.3605
5.7431 10.9076 1.4523
5.7439 11.9292 1.5596
5.7449 13.1159 1.6865
6.6689 16.8463 2.1336
6.0608 17.0772 2.1337
5.4446 17.2857 2.1336
4.6580 16.8803 2.0614
4.0171 16.9019 2.0449
3.7280 18.6355 2.2368
2.3294 14.2940 1.7044
2.3819 18.8574 2.2368
1.7036 18.9316 2.2368
1.0230 18.9812 2.2368
0.3411 19.0062 2.2368
-0.3413 19.0064 2.2368
-1.0232 18.9819 2.2368
-1.7038 18.9327 2.2368
-2.3822 18.8589 2.2368
-3.0574 18.7605 2.2368
-3.7286 18.6378 2.2368
-4.3949 18.4908 2.2368
-5.0553 18.3198 2.2368
-5.7091 18.1250 2.2368
-6.3554 17.9067 2.2368
-6.9932 17.6651 2.2368
-7.6218 17.4006 2.2368
-7.8600 16.3237 2.1336
-8.4396 16.0288 2.1336
-9.0081 15.7131 2.1336
-9.5647 15.3771 2.1336
-10.1087 15.0213 2.1336
-10.3005 14.1797 2.0656
-10.3014 13.1602 1.9701
-10.6375 12.6282 1.9468
-11.0816 12.2356 1.9468
-11.5110 11.8273 1.9468
-11.9253 11.4038 1.9468
-12.3240 10.9658 1.9468
-12.7064 10.5138 1.9468
-13.0722 10.0483 1.9468
-13.4209 9.5701 1.9468
-13.7520 9.0797 1.9468
-14.0651 8.5779 1.9468
-14.3598 8.0652 1.9468
-14.6358 7.5423 1.9468
-14.8926 7.0100 1.9468
-15.1300 6.4690 1.9468
-13.9242 5.3708 1.7662
-10.4671 3.6114 1.3108
-10.4701 3.1968 1.2964
-10.7389 2.8617 1.3165
-16.0164 3.6578 1.9468
-16.1321 3.0795 1.9468
-14.3921 2.2152 1.7267
-14.3925 1.6890 1.7189
-14.3930 1.1671 1.7134
-14.3934 0.6483 1.7102
-14.3938 0.1311 1.7092
-14.3942 -0.3858 1.7103
-14.3946 -0.9037 1.7137
-14.3951 -1.4241 1.7193
-14.3955 -1.9481 1.7272
-14.3959 -2.4773 1.7374
-14.3964 -3.0131 1.7500
-14.3968 -3.5571 1.7650
-14.4023 -4.1123 1.7832
-14.4022 -4.6776 1.8034
-14.3982 -5.2548 1.8260
-14.3987 -5.8488 1.8521
-16.1917 -7.2648 2.1156
-12.3211 -6.0685 1.6378
-15.5729 -8.3778 2.1093
-15.2666 -8.9341 2.1105
-14.9625 -9.4932 2.1149
-14.6375 -10.0416 2.1192
-14.2832 -10.5722 2.1221
-13.9269 -11.1040 2.1276
-13.5508 -11.6238 2.1332
-13.1376 -12.1146 2.1358
-12.7093 -12.5934 2.1389
-12.2842 -13.0789 2.1455
-11.8110 -13.5164 2.1468
-11.3156 -13.9285 2.1468
-10.8060 -14.3227 2.1468
-10.2192 -14.6076 2.1336
-9.6864 -14.9623 2.1336
-9.1414 -15.2977 2.1336
-8.5849 -15.6134 2.1336
-8.0176 -15.9091 2.1337
-7.4402 -16.1843 2.1337
-6.8535 -16.4388 2.1337
-6.5605 -17.4777 2.2368
-5.9281 -17.6997 2.2368
-5.2882 -17.8991 2.2368
-4.6418 -18.0757 2.2368
-3.9895 -18.2290 2.2368
-3.3322 -18.3591 2.2368
-2.6708 -18.4657 2.2368
-2.0060 -18.5487 2.2368
-1.3388 -18.6080 2.2368
-0.6698 -18.6435 2.2368
-0.0001 -15.6626 2.2368
0.5622 -15.6524 2.2368
1.1238 -15.6222 2.2368
1.6840 -15.5720 2.2368
2.1385 -14.7864 2.1336
2.6681 -14.7006 2.1336
3.1943 -14.5960 2.1336
3.7165 -14.4727 2.1336
4.2340 -14.3309 2.1336
4.7461 -14.1707 2.1336
5.2522 -13.9924 2.1336
5.7517 -13.7961 2.1336
6.2535 -13.6029 2.1368
5.5902 -11.0925 1.7727
7.2152 -13.1222 2.1368
7.6826 -12.8564 2.1368
5.6521 -8.7304 1.4836
8.5879 -12.2755 2.1368
9.0244 -11.9612 2.1368
9.4496 -11.6315 2.1368
9.8629 -11.2867 2.1368
10.2636 -10.9273 2.1368
10.6513 -10.5538 2.1368
11.0255 -10.1667 2.1368
11.3857 -9.7663 2.1368
2.3037 -1.8367 0.4196
12.0623 -8.9280 2.1368
12.3083 -8.4434 2.1248
12.3088 -7.8092 2.0747
12.3093 -7.2031 2.0293
12.3098 -6.6220 1.9884
13.1938 -6.4980 2.0917
13.7117 -6.1517 2.1368
13.9273 -5.6570 2.1368
14.1251 -5.1548 2.1368
14.3048 -4.6456 2.1368
14.4663 -4.1302 2.1368
14.6092 -3.6092 2.1368
5.6331 -1.1788 0.8170
5.6332 -0.9692 0.8112
5.6334 -0.7622 0.8065
5.6336 -0.5571 0.8030
5.6337 -0.3535 0.8004
5.6339 -0.1508 0.7989
5.6341 0.0515 0.7985
5.6342 0.2540 0.7991
5.6344 0.4571 0.8007
5.6346 0.6614 0.8033
5.6347 0.8675 0.8070
5.6349 1.0759 0.8118
5.6351 1.2871 0.8178
5.6353 1.5019 0.8249
5.6354 1.7209 0.8332
5.6356 1.9446 0.8427
5.6358 2.1741 0.8537
5.6135 2.4004 0.8626
5.5640 2.6193 0.8686
5.5523 2.8616 0.8820
5.5393 3.1114 0.8969
12.9256 7.8834 2.1368
12.6374 8.3443 2.1368
12.3328 8.7947 2.1368
12.0120 9.2338 2.1368
11.6755 9.6613 2.1368
11.3237 10.0763 2.1368
10.9572 10.4785 2.1368
10.5762 10.8674 2.1368
10.1814 11.2423 2.1368
9.7732 11.6027 2.1368
9.3523 11.9483 2.1368
8.9190 12.2785 2.1368
5.7411 8.5316 1.4477
5.7417 9.2313 1.5302
5.7423 10.0170 1.6249
5.7093 10.8437 1.7244
6.5887 13.6841 2.1368
6.0941 13.9136 2.1368
5.5830 14.1037 2.1336
5.0738 14.2967 2.1336
4.5580 14.4712 2.1336
4.0360 14.6269 2.1337
3.5088 14.7637 2.1337
2.9769 14.8813 2.1337
2.3244 14.2640 2.0318
1.9938 15.7860 2.2368
1.4260 15.8480 2.2368
0.8564 15.8895 2.2368
0.2855 15.9103 2.2368
-0.2857 15.9104 2.2368
-0.8565 15.8899 2.2368
-1.4263 15.8488 2.2368
-1.9941 15.7870 2.2368
-2.5594 15.7048 2.2368
-3.1213 15.6022 2.2368
-3.6790 15.4793 2.2368
-4.2320 15.3363 2.2368
-4.7793 15.1735 2.2368
-5.3204 14.9909 2.2368
-5.8545 14.7890 2.2368
-6.3808 14.5678 2.2368
-6.5804 13.6665 2.1336
-7.0658 13.4199 2.1336
-7.5419 13.1560 2.1336
-8.0081 12.8750 2.1336
-8.4638 12.5774 2.1336
-8.9084 12.2636 2.1336
-6.9519 8.8814 1.5878
-9.7619 11.5890 2.1336
-10.1697 11.2292 2.1336
-10.3035 10.5870 2.0809
-10.3041 9.8539 2.0087
-10.3211 9.1840 1.9468
-10.6419 8.8058 1.9468
-10.9487 8.4163 1.9468
-11.2412 8.0161 1.9468
-11.5190 7.6058 1.9468
-11.7818 7.1857 1.9468
-12.0292 6.7565 1.9468
-12.2610 6.3189 1.9468
-12.4767 5.8732 1.9468
-12.6763 5.4202 1.9468
-12.8593 4.9604 1.9468
-10.7518 3.7099 1.6070
-10.6238 3.2439 1.5698
-13.3073 3.5465 1.9468
-13.4223 3.0657 1.9468
-13.5200 2.5812 1.9468
-13.6001 2.0936 1.9468
-13.6627 1.6037 1.9468
-13.7075 1.1119 1.9468
-13.7347 0.6190 1.9468
-13.7442 0.1255 1.9468
-13.7359 -0.3678 1.9468
-13.7100 -0.8604 1.9468
-13.6663 -1.3516 1.9468
-13.6052 -1.8408 1.9468
-13.5448 -2.3305 1.9495
-13.4486 -2.8144 1.9495
-13.3352 -3.2944 1.9495
-13.2047 -3.7700 1.9495
-13.0572 -4.2404 1.9495
-12.8931 -4.7051 1.9495
-12.7125 -5.1635 1.9495
-12.5156 -5.6151 1.9495
-12.3028 -6.0591 1.9495
-13.2966 -7.1528 2.1468
-13.0280 -7.6236 2.1468
-12.7428 -8.0844 2.1468
-12.4413 -8.5346 2.1468
-12.1241 -8.9736 2.1468
-11.7914 -9.4009 2.1468
-11.4437 -9.8160 2.1468
-11.0815 -10.2182 2.1468
-10.7053 -10.6072 2.1468
-10.2518 -10.9147 2.1336
-9.8515 -11.2735 2.1336
-9.4387 -11.6178 2.1336
-9.0140 -11.9471 2.1336
-8.5778 -12.2610 2.1336
-8.1309 -12.5590 2.1337
-7.6736 -12.8410 2.1337
-7.2066 -13.1063 2.1337
-6.7306 -13.3549 2.1337
-6.2747 -13.6487 2.1435
-6.0315 -14.4667 2.2368
-5.5076 -14.6723 2.2368
-4.9768 -14.8590 2.2368
-4.4397 -15.0267 2.2368
-3.8970 -15.1751 2.2368
-3.3494 -15.3040 2.2368
-2.7977 -15.4134 2.2368
-2.2424 -15.5031 2.2368
-1.6842 -15.5729 2.2368
-1.1240 -15.6228 2.2368
-0.5624 -15.6527 2.2368
-0.0001 -13.4853 2.2368
0.4841 -13.4766 2.2368
0.9676 -13.4506 2.2368
1.4499 -13.4073 2.2368
1.8413 -12.7308 2.1336
2.2972 -12.6569 2.1336
2.7503 -12.5668 2.1336
3.1998 -12.4605 2.1336
3.6454 -12.3383 2.1336
4.0862 -12.2003 2.1336
4.5220 -12.0466 2.1336
4.9520 -11.8775 2.1336
5.3757 -11.6931 2.1336
5.7926 -11.4937 2.1336
6.2116 -11.2967 2.1368
6.6140 -11.0677 2.1368
5.6257 -8.6895 1.7154
7.3930 -10.5672 2.1368
7.7686 -10.2964 2.1368
8.1345 -10.0123 2.1368
8.4900 -9.7153 2.1368
8.8347 -9.4057 2.1368
9.1682 -9.0840 2.1368
9.4900 -8.7505 2.1368
9.7998 -8.4056 2.1368
2.3035 -1.8364 0.4875
10.3815 -7.6837 2.1368
10.6528 -7.3074 2.1368
10.9104 -6.9217 2.1368
11.1542 -6.5269 2.1368
11.3837 -6.1235 2.1368
11.5987 -5.7121 2.1368
11.7988 -5.2932 2.1368
11.9839 -4.8673 2.1368
12.1537 -4.4350 2.1368
12.3079 -3.9968 2.1368
12.4463 -3.5532 2.1368
5.5015 -1.3590 0.9353
5.5077 -1.1524 0.9285
5.5129 -0.9484 0.9228
5.5172 -0.7463 0.9182
5.5205 -0.5458 0.9147
5.5228 -0.3464 0.9122
5.5243 -0.1477 0.9108
5.5248 0.0506 0.9104
5.5244 0.2492 0.9110
5.5232 0.4482 0.9126
5.5209 0.6482 0.9153
5.5178 0.8496 0.9190
5.5137 1.0529 0.9238
5.5087 1.2584 0.9297
5.5026 1.4667 0.9367
5.4955 1.6783 0.9449
5.4872 1.8936 0.9544
5.4779 2.1133 0.9651
5.4674 2.3380 0.9772
5.4555 2.5684 0.9907
5.4525 2.8103 1.0076
5.4527 3.0629 1.0270
11.1111 6.7771 2.1368
10.8630 7.1730 2.1368
10.6008 7.5599 2.1368
10.3247 7.9371 2.1368
10.0352 8.3042 2.1368
9.7325 8.6608 2.1368
9.4172 9.0062 2.1368
9.0895 9.3401 2.1368
8.7500 9.6620 2.1368
8.3990 9.9715 2.1368
8.0370 10.2682 2.1368
7.6645 10.5517 2.1368
5.7411 8.5318 1.6847
5.6839 9.1386 1.7628
6.4886 11.3192 2.1368
6.0790 11.5463 2.1368
5.6527 11.7406 2.1336
5.2283 11.9373 2.1336
4.7971 12.1186 2.1336
4.3595 12.2842 2.1336
3.9162 12.4340 2.1336
3.4677 12.5676 2.1337
3.0147 12.6850 2.1337
2.5576 12.7859 2.1337
2.0972 12.8703 2.1337
1.7130 13.5629 2.2368
1.2252 13.6161 2.2368
0.7357 13.6517 2.2368
0.2453 13.6695 2.2368
-0.2455 13.6696 2.2368
-0.7359 13.6520 2.2368
-1.2254 13.6167 2.2368
-1.7133 13.5637 2.2368
-2.1989 13.4931 2.2368
-2.6817 13.4050 2.2368
-3.1609 13.2995 2.2368
-3.6360 13.1768 2.2368
-4.1063 13.0370 2.2368
-4.5712 12.8803 2.2368
-5.0301 12.7070 2.2368
-5.4825 12.5171 2.2368
-5.9276 12.3111 2.2368
-6.2567 11.8836 2.1988
-6.4804 11.3046 2.1336
-6.8811 11.0634 2.1336
-7.2728 10.8079 2.1336
-7.6550 10.5385 2.1336
-6.9517 8.8814 1.8477
-8.3888 9.9593 2.1336
-8.7395 9.6503 2.1336
-9.0788 9.3289 2.1336
-9.4062 8.9955 2.1336
-9.7212 8.6506 2.1336
-10.0236 8.2946 2.1336
-10.3057 7.9224 2.1321
-10.3062 7.3497 2.0766
-10.3067 6.8056 2.0266
-10.3071 6.2866 1.9814
-10.3403 5.8082 1.9468
-10.5398 5.4321 1.9468
-10.7257 5.0492 1.9468
-10.8976 4.6600 1.9468
-11.0553 4.2648 1.9468
-10.9738 3.7868 1.9077
-10.6483 3.2517 1.8301
-11.4417 3.0496 1.9468
-11.5411 2.6363 1.9468
-11.6255 2.2198 1.9468
-11.6949 1.8006 1.9468
-11.7491 1.3794 1.9468
-11.7881 0.9565 1.9468
-11.8120 0.5326 1.9468
-11.8206 0.1082 1.9468
-11.8139 -0.3161 1.9468
-11.7921 -0.7397 1.9468
-11.6946 -1.1563 1.9368
-11.6427 -1.5750 1.9368
-11.6356 -2.0017 1.9468
-12.2354 -2.5602 2.0617
-12.2358 -3.0225 2.0793
-12.2362 -3.4931 2.0998
-12.2366 -3.9736 2.1235
-12.2159 -4.4577 2.1468
-12.0453 -4.8922 2.1468
-11.8592 -5.3202 2.1468
-11.6579 -5.7412 2.1468
-11.4417 -6.1547 2.1468
-11.2109 -6.5600 2.1468
-10.9659 -6.9568 2.1468
-10.7068 -7.3444 2.1468
-10.4341 -7.7225 2.1468
-10.0855 -8.0405 2.1336
-9.7885 -8.3958 2.1336
-9.4790 -8.7402 2.1336
-9.1575 -9.0733 2.1336
-8.8244 -9.3946 2.1336
-8.4800 -9.7037 2.1336
-8.1249 -10.0004 2.1337
-7.7595 -10.2841 2.1337
-7.3842 -10.5545 2.1337
-6.9996 -10.8113 2.1337
-6.6061 -11.0542 2.1337
-6.2675 -11.3981 2.1555
-6.0743 -12.0524 2.2368
-5.6371 -12.2613 2.2368
-5.1927 -12.4545 2.2368
-4.7417 -12.6316 2.2368
-4.2848 -12.7925 2.2368
-3.8224 -12.9371 2.2368
-3.3552 -13.0650 2.2368
-2.8838 -13.1762 2.2368
-2.4088 -13.2705 2.2368
-1.9307 -13.3478 2.2368
-1.4502 -13.4080 2.2368
-0.9678 -13.4510 2.2368
-0.4842 -13.4768 2.2368
-0.0001 -11.8287 2.2368
0.4246 -11.8210 2.2368
0.8488 -11.7982 2.2368
1.2718 -11.7602 2.2368
1.6933 -11.7072 2.2368
2.0151 -11.1019 2.1336
2.4124 -11.0228 2.1336
2.8068 -10.9296 2.1336
3.1975 -10.8223 2.1336
3.5842 -10.7011 2.1336
3.9664 -10.5663 2.1336
4.3435 -10.4178 2.1336
4.7151 -10.2560 2.1336
5.0807 -10.0809 2.1336
5.4399 -9.8929 2.1336
5.7922 -9.6923 2.1336
6.1464 -9.4935 2.1368
6.4841 -9.2678 2.1368
5.5889 -7.4072 1.7528
7.1342 -8.7808 2.1368
7.4458 -8.5202 2.1368
7.7480 -8.2485 2.1368
8.0403 -7.9662 2.1368
8.3224 -7.6736 2.1368
8.5938 -7.3710 2.1368
2.3032 -1.8362 0.5558
9.1036 -6.7375 2.1368
9.3412 -6.4075 2.1368
9.5669 -6.0691 2.1368
9.7804 -5.7227 2.1368
9.9814 -5.3689 2.1368
10.1697 -5.0081 2.1368
10.3449 -4.6407 2.1368
10.5069 -4.2671 2.1368
10.6554 -3.8880 2.1368
10.7903 -3.5037 2.1368
10.9114 -3.1147 2.1368
5.4491 -1.3459 1.0568
5.4492 -1.1401 1.0479
5.4494 -0.9373 1.0406
5.4496 -0.7370 1.0347
5.4497 -0.5387 1.0302
5.4499 -0.3417 1.0270
5.4501 -0.1456 1.0252
5.4502 0.0501 1.0246
5.4504 0.2460 1.0254
5.4505 0.4425 1.0276
5.4507 0.6401 1.0311
5.4509 0.8395 1.0359
5.4510 1.0411 1.0421
5.4512 1.2454 1.0498
5.4514 1.4532 1.0590
5.4515 1.6650 1.0697
5.4517 1.8815 1.0821
5.4519 2.1035 1.0962
5.4521 2.3317 1.1121
5.4523 2.5670 1.1300
5.4525 2.8104 1.1500
5.4527 3.0631 1.1723
9.7344 5.9377 2.1368
9.5168 6.2844 2.1368
9.2868 6.6232 2.1368
9.0448 6.9535 2.1368
8.7909 7.2749 2.1368
8.5256 7.5870 2.1368
8.2492 7.8894 2.1368
7.9620 8.1817 2.1368
7.6644 8.4636 2.1368
7.3568 8.7345 2.1368
7.0396 8.9942 2.1368
6.7131 9.2423 2.1368
6.3780 9.4785 2.1368
6.0344 9.7026 2.1368
5.6743 9.8990 2.1336
5.3161 10.0975 2.1336
4.9508 10.2829 2.1336
4.5790 10.4551 2.1336
4.2013 10.6137 2.1336
3.8180 10.7587 2.1336
3.4297 10.8897 2.1337
3.0369 11.0066 2.1337
2.6401 11.1093 2.1337
2.2398 11.1976 2.1337
1.8366 11.2713 2.1337
1.5001 11.8778 2.2368
1.0729 11.9244 2.2368
0.6443 11.9555 2.2368
0.2148 11.9711 2.2368
-0.2150 11.9712 2.2368
-0.6445 11.9557 2.2368
-1.0731 11.9248 2.2368
-1.5004 11.8784 2.2368
-1.9257 11.8166 2.2368
-2.3484 11.7395 2.2368
-2.7681 11.6472 2.2368
-3.1842 11.5398 2.2368
-3.5961 11.4175 2.2368
-4.0033 11.2804 2.2368
-4.4053 11.1287 2.2368
-4.8014 10.9626 2.2368
-5.1914 10.7823 2.2368
-5.5745 10.5880 2.2368
-5.9503 10.3801 2.2368
-6.2556 10.0580 2.2146
-6.3698 9.4663 2.1336
-6.7047 9.2305 2.1336
-6.9515 8.8814 2.1095
-7.3477 8.7235 2.1336
-7.6550 8.4530 2.1336
-7.9522 8.1716 2.1336
-8.2392 7.8797 2.1336
-8.5153 7.5778 2.1336
-8.7804 7.2661 2.1336
-9.0341 6.9451 2.1336
-9.2759 6.6153 2.1336
-9.5057 6.2770 2.1336
-9.7231 5.9307 2.1336
-9.9279 5.5768 2.1336
-10.1197 5.2159 2.1336
-10.3083 4.8530 2.1356
-10.3086 4.4084 2.1019
-10.3090 3.9772 2.0720
-10.3094 3.5578 2.0454
-10.3097 3.1486 2.0222
-10.3100 2.7482 2.0020
-10.3103 2.3554 1.9848
-10.3107 1.9690 1.9704
-10.3110 1.5878 1.9587
-10.3113 1.2108 1.9497
-10.3308 0.8385 1.9468
-10.3520 0.4671 1.9468
-10.3598 0.0951 1.9468
-10.3543 -0.2768 1.9468
-10.3355 -0.6481 1.9468
-10.3132 -1.0195 1.9487
-10.3135 -1.3949 1.9574
-10.3138 -1.7740 1.9687
-11.1679 -2.3366 2.1468
-11.0745 -2.7354 2.1468
-10.9668 -3.1305 2.1468
-10.8451 -3.5214 2.1468
-10.7095 -3.9077 2.1468
-10.5601 -4.2887 2.1468
-10.3973 -4.6641 2.1468
-10.1588 -5.0026 2.1337
-9.9700 -5.3627 2.1336
-9.7692 -5.7161 2.1336
-9.5559 -6.0620 2.1336
-9.3304 -6.4000 2.1336
-9.0930 -6.7296 2.1336
-8.8441 -7.0505 2.1336
-8.5838 -7.3622 2.1336
-8.3126 -7.6644 2.1336
-8.0309 -7.9567 2.1337
-7.7388 -8.2386 2.1337
-7.4370 -8.5099 2.1337
-7.1257 -8.7702 2.1337
-6.8053 -9.0192 2.1337
-6.4763 -9.2565 2.1337
-6.2595 -9.6679 2.1756
-6.0739 -10.1634 2.2368
-5.7044 -10.3737 2.2368
-5.3277 -10.5707 2.2368
-4.9443 -10.7541 2.2368
-4.5546 -10.9236 2.2368
-4.1591 -11.0791 2.2368
-3.7583 -11.2204 2.2368
-3.3528 -11.3473 2.2368
-2.9430 -11.4596 2.2368
-2.5296 -11.5572 2.2368
-2.1129 -11.6400 2.2368
-1.6935 -11.7079 2.2368
-1.2720 -11.7607 2.2368
-0.8489 -11.7985 2.2368
-0.4248 -11.8212 2.2368
-0.0001 -10.5247 2.2368
0.3778 -10.5179 2.2368
0.7552 -10.4975 2.2368
1.1316 -10.4638 2.2368
1.5066 -10.4166 2.2368
1.7994 -9.9136 2.1412
2.1465 -9.8076 2.1336
2.4974 -9.7246 2.1336
2.8450 -9.6290 2.1336
3.1891 -9.5212 2.1336
3.5291 -9.4011 2.1336
3.8646 -9.2689 2.1336
4.1952 -9.1249 2.1336
4.5205 -8.9691 2.1336
4.8400 -8.8017 2.1336
5.1534 -8.6231 2.1336
5.4602 -8.4333 2.1336
5.7600 -8.2327 2.1336
6.0618 -8.0337 2.1368
6.3470 -7.8117 2.1368
5.6305 -6.4428 1.8163
5.5961 -5.9574 1.7348
7.1529 -7.0867 2.1368
7.4037 -6.8262 2.1368
7.6451 -6.5569 2.1368
2.3030 -1.8359 0.6248
8.0983 -5.9932 2.1368
8.3095 -5.6995 2.1368
8.5101 -5.3984 2.1368
8.6998 -5.0902 2.1368
8.8785 -4.7754 2.1368
9.0457 -4.4543 2.1368
9.2014 -4.1274 2.1368
9.3453 -3.7951 2.1368
9.4772 -3.4578 2.1368
9.5970 -3.1159 2.1368
9.7044 -2.7699 2.1368
5.4491 -1.3457 1.1882
5.4492 -1.1399 1.1783
5.4494 -0.9372 1.1701
5.4496 -0.7369 1.1635
5.4497 -0.5385 1.1584
5.4499 -0.3416 1.1549
5.4501 -0.1455 1.1528
5.4502 0.0503 1.1523
5.4504 0.2461 1.1532
5.4505 0.4426 1.1556
5.4507 0.6403 1.1596
5.4509 0.8396 1.1651
5.4510 1.0412 1.1721
5.4512 1.2456 1.1808
5.4514 1.4533 1.1911
5.4515 1.6651 1.2032
5.4517 1.8817 1.2172
5.4519 2.1036 1.2330
5.4521 2.3318 1.2510
5.4523 2.5671 1.2711
5.4525 2.8106 1.2936
5.4527 3.0633 1.3187
8.6532 5.2784 2.1368
8.4596 5.5865 2.1368
8.2550 5.8875 2.1368
8.0396 6.1810 2.1368
7.8138 6.4666 2.1368
7.5779 6.7439 2.1368
7.3320 7.0126 2.1368
7.0766 7.2723 2.1368
6.8120 7.5226 2.1368
6.5385 7.7633 2.1368
6.2565 7.9940 2.1368
5.9663 8.2144 2.1368
5.6597 8.4114 2.1336
5.3548 8.6101 2.1336
5.0429 8.7978 2.1336
4.7244 8.9741 2.1336
4.3998 9.1387 2.1336
4.0693 9.2916 2.1336
3.7336 9.4325 2.1337
3.3929 9.5612 2.1337
3.0479 9.6776 2.1337
2.6988 9.7814 2.1337
2.3461 9.8726 2.1337
1.9904 9.9510 2.1337
1.7109 10.5003 2.2368
1.3330 10.5553 2.2368
0.9534 10.5967 2.2368
0.5725 10.6243 2.2368
0.1909 10.6381 2.2368
-0.1910 10.6382 2.2368
-0.5727 10.6245 2.2368
-0.9536 10.5970 2.2368
-1.3333 10.5558 2.2368
-1.7112 10.5009 2.2368
-2.0869 10.4325 2.2368
-2.4599 10.3505 2.2368
-2.8296 10.2551 2.2368
-3.1957 10.1464 2.2368
-3.5576 10.0246 2.2368
-3.9148 9.8899 2.2368
-4.2669 9.7424 2.2368
-4.6134 9.5822 2.2368
-4.9540 9.4097 2.2368
-5.2880 9.2250 2.2368
-5.6151 9.0285 2.2368
-5.9350 8.8202 2.2368
-6.2470 8.6006 2.2368
-6.2694 8.0103 2.1407
-6.5303 7.7533 2.1336
-6.8035 7.5130 2.1336
-7.0678 7.2630 2.1336
-7.3229 7.0037 2.1336
-7.5685 6.7355 2.1336
-7.8043 6.4585 2.1336
-8.0298 6.1734 2.1336
-8.2450 5.8803 2.1336
-8.4494 5.5797 2.1336
-8.6428 5.2720 2.1336
-8.8250 4.9575 2.1336
-8.9957 4.6368 2.1336
-9.1548 4.3102 2.1336
-9.3019 3.9782 2.1336
-9.4370 3.6411 2.1336
-9.5599 3.2994 2.1336
-9.6704 2.9536 2.1336
-9.7691 2.6043 2.1337
-9.8544 2.2515 2.1337
-9.9270 1.8960 2.1337
-9.9867 1.5382 2.1337
-10.0336 1.1785 2.1337
-10.0675 0.8174 2.1337
-10.0883 0.4554 2.1337
-10.0962 0.0930 2.1337
-10.0911 -0.2695 2.1337
-10.0729 -0.6314 2.1337
-10.0418 -0.9924 2.1337
-9.9978 -1.3519 2.1337
-9.9409 -1.7096 2.1337
-9.8712 -2.0650 2.1337
-7.0033 -1.7296 1.5266
-6.7525 -1.9273 1.4863
-9.5865 -3.1125 2.1337
-9.4668 -3.4540 2.1337
-9.3350 -3.7909 2.1337
-9.1912 -4.1228 2.1337
-9.0357 -4.4493 2.1337
-8.8686 -4.7700 2.1337
-8.6901 -5.0844 2.1337
-8.5002 -5.3920 2.1336
-8.2998 -5.6927 2.1336
-8.0888 -5.9861 2.1337
-7.8674 -6.2716 2.1337
-7.6360 -6.5491 2.1337
-7.3949 -6.8180 2.1337
-7.1444 -7.0781 2.1337
-6.8847 -7.3290 2.1337
-6.6163 -7.5705 2.1337
-6.3394 -7.8022 2.1337
-6.2555 -8.2902 2.2046
-6.0402 -8.6328 2.2368
-5.7257 -8.8431 2.2368
-5.4039 -9.0420 2.2368
-5.0753 -9.2292 2.2368
-4.7402 -9.4046 2.2368
-4.3990 -9.5679 2.2368
-4.0523 -9.7188 2.2368
-3.7005 -9.8573 2.2368
-3.3440 -9.9831 2.2368
-2.9832 -10.0960 2.2368
-2.6186 -10.1960 2.2368
-2.2507 -10.2830 2.2368
-1.8800 -10.3567 2.2368
-1.5069 -10.4171 2.2368
-1.1318 -10.4642 2.2368
-0.7554 -10.4978 2.2368
-0.3780 -10.5180 2.2368
-0.0001 -9.4706 2.2368
0.3400 -9.4645 2.2368
0.6796 -9.4462 2.2368
1.0183 -9.4158 2.2368
1.3558 -9.3733 2.2368
1.6915 -9.3188 2.2368
1.9316 -8.8252 2.1336
2.2473 -8.7505 2.1336
2.5601 -8.6645 2.1336
2.8697 -8.5674 2.1336
3.1756 -8.4593 2.1336
3.4775 -8.3403 2.1336
3.7750 -8.2106 2.1336
4.0676 -8.0704 2.1336
4.3551 -7.9197 2.1336
4.6370 -7.7589 2.1336
4.9131 -7.5881 2.1336
5.1828 -7.4075 2.1336
5.4460 -7.2173 2.1336
5.7022 -7.0179 2.1336
5.9602 -6.8197 2.1368
6.2019 -6.6021 2.1368
6.4357 -6.3759 2.1368
5.5977 -5.1609 1.7956
5.5927 -4.7965 1.7374
2.3028 -1.8356 0.6943
7.2859 -5.3918 2.1368
7.4759 -5.1275 2.1368
7.6562 -4.8565 2.1368
7.8268 -4.5792 2.1368
7.9874 -4.2959 2.1368
8.1377 -4.0070 2.1368
8.2776 -3.7128 2.1368
8.4069 -3.4138 2.1368
8.5255 -3.1103 2.1368
8.6331 -2.8027 2.1368
8.7296 -2.4914 2.1368
5.4491 -1.3456 1.3209
5.4492 -1.1398 1.3100
5.4494 -0.9370 1.3009
5.4496 -0.7367 1.2935
5.4497 -0.5384 1.2879
5.4499 -0.3414 1.2840
5.4501 -0.1453 1.2817
5.4502 0.0504 1.2812
5.4504 0.2462 1.2822
5.4505 0.4428 1.2849
5.4507 0.6404 1.2893
5.4509 0.8398 1.2954
5.4510 1.0413 1.3033
5.4512 1.2457 1.3130
5.4514 1.4535 1.3245
5.4515 1.6653 1.3380
5.4517 1.8818 1.3535
5.4519 2.1038 1.3712
5.4521 2.3320 1.3912
5.4523 2.5673 1.4136
5.4525 2.8108 1.4387
5.4527 3.0634 1.4666
7.7806 4.7464 2.1368
7.6064 5.0234 2.1368
7.4224 5.2939 2.1368
7.2286 5.5577 2.1368
7.0255 5.8144 2.1368
6.8132 6.0637 2.1368
6.5921 6.3051 2.1368
6.3624 6.5385 2.1368
6.1244 6.7635 2.1368
5.8784 6.9798 2.1368
5.6163 7.1762 2.1336
5.3558 7.3740 2.1336
5.0882 7.5624 2.1336
4.8141 7.7409 2.1336
4.5336 7.9095 2.1336
4.2473 8.0679 2.1336
3.9553 8.2159 2.1336
3.6582 8.3532 2.1337
3.3564 8.4798 2.1337
3.0501 8.5955 2.1337
2.7399 8.7000 2.1337
2.4261 8.7932 2.1337
2.1090 8.8752 2.1337
1.7994 8.9962 2.1458
1.5380 9.4394 2.2368
1.1983 9.4888 2.2368
0.8570 9.5259 2.2368
0.5146 9.5507 2.2368
0.1716 9.5632 2.2368
-0.1717 9.5632 2.2368
-0.5148 9.5509 2.2368
-0.8572 9.5262 2.2368
-1.1985 9.4892 2.2368
-1.5383 9.4399 2.2368
-1.8760 9.3783 2.2368
-2.2113 9.3047 2.2368
-2.5437 9.2190 2.2368
-2.8727 9.1213 2.2368
-3.1981 9.0119 2.2368
-3.5192 8.8908 2.2368
-3.8358 8.7582 2.2368
-4.1473 8.6144 2.2368
-4.4535 8.4593 2.2368
-4.7538 8.2934 2.2368
-5.0480 8.1167 2.2368
-5.3355 7.9296 2.2368
-5.6161 7.7323 2.2368
-5.8894 7.5250 2.2368
-6.1550 7.3080 2.2368
-6.2594 6.9124 2.1834
-6.3543 6.5300 2.1336
-6.5838 6.2970 2.1336
-6.8047 6.0559 2.1336
-7.0167 5.8070 2.1336
-7.2196 5.5507 2.1336
-7.4132 5.2873 2.1336
-7.5971 5.0171 2.1336
-7.7711 4.7405 2.1336
-7.9350 4.4578 2.1336
-8.0887 4.1695 2.1336
-8.2318 3.8759 2.1336
-8.3643 3.5774 2.1336
-8.4859 3.2743 2.1336
-8.5966 2.9672 2.1336
-8.6967 2.6564 2.1337
-8.7850 2.3422 2.1337
-8.8619 2.0250 2.1337
-8.9273 1.7053 2.1337
-8.9812 1.3835 2.1337
-9.0235 1.0601 2.1337
-9.0541 0.7354 2.1337
-9.0731 0.4098 2.1337
-9.0804 0.0839 2.1337
-9.0759 -0.2421 2.1337
-9.0598 -0.5676 2.1337
-9.0319 -0.8923 2.1337
-8.9925 -1.2158 2.1337
-8.9415 -1.5375 2.1337
-8.8790 -1.8572 2.1337
-6.9760 -1.7227 1.6905
-6.7455 -1.9251 1.6506
-8.6234 -2.7995 2.1337
-8.5159 -3.1068 2.1337
-8.3974 -3.4099 2.1337
-8.2682 -3.7085 2.1337
-8.1284 -4.0023 2.1337
-7.9782 -4.2909 2.1337
-7.8178 -4.5738 2.1337
-7.6474 -4.8508 2.1337
-7.4672 -5.1214 2.1337
-7.2773 -5.3853 2.1337
-7.0783 -5.6423 2.1337
-6.8702 -5.8920 2.1337
-6.6534 -6.1341 2.1337
-6.4460 -6.3860 2.1397
-6.2610 -6.6648 2.1566
-6.2406 -7.1404 2.2368
-5.9795 -7.3590 2.2368
-5.7108 -7.5680 2.2368
-5.4348 -7.7674 2.2368
-5.1519 -7.9567 2.2368
-4.8624 -8.1357 2.2368
-4.5667 -8.3043 2.2368
-4.2653 -8.4621 2.2368
-3.9584 -8.6091 2.2368
-3.6464 -8.7450 2.2368
-3.3298 -8.8697 2.2368
-3.0090 -8.9829 2.2368
-2.6844 -9.0846 2.2368
-2.3564 -9.1747 2.2368
-2.0253 -9.2529 2.2368
-1.6917 -9.3193 2.2368
-1.3560 -9.3737 2.2368
-1.0185 -9.4161 2.2368
-0.6797 -9.4464 2.2368
-0.3401 -9.4646 2.2368
-0.0001 -8.6000 2.2368
0.3087 -8.5945 2.2368
0.6171 -8.5779 2.2368
0.9247 -8.5503 2.2368
1.2312 -8.5117 2.2368
1.5360 -8.4622 2.2368
1.7912 -8.1838 2.1788
2.0407 -7.9460 2.1336
2.3248 -7.8680 2.1336
2.6059 -7.7797 2.1336
2.8837 -7.6815 2.1336
3.1578 -7.5735 2.1336
3.4280 -7.4556 2.1336
3.6937 -7.3282 2.1336
3.9547 -7.1914 2.1336
4.2107 -7.0453 2.1336
4.4613 -6.8901 2.1336
4.7062 -6.7261 2.1336
4.9451 -6.5534 2.1336
5.1777 -6.3722 2.1336
5.4037 -6.1828 2.1336
5.6228 -5.9854 2.1336
5.8436 -5.7891 2.1368
6.0484 -5.5762 2.1368
6.2454 -5.3561 2.1368
2.3025 -1.8354 0.7646
6.6153 -4.8953 2.1368
5.5938 -3.8365 1.7610
5.6165 -3.5624 1.7265
7.1061 -4.1573 2.1368
7.2518 -3.9001 2.1368
7.3882 -3.6377 2.1368
7.5151 -3.3706 2.1368
7.6324 -3.0991 2.1368
7.7399 -2.8235 2.1368
7.8375 -2.5442 2.1368
7.9250 -2.2616 2.1368
5.4491 -1.3455 1.4551
5.4492 -1.1396 1.4430
5.4494 -0.9369 1.4330
5.4496 -0.7366 1.4249
5.4497 -0.5382 1.4188
5.4499 -0.3413 1.4145
5.4501 -0.1452 1.4120
5.4502 0.0505 1.4114
5.4504 0.2464 1.4126
5.4505 0.4429 1.4156
5.4507 0.6406 1.4205
5.4509 0.8399 1.4272
5.4510 1.0415 1.4359
5.4512 1.2459 1.4466
5.4514 1.4536 1.4593
5.4515 1.6654 1.4742
5.4517 1.8820 1.4913
5.4519 2.1039 1.5108
5.4521 2.3321 1.5329
5.4523 2.5675 1.5576
5.4525 2.8109 1.5852
5.4527 3.0636 1.6160
7.0611 4.3077 2.1368
6.9029 4.5590 2.1368
6.7357 4.8044 2.1368
6.5599 5.0438 2.1368
6.3754 5.2766 2.1368
6.1827 5.5028 2.1368
5.9820 5.7218 2.1368
5.7647 5.9245 2.1336
5.5491 6.1283 2.1336
5.3262 6.3243 2.1336
5.0963 6.5121 2.1336
4.8599 6.6915 2.1336
4.6171 6.8623 2.1336
4.3682 7.0243 2.1336
4.1137 7.1772 2.1336
3.8538 7.3208 2.1336
3.5889 7.4551 2.1337
3.3194 7.5796 2.1337
3.0454 7.6945 2.1337
2.7675 7.7993 2.1337
2.4860 7.8941 2.1337
2.2012 7.9787 2.1337
1.9136 8.0529 2.1337
1.7019 8.5089 2.2368
1.3955 8.5648 2.2368
1.0873 8.6096 2.2368
0.7776 8.6433 2.2368
0.4669 8.6658 2.2368
0.1557 8.6771 2.2368
-0.1558 8.6771 2.2368
-0.4671 8.6659 2.2368
-0.7778 8.6435 2.2368
-1.0875 8.6099 2.2368
-1.3957 8.5652 2.2368
-1.7021 8.5094 2.2368
-2.0064 8.4426 2.2368
-2.3080 8.3649 2.2368
-2.6065 8.2763 2.2368
-2.9017 8.1771 2.2368
-3.1932 8.0672 2.2368
-3.4804 7.9470 2.2368
-3.7631 7.8165 2.2368
-4.0409 7.6759 2.2368
-4.3135 7.5254 2.2368
-4.5804 7.3651 2.2368
-4.8413 7.1954 2.2368
-5.0960 7.0164 2.2368
-5.3440 6.8284 2.2368
-5.5851 6.6315 2.2368
-5.8189 6.4261 2.2368
-6.0451 6.2125 2.2368
-6.2583 5.9859 2.2350
-6.2653 5.5761 2.1648
-6.3673 5.2698 2.1336
-6.5516 5.0373 2.1336
-6.7273 4.7983 2.1336
-6.8942 4.5532 2.1336
-7.0522 4.3022 2.1336
-7.2011 4.0458 2.1336
-7.3406 3.7841 2.1336
-7.4707 3.5177 2.1336
-7.5910 3.2469 2.1336
-7.7015 2.9719 2.1336
-7.8026 2.6933 2.1337
-7.8930 2.4112 2.1337
-7.9733 2.1260 2.1337
-8.0432 1.8381 2.1337
-8.1027 1.5480 2.1337
-8.1517 1.2560 2.1337
-8.1902 0.9624 2.1337
-8.2182 0.6677 2.1337
-8.2355 0.3722 2.1337
-8.2422 0.0763 2.1337
-8.2383 -0.2195 2.1337
-8.2238 -0.5150 2.1337
-8.1986 -0.8098 2.1337
-8.1630 -1.1034 2.1337
-8.1168 -1.3955 2.1337
-8.0601 -1.6857 2.1337
-6.9486 -1.7157 1.8549
-6.7385 -1.9230 1.8164
-7.8285 -2.5413 2.1337
-7.7310 -2.8202 2.1337
-7.6236 -3.0955 2.1337
-7.5064 -3.3666 2.1337
-7.3796 -3.6334 2.1337
-7.2433 -3.8954 2.1337
-7.0978 -4.1523 2.1337
-6.9432 -4.4039 2.1337
-6.7796 -4.6497 2.1337
-6.6074 -4.8894 2.1337
-6.4268 -5.1228 2.1337
-6.2632 -5.3712 2.1424
-6.2533 -5.7650 2.2087
-6.1185 -6.0613 2.2368
-5.8963 -6.2763 2.2368
-5.6665 -6.4832 2.2368
-5.4295 -6.6818 2.2368
-5.1855 -6.8717 2.2368
-4.9349 -7.0528 2.2368
-4.6781 -7.2247 2.2368
-4.4153 -7.3873 2.2368
-4.1468 -7.5405 2.2368
-3.8731 -7.6839 2.2368
-3.5944 -7.8174 2.2368
-3.3112 -7.9409 2.2368
-3.0238 -8.0541 2.2368
-2.7325 -8.1570 2.2368
-2.4377 -8.2494 2.2368
-2.1398 -8.3312 2.2368
-1.8392 -8.4023 2.2368
-1.5363 -8.4626 2.2368
-1.2314 -8.5120 2.2368
-0.9249 -8.5505 2.2368
-0.6173 -8.5781 2.2368
-0.3089 -8.5946 2.2368
-0.0001 -7.8683 2.2368
0.2824 -7.8632 2.2368
0.5646 -7.8480 2.2368
0.8461 -7.8227 2.2368
1.1264 -7.7874 2.2368
1.4053 -7.7421 2.2368
1.6825 -7.6868 2.2368
1.8671 -7.2698 2.1336
2.1270 -7.1984 2.1336
2.3842 -7.1177 2.1336
2.6384 -7.0278 2.1336
2.8892 -6.9289 2.1336
3.1363 -6.8210 2.1336
3.3794 -6.7044 2.1336
3.6182 -6.5792 2.1336
3.8523 -6.4455 2.1336
4.0816 -6.3035 2.1336
4.3056 -6.1534 2.1336
4.5242 -5.9953 2.1336
4.7369 -5.8295 2.1336
4.9436 -5.6562 2.1336
5.1440 -5.4756 2.1336
5.3379 -5.2879 2.1336
5.5249 -5.0934 2.1336
5.7048 -4.8922 2.1336
2.3023 -1.8351 0.8357
6.0517 -4.4781 2.1368
6.2094 -4.2584 2.1368
6.3590 -4.0333 2.1368
6.5006 -3.8028 2.1368
5.6493 -3.0380 1.8197
5.6077 -2.7609 1.7730
5.6136 -2.5176 1.7449
5.6382 -2.2892 1.7256
5.6679 -2.0675 1.7107
7.1691 -2.3271 2.1368
7.2490 -2.0685 2.1368
5.4491 -1.3453 1.5908
5.4492 -1.1395 1.5776
5.4494 -0.9367 1.5667
5.4496 -0.7364 1.5579
5.4497 -0.5381 1.5512
5.4499 -0.3411 1.5465
5.4501 -0.1450 1.5438
5.4502 0.0507 1.5432
5.4504 0.2465 1.5445
5.4505 0.4430 1.5478
5.4507 0.6407 1.5532
5.4509 0.8401 1.5606
5.4510 1.0416 1.5701
5.4512 1.2460 1.5818
5.4514 1.4538 1.5957
5.4515 1.6656 1.6120
5.4517 1.8821 1.6307
5.4519 2.1041 1.6521
5.4521 2.3323 1.6762
5.4523 2.5676 1.7033
5.4525 2.8111 1.7335
5.4527 3.0638 1.7672
6.4569 3.9393 2.1368
6.3122 4.1691 2.1368
6.1593 4.3935 2.1368
5.9984 4.6123 2.1368
5.8297 4.8252 2.1368
5.6449 5.0243 2.1336
5.4616 5.2242 2.1336
5.2711 5.4175 2.1336
5.0739 5.6038 2.1336
4.8700 5.7829 2.1336
4.6598 5.9546 2.1336
4.4436 6.1185 2.1336
4.2216 6.2747 2.1336
3.9940 6.4227 2.1336
3.7613 6.5625 2.1337
3.5237 6.6938 2.1337
3.2814 6.8165 2.1337
3.0349 6.9303 2.1337
2.7844 7.0353 2.1337
2.5303 7.1311 2.1337
2.2729 7.2177 2.1337
2.0126 7.2950 2.1337
1.7884 7.5262 2.1811
1.5560 7.7797 2.2368
1.2758 7.8308 2.2368
0.9940 7.8718 2.2368
0.7109 7.9025 2.2368
0.4269 7.9231 2.2368
0.1423 7.9334 2.2368
-0.1425 7.9334 2.2368
-0.4271 7.9232 2.2368
-0.7111 7.9027 2.2368
-0.9942 7.8720 2.2368
-1.2761 7.8312 2.2368
-1.5562 7.7801 2.2368
-1.8344 7.7191 2.2368
-2.1101 7.6480 2.2368
-2.3831 7.5671 2.2368
-2.6530 7.4764 2.2368
-2.9195 7.3760 2.2368
-3.1821 7.2661 2.2368
-3.4406 7.1468 2.2368
-3.6946 7.0183 2.2368
-3.9438 6.8807 2.2368
-4.1879 6.7343 2.2368
-4.4266 6.5791 2.2368
-4.6594 6.4155 2.2368
-4.8862 6.2436 2.2368
-5.1067 6.0637 2.2368
-5.3205 5.8759 2.2368
-5.5274 5.6807 2.2368
-5.7271 5.4780 2.2368
-5.9194 5.2684 2.2368
-6.1040 5.0520 2.2368
-6.2594 4.8129 2.2293
-6.2642 4.4682 2.1727
-6.3042 4.1636 2.1336
-6.4487 3.9342 2.1336
-6.5849 3.6998 2.1336
-6.7126 3.4606 2.1336
-6.8316 3.2170 2.1336
-6.9417 2.9693 2.1336
-7.0433 2.7181 2.1337
-7.1354 2.4632 2.1337
-7.2182 2.2052 2.1337
-7.2916 1.9444 2.1337
-7.3556 1.6812 2.1337
-7.4101 1.4159 2.1337
-7.4551 1.1488 2.1337
-7.4904 0.8804 2.1337
-7.5160 0.6109 2.1337
-7.5320 0.3406 2.1337
-7.5382 0.0700 2.1337
-7.5348 -0.2006 2.1337
-7.5216 -0.4709 2.1337
-7.4987 -0.7404 2.1337
-7.4662 -1.0090 2.1337
-7.4240 -1.2762 2.1337
-7.3723 -1.5416 2.1337
-6.9211 -1.7087 2.0199
-6.7314 -1.9207 1.9837
-7.1607 -2.3243 2.1337
-7.0716 -2.5795 2.1337
-6.9735 -2.8313 2.1337
-6.8663 -3.0794 2.1337
-6.7504 -3.3234 2.1337
-6.6259 -3.5631 2.1337
-6.4928 -3.7982 2.1337
-6.3514 -4.0283 2.1337
-6.2671 -4.2979 2.1561
-6.2610 -4.6328 2.2102
-6.1633 -4.9125 2.2368
-5.9822 -5.1300 2.2368
-5.7935 -5.3409 2.2368
-5.5974 -5.5448 2.2368
-5.3941 -5.7416 2.2368
-5.1840 -5.9310 2.2368
-4.9672 -6.1126 2.2368
-4.7440 -6.2864 2.2368
-4.5148 -6.4521 2.2368
-4.2799 -6.6095 2.2368
-4.0395 -6.7583 2.2368
-3.7939 -6.8985 2.2368
-3.5435 -7.0297 2.2368
-3.2886 -7.1519 2.2368
-3.0294 -7.2649 2.2368
-2.7665 -7.3686 2.2368
-2.5000 -7.4627 2.2368
-2.2303 -7.5473 2.2368
-1.9578 -7.6222 2.2368
-1.6827 -7.6873 2.2368
-1.4056 -7.7425 2.2368
-1.1266 -7.7877 2.2368
-0.8462 -7.8230 2.2368
-0.5648 -7.8481 2.2368
-0.2826 -7.8633 2.2368
-0.0001 -7.2439 2.2368
0.2600 -7.2393 2.2368
0.5198 -7.2253 2.2368
0.7789 -7.2020 2.2368
1.0371 -7.1695 2.2368
1.2939 -7.1277 2.2368
1.5490 -7.0769 2.2368
1.7896 -6.9679 2.2212
1.9583 -6.6271 2.1336
2.1951 -6.5528 2.1336
2.4290 -6.4700 2.1336
2.6599 -6.3789 2.1336
2.8874 -6.2796 2.1336
3.1112 -6.1722 2.1336
3.3310 -6.0569 2.1336
3.5466 -5.9338 2.1336
3.7576 -5.8030 2.1336
3.9639 -5.6648 2.1336
4.1650 -5.5193 2.1336
4.3609 -5.3666 2.1336
4.5512 -5.2070 2.1336
4.7356 -5.0407 2.1336
4.9140 -4.8678 2.1336
5.0861 -4.6887 2.1336
5.2517 -4.5036 2.1336
2.3020 -1.8348 0.9078
5.5626 -4.1159 2.1336
5.7074 -3.9140 2.1336
5.8538 -3.7127 2.1368
5.9840 -3.5005 2.1368
6.1066 -3.2838 2.1368
6.2213 -3.0628 2.1368
6.3281 -2.8378 2.1368
6.4267 -2.6092 2.1368
6.5171 -2.3771 2.1368
6.5991 -2.1418 2.1368
5.6771 -1.6198 1.8180
5.4491 -1.3451 1.7282
5.4492 -1.1393 1.7139
5.4494 -0.9366 1.7021
5.4496 -0.7363 1.6925
5.4497 -0.5380 1.6853
5.4499 -0.3410 1.6802
5.4501 -0.1449 1.6773
5.4502 0.0508 1.6766
5.4504 0.2467 1.6781
5.4505 0.4432 1.6817
5.4507 0.6409 1.6875
5.4509 0.8402 1.6956
5.4510 1.0418 1.7060
5.4512 1.2462 1.7187
5.4514 1.4539 1.7338
5.4515 1.6658 1.7515
5.4517 1.8823 1.7719
5.4519 2.1042 1.7952
5.4521 2.3324 1.8214
5.4523 2.5678 1.8508
5.4525 2.8113 1.8837
5.4527 3.0639 1.9203
5.9420 3.6254 2.1368
5.7999 3.8309 2.1336
5.6594 4.0371 2.1336
5.5115 4.2381 2.1336
5.3565 4.4337 2.1336
5.1945 4.6236 2.1336
5.0258 4.8076 2.1336
4.8505 4.9854 2.1336
4.6690 5.1568 2.1336
4.4813 5.3215 2.1336
4.2879 5.4795 2.1336
4.0889 5.6303 2.1336
3.8845 5.7739 2.1336
3.6751 5.9101 2.1337
3.4610 6.0387 2.1337
3.2423 6.1595 2.1337
3.0194 6.2723 2.1337
2.7925 6.3771 2.1337
2.5621 6.4736 2.1337
2.3282 6.5617 2.1337
2.0914 6.6414 2.1337
1.8518 6.7125 2.1337
1.6876 7.1022 2.2368
1.4317 7.1584 2.2368
1.1739 7.2054 2.2368
0.9146 7.2431 2.2368
0.6541 7.2714 2.2368
0.3928 7.2903 2.2368
0.1309 7.2998 2.2368
-0.1311 7.2998 2.2368
-0.3930 7.2904 2.2368
-0.6543 7.2716 2.2368
-0.9148 7.2433 2.2368
-1.1741 7.2057 2.2368
-1.4319 7.1588 2.2368
-1.6878 7.1026 2.2368
-1.9416 7.0373 2.2368
-2.1928 6.9628 2.2368
-2.4411 6.8794 2.2368
-2.6863 6.7870 2.2368
-2.9279 6.6859 2.2368
-3.1658 6.5762 2.2368
-3.3996 6.4580 2.2368
-3.6289 6.3314 2.2368
-3.8535 6.1967 2.2368
-4.0731 6.0540 2.2368
-4.2874 5.9035 2.2368
-4.4961 5.7453 2.2368
-4.6990 5.5798 2.2368
-4.8958 5.4071 2.2368
-5.0862 5.2274 2.2368
-5.2700 5.0410 2.2368
-5.4470 4.8482 2.2368
-5.6169 4.6491 2.2368
-5.7795 4.4440 2.2368
-5.9346 4.2333 2.2368
-6.0820 4.0171 2.2368
-6.2215 3.7958 2.2368
-6.2614 3.5182 2.2046
-6.2673 3.2312 2.1646
-6.2868 2.9607 2.1336
-6.3887 2.7330 2.1337
-6.4819 2.5016 2.1337
-6.5666 2.2671 2.1337
-6.6429 2.0296 2.1337
-6.7105 1.7897 2.1337
-6.7695 1.5474 2.1337
-6.8198 1.3033 2.1337
-6.8612 1.0575 2.1337
-6.8938 0.8104 2.1337
-6.9175 0.5624 2.1337
-6.9322 0.3137 2.1337
-6.9381 0.0646 2.1337
-6.9349 -0.1844 2.1337
-6.9229 -0.4332 2.1337
-6.9019 -0.6813 2.1337
-6.8720 -0.9285 2.1337
-6.8333 -1.1744 2.1337
-6.7858 -1.4188 2.1337
-6.7296 -1.6612 2.1337
-6.6647 -1.9015 2.1337
-6.5912 -2.1392 2.1337
-6.5093 -2.3742 2.1337
-6.4190 -2.6060 2.1337
-6.3205 -2.8344 2.1337
-6.2670 -3.0852 2.1520
-6.2599 -3.3661 2.1899
-6.2602 -3.6619 2.2349
-6.1292 -3.8872 2.2368
-5.9850 -4.1043 2.2368
-5.8331 -4.3160 2.2368
-5.6737 -4.5221 2.2368
-5.5071 -4.7224 2.2368
-5.3334 -4.9165 2.2368
-5.1529 -5.1043 2.2368
-4.9658 -5.2855 2.2368
-4.7724 -5.4598 2.2368
-4.5728 -5.6272 2.2368
-4.3674 -5.7872 2.2368
-4.1565 -5.9398 2.2368
-3.9402 -6.0847 2.2368
-3.7189 -6.2217 2.2368
-3.4928 -6.3508 2.2368
-3.2623 -6.4717 2.2368
-3.0276 -6.5842 2.2368
-2.7891 -6.6883 2.2368
-2.5470 -6.7837 2.2368
-2.3016 -6.8704 2.2368
-2.0533 -6.9483 2.2368
-1.8025 -7.0173 2.2368
-1.5493 -7.0772 2.2368
-1.2941 -7.1281 2.2368
-1.0373 -7.1697 2.2368
-0.7791 -7.2022 2.2368
-0.5200 -7.2254 2.2368
-0.2602 -7.2393 2.2368
-0.0001 -6.7045 2.2368
0.2407 -6.7002 2.2368
0.4811 -6.6872 2.2368
0.7209 -6.6657 2.2368
0.9599 -6.6356 2.2368
1.1975 -6.5969 2.2368
1.4337 -6.5498 2.2368
1.6680 -6.4943 2.2368
1.8125 -6.1336 2.1336
2.0316 -6.0648 2.1336
2.2482 -5.9881 2.1336
2.4619 -5.9038 2.1336
2.6724 -5.8119 2.1336
2.8795 -5.7125 2.1336
3.0830 -5.6057 2.1336
3.2825 -5.4917 2.1336
3.4778 -5.3707 2.1336
3.6686 -5.2427 2.1336
3.8548 -5.1080 2.1336
4.0360 -4.9666 2.1336
4.2121 -4.8189 2.1336
4.3828 -4.6649 2.1336
4.5479 -4.5050 2.1336
4.7071 -4.3392 2.1336
4.8604 -4.1678 2.1336
2.3018 -1.8345 0.9807
5.1480 -3.8090 2.1336
5.2820 -3.6221 2.1336
5.4092 -3.4305 2.1336
5.5295 -3.2344 2.1336
5.6427 -3.0341 2.1336
5.7486 -2.8299 2.1336
5.8561 -2.6260 2.1368
5.9473 -2.4144 2.1368
6.0309 -2.1996 2.1368
6.1067 -1.9819 2.1368
6.1747 -1.7616 2.1368
5.4491 -1.3450 1.8676
5.4492 -1.1392 1.8522
5.4494 -0.9364 1.8394
5.4496 -0.7362 1.8291
5.4497 -0.5378 1.8212
5.4499 -0.3408 1.8158
5.4501 -0.1447 1.8127
5.4502 0.0510 1.8119
5.4504 0.2468 1.8135
5.4505 0.4433 1.8175
5.4507 0.6410 1.8238
5.4509 0.8404 1.8325
5.4510 1.0420 1.8437
5.4512 1.2463 1.8575
5.4514 1.4541 1.8739
5.4515 1.6659 1.8931
5.4517 1.8824 1.9151
5.4519 2.1044 1.9402
5.4521 2.3326 1.9686
5.4523 2.5680 2.0004
5.4525 2.8114 2.0360
5.4527 3.0641 2.0756
5.4891 3.3492 2.1336
5.3660 3.5445 2.1336
5.2360 3.7352 2.1336
5.0991 3.9211 2.1336
4.9556 4.1021 2.1336
4.8057 4.2777 2.1336
4.6496 4.4479 2.1336
4.4874 4.6124 2.1336
4.3194 4.7709 2.1336
4.1458 4.9233 2.1336
3.9668 5.0694 2.1336
3.7827 5.2089 2.1337
3.5936 5.3417 2.1337
3.3999 5.4677 2.1337
3.2017 5.5866 2.1337
2.9994 5.6983 2.1337
2.7932 5.8027 2.1337
2.5833 5.8995 2.1337
2.3701 5.9888 2.1337
2.1538 6.0703 2.1337
1.9347 6.1440 2.1337
1.7852 6.4712 2.2236
1.5611 6.5702 2.2368
1.3244 6.6222 2.2368
1.0859 6.6657 2.2368
0.8461 6.7005 2.2368
0.6051 6.7267 2.2368
0.3633 6.7442 2.2368
0.1211 6.7529 2.2368
-0.1213 6.7530 2.2368
-0.3635 6.7442 2.2368
-0.6053 6.7268 2.2368
-0.8463 6.7007 2.2368
-1.0861 6.6659 2.2368
-1.3246 6.6225 2.2368
-1.5614 6.5706 2.2368
-1.7961 6.5101 2.2368
-2.0285 6.4413 2.2368
-2.2582 6.3641 2.2368
-2.4850 6.2787 2.2368
-2.7086 6.1852 2.2368
-2.9287 6.0837 2.2368
-3.1449 5.9744 2.2368
-3.3571 5.8573 2.2368
-3.5649 5.7327 2.2368
-3.7680 5.6007 2.2368
-3.9663 5.4615 2.2368
-4.1594 5.3152 2.2368
-4.3471 5.1621 2.2368
-4.5292 5.0024 2.2368
-4.7054 4.8362 2.2368
-4.8755 4.6638 2.2368
-5.0392 4.4854 2.2368
-5.1964 4.3013 2.2368
-5.3469 4.1116 2.2368
-5.4905 3.9167 2.2368
-5.6269 3.7167 2.2368
-5.7560 3.5120 2.2368
-5.8777 3.3028 2.2368
-5.9918 3.0893 2.2368
-6.0981 2.8719 2.2368
-6.1965 2.6509 2.2368
-6.2551 2.4143 2.2255
-6.2553 2.1598 2.1969
-6.2581 1.9123 2.1726
-6.2630 1.6705 2.1523
-6.2672 1.4328 2.1350
-6.3100 1.2060 2.1337
-6.3484 0.9787 2.1337
-6.3787 0.7500 2.1337
-6.4006 0.5205 2.1337
-6.4143 0.2904 2.1337
-6.4198 0.0600 2.1337
-6.4170 -0.1705 2.1337
-6.4059 -0.4007 2.1337
-6.3865 -0.6303 2.1337
-6.3589 -0.8590 2.1337
-6.3232 -1.0866 2.1337
-6.2793 -1.3127 2.1337
-6.2668 -1.5468 2.1473
-6.2625 -1.7866 2.1667
-6.2588 -2.0312 2.1895
-6.2590 -2.2827 2.2171
-6.2271 -2.5279 2.2368
-6.1316 -2.7495 2.2368
-6.0282 -2.9675 2.2368
-5.9171 -3.1816 2.2368
-5.7983 -3.3916 2.2368
-5.6722 -3.5972 2.2368
-5.5388 -3.7981 2.2368
-5.3982 -3.9940 2.2368
-5.2508 -4.1848 2.2368
-5.0966 -4.3702 2.2368
-4.9359 -4.5499 2.2368
-4.7689 -4.7237 2.2368
-4.5958 -4.8915 2.2368
-4.4168 -5.0528 2.2368
-4.2321 -5.2077 2.2368
-4.0421 -5.3559 2.2368
-3.8468 -5.4971 2.2368
-3.6467 -5.6313 2.2368
-3.4419 -5.7581 2.2368
-3.2327 -5.8776 2.2368
-3.0193 -5.9895 2.2368
-2.8022 -6.0937 2.2368
-2.5814 -6.1900 2.2368
-2.3573 -6.2784 2.2368
-2.1303 -6.3587 2.2368
-1.9005 -6.4308 2.2368
-1.6683 -6.4946 2.2368
-1.4339 -6.5501 2.2368
-1.1977 -6.5972 2.2368
-0.9600 -6.6358 2.2368
-0.7211 -6.6659 2.2368
-0.4813 -6.6873 2.2368
-0.2408 -6.7002 2.2368
-0.0001 -6.2333 2.2368
0.2238 -6.2293 2.2368
0.4473 -6.2172 2.2368
0.6703 -6.1972 2.2368
0.8924 -6.1692 2.2368
1.1134 -6.1333 2.2368
1.3329 -6.0894 2.2368
1.5508 -6.0378 2.2368
1.7667 -5.9784 2.2368
1.8889 -5.6384 2.1336
2.0902 -5.5672 2.1336
2.2889 -5.4888 2.1336
2.4846 -5.4033 2.1336
2.6772 -5.3108 2.1336
2.8663 -5.2116 2.1336
3.0518 -5.1056 2.1336
3.2333 -4.9930 2.1336
3.4108 -4.8740 2.1336
3.5838 -4.7487 2.1336
3.7523 -4.6173 2.1336
3.9160 -4.4799 2.1336
4.0746 -4.3368 2.1336
4.2281 -4.1880 2.1336
4.3761 -4.0339 2.1336
4.5186 -3.8745 2.1336
2.3015 -1.8343 1.0548
4.7859 -3.5409 2.1336
4.9104 -3.3671 2.1336
5.0286 -3.1890 2.1336
5.1404 -3.0067 2.1336
5.2456 -2.8205 2.1336
5.3441 -2.6306 2.1336
5.4357 -2.4373 2.1336
5.5203 -2.2408 2.1336
5.5978 -2.0415 2.1336
5.6682 -1.8394 2.1336
5.7312 -1.6349 2.1336
5.4491 -1.3448 2.0090
5.4492 -1.1390 1.9925
5.4494 -0.9363 1.9787
5.4496 -0.7360 1.9677
5.4497 -0.5376 1.9592
5.4499 -0.3407 1.9534
5.4501 -0.1446 1.9501
5.4502 0.0511 1.9493
5.4504 0.2470 1.9510
5.4505 0.4435 1.9553
5.4507 0.6412 1.9621
5.4509 0.8405 1.9715
5.4510 1.0421 1.9836
5.4512 1.2465 1.9984
5.4514 1.4543 2.0161
5.4515 1.6661 2.0367
5.4517 1.8826 2.0605
5.4519 2.1046 2.0875
5.4521 2.3328 2.1180
5.4049 2.5457 2.1336
5.3107 2.7384 2.1336
5.2096 2.9276 2.1336
5.1017 3.1130 2.1336
4.9873 3.2945 2.1336
4.8664 3.4717 2.1336
4.7391 3.6445 2.1336
4.6058 3.8126 2.1336
4.4664 3.9759 2.1336
4.3213 4.1340 2.1336
4.1705 4.2868 2.1336
4.0144 4.4341 2.1336
3.8530 4.5757 2.1336
3.6866 4.7115 2.1337
3.5155 4.8411 2.1337
3.3398 4.9645 2.1337
3.1597 5.0816 2.1337
2.9755 5.1920 2.1337
2.7875 5.2958 2.1337
2.5958 5.3928 2.1337
0.8578 1.9590 0.7624
2.2026 5.5657 2.1337
2.0016 5.6415 2.1337
1.7979 5.7099 2.1337
1.6689 6.0498 2.2368
1.4508 6.1060 2.2368
1.2308 6.1543 2.2368
1.0092 6.1947 2.2368
0.7863 6.2270 2.2368
0.5623 6.2514 2.2368
0.3377 6.2676 2.2368
0.1125 6.2757 2.2368
-0.1127 6.2758 2.2368
-0.3378 6.2677 2.2368
-0.5625 6.2515 2.2368
-0.7865 6.2272 2.2368
-1.0094 6.1949 2.2368
-1.2310 6.1546 2.2368
-1.4510 6.1063 2.2368
-1.6691 6.0501 2.2368
-1.8851 5.9862 2.2368
-2.0986 5.9145 2.2368
-2.3094 5.8351 2.2368
-0.8579 1.9590 0.7623
-0.9276 1.9270 0.7624
-2.9227 5.5523 2.2368
-3.1198 5.4436 2.2368
-3.3130 5.3278 2.2368
-3.5018 5.2051 2.2368
-3.6861 5.0758 2.2368
-3.8656 4.9399 2.2368
-4.0400 4.7976 2.2368
-4.2093 4.6492 2.2368
-4.3730 4.4948 2.2368
-4.5311 4.3346 2.2368
-4.6833 4.1688 2.2368
-4.8295 3.9977 2.2368
-4.9694 3.8214 2.2368
-5.1028 3.6403 2.2368
-5.2296 3.4545 2.2368
-5.3497 3.2642 2.2368
-5.4628 3.0698 2.2368
-5.5689 2.8714 2.2368
-5.6677 2.6694 2.2368
-5.7592 2.4640 2.2368
-5.8433 2.2555 2.2368
-5.9198 2.0441 2.2368
-5.9886 1.8301 2.2368
-6.0497 1.6138 2.2368
-6.1030 1.3954 2.2368
-6.1484 1.1753 2.2368
-6.1859 0.9538 2.2368
-6.2154 0.7310 2.2368
-6.2368 0.5074 2.2368
-6.2503 0.2832 2.2368
-6.2556 0.0586 2.2368
-6.2529 -0.1660 2.2368
-6.2422 -0.3903 2.2368
-6.2233 -0.6140 2.2368
-6.1965 -0.8369 2.2368
-6.1617 -1.0587 2.2368
-6.1190 -1.2790 2.2368
-6.0684 -1.4977 2.2368
-6.0100 -1.7144 2.2368
-5.9438 -1.9288 2.2368
-5.8701 -2.1407 2.2368
-5.7887 -2.3498 2.2368
-5.7000 -2.5558 2.2368
-5.6039 -2.7584 2.2368
-5.5007 -2.9575 2.2368
-5.3903 -3.1528 2.2368
-5.2731 -3.3439 2.2368
-5.1491 -3.5307 2.2368
-5.0185 -3.7129 2.2368
-4.8814 -3.8903 2.2368
-4.7381 -4.0626 2.2368
-4.5888 -4.2297 2.2368
-4.4335 -4.3914 2.2368
-4.2726 -4.5473 2.2368
-4.1062 -4.6974 2.2368
-3.9346 -4.8414 2.2368
-3.7579 -4.9792 2.2368
-3.5764 -5.1105 2.2368
-3.3904 -5.2352 2.2368
-3.2000 -5.3532 2.2368
-3.0055 -5.4643 2.2368
-2.8071 -5.5684 2.2368
-2.6052 -5.6653 2.2368
-2.4000 -5.7549 2.2368
-2.1917 -5.8370 2.2368
-1.9806 -5.9117 2.2368
-1.7669 -5.9788 2.2368
-1.5510 -6.0381 2.2368
-1.3332 -6.0897 2.2368
-1.1136 -6.1335 2.2368
-0.8926 -6.1694 2.2368
-0.6705 -6.1973 2.2368
-0.4475 -6.2173 2.2368
-0.2239 -6.2293 2.2368
-0.0001 -5.8177 2.2368
0.2088 -5.8140 2.2368
0.4175 -5.8028 2.2368
0.6256 -5.7841 2.2368
0.8329 -5.7579 2.2368
1.0392 -5.7244 2.2368
1.2441 -5.6835 2.2368
1.4474 -5.6353 2.2368
1.6489 -5.5798 2.2368
1.7952 -5.3586 2.1725
1.9509 -5.1960 2.1336
2.1363 -5.1228 2.1336
2.3190 -5.0430 2.1336
2.4987 -4.9567 2.1336
2.6752 -4.8640 2.1336
2.8483 -4.7651 2.1336
3.0178 -4.6600 2.1336
3.1834 -4.5489 2.1336
3.3449 -4.4320 2.1336
3.5021 -4.3093 2.1336
3.6548 -4.1811 2.1336
3.8029 -4.0474 2.1336
3.9461 -3.9086 2.1336
4.0842 -3.7647 2.1336
4.2172 -3.6159 2.1336
2.3012 -1.8340 1.1301
4.4666 -3.3045 2.1336
4.5828 -3.1423 2.1336
4.6931 -2.9760 2.1336
4.7974 -2.8059 2.1336
4.8955 -2.6321 2.1336
4.9874 -2.4549 2.1336
5.0729 -2.2745 2.1336
5.1518 -2.0911 2.1336
5.2241 -1.9050 2.1336
5.2897 -1.7164 2.1336
5.3485 -1.5256 2.1336
5.4005 -1.3327 2.1336
5.4455 -1.1381 2.1336
5.4494 -0.9361 2.1203
5.4496 -0.7358 2.1085
5.4497 -0.5375 2.0995
5.4499 -0.3405 2.0933
5.4501 -0.1445 2.0897
5.4502 0.0513 2.0889
5.4504 0.2471 2.0908
5.4505 0.4436 2.0954
5.4507 0.6413 2.1027
5.4509 0.8407 2.1128
5.4510 1.0423 2.1257
