ply
format ascii 1.0
element vertex 2026
property float32 x
property float32 y
property float32 z
end_header
3.3729 -6.0619 -1.0291
3.6125 -5.9793 -1.0287
3.8557 -5.8954 -1.0299
4.1034 -5.8099 -1.0327
4.3561 -5.7227 -1.0372
4.6844 -5.7182 -1.0592
4.9541 -5.6251 -1.0673
5.2318 -5.5293 -1.0775
5.5186 -5.4304 -1.0897
5.8158 -5.3279 -1.1041
6.1246 -5.2213 -1.1210
6.4468 -5.1102 -1.1403
6.7839 -4.9939 -1.1625
7.1397 -4.8728 -1.1880
7.5323 -4.7560 -1.2197
7.5517 -4.3994 -1.1926
7.4020 -3.9655 -1.1424
7.2634 -3.5639 -1.0977
7.1345 -3.1901 -1.0579
7.0139 -2.8404 -1.0224
7.0132 -2.5529 -1.0068
7.4068 -2.4007 -1.0491
7.8652 -2.2425 -1.1012
8.3729 -2.0674 -1.1608
8.9398 -1.8718 -1.2294
9.5788 -1.6514 -1.3089
10.3065 -1.4004 -1.4017
11.1450 -1.1111 -1.5113
12.1244 -0.7732 -1.6419
13.2868 -0.3722 -1.8000
14.6926 0.1127 -1.9944
16.5947 0.7199 -2.2608
18.1176 1.4350 -2.4814
18.1637 2.0930 -2.5051
18.3902 2.7871 -2.5582
24.5012 4.6130 -3.4433
24.8584 5.6055 -3.5352
25.2844 6.6580 -3.6449
35.0856 10.5914 -5.1353
92.1106 31.4341 -13.7119
88.5341 33.7875 -13.4274
20.7710 8.7886 -3.2150
85.8872 40.0134 -13.5918
85.4826 47.5250 -14.2179
81.7260 49.3371 -13.9749
54.2243 44.3940 -10.5713
45.4926 40.0442 -9.2150
42.3777 40.0796 -8.9406
41.0263 41.6789 -9.0381
37.4201 40.8382 -8.6315
36.4960 42.8070 -8.8401
36.4479 45.9852 -9.3000
34.8446 47.3477 -9.3977
34.8245 51.0505 -9.9646
30.6750 48.6181 -9.3504
29.1879 50.1534 -9.5214
27.3205 51.0668 -9.5865
25.0528 51.1514 -9.5108
23.4421 52.5479 -9.6927
28.5840 70.7866 -12.9728
25.3522 69.8989 -12.7462
22.7293 70.4483 -12.8005
20.4950 72.2967 -13.1073
19.1662 78.1941 -14.1641
17.5321 84.5351 -15.3192
14.5144 85.2655 -15.4776
11.0105 82.4756 -15.0151
7.9534 81.8958 -14.9714
5.0200 82.3306 -15.1315
2.0937 83.8156 -15.5054
-12.1749 23.4425 -5.3843
-14.7713 22.1930 -5.5223
-22.6277 29.1881 -7.7244
-22.5959 27.0690 -7.4081
-23.5133 26.1847 -7.4255
-25.1581 26.0581 -7.6734
-26.3223 25.3626 -7.7734
-28.4753 25.5183 -8.1605
-10.4374 8.6943 -2.9088
-30.4284 23.5367 -8.2631
-31.7617 22.7815 -8.4198
-39.0696 25.9364 -10.1281
-15.5024 9.5020 -3.9363
-15.3072 8.6368 -3.8130
-14.4620 7.4836 -3.5393
-15.6064 7.3727 -3.7576
-15.5877 6.6852 -3.6975
-15.3573 5.9382 -3.5935
-16.0462 5.5459 -3.7085
-16.5688 5.0633 -3.7867
-16.6556 4.4376 -3.7687
-17.2588 3.9354 -3.8708
-17.8943 3.4043 -3.9825
-19.4608 2.9771 -4.3026
-18.9367 2.1991 -4.1637
-16.8193 1.3386 -3.6817
-16.3480 0.7072 -3.5664
-16.9770 0.1196 -3.6951
-16.7762 -0.4890 -3.6467
-27.4433 -1.7951 -5.9643
-27.4760 -2.7982 -5.9765
-27.4191 -3.7986 -5.9758
-27.3943 -4.8105 -5.9884
-42.2237 -8.9993 -9.2684
-39.6396 -9.9592 -8.7470
-40.9370 -11.8735 -9.0913
-56.3176 -18.5656 -12.6022
-22.4063 -19.4740 -5.9737
-19.8929 -18.5894 -5.4448
-17.9222 -18.0002 -5.0472
-5.0481 -5.4492 -1.4663
-11.7030 -13.5828 -3.5153
-10.4909 -13.1016 -3.2680
-9.4347 -12.6931 -3.0576
-8.6100 -12.4988 -2.9130
-7.7431 -12.1539 -2.7454
-7.0443 -11.9876 -2.6289
-6.3383 -11.7321 -2.5018
-5.6937 -11.5097 -2.3904
-5.1009 -11.3171 -2.2925
-3.4895 -8.5491 -1.6915
-3.0805 -8.3969 -1.6251
-2.6999 -8.2656 -1.5668
-2.3395 -8.1413 -1.5136
-1.9969 -8.0231 -1.4648
-1.6701 -7.9103 -1.4202
-1.3570 -7.8023 -1.3792
-1.0562 -7.6986 -1.3417
-0.7662 -7.5985 -1.3072
-0.4858 -7.5018 -1.2755
-0.2137 -7.4079 -1.2465
0.0438 -7.2103 -1.0360
0.2986 -7.1227 -1.0140
0.5561 -7.1423 -1.0087
0.8045 -7.0566 -0.9900
1.0278 -6.8321 -0.9534
1.2803 -6.8368 -0.9503
1.5170 -6.7551 -0.9365
1.7519 -6.6741 -0.9242
1.9854 -6.5936 -0.9133
2.2182 -6.5132 -0.9038
2.4510 -6.4330 -0.8956
2.6547 -6.2828 -0.8791
2.9409 -6.3196 -0.8901
3.1787 -6.2376 -0.8859
3.3688 -6.0645 -0.8701
3.6090 -5.9826 -0.8687
3.8524 -5.8986 -0.8686
4.1002 -5.8131 -0.8698
4.3519 -5.7242 -0.8723
4.6801 -5.7196 -0.8897
4.9499 -5.6266 -0.8955
5.1501 -5.4487 -0.8896
5.4341 -5.3525 -0.8989
5.7270 -5.2514 -0.9099
6.0313 -5.1462 -0.9228
6.3475 -5.0357 -0.9377
6.7803 -4.9951 -0.9695
7.1361 -4.8739 -0.9900
7.5288 -4.7570 -1.0157
7.5529 -4.4030 -0.9930
7.4030 -3.9684 -0.9506
7.2642 -3.5662 -0.9129
7.1351 -3.1919 -0.8793
7.0144 -2.8418 -0.8495
7.0121 -2.5534 -0.8361
7.4059 -2.4010 -0.8710
7.8646 -2.2428 -0.9141
8.1912 -2.0227 -0.9427
8.7451 -1.8309 -0.9983
9.5798 -1.6510 -1.0867
10.3084 -1.3997 -1.1641
11.1481 -1.1100 -1.2555
11.6255 -0.7396 -1.3080
12.7416 -0.3546 -1.4346
14.7021 0.1160 -1.6595
16.4459 0.7176 -1.8641
18.1157 1.4400 -2.0656
18.0165 2.0818 -2.0700
18.3951 2.7943 -2.1333
24.5273 4.6275 -2.8761
25.0110 5.6506 -2.9705
25.2941 6.6724 -3.0480
35.8589 10.8431 -4.3918
43.4075 14.8375 -5.4127
87.7426 33.5381 -11.1592
20.7813 8.8065 -2.7005
85.0056 39.6625 -11.3072
86.1596 47.9724 -12.0756
81.7770 49.4409 -11.7988
82.5764 54.0457 -12.2892
56.3410 42.9224 -8.9768
55.1737 45.2398 -9.1257
45.5825 40.1851 -7.8446
42.5917 40.3452 -7.6454
41.2535 41.9769 -7.7438
38.5316 42.1203 -7.5843
36.6511 43.0617 -7.5868
36.8818 46.6139 -8.0542
41.7055 56.7731 -9.6410
34.1994 50.2288 -8.4002
22.7442 36.1192 -5.9602
21.7281 37.4127 -6.1026
27.2507 51.0478 -8.2452
24.7789 50.7099 -8.1237
23.5038 52.8174 -8.4055
28.3403 70.3717 -11.1419
25.5361 70.6116 -11.1390
22.8812 71.1476 -11.1981
20.7131 73.3290 -11.5309
18.8400 77.1779 -12.1409
17.2441 83.5422 -13.1640
14.4061 85.1134 -13.4506
10.8284 81.6957 -12.9639
7.9946 83.1285 -13.2616
4.9730 82.8276 -13.2997
2.0506 85.2468 -13.7932
-8.8806 28.7485 -5.2458
-22.3714 28.8218 -6.7776
-22.4282 26.8369 -6.5297
-23.5244 26.1684 -6.6008
-25.5521 26.4389 -6.9284
-26.0019 25.0294 -6.8297
-29.2881 26.2226 -7.4688
-10.4446 8.6927 -2.5913
-29.6255 22.8970 -7.1647
-33.9474 24.3305 -8.0174
-38.4967 25.5376 -8.8937
-34.7476 21.2838 -7.8653
-15.8255 8.9236 -3.5151
-16.1677 8.3614 -3.5290
-15.5920 7.3621 -3.3490
-16.3328 7.0015 -3.4567
-15.2054 5.8771 -3.1750
-15.9505 5.5111 -3.2899
-16.2469 4.9638 -3.3141
-16.8312 4.4838 -3.3994
-16.6010 3.7855 -3.3234
-18.0926 3.4427 -3.5941
-19.6369 3.0055 -3.8750
-16.7356 1.9453 -3.2841
-17.2622 1.3763 -3.3721
-16.9076 0.7344 -3.2912
-16.8397 0.1222 -3.2699
-16.6468 -0.4812 -3.2277
-18.6471 -1.2146 -3.6140
-27.5309 -2.7953 -5.3391
-27.6587 -3.8223 -5.3727
-30.4752 -5.3399 -5.9359
-40.4559 -8.6056 -7.9099
-39.1429 -9.8164 -7.6906
-39.1921 -11.3478 -7.7466
-56.3178 -18.5350 -11.2114
-22.4143 -19.4509 -5.2798
-19.8183 -18.4906 -4.7887
-17.9167 -17.9658 -4.4506
-5.0525 -5.4451 -1.2933
-11.7312 -13.5926 -3.1025
-10.5165 -13.1106 -2.8816
-9.4587 -12.7024 -2.6936
-8.6381 -12.5161 -2.5654
-7.7593 -12.1554 -2.4124
-7.0626 -11.9939 -2.3086
-6.3553 -11.7380 -2.1946
-5.6188 -11.3321 -2.0612
-5.0896 -11.2642 -1.9962
-3.5006 -8.5535 -1.4789
-3.0908 -8.4004 -1.4190
-2.7096 -8.2689 -1.3665
-2.3487 -8.1444 -1.3185
-2.0057 -8.0261 -1.2745
-1.6785 -7.9132 -1.2341
-1.3651 -7.8051 -1.1970
-1.0640 -7.7012 -1.1628
-0.7737 -7.6011 -1.1314
-0.4929 -7.5042 -1.1025
-0.2206 -7.4103 -1.0760
0.0372 -7.2147 -0.8714
0.2923 -7.1270 -0.8513
0.5492 -7.1350 -0.8439
0.7985 -7.0587 -0.8277
1.0256 -6.8579 -0.7983
1.2746 -6.8388 -0.7914
1.5115 -6.7571 -0.7783
1.7465 -6.6760 -0.7666
1.9801 -6.5954 -0.7560
2.2131 -6.5150 -0.7467
2.4459 -6.4347 -0.7385
2.6609 -6.3107 -0.7264
2.9360 -6.3213 -0.7310
3.1740 -6.2392 -0.7261
3.3639 -6.0655 -0.7117
3.6636 -6.0822 -0.7209
3.9110 -5.9968 -0.7195
4.1630 -5.9099 -0.7192
4.3475 -5.7255 -0.7083
4.6759 -5.7211 -0.7211
4.9457 -5.6280 -0.7246
5.1460 -5.4500 -0.7187
5.5195 -5.4419 -0.7370
5.8174 -5.3392 -0.7449
6.1269 -5.2324 -0.7544
6.3439 -5.0370 -0.7531
6.7767 -4.9964 -0.7776
7.1325 -4.8750 -0.7931
7.5253 -4.7581 -0.8128
7.5541 -4.4065 -0.7943
7.4040 -3.9713 -0.7597
7.2650 -3.5685 -0.7289
7.1357 -3.1937 -0.7016
7.0148 -2.8432 -0.6774
7.0109 -2.5539 -0.6662
7.4049 -2.4013 -0.6938
7.8639 -2.2430 -0.7281
8.1917 -2.0229 -0.7508
8.9619 -1.8761 -0.8148
9.5808 -1.6507 -0.8657
10.0858 -1.3686 -0.9074
10.9083 -1.0849 -0.9791
11.7370 -0.7449 -1.0529
13.0167 -0.3598 -1.1693
14.7116 0.1193 -1.3258
16.4596 0.7223 -1.4908
18.0604 1.4407 -1.6470
18.0180 2.0877 -1.6575
18.3302 2.7909 -1.7039
24.5533 4.6419 -2.3106
25.0123 5.6615 -2.3872
25.2878 6.6825 -2.4521
35.9309 10.8831 -3.5464
44.2946 15.1651 -4.4581
52.4022 20.0611 -5.3880
86.1112 36.5470 -9.0618
85.5186 39.9617 -9.2280
86.6346 44.3239 -9.6041
86.1501 48.0378 -9.8305
81.7685 49.5083 -9.6232
78.5617 55.6098 -9.8956
56.4545 43.0730 -7.3801
54.3753 44.6524 -7.3938
46.2248 40.8138 -6.5533
42.1324 39.9723 -6.2429
41.4558 42.2500 -6.4366
39.2535 42.9796 -6.4038
36.9927 43.5361 -6.3598
36.6745 46.4324 -6.6653
37.5728 51.2395 -7.2434
24.4861 36.0303 -5.0259
21.3090 33.9065 -4.6759
20.6618 35.6499 -4.8692
19.8517 37.2684 -5.0501
19.2647 39.5163 -5.3210
18.5023 41.6810 -5.5859
17.6866 44.0349 -5.8820
16.8078 46.6118 -6.2147
23.4687 73.2084 -9.7559
20.4503 72.6585 -9.6907
18.8315 77.4575 -10.3525
15.3444 74.6921 -10.0163
14.4747 86.0073 -11.5863
11.0812 84.2061 -11.4088
7.7571 81.4524 -11.1120
4.9728 84.1222 -11.5686
1.9616 84.7807 -11.7661
-9.0098 29.0832 -4.6048
-24.1600 31.0880 -6.4006
-22.8380 27.2959 -5.8186
-25.3433 28.1611 -6.2275
-23.4876 24.2779 -5.5809
-25.6920 24.7073 -5.9173
-10.4518 8.6912 -2.2763
-30.1195 23.2599 -6.3973
-38.4976 25.5199 -7.8178
-35.2000 21.5464 -7.0063
-15.8067 8.9075 -3.0883
-16.1482 8.3465 -3.1013
-15.5779 7.3516 -2.9448
-16.3560 7.0083 -3.0473
-16.0987 6.2199 -2.9596
-15.8568 5.4769 -2.8800
-16.4148 5.0139 -2.9488
-17.0090 4.5306 -3.0255
-17.0900 3.8971 -3.0132
-16.8481 3.2065 -2.9477
-19.8145 3.0341 -3.4435
-18.9085 2.1999 -3.2674
-17.7248 1.4157 -3.0486
-16.7724 0.7314 -2.8742
-16.7058 0.1246 -2.8551
-16.5204 -0.4736 -2.8186
-30.6662 -1.9891 -5.2284
-34.0047 -3.4422 -5.7993
-30.8448 -4.2520 -5.2673
-31.0528 -5.4294 -5.3151
-29.4412 -6.2503 -5.0562
-39.6064 -9.9146 -6.8320
-39.4068 -11.3903 -6.8350
-53.1036 -17.4484 -9.2716
-67.0631 -24.7492 -11.7998
-22.6255 -19.6040 -4.6336
-20.0658 -18.6923 -4.2109
-17.9771 -17.9977 -3.8741
-5.0567 -5.4407 -1.1217
-11.7593 -13.6022 -2.6917
-10.5419 -13.1195 -2.4970
-9.4823 -12.7112 -2.3313
-8.6662 -12.5333 -2.2191
-7.6713 -11.9942 -2.0535
-7.0444 -11.9386 -1.9797
-6.2995 -11.6098 -1.8676
-5.6600 -11.3892 -1.7798
-5.1044 -11.2693 -1.7133
-3.5116 -8.5578 -1.2675
-3.1009 -8.4039 -1.2142
-2.7192 -8.2722 -1.1674
-2.3579 -8.1476 -1.1245
-2.0145 -8.0291 -1.0852
-1.6618 -7.7987 -1.0335
-1.3527 -7.6920 -1.0006
-1.0717 -7.7039 -0.9850
-0.7811 -7.6036 -0.9567
-0.4927 -7.3967 -0.9169
-0.2241 -7.3046 -0.8933
0.0312 -7.3353 -0.7189
0.2860 -7.1283 -0.6890
0.5410 -7.1114 -0.6787
0.7924 -7.0608 -0.6662
1.0222 -6.8760 -0.6422
1.2689 -6.8407 -0.6332
1.5060 -6.7590 -0.6210
1.7411 -6.6779 -0.6098
1.9749 -6.5972 -0.5996
2.2079 -6.5168 -0.5903
2.4409 -6.4364 -0.5821
2.6560 -6.3123 -0.5708
2.9311 -6.3230 -0.5727
3.1692 -6.2409 -0.5671
3.3592 -6.0669 -0.5542
3.6590 -6.0838 -0.5597
3.9065 -5.9984 -0.5569
4.1586 -5.9114 -0.5551
4.3435 -5.7273 -0.5451
4.6716 -5.7226 -0.5534
4.9416 -5.6294 -0.5546
5.1424 -5.4518 -0.5486
5.5156 -5.4433 -0.5611
5.8135 -5.3405 -0.5657
6.1231 -5.2337 -0.5716
6.3405 -5.0384 -0.5694
6.7732 -4.9976 -0.5867
7.1289 -4.8761 -0.5971
7.5219 -4.7591 -0.6108
7.5553 -4.4099 -0.5963
7.4050 -3.9741 -0.5694
7.2658 -3.5708 -0.5456
7.1364 -3.1955 -0.5246
7.0153 -2.8446 -0.5059
7.0097 -2.5543 -0.4971
7.4039 -2.4017 -0.5174
7.8633 -2.2432 -0.5427
8.1891 -2.0224 -0.5595
8.9622 -1.8760 -0.6074
9.5819 -1.6503 -0.6455
10.0859 -1.3677 -0.6768
10.9130 -1.0840 -0.7310
12.0016 -0.7599 -0.8042
13.1571 -0.3613 -0.8837
14.4009 0.1199 -0.9715
16.4732 0.7270 -1.1184
18.1234 1.4508 -1.2408
18.0316 2.0949 -1.2474
18.4195 2.8110 -1.2900
24.2806 4.5997 -1.7250
24.8571 5.6370 -1.7948
25.2371 6.6808 -1.8557
38.4706 11.6717 -2.8861
44.2832 15.1855 -3.3962
56.4077 21.6281 -4.4310
63.5914 27.0301 -5.1264
85.0649 39.8090 -7.0512
84.5539 47.2168 -7.4545
82.7222 50.1589 -7.5441
77.3426 54.8273 -7.5948
56.6002 43.2482 -5.7860
54.5848 44.8917 -5.8220
48.5559 42.9374 -5.4163
43.2640 41.1096 -5.0595
40.1001 40.9331 -4.9292
39.4998 43.3197 -5.1174
37.2253 43.8832 -5.0979
37.4704 47.5221 -5.4412
26.3294 35.9708 -4.0680
22.8736 33.7202 -3.7740
20.3422 32.4313 -3.5989
19.6973 34.0554 -3.7536
18.8380 35.4420 -3.8865
18.3052 37.6347 -4.1123
17.5464 39.6250 -4.3210
16.5437 41.2989 -4.5007
15.8641 44.1224 -4.8120
14.9202 46.6910 -5.1026
13.7238 48.9338 -5.3655
12.7559 52.6811 -5.8026
15.6568 76.5737 -8.4827
12.5230 74.8352 -8.3472
10.8500 83.0435 -9.3369
7.8354 83.0863 -9.4269
4.8424 83.2141 -9.5376
1.9127 86.0607 -9.9750
-17.3941 36.4587 -5.3806
-18.6030 35.6328 -5.4003
-24.4995 29.2481 -5.3589
-25.6420 28.4624 -5.4144
-23.2282 23.9853 -4.7468
-23.8400 22.9042 -4.7260
-26.7625 23.9178 -5.1576
-10.4589 8.6897 -1.9634
-27.9995 21.6053 -5.1294
-29.3571 21.0086 -5.2574
-36.5343 24.2012 -6.4061
-35.3428 21.6194 -6.0771
-17.4569 9.8313 -2.9477
-18.0622 9.3305 -2.9991
-17.0850 8.0587 -2.7932
-16.2550 6.9618 -2.6198
-16.3210 6.3033 -2.5962
-21.7334 7.5044 -3.4161
-16.5848 5.0646 -2.5787
-17.1892 4.5781 -2.6466
-17.6047 4.0145 -2.6869
-17.3445 3.3017 -2.6267
-19.9940 3.0631 -3.0075
-18.8947 2.2003 -2.8257
-17.2199 1.3777 -2.5628
-16.6404 0.7285 -2.4669
-16.5750 0.1270 -2.4500
-16.5110 -0.4694 -2.4356
-30.2229 -1.9522 -4.4536
-33.3255 -3.3633 -4.9102
-31.9465 -4.3931 -4.7110
-29.6740 -5.1771 -4.3837
-29.3378 -6.2162 -4.3462
-29.7659 -7.4377 -4.4264
-40.4454 -11.6706 -6.0435
-53.2229 -17.4591 -7.9997
-67.6870 -24.9401 -10.2449
-22.6663 -19.6095 -3.9504
-19.9922 -18.5948 -3.5655
-18.0534 -18.0455 -3.3016
-5.0609 -5.4364 -0.9512
-11.7872 -13.6119 -2.2826
-10.4165 -12.9413 -2.0839
-9.5483 -12.7769 -1.9793
-8.5898 -12.3999 -1.8512
-7.7589 -12.1077 -1.7448
-7.0624 -11.9448 -1.6641
-6.3641 -11.7039 -1.5787
-5.7188 -11.4813 -1.5016
-5.1191 -11.2744 -1.4316
-3.5226 -8.5621 -1.0570
-3.1110 -8.4074 -1.0103
-2.7288 -8.2756 -0.9692
-2.3324 -8.0316 -0.9179
-1.9937 -7.9152 -0.8837
-1.6705 -7.8041 -0.8523
-1.3606 -7.6948 -0.8229
-1.0793 -7.7065 -0.8080
-0.7884 -7.6062 -0.7828
-0.4997 -7.3987 -0.7483
-0.2347 -7.4270 -0.7390
0.0246 -7.3376 -0.5528
0.2796 -7.1294 -0.5273
0.5329 -7.0880 -0.5153
0.7864 -7.0629 -0.5053
1.0165 -6.8779 -0.4848
1.2633 -6.8427 -0.4757
1.5005 -6.7609 -0.4642
1.7357 -6.6797 -0.4536
1.9696 -6.5990 -0.4437
2.2028 -6.5186 -0.4346
2.4359 -6.4382 -0.4263
2.6512 -6.3140 -0.4158
2.9263 -6.3247 -0.4150
3.1645 -6.2425 -0.4088
3.3548 -6.0688 -0.3973
3.6544 -6.0854 -0.3991
3.9021 -5.9999 -0.3950
4.1542 -5.9129 -0.3916
4.3396 -5.7291 -0.3826
4.6674 -5.7240 -0.3864
4.9375 -5.6309 -0.3852
5.1446 -5.4597 -0.3796
5.5116 -5.4447 -0.3859
5.8096 -5.3419 -0.3872
6.1194 -5.2350 -0.3895
6.3374 -5.0400 -0.3863
6.7696 -4.9988 -0.3964
7.1253 -4.8771 -0.4019
7.5184 -4.7601 -0.4096
7.5565 -4.4134 -0.3988
7.4059 -3.9769 -0.3797
7.2666 -3.5730 -0.3628
7.1370 -3.1973 -0.3480
7.0158 -2.8460 -0.3350
7.0085 -2.5548 -0.3285
7.4029 -2.4020 -0.3415
7.8627 -2.2434 -0.3580
8.1898 -2.0227 -0.3690
8.9626 -1.8759 -0.4005
9.5829 -1.6500 -0.4259
10.0891 -1.3673 -0.4470
10.9135 -1.0828 -0.4833
12.0061 -0.7583 -0.5327
13.1636 -0.3590 -0.5866
14.7658 0.1261 -0.6625
16.5263 0.7335 -0.7483
18.1216 1.4558 -0.8300
18.1668 2.1163 -0.8435
18.4243 2.8182 -0.8693
24.6053 4.6707 -1.1823
24.8678 5.6499 -1.2195
25.2745 6.7023 -1.2678
38.7273 11.7691 -1.9911
44.2720 15.2058 -2.3380
56.6032 21.7366 -3.0768
63.5730 27.0632 -3.5643
84.7812 39.7352 -4.9130
84.9255 47.4935 -5.2898
82.4334 50.0566 -5.3399
77.4537 54.9865 -5.4611
56.7462 43.4238 -4.1878
53.8360 44.3421 -4.1677
48.3687 42.8367 -3.9371
43.9352 41.8120 -3.7693
40.0063 40.9018 -3.6267
37.9195 41.6538 -3.6419
38.6387 45.6253 -3.9429
28.2795 35.9274 -3.0756
24.5683 33.6247 -2.8571
21.4623 31.6985 -2.6785
19.4606 31.0861 -2.6168
18.8198 32.6048 -2.7387
18.1471 34.2158 -2.8723
17.4374 35.9328 -3.0191
16.6847 37.7718 -3.1807
14.6018 36.5481 -3.0887
12.6868 35.3875 -3.0051
11.0806 34.7860 -2.9718
13.0783 46.7987 -4.0269
11.8971 49.3339 -4.2803
10.7428 52.7895 -4.6231
12.3544 74.2491 -6.5703
10.8211 83.4209 -7.4663
7.8663 84.2420 -7.6336
4.7387 82.7345 -7.5975
1.8372 86.1847 -8.0281
-23.5470 30.2258 -4.4697
-24.4826 29.1948 -4.4795
-25.8190 28.6282 -4.5660
-23.2968 24.0319 -3.9919
-24.2413 23.2676 -4.0337
-25.1201 22.4298 -4.0676
-10.4659 8.6881 -1.6523
-27.8389 21.4641 -4.2927
-29.7110 21.2458 -4.4821
-36.5885 22.3667 -5.3068
-36.5832 20.5903 -5.2136
-18.1442 9.3676 -2.5440
-18.7715 8.8497 -2.5926
-18.6991 8.0050 -2.5469
-22.2712 8.5981 -2.9949
-21.8392 7.5385 -2.9025
-16.7572 5.1161 -2.2034
-17.3719 4.6262 -2.2622
-18.4994 4.2185 -2.3880
-17.8673 3.4019 -2.2885
-20.1756 3.0923 -2.5665
-18.8809 2.2006 -2.3875
-19.4562 1.5593 -2.4478
-18.4347 0.8102 -2.3096
-16.8457 0.1325 -2.1036
-18.7599 -0.5289 -2.3369
-29.3839 -1.8901 -3.6546
-29.3089 -2.9490 -3.6428
-31.9520 -4.3830 -3.9721
-31.8173 -5.5392 -3.9598
-29.2358 -6.1826 -3.6458
-29.5145 -7.3617 -3.6915
-40.3305 -11.6177 -5.0641
-43.5409 -14.2599 -5.4940
-66.0724 -24.3069 -8.3864
-83.9747 -34.3744 -10.7332
-57.7378 -39.8863 -7.8884
-52.7204 -39.2952 -7.3182
-51.9010 -41.6704 -7.3315
-22.5480 -19.4776 -3.2469
-20.0445 -18.6147 -2.9478
-18.0969 -18.0605 -2.7234
-5.0651 -5.4321 -0.7817
-11.6802 -13.4659 -1.8532
-10.6206 -13.1723 -1.7367
-9.5968 -12.8191 -1.6221
-8.4884 -12.2310 -1.4879
-7.7372 -12.0507 -1.4114
-7.0803 -11.9510 -1.3496
-6.3808 -11.7097 -1.2768
-5.7344 -11.4867 -1.2108
-5.1337 -11.2795 -1.1510
-3.5335 -8.5664 -0.8472
-3.1211 -8.4109 -0.8071
-2.7384 -8.2789 -0.7717
-2.3654 -8.1172 -0.7358
-2.0351 -8.0481 -0.7102
-1.7062 -7.9346 -0.6824
-1.3684 -7.6975 -0.6459
-1.0869 -7.7091 -0.6317
-0.7958 -7.6087 -0.6096
-0.5066 -7.4004 -0.5802
-0.2415 -7.4294 -0.5707
0.0181 -7.3398 -0.3871
0.2734 -7.1319 -0.3663
0.5250 -7.0648 -0.3536
0.7804 -7.0649 -0.3449
1.0108 -6.8799 -0.3278
1.2577 -6.8446 -0.3187
1.4950 -6.7627 -0.3079
1.7304 -6.6815 -0.2978
1.9644 -6.6008 -0.2883
2.1977 -6.5203 -0.2793
2.4309 -6.4399 -0.2710
2.6463 -6.3157 -0.2613
2.9215 -6.3263 -0.2577
3.1598 -6.2441 -0.2509
3.3505 -6.0708 -0.2409
3.6499 -6.0869 -0.2390
3.8976 -6.0015 -0.2335
4.1498 -5.9145 -0.2286
4.3356 -5.7309 -0.2205
4.6632 -5.7255 -0.2198
4.9334 -5.6323 -0.2163
5.1477 -5.4685 -0.2107
5.5077 -5.4460 -0.2111
5.8058 -5.3432 -0.2092
6.1156 -5.2363 -0.2078
6.3342 -5.0416 -0.2037
6.7661 -5.0000 -0.2066
7.1218 -4.8782 -0.2071
7.5150 -4.7611 -0.2090
7.5577 -4.4169 -0.2016
7.4069 -3.9798 -0.1902
7.2674 -3.5753 -0.1803
7.1376 -3.1991 -0.1717
7.0163 -2.8474 -0.1643
7.0073 -2.5553 -0.1603
7.4020 -2.4023 -0.1661
7.8620 -2.2436 -0.1736
8.1905 -2.0230 -0.1788
8.9629 -1.8757 -0.1941
9.5839 -1.6496 -0.2067
10.0922 -1.3668 -0.2176
10.9179 -1.0819 -0.2361
12.0106 -0.7568 -0.2616
13.1700 -0.3568 -0.2899
14.7753 0.1294 -0.3298
16.5399 0.7381 -0.3756
18.1198 1.4607 -0.4200
18.2087 2.1269 -0.4322
18.4291 2.8253 -0.4492
24.6312 4.6851 -0.6183
25.0272 5.6967 -0.6487
25.2833 6.7163 -0.6784
38.7492 11.7952 -1.0791
44.2862 15.2348 -1.2830
56.7997 21.8456 -1.7158
63.5547 27.0961 -2.0060
80.9347 37.9886 -2.6750
79.7447 40.9789 -2.7654
79.1345 44.3193 -2.8851
84.4569 51.3597 -3.2436
77.9208 55.3988 -3.3399
58.4940 44.8272 -2.6565
56.0744 46.2546 -2.7036
54.4443 48.2905 -2.7925
42.2116 40.2336 -2.3081
16.3713 16.7641 -0.9565
37.8316 41.6244 -2.3671
36.9455 43.6985 -2.4821
26.3581 33.5438 -1.9065
23.0289 31.5740 -1.7988
20.2157 29.9128 -1.7108
18.6526 29.8531 -1.7166
18.0174 31.2782 -1.8106
17.3507 32.7848 -1.9129
16.6480 34.3848 -2.0245
15.9035 36.0918 -2.1467
13.9665 35.0506 -2.1082
12.1544 34.0005 -2.0700
11.7140 36.8920 -2.2756
11.5620 41.5206 -2.5970
10.0419 41.8099 -2.6540
10.0791 49.7627 -3.2083
8.7561 52.9245 -3.4684
6.8264 53.0067 -3.5338
4.7926 51.8372 -3.5181
2.8598 50.7387 -3.5081
1.0146 49.7025 -3.5035
-0.7546 48.7214 -3.5039
-2.4580 47.7890 -3.5089
-4.1120 46.9855 -3.5249
-5.7133 46.1379 -3.5391
-15.7130 66.8186 -5.5038
-24.2477 31.0879 -3.7018
-24.5271 29.2149 -3.6162
-24.2145 26.8206 -3.4568
-23.3487 24.0614 -3.2350
-24.4396 23.4358 -3.2935
-25.5298 22.7752 -3.3527
-27.3733 22.7044 -3.5096
-28.4287 21.9015 -3.5644
-28.7619 20.5517 -3.5319
-36.6836 24.2659 -4.4183
-36.9529 22.5747 -4.3712
-38.1371 21.4518 -4.4363
-29.9389 15.4484 -3.4288
-18.8574 8.8856 -2.1287
-18.5484 7.9369 -2.0659
-22.2781 8.5974 -2.4509
-22.7281 7.8429 -2.4720
-16.9323 5.1684 -1.8225
-17.6936 4.7113 -1.8863
-18.3507 4.1847 -1.9394
-24.6498 4.6942 -2.5848
-30.3680 4.6567 -3.1621
-18.8672 2.2010 -1.9525
-19.7095 1.5823 -2.0286
-18.4501 0.8140 -1.8903
-19.1078 0.1542 -1.9502
-28.6912 -0.8022 -2.9193
-28.8540 -1.8483 -2.9292
-29.2055 -2.9299 -2.9605
-29.3185 -4.0120 -2.9699
-29.9102 -5.1961 -3.0301
-29.1351 -6.1494 -2.9543
-29.3110 -7.2978 -2.9773
-42.8801 -12.3313 -4.3669
-42.9350 -14.0387 -4.3876
-56.3775 -20.7079 -5.7865
-82.0368 -33.5299 -8.4650
-58.0088 -40.0150 -6.3191
-52.7363 -39.2492 -5.8220
-51.9178 -41.6219 -5.8172
-22.6067 -19.4988 -2.5748
-20.0940 -18.6321 -2.3304
-17.8185 -17.7549 -2.1082
-5.0692 -5.4278 -0.6131
-11.7969 -13.5781 -1.4616
-10.6457 -13.1809 -1.3546
-9.4323 -12.5772 -1.2359
-8.5481 -12.2945 -1.1568
-7.7265 -12.0111 -1.0837
-7.0170 -11.8204 -1.0239
-6.3248 -11.5823 -0.9644
-5.7499 -11.4920 -0.9208
-5.0906 -11.1580 -0.8612
-3.5444 -8.5707 -0.6379
-3.1312 -8.4144 -0.6044
-2.7479 -8.2821 -0.5747
-2.3698 -8.1045 -0.5438
-2.0438 -8.0511 -0.5227
-1.7144 -7.9375 -0.4991
-1.3763 -7.7007 -0.4693
-1.0945 -7.7118 -0.4559
-0.8031 -7.6112 -0.4368
-0.5136 -7.4033 -0.4127
-0.2483 -7.4317 -0.4028
0.0115 -7.3421 -0.2217
0.2716 -7.2524 -0.2089
0.5175 -7.0482 -0.1934
0.7745 -7.0670 -0.1847
1.0050 -6.8819 -0.1712
1.2520 -6.8466 -0.1619
1.4895 -6.7646 -0.1519
1.7250 -6.6834 -0.1423
1.9592 -6.6026 -0.1331
2.1926 -6.5221 -0.1243
2.4259 -6.4416 -0.1159
2.6415 -6.3174 -0.1071
2.9167 -6.3280 -0.1008
3.1550 -6.2458 -0.0932
3.3462 -6.0727 -0.0847
3.6453 -6.0885 -0.0791
3.8932 -6.0030 -0.0723
4.1455 -5.9160 -0.0658
4.3317 -5.7327 -0.0586
4.6591 -5.7269 -0.0534
4.9293 -5.6337 -0.0476
5.1507 -5.4773 -0.0416
5.5037 -5.4474 -0.0367
5.8019 -5.3445 -0.0315
6.1119 -5.2376 -0.0265
6.3311 -5.0432 -0.0214
6.7626 -5.0012 -0.0171
7.1182 -4.8793 -0.0127
7.5115 -4.7622 -0.0086
7.5589 -4.4203 -0.0044
7.4079 -3.9826 -0.0008
7.2682 -3.5776 0.0021
7.1382 -3.2009 0.0045
7.0167 -2.8487 0.0063
7.0062 -2.5557 0.0077
7.4010 -2.4027 0.0092
7.8614 -2.2439 0.0105
8.1911 -2.0232 0.0112
8.9632 -1.8756 0.0122
9.5849 -1.6493 0.0124
10.0954 -1.3664 0.0118
10.9224 -1.0810 0.0110
12.0150 -0.7553 0.0095
13.1765 -0.3546 0.0069
14.7749 0.1326 0.0030
16.5536 0.7429 -0.0027
18.1180 1.4657 -0.0106
18.2094 2.1327 -0.0193
18.4340 2.8325 -0.0293
24.6572 4.6995 -0.0536
25.0285 5.7075 -0.0706
25.3058 6.7340 -0.0894
37.3629 11.3919 -0.1610
44.4008 15.2985 -0.2289
56.9973 21.9553 -0.3464
63.5365 27.1290 -0.4500
80.4398 37.8120 -0.6575
79.1205 40.7176 -0.7405
78.9547 44.2828 -0.8407
76.8457 46.7988 -0.9260
83.4611 55.0243 -1.1329
80.8350 57.5545 -1.2315
77.6319 59.5811 -1.3233
55.9112 46.1886 -1.0638
34.6551 30.7844 -0.7345
42.1288 40.2164 -0.9933
16.3403 16.7587 -0.4281
39.1405 43.1341 -1.1390
28.2534 33.4732 -0.9131
24.6754 31.4564 -0.8859
21.6707 29.7647 -0.8650
19.1180 28.3409 -0.8496
17.9086 28.7180 -0.8877
17.2803 30.0599 -0.9577
16.6212 31.4739 -1.0332
15.9266 32.9701 -1.1150
15.1915 34.5604 -1.2037
13.3830 33.6753 -1.2077
11.8834 33.3386 -1.2309
11.9159 37.6473 -1.4309
10.2623 36.9846 -1.4469
10.0135 41.8615 -1.6856
9.4891 47.0724 -1.9509
8.2103 49.9098 -2.1289
6.2838 49.1485 -2.1579
4.4146 48.2277 -2.1796
2.6383 47.5760 -2.2135
0.9161 46.9487 -2.2489
-0.7592 46.3429 -2.2860
-2.3909 45.6969 -2.3217
-3.9680 44.8878 -2.3496
-5.5046 44.1394 -2.3809
-7.0066 43.4247 -2.4146
-13.2494 66.7734 -3.8287
-15.3854 65.1838 -3.8556
-17.6748 64.4396 -3.9338
-24.7374 78.9565 -4.9769
-52.5874 72.5760 -6.2988
-48.7509 62.4287 -5.6416
-24.3792 29.0061 -2.7330
-24.6978 27.3269 -2.6885
-25.8081 26.5692 -2.7339
-24.7239 23.6860 -2.5536
-24.7196 22.0328 -2.4939
-26.9978 22.3741 -2.6647
-30.3814 23.3873 -2.9380
-36.6047 24.1967 -3.4119
-36.6913 22.4001 -3.3636
-36.1977 20.3485 -3.2673
-37.9957 19.5948 -3.3804
-29.2789 13.7893 -2.5699
-29.7646 12.7306 -2.5799
-33.8915 13.0741 -2.9034
-31.8822 10.9983 -2.7017
-22.0996 6.7441 -1.8539
-17.5236 4.6654 -1.4563
-18.1765 4.1450 -1.4976
-31.6334 6.0253 -2.5858
-30.4231 4.6673 -2.4689
-18.8536 2.2014 -1.5200
-19.6968 1.5840 -1.5786
-19.3915 0.8587 -1.5460
-30.7277 0.2541 -2.4384
-35.0796 -0.9726 -2.7726
-29.2799 -1.8678 -2.3064
-29.1034 -2.9109 -2.2861
-36.4673 -4.9780 -2.8585
-32.1202 -5.5682 -2.5140
-29.2008 -6.1514 -2.2835
-41.8478 -10.4007 -3.2719
-44.1470 -12.6742 -3.4533
-32.7262 -10.6834 -2.5630
-55.8563 -20.4845 -4.3828
-81.6335 -33.3144 -6.4223
-64.5068 -29.0725 -5.0924
-83.5503 -53.2273 -6.7449
-57.8980 -39.8804 -4.7117
-52.7521 -39.2034 -4.3324
-51.9344 -41.5736 -4.3095
-22.7960 -19.6326 -1.9138
-20.2606 -18.7580 -1.7233
-18.1083 -18.0154 -1.5628
-5.0733 -5.4235 -0.4450
-11.8246 -13.5877 -1.0563
-10.5496 -13.0399 -0.9617
-9.4996 -12.6448 -0.8857
-8.6605 -12.4334 -0.8281
-7.7827 -12.0754 -0.7654
-7.0672 -11.8813 -0.7174
-6.3408 -11.5872 -0.6669
-5.7655 -11.4974 -0.6311
-5.1285 -11.2141 -0.5874
-3.5553 -8.5750 -0.4288
-3.1412 -8.4178 -0.4021
-2.7574 -8.2854 -0.3780
-2.3742 -8.0918 -0.3528
-2.0524 -8.0541 -0.3355
-1.7227 -7.9403 -0.3161
-1.3842 -7.7039 -0.2930
-1.1021 -7.7144 -0.2804
-0.8103 -7.6137 -0.2643
-0.5205 -7.4062 -0.2455
-0.2551 -7.4341 -0.2353
0.0049 -7.3443 -0.0564
0.2652 -7.2546 -0.0455
0.5115 -7.0508 -0.0344
0.7685 -7.0691 -0.0247
0.9993 -6.8839 -0.0146
1.2464 -6.8485 -0.0052
1.4841 -6.7665 0.0040
1.7197 -6.6852 0.0131
1.9540 -6.6044 0.0219
2.1876 -6.5238 0.0305
2.4209 -6.4433 0.0390
2.6366 -6.3190 0.0471
2.9119 -6.3296 0.0561
3.1503 -6.2474 0.0643
3.3418 -6.0747 0.0714
3.6408 -6.0900 0.0806
3.8887 -6.0045 0.0887
4.1411 -5.9175 0.0968
4.3277 -5.7345 0.1032
4.6549 -5.7284 0.1128
4.9252 -5.6351 0.1209
5.1538 -5.4862 0.1279
5.4998 -5.4487 0.1376
5.7981 -5.3458 0.1461
6.1081 -5.2389 0.1547
6.3280 -5.0448 0.1609
6.7591 -5.0025 0.1723
7.1146 -4.8803 0.1816
7.5081 -4.7632 0.1917
7.5601 -4.4238 0.1929
7.4089 -3.9854 0.1887
7.2690 -3.5799 0.1846
7.1389 -3.2027 0.1807
7.0172 -2.8501 0.1769
7.0050 -2.5562 0.1757
7.4000 -2.4030 0.1845
7.8608 -2.2441 0.1946
8.1918 -2.0235 0.2013
8.9636 -1.8755 0.2184
9.5859 -1.6490 0.2314
10.0986 -1.3659 0.2414
10.9268 -1.0802 0.2583
12.0194 -0.7537 0.2807
13.1830 -0.3523 0.3039
14.7738 0.1357 0.3358
16.5672 0.7476 0.3708
18.1162 1.4706 0.3988
18.0383 2.1184 0.3899
18.4388 2.8397 0.3909
22.4300 4.2837 0.4655
23.8580 5.4507 0.4838
25.3284 6.7517 0.5008
38.7801 11.8435 0.7460
46.1177 15.9152 0.8607
57.1963 22.0658 1.0327
66.4723 28.4251 1.1569
82.8100 38.9837 1.3837
80.2178 41.3424 1.2807
77.8155 43.7071 1.1804
77.6613 47.3639 1.1117
76.5424 50.5360 1.0253
74.2049 52.9108 0.9205
71.7144 55.1203 0.8129
55.5804 45.9836 0.5656
34.6303 30.8089 0.3088
41.7108 39.8787 0.3148
16.3241 16.7685 0.0987
40.1041 44.2672 0.1764
28.2428 33.5161 0.0729
24.7203 31.5675 0.0140
21.7473 29.9230 -0.0365
19.1987 28.5132 -0.0805
18.0777 29.0453 -0.1272
17.4080 30.3437 -0.1788
16.7065 31.7037 -0.2336
15.9690 33.1336 -0.2920
14.3961 32.8312 -0.3359
12.6579 31.9351 -0.3715
12.8089 36.0387 -0.4690
11.8918 37.6910 -0.5422
10.5208 38.0515 -0.5993
9.9852 41.9131 -0.7170
8.6253 42.9912 -0.7938
7.4527 45.5654 -0.9034
5.7684 45.4473 -0.9631
4.1083 45.3357 -1.0232
2.4852 45.5611 -1.0916
0.8375 44.9934 -1.1412
-0.7675 44.4368 -1.1904
-2.3270 43.7354 -1.2350
-3.8418 43.0320 -1.2787
-5.3183 42.3480 -1.3223
-6.7616 41.6812 -1.3658
-8.6580 43.4438 -1.4924
-15.1450 63.9299 -2.3004
-17.2841 62.8161 -2.3659
-19.5349 62.1783 -2.4499
-24.3343 68.7237 -2.8315
-26.6641 67.4979 -2.9072
-52.3280 72.1264 -4.2494
-48.6085 62.1723 -3.8378
-41.0980 48.8430 -3.1617
-24.7592 27.3659 -1.8596
-26.0208 26.7615 -1.9113
-25.7887 24.6828 -1.8554
-26.6111 23.6977 -1.8780
-31.4458 26.0385 -2.1795
-55.6730 42.8226 -3.7939
-61.4357 43.8332 -4.1207
-44.1947 29.1936 -2.9204
-37.7092 23.0066 -2.4571
-36.3050 20.3965 -2.3345
-38.6035 19.8972 -2.4515
-38.1068 17.9379 -2.3916
-33.2748 14.2256 -2.0651
-35.3060 13.6145 -2.1682
-31.8852 10.9959 -1.9386
-29.2586 8.9268 -1.7622
-22.6483 6.0291 -1.3518
-23.1872 5.2877 -1.3723
-32.6038 6.2113 -1.9141
-42.6217 6.5417 -2.4832
-42.0546 4.9147 -2.4325
-62.0045 4.9947 -3.5620
-41.9097 1.8630 -2.3921
-35.6652 0.3020 -2.0233
-35.1752 -0.9671 -1.9840
-30.0222 -1.9072 -1.6843
-31.1474 -3.1060 -1.7386
-42.8906 -5.8407 -2.3828
-32.2424 -5.5775 -1.7833
-31.7780 -6.6815 -1.7505
-41.9050 -10.3963 -2.2998
-45.4471 -13.0255 -2.4857
-32.7231 -10.6651 -1.7843
-54.9557 -20.1228 -2.9885
-65.9402 -26.8693 -3.5773
-83.3797 -53.0418 -4.4965
-58.2934 -40.0946 -3.1441
-52.7678 -39.1578 -2.8478
-51.9511 -41.5254 -2.8071
-22.8531 -19.6523 -1.2370
-20.0098 -18.4975 -1.0858
-18.1515 -18.0303 -0.9881
-5.0798 -5.4218 -0.2776
-11.8524 -13.5972 -0.6509
-10.6243 -13.1100 -0.5869
-9.5579 -12.7001 -0.5317
-8.6876 -12.4498 -0.4874
-7.8119 -12.0978 -0.4426
-7.0854 -11.8882 -0.4062
-6.3577 -11.5937 -0.3696
-5.7810 -11.5028 -0.3416
-5.1635 -11.2638 -0.3111
-3.5662 -8.5793 -0.2199
-3.1512 -8.4213 -0.1998
-2.7669 -8.2887 -0.1815
-2.3785 -8.0792 -0.1626
-2.0611 -8.0571 -0.1484
-1.7310 -7.9432 -0.1332
-1.3920 -7.7071 -0.1169
-1.1097 -7.7170 -0.1049
-0.8176 -7.6162 -0.0920
-0.5275 -7.4091 -0.0784
-0.2619 -7.4364 -0.0678
-0.0016 -7.3466 0.1089
0.2589 -7.2568 0.1179
0.5054 -7.0533 0.1248
0.7625 -7.0711 0.1354
0.9936 -6.8860 0.1420
1.2556 -6.9321 0.1533
1.4786 -6.7684 0.1600
1.7144 -6.6871 0.1685
1.9488 -6.6062 0.1769
2.1825 -6.5256 0.1855
2.4160 -6.4450 0.1940
2.6318 -6.3207 0.2012
2.9071 -6.3313 0.2129
3.1456 -6.2490 0.2218
3.3375 -6.0766 0.2275
3.6363 -6.0916 0.2404
3.8843 -6.0061 0.2498
4.1367 -5.9190 0.2594
4.3238 -5.7363 0.2650
4.6507 -5.7298 0.2790
4.9210 -5.6365 0.2895
5.1568 -5.4951 0.2978
5.4959 -5.4501 0.3120
5.7942 -5.3472 0.3238
6.1044 -5.2402 0.3360
6.3248 -5.0464 0.3432
6.7555 -5.0037 0.3617
7.1111 -4.8814 0.3760
7.5046 -4.7642 0.3920
7.5613 -4.4273 0.3904
7.4098 -3.9883 0.3784
7.2698 -3.5822 0.3674
7.1395 -3.2045 0.3572
7.0177 -2.8515 0.3477
7.0038 -2.5567 0.3438
7.3991 -2.4033 0.3599
7.8601 -2.2443 0.3789
8.1924 -2.0238 0.3916
8.9639 -1.8754 0.4249
9.5869 -1.6486 0.4508
10.1017 -1.3655 0.4713
10.9312 -1.0793 0.5061
12.0239 -0.7522 0.5525
13.1895 -0.3501 0.6015
13.2698 0.1248 0.6008
16.5413 0.7505 0.7435
18.1144 1.4755 0.8085
18.0400 2.1242 0.7995
18.4436 2.8469 0.8117
20.8560 3.9911 0.9115
21.9711 5.0288 0.9536
25.3511 6.7694 1.0927
38.8582 11.8869 1.6634
46.2379 15.9819 1.9656
50.5053 19.5143 2.1320
50.8618 21.7823 2.1320
51.2710 24.1719 2.1340
53.4368 27.5803 2.2081
54.5360 30.6760 2.2370
54.9462 33.5589 2.2370
55.3696 36.6099 2.2370
53.2361 38.0145 2.1340
53.6714 41.3128 2.1340
54.7114 45.3318 2.1570
55.1938 49.1773 2.1570
42.1690 40.3787 1.6330
16.3079 16.7782 0.6254
40.6831 44.9787 1.5444
28.1553 33.4677 1.0572
24.6457 31.5263 0.9147
21.9331 30.2322 0.8038
19.1422 28.4819 0.6920
18.0618 29.0760 0.6431
17.6246 30.7837 0.6170
16.9127 32.1640 0.5809
15.9844 33.2417 0.5372
14.8645 33.9827 0.4871
12.6377 31.9688 0.4019
13.0519 36.8290 0.4001
11.8676 37.7347 0.3475
11.2146 40.7060 0.3092
9.1017 38.3605 0.2311
9.0460 45.3031 0.2032
7.3734 45.3409 0.1350
5.6632 44.9466 0.0671
3.9757 44.3207 0.0013
2.3566 43.9339 -0.0623
0.7719 43.5682 -0.1243
-0.7974 43.9010 -0.1878
-2.3327 43.1261 -0.2457
-3.8165 42.3310 -0.3012
-5.2557 41.5599 -0.3547
-6.6558 40.8097 -0.4065
-8.2599 41.2660 -0.4702
-11.0017 46.2710 -0.5943
-16.9131 61.2742 -0.8768
-18.9707 60.2162 -0.9512
-22.6110 63.6999 -1.1027
-26.1651 66.0885 -1.2461
-52.3033 72.0010 -2.2377
-45.7945 58.5034 -1.9379
-41.0091 48.6830 -1.7176
-41.5185 45.8414 -1.7218
-43.5772 44.7731 -1.7902
-45.5816 43.5861 -1.8556
-47.6794 42.4217 -1.9240
-31.5909 26.1368 -1.2639
-55.6375 42.7615 -2.2074
-61.4058 43.7794 -2.4163
-44.2002 29.1769 -1.7252
-62.6004 38.1680 -2.4240
-65.3050 36.6668 -2.5087
-38.2765 19.7177 -1.4588
-43.0421 20.2509 -1.6276
-43.6255 18.6424 -1.6367
-90.3582 34.8301 -3.3632
-31.8907 10.9943 -1.1776
-50.0824 15.2767 -1.8345
-50.5487 13.4546 -1.8366
-49.8611 11.3708 -1.7967
-96.1598 18.3229 -3.4360
-64.2181 9.8609 -2.2751
-46.2797 5.4132 -1.6253
-61.7996 4.9866 -2.1510
-37.0013 1.6510 -1.2761
-45.1320 0.3912 -1.5418
-45.1414 -1.2307 -1.5271
-15.0876 -0.9545 -0.5053
-70.0280 -6.9624 -2.3208
-46.6122 -6.3320 -1.5281
-32.2265 -5.5629 -1.0446
-56.4739 -11.8512 -1.8089
-75.8563 -18.7858 -2.3998
-69.4375 -19.8678 -2.1683
-32.7225 -10.6478 -1.0079
-68.5870 -25.0751 -2.0822
-84.0080 -53.3643 -2.2854
-58.4358 -40.1342 -1.5527
-52.7835 -39.1123 -1.3668
-51.9676 -41.4774 -1.3082
-22.9334 -19.6919 -0.5596
-20.1768 -18.6235 -0.4755
-18.1947 -18.0453 -0.4124
-5.0881 -5.4220 -0.1104
-11.8773 -13.6036 -0.2450
-10.7342 -13.2234 -0.2089
-9.5804 -12.7079 -0.1741
-8.7084 -12.4569 -0.1458
-7.8310 -12.1044 -0.1186
-7.1029 -11.8938 -0.0947
-6.3747 -11.6004 -0.0720
-5.7966 -11.5081 -0.0519
-5.1687 -11.2486 -0.0322
-3.5771 -8.5836 -0.0108
-3.1612 -8.4247 0.0026
-2.7764 -8.2920 0.0152
-2.3829 -8.0667 0.0269
-2.0697 -8.0601 0.0388
-1.7392 -7.9460 0.0498
-1.3999 -7.7103 0.0594
-1.1173 -7.7196 0.0705
-0.8249 -7.6188 0.0804
-0.5344 -7.4119 0.0888
-0.2687 -7.4387 0.0996
-0.0082 -7.3489 0.2744
0.2525 -7.2589 0.2815
0.4994 -7.0558 0.2841
0.7565 -7.0732 0.2956
0.9879 -6.8880 0.2987
1.2430 -6.8955 0.3103
1.4731 -6.7703 0.3161
1.7090 -6.6889 0.3241
1.9436 -6.6080 0.3322
2.1774 -6.5273 0.3406
2.4110 -6.4467 0.3492
2.6270 -6.3224 0.3556
2.9023 -6.3330 0.3700
3.1409 -6.2506 0.3796
3.3331 -6.0785 0.3838
3.6317 -6.0932 0.4004
3.8798 -6.0076 0.4111
4.1324 -5.9205 0.4223
4.3198 -5.7381 0.4270
4.6465 -5.7312 0.4455
4.9169 -5.6379 0.4583
5.1599 -5.5040 0.4685
5.4919 -5.4515 0.4867
5.7904 -5.3485 0.5017
6.1006 -5.2415 0.5175
6.3217 -5.0479 0.5259
6.7520 -5.0049 0.5515
6.9922 -4.8033 0.5614
7.3271 -4.6547 0.5789
7.5625 -4.4308 0.5886
7.4108 -3.9911 0.5687
7.2705 -3.5844 0.5506
7.1401 -3.2063 0.5341
7.0182 -2.8529 0.5189
7.0026 -2.5571 0.5122
7.3981 -2.4037 0.5356
7.6889 -2.1958 0.5514
8.0784 -1.9957 0.5742
8.5860 -1.7962 0.6052
9.2939 -1.5977 0.6501
10.3234 -1.3945 0.7170
11.1730 -1.1019 0.7709
12.0284 -0.7507 0.8250
13.1960 -0.3478 0.9001
14.7778 0.1421 1.0029
16.5550 0.7552 1.1185
18.1126 1.4805 1.2189
18.2115 2.1502 1.2213
18.4485 2.8541 1.2336
20.8520 3.9984 1.3909
20.4285 4.6844 1.3600
21.5599 5.7670 1.4334
32.8491 10.0652 2.1820
32.8585 11.3753 2.1820
32.1247 12.4315 2.1340
32.0958 13.7661 2.1340
32.0465 15.1308 2.1340
33.5208 17.3263 2.2370
33.4238 18.8278 2.2370
33.3020 20.3690 2.2370
33.1544 21.9532 2.2370
32.9791 23.5838 2.2370
32.7746 25.2649 2.2370
31.0369 25.7543 2.1338
30.4088 27.1350 2.1081
24.6331 23.6236 1.7240
16.2983 16.7947 1.1531
28.6450 31.7206 2.0516
28.0680 33.4194 2.0385
22.5049 28.8372 1.6604
21.6185 29.8518 1.6236
19.0858 28.4508 1.4626
16.9260 27.3005 1.3270
14.9819 26.2214 1.2055
13.2553 25.2630 1.0986
11.7079 24.4041 1.0037
10.3098 23.6280 0.9190
9.0372 22.9216 0.8428
13.0289 36.8707 1.2808
11.8434 37.7784 1.2390
11.1877 40.7542 1.2608
10.0979 42.7338 1.2458
9.0142 45.3606 1.2444
7.3284 45.3262 1.1683
5.6198 44.9334 1.0862
3.9555 44.5504 1.0079
2.3296 44.1761 0.9330
0.7368 43.8095 0.8611
-0.8370 43.9275 0.8009
-2.3916 43.5042 0.7327
-3.8875 42.7027 0.6612
-5.3385 41.9252 0.5933
-6.7503 41.1688 0.5288
-8.3387 41.4796 0.4795
-11.1317 46.6473 0.4801
-16.9892 61.3569 0.5548
-19.0262 60.2262 0.4700
-22.0693 62.0219 0.4078
-27.5459 69.4231 0.3718
-52.8819 78.4762 -0.1560
-36.8270 50.6323 -0.1645
-48.3278 61.6665 -0.2793
-40.9209 48.5240 -0.2833
-40.5529 44.7282 -0.3211
-42.5121 43.6354 -0.3735
-44.5133 42.5246 -0.4247
-46.5596 41.3888 -0.4748
-50.8303 42.0194 -0.5474
-55.7255 42.7954 -0.6274
-61.3760 43.7257 -0.7168
-44.2069 29.1610 -0.5320
-62.6217 38.1562 -0.7722
-65.3247 36.6558 -0.8214
-84.2616 39.6244 -1.0879
-86.5248 36.9579 -1.1259
-90.3724 34.8222 -1.1812
-31.8962 10.9928 -0.4175
-90.8248 27.6982 -1.1871
-88.5283 23.5609 -1.1521
-89.2695 20.3581 -1.1534
-93.7553 17.8682 -1.1994
-50.7749 7.8003 -0.6413
-37.0603 1.6598 -0.4419
-15.0825 -0.9501 -0.1646
-45.0436 -7.7589 -0.4302
-32.7271 -10.6322 -0.2328
-86.1087 -31.4320 -0.5491
-84.0461 -53.3114 -0.0446
-58.4430 -40.0810 0.0433
-30.2212 -22.3610 0.0642
-51.9842 -41.4295 0.1885
-22.9909 -19.7117 0.1211
-20.4089 -18.8091 0.1441
-18.2248 -18.0470 0.1645
-5.0963 -5.4221 0.0570
-11.8828 -13.5876 0.1614
-10.7593 -13.2320 0.1747
-9.6031 -12.7158 0.1843
-8.7292 -12.4641 0.1965
-7.8501 -12.1110 0.2061
-7.1169 -11.8937 0.2171
-6.3917 -11.6071 0.2261
-5.8122 -11.5135 0.2383
-5.1740 -11.2334 0.2462
-3.5880 -8.5879 0.1987
-3.1713 -8.4282 0.2052
-2.7860 -8.2953 0.2122
-2.3872 -8.0541 0.2159
-2.0784 -8.0630 0.2262
-1.7475 -7.9489 0.2330
-1.4078 -7.7135 0.2360
-1.1248 -7.7222 0.2462
-0.8322 -7.6213 0.2531
-0.5414 -7.4148 0.2562
-0.2755 -7.4411 0.2673
-0.0148 -7.3512 0.4403
0.2461 -7.2612 0.4455
0.4933 -7.0584 0.4438
0.7505 -7.0752 0.4562
0.9821 -6.8900 0.4559
1.2305 -6.8592 0.4660
1.4676 -6.7722 0.4726
1.7037 -6.6908 0.4800
1.9383 -6.6098 0.4878
2.1723 -6.5291 0.4960
2.4060 -6.4485 0.5047
2.6221 -6.3240 0.5103
2.8975 -6.3346 0.5274
3.1362 -6.2523 0.5377
3.3287 -6.0805 0.5406
3.6272 -6.0948 0.5607
3.8591 -5.9839 0.5704
4.0212 -5.7688 0.5704
4.2797 -5.6918 0.5845
4.5461 -5.6139 0.5996
4.8110 -5.5225 0.6144
5.0839 -5.4285 0.6302
5.3377 -5.3035 0.6436
5.6410 -5.2153 0.6629
5.9582 -5.1235 0.6836
6.4102 -5.1228 0.7193
6.7485 -5.0061 0.7417
7.1039 -4.8835 0.7658
7.4977 -4.7663 0.7938
7.5637 -4.4343 0.7874
7.4118 -3.9939 0.7596
7.2713 -3.5867 0.7345
7.1407 -3.2081 0.7116
7.0186 -2.8543 0.6907
6.9058 -2.5226 0.6717
7.3971 -2.4040 0.7118
7.8589 -2.2447 0.7488
8.3708 -2.0681 0.7904
8.9431 -1.8707 0.8375
9.5889 -1.6479 0.8913
10.3252 -1.3939 0.9533
11.1764 -1.1009 1.0257
12.0329 -0.7491 1.0985
13.2026 -0.3456 1.1998
14.7873 0.1454 1.3387
16.9189 0.7760 1.5269
18.1108 1.4854 1.6306
18.2122 2.1560 1.6369
18.4533 2.8613 1.6570
20.8480 4.0056 1.8716
20.4630 4.7010 1.8380
21.5928 5.7858 1.9419
23.6788 7.2673 2.1340
23.6108 8.1868 2.1340
23.5231 9.1169 2.1340
20.8064 8.9374 1.8962
24.4115 11.5429 2.2370
24.2541 12.5549 2.2370
24.0733 13.5803 2.2370
23.8682 14.6200 2.2370
23.6380 15.6746 2.2370
23.3814 16.7448 2.2370
23.0976 17.8314 2.2370
22.7851 18.9352 2.2370
21.4068 19.1311 2.1338
21.0503 20.2188 2.1338
16.2344 16.7552 1.6765
20.2416 22.4512 2.1338
19.7698 23.5783 2.1320
19.2781 24.7450 2.1320
18.7477 25.9338 2.1320
15.9457 23.8142 1.8704
16.8760 27.2727 2.0487
14.9371 26.1965 1.8842
13.2149 25.2406 1.7398
11.6713 24.3837 1.6122
10.2763 23.6094 1.4986
9.0064 22.9045 1.3968
7.8426 22.2585 1.3050
6.7694 21.6628 1.2219
5.7743 21.1104 1.1463
4.8467 20.5956 1.0771
3.9778 20.1132 1.0137
3.1601 19.6593 0.9553
2.3873 19.2304 0.9014
1.6528 18.8097 0.8509
1.8325 35.3568 1.5442
0.6933 43.5488 1.8371
-0.8757 43.9067 1.7896
-2.4290 43.4842 1.7133
-3.9233 42.6835 1.6262
-5.3728 41.9068 1.5445
-6.7833 41.1511 1.4678
-8.3963 41.5862 1.4361
-11.2045 46.7819 1.5648
-14.0602 50.6201 1.6407
-18.6549 58.8887 1.8505
-22.0660 61.8610 1.8857
-21.4659 53.9811 1.5971
-32.6571 74.2553 2.1338
-32.8786 68.0315 1.9002
-43.4968 82.3323 2.2370
-48.6240 84.5529 2.2370
-51.6148 82.7419 2.1340
-52.9339 78.4473 1.9747
-36.8602 50.6138 1.2453
-45.5507 58.0541 1.3983
-28.1196 33.3070 0.7869
-25.1617 27.7231 0.6439
-42.5395 43.6202 0.9984
-11.7737 11.2372 0.2542
-34.2748 30.4413 0.6828
-35.9212 29.6699 0.6624
-55.7448 42.7765 0.9548
-61.3463 43.6722 0.9794
-44.2162 29.1468 0.6607
-62.6430 38.1444 0.8793
-65.3445 36.6448 0.8656
-46.4419 23.8975 0.5834
-48.2555 22.6810 0.5778
-86.8114 37.0638 0.9963
-12.3624 4.7616 0.1368
-12.4791 4.2995 0.1339
-90.8206 27.6907 0.9513
-60.3979 16.0724 0.6216
-89.3799 20.3836 0.9098
-93.7854 17.8774 0.9504
-50.7576 7.8012 0.5155
-77.5860 6.2814 0.8065
-37.0509 1.6656 0.3932
-32.7963 -0.8789 0.3686
-26.6616 -3.6041 0.3380
-30.2773 -5.2043 0.4026
-37.2276 -9.1866 0.5497
-42.4130 -12.0946 0.6624
-32.7382 -10.6187 0.5421
-59.7270 -21.7681 1.0506
-75.5510 -30.6458 1.4142
-39.8122 -25.2168 1.0399
-58.4489 -40.0269 1.6382
-30.2340 -22.3379 0.9105
-52.0007 -41.3815 1.6847
-23.0253 -19.7117 0.8036
-20.4627 -18.8300 0.7704
-18.2320 -18.0261 0.7417
-5.1046 -5.4223 0.2248
-11.8883 -13.5717 0.5676
-10.7846 -13.2407 0.5595
-9.6259 -12.7238 0.5438
-8.7501 -12.4713 0.5398
-7.8692 -12.1176 0.5317
-7.1221 -11.8787 0.5289
-6.4087 -11.6137 0.5251
-5.8278 -11.5189 0.5293
-5.1867 -11.2344 0.5250
-3.5990 -8.5922 0.4087
-3.1814 -8.4317 0.4084
-2.7955 -8.2986 0.4096
-2.3954 -8.0547 0.4054
-2.0870 -8.0660 0.4141
-1.7558 -7.9518 0.4167
-1.4157 -7.7167 0.4129
-1.1324 -7.7248 0.4224
-0.8396 -7.6238 0.4261
-0.5484 -7.4177 0.4240
-0.2823 -7.4434 0.4354
-0.0208 -7.1436 0.5894
0.2329 -7.0561 0.5926
0.4839 -7.0116 0.5999
0.7291 -6.9308 0.6046
0.9701 -6.8476 0.6096
1.2180 -6.8231 0.6204
1.4621 -6.7741 0.6296
1.6983 -6.6926 0.6364
1.9331 -6.6116 0.6439
2.1671 -6.5309 0.6520
2.4010 -6.4502 0.6607
2.6004 -6.2850 0.6612
2.6800 -5.8705 0.6350
3.0666 -6.1244 0.6819
3.3726 -6.1707 0.7079
3.6168 -6.0865 0.7204
3.8646 -6.0010 0.7338
4.1169 -5.9139 0.7481
4.3745 -5.8251 0.7634
4.6381 -5.7341 0.7797
4.9087 -5.6408 0.7972
5.1873 -5.5447 0.8159
5.4751 -5.4454 0.8360
5.7733 -5.3425 0.8575
6.0832 -5.2356 0.8807
6.4065 -5.1241 0.9056
6.7449 -5.0073 0.9325
7.1004 -4.8847 0.9616
7.4943 -4.7673 0.9956
7.5649 -4.4378 0.9872
7.4128 -3.9968 0.9514
7.2721 -3.5890 0.9192
7.1413 -3.2099 0.8899
7.0191 -2.8556 0.8632
7.0003 -2.5581 0.8506
7.3961 -2.4044 0.8888
7.8583 -2.2449 0.9348
8.3706 -2.0682 0.9867
8.9434 -1.8706 1.0455
9.5899 -1.6476 1.1128
10.3271 -1.3932 1.1906
11.1799 -1.0999 1.2817
11.8996 -0.7390 1.3577
12.1610 -0.3161 1.3820
14.9746 0.1505 1.6964
16.9330 0.7809 1.9139
18.1090 1.4904 2.0438
18.1168 2.1505 2.0434
18.4543 2.8679 2.0819
19.3207 3.7197 2.1820
18.8578 4.3403 2.1340
18.8040 5.0473 2.1340
18.7330 5.7589 2.1340
18.6446 6.4751 2.1340
18.5384 7.1960 2.1340
18.4730 7.9471 2.1408
19.1535 9.0701 2.2370
18.9835 9.8410 2.2370
18.7929 10.6170 2.2370
18.5813 11.3982 2.2370
18.3480 12.1845 2.2370
18.0924 12.9760 2.2370
17.8138 13.7727 2.2370
17.5116 14.5745 2.2370
17.1849 15.3813 2.2370
16.8330 16.1931 2.2370
15.6956 16.2247 2.1338
15.3093 17.0081 2.1338
14.8966 17.7960 2.1338
14.4563 18.5879 2.1338
13.3959 18.5638 2.0435
13.4781 20.1665 2.1320
12.9496 20.9684 2.1320
12.3895 21.7732 2.1320
11.1046 21.2560 2.0070
11.1695 23.3894 2.1320
10.2428 23.5908 2.0784
8.9756 22.8874 1.9511
6.9114 19.6731 1.6244
6.7430 21.6482 1.7331
5.7497 21.0968 1.6393
4.8237 20.5828 1.5538
3.9562 20.1012 1.4756
3.1397 19.6481 1.4040
2.3681 19.2197 1.3380
1.6358 18.8133 1.2773
0.9382 18.4260 1.2211
0.2712 18.0558 1.1692
-0.3688 17.7005 1.1210
-0.9893 17.4337 1.0809
-3.2945 35.5022 2.1570
-4.6716 36.1897 2.1570
-5.9515 35.9149 2.1023
-7.4216 36.6005 2.1063
-8.9644 37.2936 2.1125
-10.5830 37.9826 2.1204
-12.2763 38.6470 2.1290
-14.0183 39.2038 2.1340
-15.7894 39.6191 2.1340
-17.6174 39.9782 2.1340
-20.4424 42.2218 2.2370
-22.4718 42.4639 2.2370
-24.5533 42.6297 2.2370
-26.6832 42.7131 2.2370
-28.8568 42.7077 2.2370
-31.0684 42.6071 2.2370
-33.3118 42.4052 2.2370
-27.7896 32.8794 1.7473
-24.6203 27.0980 1.4546
-31.3180 32.0818 1.7449
-11.8241 11.2747 0.6233
-34.2929 30.4305 1.7160
-35.8354 29.5743 1.7075
-37.4220 28.6936 1.7033
-16.5134 11.7471 0.7202
-15.3480 10.1102 0.6433
-42.5110 25.8689 1.7178
-44.3427 24.8521 1.7327
-13.5358 6.9612 0.5130
-48.2659 22.6745 1.7794
-50.3810 21.5004 1.8124
-12.3570 4.7578 0.4351
-12.4853 4.3003 0.4315
-57.5247 17.5350 1.9575
-60.2393 16.0282 2.0245
-14.3774 3.2789 0.4786
-63.3961 12.0870 2.0966
-16.2658 2.5011 0.5360
-61.1366 7.1699 2.0132
-17.9740 1.4576 0.5932
-37.0178 1.6703 1.2277
-19.9161 0.1845 0.6657
-21.4239 -0.5692 0.7237
-23.2221 -1.4507 0.7948
-24.9501 -2.4584 0.8675
-26.7466 -3.6068 0.9472
-29.8684 -5.1230 1.0800
-33.0732 -6.9005 1.2240
-37.1674 -9.1553 1.4112
-41.5645 -11.8326 1.6229
-32.7494 -10.6052 1.3178
-51.3362 -18.6808 2.1338
-49.5927 -20.0859 2.1338
-50.1200 -22.4213 2.2370
-48.2139 -23.6763 2.2370
-46.2836 -24.8243 2.2370
-44.3390 -25.8678 2.2370
-39.8272 -25.1898 2.1019
-38.5754 -26.3788 2.1340
-27.6894 -20.4280 1.6091
-35.6725 -28.3458 2.1820
-23.2886 -19.9073 1.5029
-20.1768 -18.5387 1.3768
-18.2361 -18.0022 1.3190
-5.1128 -5.4224 0.3930
-11.9638 -13.6357 0.9797
-10.6476 -13.0506 0.9316
-9.6450 -12.7268 0.9044
-8.7711 -12.4786 0.8845
-7.8854 -12.1195 0.8582
-7.1131 -11.8403 0.8391
-6.4975 -11.7499 0.8345
-5.8435 -11.5243 0.8214
-5.2017 -11.2403 0.8051
-3.5270 -8.3991 0.6053
-3.1254 -8.2606 0.5997
-2.7471 -8.1300 0.5952
-2.3738 -7.9554 0.5879
-2.0359 -7.8388 0.5855
-1.7138 -7.7276 0.5838
-1.4125 -7.6597 0.5859
-1.1165 -7.5674 0.5867
-0.8294 -7.4684 0.5873
-0.5507 -7.3577 0.5875
-0.2809 -7.2333 0.5868
-0.0280 -7.3438 0.7727
0.2329 -7.2538 0.7740
0.4881 -7.1658 0.7762
0.7388 -7.0827 0.7796
0.9732 -6.9125 0.7739
1.2133 -6.8305 0.7787
1.4566 -6.7760 0.7873
1.6929 -6.6945 0.7936
1.9279 -6.6134 0.8007
2.1620 -6.5326 0.8086
2.3960 -6.4519 0.8174
2.6235 -6.3544 0.8249
2.6189 -5.7479 0.7654
3.1293 -6.2608 0.8563
3.3680 -6.1723 0.8681
3.6122 -6.0880 0.8817
3.8602 -6.0025 0.8964
4.1125 -5.9154 0.9123
4.3701 -5.8266 0.9294
4.6338 -5.7356 0.9478
4.9045 -5.6422 0.9677
5.1833 -5.5461 0.9890
5.4711 -5.4468 1.0121
5.7694 -5.3439 1.0369
6.0794 -5.2369 1.0638
6.4028 -5.1253 1.0928
6.7413 -5.0086 1.1242
7.0970 -4.8859 1.1583
7.4908 -4.7683 1.1984
7.5661 -4.4413 1.1881
7.4138 -3.9997 1.1443
7.2729 -3.5914 1.1049
7.1420 -3.2118 1.0691
7.0196 -2.8570 1.0367
6.9991 -2.5585 1.0209
7.3951 -2.4047 1.0666
7.8576 -2.2452 1.1217
8.3704 -2.0683 1.1839
8.9438 -1.8705 1.2546
9.5909 -1.6472 1.3356
10.5473 -1.4220 1.4595
11.1833 -1.0988 1.5391
11.4552 -0.7096 1.5695
11.6399 -0.3004 1.5891
12.8559 0.1320 1.7504
16.0538 0.7444 2.1820
16.0673 1.3270 2.1820
16.0659 1.9121 2.1820
15.6959 2.4448 2.1340
15.6652 3.0220 2.1340
15.6195 3.6016 2.1340
15.5586 4.1835 2.1340
15.4824 4.7675 2.1340
15.3905 5.3535 2.1340
15.2828 5.9415 2.1340
15.8913 6.8468 2.2370
15.7443 7.4668 2.2370
15.5798 8.0884 2.2370
15.3974 8.7114 2.2370
15.1969 9.3357 2.2370
14.9778 9.9609 2.2370
14.7397 10.5870 2.2370
14.4824 11.2136 2.2370
14.2052 11.8404 2.2370
13.9079 12.4672 2.2370
13.5900 13.0936 2.2370
13.2509 13.7194 2.2370
12.7397 14.1764 2.2109
11.9303 14.2763 2.1338
11.5438 14.8687 2.1338
11.1352 15.4588 2.1338
10.7041 16.0459 2.1338
10.2500 16.6296 2.1338
9.2100 16.2190 2.0110
9.2630 17.7696 2.1320
8.7371 18.3386 2.1320
8.1862 18.9013 2.1320
7.6098 19.4571 2.1320
7.0073 20.0050 2.1320
6.3783 20.5439 2.1320
5.7223 21.0730 2.1320
4.8007 20.5700 2.0312
3.9345 20.0892 1.9383
2.7340 17.2108 1.6244
2.3489 19.2091 1.7755
1.6176 18.8032 1.7038
0.9209 18.4165 1.6379
0.2548 18.0467 1.5771
-0.3845 17.6918 1.5209
-1.0066 17.4649 1.4787
-2.4205 25.8384 2.1570
-3.4015 26.1724 2.1570
-4.2937 25.7744 2.0998
-5.1842 25.4566 2.0526
-3.5326 14.6431 1.1701
-7.5202 26.9057 2.1338
-8.6232 27.0721 2.1338
-9.7495 27.1990 2.1338
-10.8975 27.2840 2.1338
-12.6492 28.6469 2.2370
-13.8924 28.6409 2.2370
-15.1518 28.5835 2.2370
-16.4249 28.4725 2.2370
-17.7084 28.3055 2.2370
-18.9992 28.0805 2.2370
-20.2937 27.7954 2.2370
-20.5928 26.1831 2.1339
-21.8226 25.7906 2.1339
-23.0437 25.3361 2.1338
-22.0430 22.5581 1.9394
-11.8313 11.2710 0.9923
-27.6498 24.5138 2.2170
-28.8355 23.7774 2.2170
-29.9867 22.9744 2.2170
-16.5299 11.7501 1.1785
-15.3502 10.1046 1.0580
-31.7888 19.3316 2.1239
-14.2323 7.9718 0.9242
-13.5328 6.9558 0.8561
-35.1658 16.5120 2.1730
-36.2436 15.4603 2.1928
-12.3551 4.7552 0.7337
-12.4876 4.2998 0.7296
-13.3128 4.0571 0.7671
-35.5392 9.4550 2.0242
-14.3769 3.2788 0.8113
-38.5081 7.3433 2.1581
-16.1770 2.4886 0.9024
-38.8297 4.5578 2.1608
-17.9754 1.4601 1.0002
-19.0836 0.8643 1.0640
-19.9088 0.1884 1.1147
-21.4266 -0.5643 1.2074
-23.2253 -1.4447 1.3200
-24.9541 -2.4514 1.4335
-26.7236 -3.5948 1.5548
-29.2735 -5.0103 1.7287
-32.4035 -6.7477 1.9461
-34.8620 -8.5721 2.1338
-34.1387 -9.7022 2.1338
-32.6563 -10.5579 2.0886
-34.1149 -12.3947 2.2370
-33.2068 -13.4288 2.2370
-32.2584 -14.4093 2.2370
-31.2741 -15.3351 2.2370
-30.2588 -16.2057 2.2370
-29.2168 -17.0206 2.2370
-27.2646 -17.2193 2.1665
-25.8222 -17.6322 2.1340
-24.7756 -18.2515 2.1340
-23.7189 -18.8194 2.1340
-23.1656 -19.7724 2.1820
-19.1114 -17.5330 1.8892
-18.2433 -17.9812 1.8973
-13.3192 -14.1033 1.4612
-11.9920 -13.6454 1.3917
-9.8880 -12.0991 1.2175
-9.6247 -12.6778 1.2614
-8.7922 -12.4858 1.2308
-7.9858 -12.2506 1.1988
-7.2237 -12.0004 1.1677
-6.5143 -11.7557 1.1394
-5.8592 -11.5297 1.1148
