ply
format ascii 1.0
element vertex 2171
property float32 x
property float32 y
property float32 z
end_header
7.9771 10.9891 2.1835
7.5820 11.2745 2.1835
7.1765 11.5454 2.1835
6.6816 11.6625 2.1579
6.1968 11.7766 2.1354
5.7729 11.9965 2.1354
5.3409 12.2007 2.1354
4.9016 12.3889 2.1354
4.4555 12.5608 2.1354
4.0033 12.7163 2.1354
3.5455 12.8549 2.1354
2.8242 11.8882 1.9563
2.6157 13.0812 2.1354
2.2487 13.8042 2.2385
1.7523 13.8774 2.2385
1.2535 13.9322 2.2385
0.7529 13.9686 2.2385
0.2514 13.9865 2.2385
-0.2504 13.9858 2.2385
-0.7519 13.9667 2.2385
-1.2522 13.9290 2.2385
-1.7508 13.8729 2.2385
-2.2468 13.7984 2.2385
-2.7397 13.7057 2.2385
-3.2287 13.5949 2.2385
-3.7131 13.4662 2.2385
-4.1923 13.3198 2.2385
-4.6656 13.1558 2.2385
-5.1324 12.9746 2.2385
-5.5920 12.7764 2.2385
-6.0438 12.5615 2.2385
-6.4872 12.3303 2.2385
-6.9216 12.0830 2.2385
-7.0078 11.2755 2.1354
-7.4033 11.0100 2.1354
-7.7885 10.7305 2.1354
-8.1629 10.4371 2.1354
-8.5261 10.1304 2.1354
-8.8775 9.8107 2.1353
-9.2168 9.4787 2.1353
-9.2982 8.9000 2.0804
-9.2983 8.2817 2.0142
-9.3048 7.7070 1.9561
-9.3048 7.1600 1.9024
-9.3049 6.6425 1.8541
-9.3050 6.1508 1.8105
-9.3050 5.6819 1.7713
-9.3051 5.2331 1.7360
-9.3051 4.8020 1.7044
-9.3052 4.3866 1.6760
-9.3052 3.9850 1.6508
-9.3053 3.5956 1.6285
-9.3053 3.2168 1.6088
-9.3054 2.8473 1.5917
-9.3054 2.4858 1.5770
-9.3055 2.1312 1.5646
-9.3055 1.7823 1.5544
-9.3055 1.4382 1.5464
-9.3056 1.0979 1.5405
-9.3056 0.7605 1.5365
-9.3057 0.4250 1.5346
-9.3057 0.0906 1.5347
-9.3057 -0.2436 1.5367
-9.3058 -0.5784 1.5407
-9.3058 -0.9148 1.5467
-9.3058 -1.2535 1.5548
-9.3059 -1.5955 1.5649
-9.3059 -1.9418 1.5772
-9.3059 -2.2933 1.5917
-9.3060 -2.6511 1.6086
-9.3060 -3.0164 1.6278
-9.3060 -3.3902 1.6496
-9.3061 -3.7740 1.6741
-9.3061 -4.1691 1.7016
-9.3061 -4.5772 1.7321
-9.3062 -5.0000 1.7659
-9.3062 -5.4394 1.8034
-9.3062 -5.8978 1.8449
-9.3063 -6.3774 1.8906
-9.3063 -6.8814 1.9412
-9.3064 -7.4128 1.9970
-9.3064 -7.9756 2.0587
-9.3064 -8.5742 2.1271
-9.0209 -8.9310 2.1353
-8.6885 -9.2430 2.1353
-8.3455 -9.5430 2.1353
-7.9925 -9.8306 2.1353
-7.6297 -10.1054 2.1353
-7.2578 -10.3672 2.1353
-6.8772 -10.6156 2.1353
-6.4882 -10.8505 2.1353
-6.0915 -11.0714 2.1353
-5.7170 -11.3370 2.1464
-5.5317 -12.0254 2.2385
-5.0943 -12.2120 2.2385
-4.6508 -12.3830 2.2385
-4.2017 -12.5384 2.2385
-3.7476 -12.6780 2.2385
-3.2891 -12.8016 2.2385
-2.8265 -12.9091 2.2385
-2.3606 -13.0003 2.2385
-1.8918 -13.0752 2.2385
-1.4208 -13.1337 2.2385
-0.9480 -13.1756 2.2385
-0.4741 -13.2011 2.2385
0.0005 -11.6156 2.2385
0.4178 -11.6087 2.2385
0.8347 -11.5872 2.2385
1.2506 -11.5512 2.2385
1.6650 -11.5005 2.2385
2.0775 -11.4353 2.2385
2.3730 -10.8328 2.1354
2.7613 -10.7432 2.1354
3.1463 -10.6400 2.1354
3.5276 -10.5233 2.1354
3.9047 -10.3932 2.1354
4.2771 -10.2500 2.1354
4.6444 -10.0937 2.1354
5.0061 -9.9245 2.1354
5.3618 -9.7427 2.1354
5.7111 -9.5483 2.1354
6.0535 -9.3417 2.1354
6.5324 -9.3286 2.1835
6.8567 -9.0793 2.1802
6.9441 -8.5390 2.1079
6.3248 -7.2305 1.8387
6.5251 -6.9399 1.8221
6.6533 -6.5853 1.7894
6.7226 -6.1921 1.7459
6.7889 -5.8166 1.7066
6.8524 -5.4567 1.6710
7.4846 -5.5328 1.7742
7.5329 -5.1607 1.7392
7.6835 -4.8680 1.7312
7.7441 -4.5251 1.7057
7.8030 -4.1911 1.6831
7.7680 -3.8195 1.6435
7.8237 -3.5039 1.6263
7.8784 -3.1939 1.6114
8.0267 -2.9230 1.6178
8.0805 -2.6181 1.6073
2.8181 -0.8025 0.5540
8.1867 -2.0165 1.5926
8.1423 -1.6980 1.5697
2.5376 -0.4348 0.4854
8.2481 -1.1101 1.5678
8.3131 -0.8162 1.5722
6.2273 -0.3864 1.1733
6.2537 -0.1630 1.1753
6.2835 0.0618 1.1795
6.3235 0.2894 1.1871
6.3643 0.5207 1.1964
6.4059 0.7564 1.2075
6.4484 0.9973 1.2203
6.4919 1.2440 1.2351
6.5367 1.4977 1.2520
6.5828 1.7591 1.2710
6.6305 2.0294 1.2923
6.6800 2.3098 1.3161
6.7315 2.6016 1.3427
6.7852 2.9064 1.3722
6.8416 3.2257 1.4049
6.9009 3.5618 1.4413
7.0092 3.9424 1.4913
7.0444 4.3020 1.5295
6.7835 4.4845 1.5057
6.6572 4.7528 1.5135
6.7328 5.1813 1.5708
6.7130 5.5606 1.6106
6.6439 5.9179 1.6428
6.7930 6.5025 1.7352
7.6643 7.8825 2.0274
7.8092 8.6304 2.1450
7.6335 9.0701 2.1835
7.3073 9.3433 2.1835
6.9711 9.6044 2.1835
6.6254 9.8532 2.1835
6.1325 9.8670 2.1354
5.7772 10.0850 2.1354
5.4140 10.2900 2.1354
5.0433 10.4815 2.1354
4.6657 10.6594 2.1354
4.2818 10.8233 2.1354
3.8919 10.9731 2.1354
3.4968 11.1085 2.1354
3.0968 11.2292 2.1354
2.6926 11.3352 2.1354
2.3292 11.6491 2.1771
1.9640 12.0576 2.2385
1.5304 12.1214 2.2385
1.0948 12.1692 2.2385
0.6576 12.2009 2.2385
0.2196 12.2166 2.2385
-0.2187 12.2161 2.2385
-0.6566 12.1994 2.2385
-1.0936 12.1667 2.2385
-1.5291 12.1180 2.2385
-1.9624 12.0532 2.2385
-2.3929 11.9726 2.2385
-2.8201 11.8762 2.2385
-3.2434 11.7642 2.2385
-3.6621 11.6368 2.2385
-4.0758 11.4941 2.2385
-4.4838 11.3364 2.2385
-4.8856 11.1639 2.2385
-5.2806 10.9768 2.2385
-5.6684 10.7754 2.2385
-6.0483 10.5600 2.2385
-6.1243 9.8552 2.1354
-6.4704 9.6240 2.1354
-6.8075 9.3803 2.1354
-7.1354 9.1246 2.1354
-7.4535 8.8572 2.1354
-7.7614 8.5786 2.1354
-8.0588 8.2891 2.1354
-8.3452 7.9892 2.1353
-8.6203 7.6792 2.1353
-8.8838 7.3596 2.1353
-9.1353 7.0308 2.1353
-9.3048 6.6437 2.1194
-9.3049 6.1520 2.0694
-9.3049 5.6830 2.0244
-9.3050 5.2342 1.9838
-9.3051 4.8031 1.9474
-9.3051 4.3877 1.9149
-9.3052 3.9861 1.8858
-9.3052 3.5967 1.8600
-9.3053 3.2179 1.8374
-9.3053 2.8484 1.8176
-9.3054 2.4868 1.8006
-9.3054 2.1322 1.7863
-9.3054 1.7834 1.7744
-9.3055 1.4392 1.7650
-9.3055 1.0989 1.7580
-9.3056 0.7615 1.7533
-9.3056 0.4260 1.7509
-9.3056 0.0916 1.7508
-9.3057 -0.2426 1.7529
-9.3057 -0.5774 1.7572
-9.3057 -0.9138 1.7639
-9.3058 -1.2525 1.7729
-9.3058 -1.5945 1.7842
-9.3058 -1.9408 1.7980
-9.3059 -2.2923 1.8143
-9.3059 -2.6501 1.8333
-9.3059 -3.0153 1.8550
-9.3060 -3.3891 1.8797
-9.3060 -3.7729 1.9074
-9.3060 -4.1680 1.9384
-9.3061 -4.5761 1.9730
-9.3061 -4.9989 2.0114
-9.3061 -5.4383 2.0538
-9.3062 -5.8966 2.1008
-9.2308 -6.3245 2.1353
-8.9913 -6.6473 2.1353
-8.7408 -6.9612 2.1353
-8.4795 -7.2658 2.1353
-8.2078 -7.5608 2.1353
-7.9260 -7.8459 2.1353
-7.6346 -8.1207 2.1353
-7.3338 -8.3849 2.1353
-7.0240 -8.6383 2.1353
-6.7057 -8.8804 2.1353
-6.3792 -9.1111 2.1353
-6.0450 -9.3300 2.1353
-5.7182 -9.5617 2.1408
-5.6139 -10.2023 2.2385
-5.2418 -10.3935 2.2385
-4.8633 -10.5714 2.2385
-4.4790 -10.7359 2.2385
-4.0892 -10.8867 2.2385
-3.6945 -11.0237 2.2385
-3.2953 -11.1468 2.2385
-2.8921 -11.2558 2.2385
-2.4855 -11.3505 2.2385
-2.0758 -11.4309 2.2385
-1.6636 -11.4969 2.2385
-1.2494 -11.5485 2.2385
-0.8336 -11.5854 2.2385
-0.4169 -11.6078 2.2385
0.0004 -10.3549 2.2385
0.3725 -10.3487 2.2385
0.7442 -10.3295 2.2385
1.1150 -10.2972 2.2385
1.4845 -10.2519 2.2385
1.8522 -10.1936 2.2385
2.2177 -10.1224 2.2385
2.4617 -9.5761 2.1354
2.8048 -9.4838 2.1354
3.1446 -9.3795 2.1354
3.4806 -9.2633 2.1354
3.8124 -9.1352 2.1354
4.1397 -8.9955 2.1354
4.4619 -8.8444 2.1354
4.7787 -8.6819 2.1354
5.0897 -8.5083 2.1354
5.3945 -8.3237 2.1354
5.6928 -8.1284 2.1354
5.9841 -7.9226 2.1354
6.2681 -7.7066 2.1354
6.1829 -7.0672 2.0175
6.4203 -6.8273 2.0124
6.5099 -6.4424 1.9655
6.5778 -6.0577 1.9178
6.6426 -5.6903 1.8747
6.8260 -5.4347 1.8690
7.4847 -5.5319 1.9923
7.5330 -5.1598 1.9532
7.6837 -4.8671 1.9443
7.7442 -4.5242 1.9159
7.8031 -4.1902 1.8906
7.7682 -3.8186 1.8464
7.8239 -3.5030 1.8271
7.8786 -3.1930 1.8106
8.0269 -2.9222 1.8180
8.0807 -2.6172 1.8063
2.8179 -0.8021 0.6225
8.1868 -2.0156 1.7901
8.1425 -1.6971 1.7645
2.7182 -0.4654 0.5846
8.2483 -1.1092 1.7628
8.3132 -0.8154 1.7678
6.2215 -0.3854 1.3181
6.2538 -0.1624 1.3218
6.2836 0.0625 1.3266
6.3236 0.2901 1.3353
6.3644 0.5214 1.3460
6.4060 0.7571 1.3585
6.4485 0.9980 1.3731
6.4921 1.2448 1.3899
6.5368 1.4984 1.4090
6.5829 1.7599 1.4305
6.6396 2.0329 1.4566
6.6801 2.3106 1.4816
6.7316 2.6024 1.5116
6.7854 2.9072 1.5450
6.8867 3.2478 1.5924
6.9463 3.5861 1.6338
7.0094 3.9433 1.6796
7.0447 4.3030 1.7228
6.7824 4.4847 1.6958
6.4069 4.5749 1.6408
6.5329 5.0283 1.7171
6.6122 5.4781 1.7874
6.5040 5.7942 1.8121
6.5903 6.3094 1.8969
7.3249 7.5345 2.1835
7.0537 7.7966 2.1835
6.7730 8.0487 2.1835
6.3404 8.1080 2.1354
6.0483 8.3341 2.1354
5.7481 8.5495 2.1354
5.4400 8.7538 2.1354
5.1246 8.9468 2.1354
4.8022 9.1282 2.1354
4.4732 9.2977 2.1354
4.1382 9.4551 2.1354
3.7975 9.6001 2.1354
3.4516 9.7326 2.1354
3.1011 9.8524 2.1354
2.7463 9.9593 2.1354
2.3878 10.0531 2.1354
2.1238 10.6229 2.2385
1.7417 10.6934 2.2385
1.3572 10.7499 2.2385
0.9709 10.7922 2.2385
0.5832 10.8203 2.2385
0.1948 10.8342 2.2385
-0.1938 10.8338 2.2385
-0.5822 10.8191 2.2385
-0.9697 10.7902 2.2385
-1.3559 10.7472 2.2385
-1.7402 10.6900 2.2385
-2.1220 10.6187 2.2385
-2.5009 10.5335 2.2385
-2.8764 10.4345 2.2385
-3.2479 10.3218 2.2385
-3.6149 10.1957 2.2385
-3.9769 10.0562 2.2385
-4.3335 9.9036 2.2385
-4.6841 9.7381 2.2385
-5.0283 9.5599 2.2385
-5.3657 9.3694 2.2385
-5.6957 9.1667 2.2385
-5.7440 8.5447 2.1366
-6.0403 8.3243 2.1354
-6.3316 8.0979 2.1354
-6.6144 7.8612 2.1354
-6.8881 7.6145 2.1354
-7.1525 7.3581 2.1354
-7.4073 7.0924 2.1354
-7.6521 6.8178 2.1354
-7.8866 6.5346 2.1354
-8.1105 6.2433 2.1354
-8.3235 5.9442 2.1353
-8.5254 5.6378 2.1353
-8.7160 5.3244 2.1353
-8.8949 5.0046 2.1353
-9.0620 4.6787 2.1353
-9.2170 4.3473 2.1353
-9.3051 3.9872 2.1228
-9.3052 3.5977 2.0936
-9.3052 3.2189 2.0679
-9.3052 2.8494 2.0455
-9.3053 2.4879 2.0261
-9.3053 2.1332 2.0098
-9.3054 1.7844 1.9963
-9.3054 1.4402 1.9855
-9.3055 1.0999 1.9774
-9.3055 0.7625 1.9720
-9.3055 0.4270 1.9691
-9.3056 0.0926 1.9687
-9.3056 -0.2416 1.9709
-9.3056 -0.5764 1.9756
-9.3057 -0.9128 1.9829
-9.3057 -1.2515 1.9928
-9.3057 -1.5935 2.0054
-9.3058 -1.9398 2.0207
-9.3058 -2.2913 2.0388
-9.3058 -2.6491 2.0600
-9.3059 -3.0143 2.0842
-9.3059 -3.3881 2.1117
-9.2739 -3.7588 2.1353
-9.1263 -4.0865 2.1353
-8.9672 -4.4084 2.1353
-8.7970 -4.7243 2.1353
-8.6157 -5.0338 2.1353
-8.4237 -5.3364 2.1353
-8.2213 -5.6318 2.1353
-8.0086 -5.9197 2.1353
-7.7860 -6.1997 2.1353
-7.5538 -6.4715 2.1353
-7.3122 -6.7348 2.1353
-7.0617 -6.9893 2.1353
-6.8024 -7.2346 2.1353
-6.5348 -7.4704 2.1353
-6.2591 -7.6966 2.1353
-5.9758 -7.9128 2.1353
-5.7165 -8.1635 2.1470
-5.6481 -8.7163 2.2385
-5.3292 -8.9102 2.2385
-5.0038 -9.0925 2.2385
-4.6723 -9.2633 2.2385
-4.3351 -9.4222 2.2385
-3.9926 -9.5691 2.2385
-3.6453 -9.7039 2.2385
-3.2935 -9.8263 2.2385
-2.9377 -9.9362 2.2385
-2.5783 -10.0336 2.2385
-2.2158 -10.1182 2.2385
-1.8506 -10.1901 2.2385
-1.4831 -10.2490 2.2385
-1.1139 -10.2951 2.2385
-0.7432 -10.3281 2.2385
-0.3716 -10.3480 2.2385
0.0005 -9.3322 2.2385
0.3358 -9.3266 2.2385
0.6708 -9.3091 2.2385
1.0050 -9.2799 2.2385
1.3380 -9.2390 2.2385
1.6694 -9.1863 2.2385
1.9987 -9.1220 2.2385
2.3257 -9.0461 2.2385
2.5314 -8.5582 2.1385
2.8340 -8.4519 2.1354
3.1367 -8.3469 2.1354
3.4356 -8.2312 2.1354
3.7304 -8.1051 2.1354
4.0206 -7.9686 2.1354
4.3059 -7.8219 2.1354
4.5859 -7.6651 2.1354
4.8604 -7.4985 2.1354
5.1289 -7.3222 2.1354
5.3911 -7.1365 2.1354
5.6467 -6.9415 2.1354
5.8953 -6.7375 2.1354
6.1367 -6.5247 2.1354
6.3647 -6.2976 2.1335
6.4310 -5.9215 2.0819
6.4544 -5.5281 2.0227
6.8276 -5.4350 2.0758
7.3870 -5.4586 2.1835
7.5477 -5.1689 2.1734
7.6043 -4.8158 2.1371
7.6610 -4.4745 2.1051
7.7164 -4.1426 2.0768
7.7708 -3.8189 2.0518
7.8243 -3.5022 2.0300
7.8787 -3.1921 2.0117
7.9326 -2.8869 1.9962
7.9857 -2.5855 1.9836
2.8177 -0.8017 0.6918
8.0906 -1.9910 1.9661
8.1426 -1.6962 1.9612
2.7182 -0.4651 0.6498
8.2485 -1.1083 1.9596
8.3134 -0.8145 1.9654
6.2155 -0.3843 1.4641
6.2539 -0.1617 1.4697
6.2837 0.0632 1.4752
6.3237 0.2908 1.4850
6.3646 0.5221 1.4969
6.4061 0.7578 1.5110
6.4910 1.0053 1.5374
6.5348 1.2537 1.5564
6.5799 1.5090 1.5778
6.6263 1.7722 1.6020
6.6381 2.0332 1.6204
6.6803 2.3114 1.6487
6.7318 2.6033 1.6822
6.7855 2.9080 1.7195
6.9516 3.2792 1.7890
7.0118 3.6207 1.8356
7.0417 3.9624 1.8783
7.0449 4.3040 1.9179
6.7814 4.4848 1.8876
6.3790 4.5558 1.8189
6.2847 4.8381 1.8392
6.4150 5.3155 1.9309
6.4542 5.7507 2.0024
6.3297 6.0608 2.0289
6.5771 6.7663 2.1835
6.1938 6.8471 2.1354
5.9471 7.0681 2.1354
5.6923 7.2801 2.1354
5.4298 7.4828 2.1354
5.1601 7.6758 2.1354
4.8833 7.8589 2.1354
4.6000 8.0318 2.1354
4.3104 8.1943 2.1354
4.0150 8.3462 2.1354
3.7142 8.4872 2.1354
3.4083 8.6172 2.1354
3.0978 8.7359 2.1354
2.7832 8.8432 2.1354
2.4647 8.9389 2.1354
2.2464 9.4585 2.2385
1.9060 9.5342 2.2385
1.5630 9.5974 2.2385
1.2180 9.6480 2.2385
0.8713 9.6859 2.2385
0.5234 9.7111 2.2385
0.1749 9.7236 2.2385
-0.1739 9.7233 2.2385
-0.5224 9.7102 2.2385
-0.8702 9.6844 2.2385
-1.2168 9.6458 2.2385
-1.5616 9.5946 2.2385
-1.9044 9.5308 2.2385
-2.2445 9.4546 2.2385
-2.5815 9.3660 2.2385
-2.9150 9.2651 2.2385
-3.2445 9.1521 2.2385
-3.5695 9.0272 2.2385
-3.8897 8.8905 2.2385
-4.2046 8.7423 2.2385
-4.5138 8.5827 2.2385
-4.8168 8.4120 2.2385
-5.1132 8.2305 2.2385
-5.4028 8.0383 2.2385
-5.6850 7.8357 2.2385
-5.7235 7.3213 2.1499
-5.9393 7.0600 2.1354
-6.1855 6.8388 2.1354
-6.4233 6.6090 2.1354
-6.6525 6.3707 2.1354
-6.8728 6.1245 2.1354
-7.0838 5.8705 2.1354
-7.2854 5.6092 2.1354
-7.4773 5.3409 2.1354
-7.6592 5.0659 2.1354
-7.8309 4.7848 2.1354
-7.9922 4.4978 2.1354
-8.1429 4.2053 2.1354
-8.2829 3.9077 2.1353
-8.4119 3.6055 2.1353
-8.5299 3.2990 2.1353
-8.6366 2.9886 2.1353
-8.7320 2.6748 2.1353
-8.8160 2.3581 2.1353
-8.8884 2.0387 2.1353
-8.9493 1.7171 2.1353
-8.9985 1.3937 2.1353
-9.0360 1.0691 2.1353
-9.0619 0.7435 2.1353
-9.0760 0.4174 2.1353
-9.0784 0.0913 2.1353
-9.0691 -0.2345 2.1353
-9.0482 -0.5595 2.1353
-9.0157 -0.8833 2.1353
-8.9716 -1.2056 2.1353
-8.9161 -1.5258 2.1353
-8.8492 -1.8436 2.1353
-8.7709 -2.1586 2.1353
-8.6817 -2.4704 2.1353
-8.5814 -2.7786 2.1353
-8.4703 -3.0829 2.1353
-8.3485 -3.3828 2.1353
-8.2162 -3.6780 2.1353
-8.0735 -3.9681 2.1353
-7.9207 -4.2528 2.1353
-7.7581 -4.5317 2.1353
-7.5857 -4.8045 2.1353
-7.4038 -5.0709 2.1353
-7.2127 -5.3305 2.1353
-7.0126 -5.5830 2.1353
-6.8039 -5.8282 2.1353
-6.5867 -6.0656 2.1353
-6.3613 -6.2951 2.1353
-6.1281 -6.5165 2.1353
-5.8872 -6.7293 2.1353
-5.7123 -7.0232 2.1630
-5.6445 -7.4731 2.2385
-5.3702 -7.6680 2.2385
-5.0893 -7.8530 2.2385
-4.8021 -8.0280 2.2385
-4.5091 -8.1926 2.2385
-4.2105 -8.3467 2.2385
-3.9067 -8.4902 2.2385
-3.5982 -8.6228 2.2385
-3.2852 -8.7445 2.2385
-2.9682 -8.8550 2.2385
-2.6476 -8.9543 2.2385
-2.3238 -9.0422 2.2385
-1.9971 -9.1186 2.2385
-1.6679 -9.1834 2.2385
-1.3367 -9.2367 2.2385
-1.0039 -9.2782 2.2385
-0.6698 -9.3080 2.2385
-0.3349 -9.3260 2.2385
0.0005 -8.4850 2.2385
0.3054 -8.4799 2.2385
0.6100 -8.4640 2.2385
0.9139 -8.4373 2.2385
1.2167 -8.4000 2.2385
1.5180 -8.3520 2.2385
1.8174 -8.2934 2.2385
2.1147 -8.2242 2.2385
2.3415 -7.9153 2.1755
2.5767 -7.6837 2.1354
2.8519 -7.5880 2.1354
3.1236 -7.4827 2.1354
3.3915 -7.3678 2.1354
3.6552 -7.2435 2.1354
3.9145 -7.1099 2.1354
4.1689 -6.9671 2.1354
4.4183 -6.8154 2.1354
4.6621 -6.6549 2.1354
4.9003 -6.4859 2.1354
5.1324 -6.3084 2.1354
5.3582 -6.1227 2.1354
5.5773 -5.9291 2.1354
5.7896 -5.7277 2.1354
5.9946 -5.5188 2.1354
6.1923 -5.3026 2.1354
6.5259 -5.1939 2.1835
6.7120 -4.9589 2.1835
6.8897 -4.7173 2.1835
7.0587 -4.4693 2.1835
7.2190 -4.2154 2.1835
7.3702 -3.9558 2.1835
7.5121 -3.6908 2.1835
7.6445 -3.4208 2.1835
7.7674 -3.1461 2.1835
7.8804 -2.8670 2.1835
7.9834 -2.5838 2.1835
2.8175 -0.8013 0.7617
8.1057 -1.9938 2.1693
8.1572 -1.6984 2.1639
2.7183 -0.4648 0.7157
8.2610 -1.1091 2.1617
8.3136 -0.8136 2.1650
6.2096 -0.3833 1.6113
6.2540 -0.1610 1.6192
6.2838 0.0639 1.6254
6.3239 0.2915 1.6363
6.3647 0.5228 1.6495
6.4063 0.7586 1.6652
6.4911 1.0060 1.6944
6.5964 1.2662 1.7315
6.6418 1.5240 1.7555
6.6887 1.7896 1.7825
6.6365 2.0335 1.7858
6.6804 2.3122 1.8176
6.7319 2.6041 1.8546
6.7857 2.9089 1.8958
6.8777 3.2452 1.9516
6.9014 3.5645 1.9922
6.9679 3.9217 2.0495
7.0527 4.3097 2.1174
6.7804 4.4850 2.0814
6.3781 4.5560 2.0057
6.2036 4.7765 2.0024
6.2151 5.1508 2.0634
6.2399 5.5606 2.1354
6.0393 5.7836 2.1354
5.8307 5.9993 2.1354
5.6143 6.2073 2.1354
5.3904 6.4074 2.1354
5.1593 6.5993 2.1354
4.9212 6.7827 2.1354
4.6766 6.9574 2.1354
4.4256 7.1231 2.1354
4.1687 7.2796 2.1354
3.9062 7.4267 2.1354
3.6384 7.5641 2.1354
3.3657 7.6917 2.1354
3.0884 7.8093 2.1354
2.8070 7.9167 2.1354
2.5354 8.0569 2.1469
2.3299 8.4509 2.2278
2.0354 8.5711 2.2385
1.7270 8.6396 2.2385
1.4162 8.6968 2.2385
1.1036 8.7425 2.2385
0.7895 8.7768 2.2385
0.4743 8.7997 2.2385
0.1585 8.8110 2.2385
-0.1575 8.8107 2.2385
-0.4733 8.7989 2.2385
-0.7884 8.7756 2.2385
-1.1024 8.7407 2.2385
-1.4149 8.6945 2.2385
-1.7255 8.6368 2.2385
-2.0337 8.5679 2.2385
-2.3391 8.4877 2.2385
-2.6414 8.3965 2.2385
-2.9400 8.2943 2.2385
-3.2346 8.1814 2.2385
-3.5249 8.0578 2.2385
-3.8104 7.9237 2.2385
-4.0907 7.7793 2.2385
-4.3654 7.6249 2.2385
-4.6343 7.4606 2.2385
-4.8969 7.2867 2.2385
-5.1529 7.1034 2.2385
-5.4020 6.9110 2.2385
-5.6438 6.7097 2.2385
-5.7070 6.3108 2.1734
-5.8232 5.9925 2.1354
-6.0313 5.7768 2.1354
-6.2314 5.5539 2.1354
-6.4231 5.3239 2.1354
-6.6062 5.0872 2.1354
-6.7806 4.8441 2.1354
-6.9459 4.5951 2.1354
-7.1020 4.3404 2.1354
-7.2488 4.0803 2.1354
-7.3859 3.8152 2.1354
-7.5133 3.5455 2.1354
-7.6308 3.2716 2.1354
-7.7383 2.9937 2.1354
-7.8356 2.7124 2.1354
-7.9227 2.4278 2.1354
-7.9994 2.1405 2.1354
-8.0656 1.8509 2.1354
-8.1214 1.5591 2.1354
-8.1666 1.2658 2.1354
-8.2012 0.9712 2.1354
-8.2251 0.6758 2.1353
-8.2385 0.3798 2.1353
-8.2412 0.0838 2.1353
-8.2333 -0.2120 2.1353
-8.2149 -0.5071 2.1354
-8.1858 -0.8011 2.1354
-8.1464 -1.0938 2.1354
-8.0965 -1.3846 2.1354
-8.0362 -1.6734 2.1354
-7.9655 -1.9595 2.1353
-7.8849 -2.2428 2.1353
-7.7943 -2.5229 2.1353
-7.6938 -2.7994 2.1353
-7.5837 -3.0720 2.1353
-7.4639 -3.3403 2.1353
-7.3347 -3.6041 2.1353
-7.1963 -3.8630 2.1353
-7.0489 -4.1166 2.1353
-6.8926 -4.3647 2.1353
-6.7277 -4.6070 2.1353
-6.5544 -4.8431 2.1353
-6.3729 -5.0728 2.1353
-6.1835 -5.2958 2.1353
-5.9863 -5.5119 2.1353
-5.7817 -5.7208 2.1353
-5.7065 -6.0673 2.1876
-5.6101 -6.4116 2.2385
-5.3739 -6.6063 2.2385
-5.1311 -6.7925 2.2385
-4.8819 -6.9699 2.2385
-4.6267 -7.1383 2.2385
-4.3657 -7.2976 2.2385
-4.0994 -7.4474 2.2385
-3.8280 -7.5878 2.2385
-3.5520 -7.7184 2.2385
-3.2715 -7.8392 2.2385
-2.9870 -7.9499 2.2385
-2.6989 -8.0506 2.2385
-2.4074 -8.1410 2.2385
-2.1130 -8.2210 2.2385
-1.8159 -8.2906 2.2385
-1.5166 -8.3496 2.2385
-1.2155 -8.3981 2.2385
-0.9128 -8.4359 2.2385
-0.6090 -8.4630 2.2385
-0.3045 -8.4794 2.2385
0.0005 -7.7711 2.2385
0.2798 -7.7664 2.2385
0.5588 -7.7518 2.2385
0.8371 -7.7273 2.2385
1.1144 -7.6931 2.2385
1.3904 -7.6490 2.2385
1.6647 -7.5952 2.2385
1.9369 -7.5318 2.2385
2.2068 -7.4587 2.2385
2.3600 -7.0365 2.1354
2.6120 -6.9487 2.1354
2.8608 -6.8521 2.1354
3.1060 -6.7467 2.1354
3.3475 -6.6327 2.1354
3.5848 -6.5102 2.1354
3.8177 -6.3793 2.1354
4.0459 -6.2402 2.1354
4.2691 -6.0930 2.1354
4.4870 -5.9380 2.1354
4.6994 -5.7753 2.1354
4.9060 -5.6051 2.1354
5.1064 -5.4276 2.1354
5.3005 -5.2430 2.1354
5.4881 -5.0515 2.1354
5.6687 -4.8535 2.1354
5.8423 -4.6490 2.1354
6.0087 -4.4384 2.1354
6.1674 -4.2219 2.1354
6.3185 -3.9998 2.1354
6.6072 -3.8573 2.1835
6.7452 -3.6195 2.1835
6.8748 -3.3768 2.1835
6.9956 -3.1296 2.1835
7.1077 -2.8780 2.1835
7.2107 -2.6225 2.1835
7.3047 -2.3633 2.1835
2.8173 -0.8009 0.8325
7.4645 -1.8352 2.1835
7.5303 -1.5670 2.1835
2.7183 -0.4645 0.7824
7.6328 -1.0238 2.1835
7.6695 -0.7497 2.1835
6.2246 -0.3835 1.7660
6.2541 -0.1603 1.7705
6.2839 0.0646 1.7773
6.3240 0.2922 1.7893
6.3648 0.5236 1.8039
6.4064 0.7593 1.8211
6.5523 1.0162 1.8706
6.5965 1.2670 1.8938
6.6420 1.5247 1.9202
6.6889 1.7904 1.9499
6.6311 2.0326 1.9519
6.6805 2.3130 1.9884
6.7334 2.6055 2.0295
6.7928 2.9128 2.0764
6.8555 3.2355 2.1285
6.9131 3.5714 2.1835
6.7842 3.8191 2.1835
6.6464 4.0622 2.1835
6.4998 4.3002 2.1835
6.2048 4.4330 2.1354
6.0448 4.6550 2.1354
5.8768 4.8712 2.1354
5.7009 5.0812 2.1354
5.5175 5.2847 2.1354
5.3267 5.4815 2.1354
5.1289 5.6714 2.1354
4.9241 5.8540 2.1354
4.7128 6.0291 2.1354
4.4952 6.1964 2.1354
4.2716 6.3558 2.1354
4.0423 6.5069 2.1354
3.8075 6.6497 2.1354
3.5676 6.7839 2.1354
3.3230 6.9092 2.1354
3.0739 7.0256 2.1354
2.8206 7.1329 2.1354
2.5636 7.2308 2.1354
2.3286 7.4003 2.1591
2.1380 7.7555 2.2385
1.8588 7.8282 2.2385
1.5772 7.8906 2.2385
1.2934 7.9428 2.2385
1.0078 7.9846 2.2385
0.7210 8.0159 2.2385
0.4332 8.0367 2.2385
0.1448 8.0470 2.2385
-0.1438 8.0468 2.2385
-0.4322 8.0361 2.2385
-0.7199 8.0148 2.2385
-1.0067 7.9831 2.2385
-1.2921 7.9409 2.2385
-1.5757 7.8883 2.2385
-1.8572 7.8255 2.2385
-2.1362 7.7524 2.2385
-2.4123 7.6693 2.2385
-2.6851 7.5761 2.2385
-2.9542 7.4731 2.2385
-3.2194 7.3604 2.2385
-3.4802 7.2381 2.2385
-3.7363 7.1064 2.2385
-3.9874 6.9656 2.2385
-4.2331 6.8157 2.2385
-4.4732 6.6571 2.2385
-4.7072 6.4899 2.2385
-4.9349 6.3144 2.2385
-5.1560 6.1307 2.2385
-5.3702 5.9392 2.2385
-5.5772 5.7402 2.2385
-5.7040 5.4642 2.2104
-5.7148 5.0943 2.1434
-5.8692 4.8656 2.1354
-6.0368 4.6496 2.1354
-6.1964 4.4277 2.1354
-6.3478 4.2003 2.1354
-6.4908 3.9677 2.1354
-6.6252 3.7302 2.1354
-6.7509 3.4881 2.1354
-6.8677 3.2418 2.1354
-6.9755 2.9915 2.1354
-7.0741 2.7377 2.1354
-7.1634 2.4806 2.1354
-7.2434 2.2206 2.1354
-7.3139 1.9580 2.1354
-7.3749 1.6932 2.1354
-7.4263 1.4265 2.1354
-7.4680 1.1584 2.1354
-7.5001 0.8890 2.1354
-7.5224 0.6189 2.1354
-7.5350 0.3482 2.1354
-7.5379 0.0775 2.1354
-7.5311 -0.1931 2.1354
-7.5146 -0.4630 2.1354
-7.4885 -0.7320 2.1354
-7.4528 -0.9998 2.1354
-7.4075 -1.2660 2.1354
-7.3528 -1.5302 2.1354
-7.2887 -1.7922 2.1354
-7.2150 -2.0514 2.1353
-7.1324 -2.3078 2.1353
-7.0409 -2.5610 2.1353
-6.9404 -2.8106 2.1353
-6.8311 -3.0563 2.1353
-6.7132 -3.2979 2.1353
-6.5868 -3.5350 2.1353
-6.4522 -3.7673 2.1353
-6.3094 -3.9946 2.1353
-6.1587 -4.2165 2.1353
-6.0003 -4.4329 2.1353
-5.8344 -4.6434 2.1353
-5.7140 -4.8930 2.1552
-5.7064 -5.2533 2.2231
-5.5498 -5.4904 2.2385
-5.3467 -5.6839 2.2385
-5.1370 -5.8700 2.2385
-4.9209 -6.0486 2.2385
-4.6986 -6.2192 2.2385
-4.4706 -6.3819 2.2385
-4.2370 -6.5363 2.2385
-3.9981 -6.6823 2.2385
-3.7543 -6.8197 2.2385
-3.5059 -6.9484 2.2385
-3.2531 -7.0682 2.2385
-2.9963 -7.1789 2.2385
-2.7358 -7.2805 2.2385
-2.4719 -7.3728 2.2385
-2.2050 -7.4557 2.2385
-1.9353 -7.5291 2.2385
-1.6632 -7.5929 2.2385
-1.3891 -7.6470 2.2385
-1.1133 -7.6915 2.2385
-0.8361 -7.7261 2.2385
-0.5578 -7.7510 2.2385
-0.2789 -7.7660 2.2385
0.0005 -7.1608 2.2385
0.2579 -7.1564 2.2385
0.5150 -7.1429 2.2385
0.7715 -7.1203 2.2385
1.0270 -7.0887 2.2385
1.2813 -7.0480 2.2385
1.5341 -6.9984 2.2385
1.7849 -6.9398 2.2385
2.0336 -6.8724 2.2385
2.2798 -6.7962 2.2385
2.4069 -6.4023 2.1354
2.6361 -6.3132 2.1354
2.8620 -6.2159 2.1354
3.0845 -6.1107 2.1354
3.3030 -5.9977 2.1354
3.5176 -5.8770 2.1354
3.7277 -5.7486 2.1354
3.9333 -5.6129 2.1354
4.1339 -5.4699 2.1354
4.3295 -5.3198 2.1354
4.5196 -5.1629 2.1354
4.7041 -4.9992 2.1354
4.8828 -4.8290 2.1354
5.0554 -4.6525 2.1354
5.2216 -4.4699 2.1354
5.3813 -4.2814 2.1354
5.5343 -4.0872 2.1354
5.6804 -3.8877 2.1354
5.8193 -3.6830 2.1354
5.9508 -3.4733 2.1354
6.0749 -3.2590 2.1354
6.1913 -3.0404 2.1354
6.2999 -2.8176 2.1354
6.5447 -2.6493 2.1835
6.6393 -2.4138 2.1835
6.7255 -2.1751 2.1835
2.8171 -0.8005 0.9042
6.8721 -1.6887 2.1835
6.9323 -1.4417 2.1835
2.7184 -0.4642 0.8499
7.0260 -0.9417 2.1835
7.0594 -0.6892 2.1835
6.2247 -0.3828 1.9187
6.2542 -0.1596 1.9237
6.2839 0.0653 1.9312
6.3241 0.2929 1.9444
6.3649 0.5243 1.9603
6.4065 0.7600 1.9791
6.4490 1.0009 2.0009
6.4936 1.2480 2.0261
6.5417 1.5025 2.0555
6.5917 1.7652 2.0885
6.6437 2.0372 2.1257
6.6982 2.3199 2.1671
6.6643 2.5795 2.1835
6.5710 2.8184 2.1835
6.3266 2.9867 2.1354
6.2186 3.2134 2.1354
6.1024 3.4361 2.1354
5.9782 3.6546 2.1354
5.8461 3.8686 2.1354
5.7063 4.0777 2.1354
5.5590 4.2817 2.1354
5.4042 4.4802 2.1354
5.2423 4.6732 2.1354
5.0735 4.8602 2.1354
4.8979 5.0410 2.1354
4.7158 5.2154 2.1354
4.5275 5.3832 2.1354
4.3331 5.5440 2.1354
4.1329 5.6977 2.1354
3.9272 5.8441 2.1354
3.7163 5.9829 2.1354
3.5004 6.1140 2.1354
3.2798 6.2372 2.1354
3.0548 6.3523 2.1354
2.8257 6.4592 2.1354
2.5929 6.5577 2.1354
2.3566 6.6476 2.1354
2.2193 7.0538 2.2385
1.9653 7.1298 2.2385
1.7087 7.1965 2.2385
1.4498 7.2539 2.2385
1.1889 7.3018 2.2385
0.9264 7.3402 2.2385
0.6628 7.3689 2.2385
0.3982 7.3881 2.2385
0.1331 7.3975 2.2385
-0.1321 7.3974 2.2385
-0.3972 7.3875 2.2385
-0.6617 7.3680 2.2385
-0.9253 7.3389 2.2385
-1.1877 7.3002 2.2385
-1.4484 7.2520 2.2385
-1.7072 7.1943 2.2385
-1.9637 7.1272 2.2385
-2.2175 7.0509 2.2385
-2.4683 6.9654 2.2385
-2.7158 6.8708 2.2385
-2.9596 6.7673 2.2385
-3.1994 6.6550 2.2385
-3.4350 6.5341 2.2385
-3.6659 6.4048 2.2385
-3.8919 6.2672 2.2385
-4.1127 6.1215 2.2385
-4.3280 5.9680 2.2385
-4.5375 5.8067 2.2385
-4.7409 5.6381 2.2385
-4.9380 5.4622 2.2385
-5.1286 5.2794 2.2385
-5.3123 5.0898 2.2385
-5.4889 4.8938 2.2385
-5.6582 4.6916 2.2385
-5.7041 4.3942 2.1939
-5.7154 4.0848 2.1416
-5.8386 3.8642 2.1354
-5.9704 3.6504 2.1354
-6.0943 3.4320 2.1354
-6.2102 3.2095 2.1354
-6.3179 2.9830 2.1354
-6.4173 2.7529 2.1354
-6.5083 2.5195 2.1354
-6.5908 2.2831 2.1354
-6.6647 2.0439 2.1354
-6.7299 1.8024 2.1354
-6.7863 1.5589 2.1354
-6.8339 1.3135 2.1354
-6.8726 1.0668 2.1354
-6.9024 0.8190 2.1354
-6.9233 0.5704 2.1354
-6.9352 0.3213 2.1354
-6.9382 0.0721 2.1354
-6.9323 -0.1769 2.1354
-6.9174 -0.4254 2.1354
-6.8937 -0.6731 2.1354
-6.8611 -0.9197 2.1354
-6.8197 -1.1648 2.1354
-6.7697 -1.4081 2.1354
-6.7110 -1.6493 2.1354
-6.6433 -1.8881 2.1353
-6.5676 -2.1243 2.1353
-6.4835 -2.3575 2.1353
-6.3913 -2.5875 2.1353
-6.2909 -2.8139 2.1353
-6.1826 -3.0365 2.1353
-6.0664 -3.2549 2.1353
-5.9426 -3.4691 2.1353
-5.8114 -3.6785 2.1353
-5.7150 -3.9120 2.1512
-5.7063 -4.2149 2.2045
-5.6343 -4.4833 2.2385
-5.4672 -4.6809 2.2385
-5.2933 -4.8723 2.2385
-5.1127 -5.0573 2.2385
-4.9258 -5.2357 2.2385
-4.7327 -5.4073 2.2385
-4.5337 -5.5719 2.2385
-4.3291 -5.7293 2.2385
-4.1191 -5.8794 2.2385
-3.9039 -6.0218 2.2385
-3.6839 -6.1564 2.2385
-3.4594 -6.2832 2.2385
-3.2305 -6.4019 2.2385
-2.9976 -6.5124 2.2385
-2.7610 -6.6145 2.2385
-2.5210 -6.7082 2.2385
-2.2779 -6.7934 2.2385
-2.0319 -6.8698 2.2385
-1.7834 -6.9375 2.2385
-1.5327 -6.9964 2.2385
-1.2801 -7.0464 2.2385
-1.0259 -7.0873 2.2385
-0.7705 -7.1193 2.2385
-0.5140 -7.1422 2.2385
-0.2569 -7.1560 2.2385
0.0005 -6.6325 2.2385
0.2389 -6.6284 2.2385
0.4771 -6.6159 2.2385
0.7147 -6.5949 2.2385
0.9514 -6.5656 2.2385
1.1869 -6.5279 2.2385
1.4210 -6.4818 2.2385
1.6534 -6.4275 2.2385
1.8837 -6.3650 2.2385
2.1117 -6.2944 2.2385
2.3371 -6.2156 2.2385
2.4417 -5.8467 2.1354
2.6509 -5.7566 2.1354
2.8569 -5.6590 2.1354
3.0593 -5.5542 2.1354
3.2579 -5.4423 2.1354
3.4524 -5.3233 2.1354
3.6427 -5.1975 2.1354
3.8285 -5.0649 2.1354
4.0094 -4.9258 2.1354
4.1854 -4.7803 2.1354
4.3562 -4.6286 2.1354
4.5215 -4.4709 2.1354
4.6811 -4.3073 2.1354
4.8349 -4.1381 2.1354
4.9827 -3.9634 2.1354
5.1242 -3.7836 2.1354
5.2592 -3.5987 2.1354
5.3876 -3.4091 2.1354
5.5093 -3.2148 2.1354
5.6239 -3.0164 2.1354
5.7315 -2.8138 2.1354
5.8318 -2.6075 2.1354
5.9248 -2.3975 2.1354
6.0102 -2.1844 2.1354
6.0879 -1.9682 2.1354
2.8169 -0.8002 0.9768
6.2201 -1.5278 2.1354
6.2744 -1.3042 2.1354
2.7184 -0.4639 0.9184
6.5019 -0.8707 2.1835
6.5326 -0.6370 2.1835
6.2249 -0.3821 2.0736
6.2612 -0.1591 2.0813
6.2920 0.0661 2.0899
6.3339 0.2941 2.1048
6.3768 0.5260 2.1227
6.4208 0.7625 2.1440
6.4662 1.0043 2.1686
6.3312 1.2175 2.1354
6.2868 1.4446 2.1354
6.2342 1.6702 2.1354
6.1735 1.8938 2.1354
6.1048 2.1151 2.1354
6.0281 2.3340 2.1354
5.9434 2.5500 2.1354
5.8510 2.7629 2.1354
5.7510 2.9725 2.1354
5.6433 3.1783 2.1354
5.5283 3.3802 2.1354
5.4059 3.5780 2.1354
5.2765 3.7712 2.1354
5.1401 3.9597 2.1354
4.9968 4.1432 2.1354
4.8470 4.3215 2.1354
4.6908 4.4943 2.1354
4.5283 4.6613 2.1354
4.3599 4.8224 2.1354
4.1856 4.9774 2.1354
4.0058 5.1259 2.1354
3.8206 5.2679 2.1354
3.6304 5.4031 2.1354
3.4354 5.5313 2.1354
3.2357 5.6524 2.1354
3.0317 5.7662 2.1354
2.8237 5.8725 2.1354
2.6120 5.9712 2.1354
2.3967 6.0621 2.1354
2.2834 6.4419 2.2385
2.0514 6.5206 2.2385
1.8166 6.5908 2.2385
1.5793 6.6524 2.2385
1.3400 6.7054 2.2385
1.0989 6.7496 2.2385
0.8563 6.7850 2.2385
0.6126 6.8116 2.2385
0.3681 6.8293 2.2385
0.1231 6.8381 2.2385
-0.1221 6.8379 2.2385
-0.3671 6.8288 2.2385
-0.6116 6.8108 2.2385
-0.8552 6.7840 2.2385
-1.0977 6.7482 2.2385
-1.3387 6.7037 2.2385
-1.5779 6.6505 2.2385
-1.8150 6.5886 2.2385
-2.0496 6.5181 2.2385
-2.2815 6.4392 2.2385
-2.5103 6.3518 2.2385
-2.7357 6.2563 2.2385
-2.9575 6.1526 2.2385
-3.1753 6.0410 2.2385
-3.3888 5.9216 2.2385
-3.5978 5.7945 2.2385
-3.8021 5.6600 2.2385
-4.0012 5.5181 2.2385
-4.1950 5.3692 2.2385
-4.3832 5.2134 2.2385
-4.5655 5.0510 2.2385
-4.7418 4.8821 2.2385
-4.9118 4.7069 2.2385
-5.0753 4.5259 2.2385
-5.2320 4.3390 2.2385
-5.3819 4.1467 2.2385
-5.5246 3.9492 2.2385
-5.6600 3.7468 2.2385
-5.7042 3.4884 2.2061
-5.7099 3.2163 2.1634
-5.7436 2.9691 2.1354
-5.8435 2.7598 2.1354
-5.9357 2.5471 2.1354
-6.0201 2.3312 2.1354
-6.0966 2.1126 2.1354
-6.1652 1.8915 2.1354
-6.2258 1.6681 2.1354
-6.2782 1.4429 2.1354
-6.3225 1.2160 2.1354
-6.3586 0.9878 2.1354
-6.3864 0.7585 2.1354
-6.4060 0.5285 2.1354
-6.4173 0.2980 2.1354
-6.4203 0.0674 2.1354
-6.4151 -0.1630 2.1354
-6.4016 -0.3930 2.1354
-6.3798 -0.6222 2.1354
-6.3499 -0.8504 2.1354
-6.3119 -1.0773 2.1354
-6.2658 -1.3026 2.1354
-6.2117 -1.5259 2.1354
-6.1497 -1.7471 2.1354
-6.0794 -1.9657 2.1353
-6.0018 -2.1816 2.1353
-5.9194 -2.3957 2.1363
-5.8239 -2.6043 2.1353
-5.7238 -2.8104 2.1353
-5.7099 -3.0629 2.1708
-5.7062 -3.3303 2.2145
-5.6409 -3.5699 2.2385
-5.5065 -3.7686 2.2385
-5.3653 -3.9623 2.2385
-5.2172 -4.1508 2.2385
-5.0627 -4.3338 2.2385
-4.9017 -4.5111 2.2385
-4.7347 -4.6826 2.2385
-4.5617 -4.8480 2.2385
-4.3830 -5.0070 2.2385
-4.1988 -5.1596 2.2385
-4.0094 -5.3055 2.2385
-3.8149 -5.4445 2.2385
-3.6158 -5.5766 2.2385
-3.4121 -5.7014 2.2385
-3.2041 -5.8189 2.2385
-2.9922 -5.9289 2.2385
-2.7765 -6.0314 2.2385
-2.5574 -6.1261 2.2385
-2.3351 -6.2129 2.2385
-2.1099 -6.2919 2.2385
-1.8821 -6.3628 2.2385
-1.6520 -6.4255 2.2385
-1.4197 -6.4801 2.2385
-1.1858 -6.5264 2.2385
-0.9503 -6.5644 2.2385
-0.7137 -6.5941 2.2385
-0.4761 -6.6153 2.2385
-0.2380 -6.6281 2.2385
0.0005 -6.1703 2.2385
0.2223 -6.1665 2.2385
0.4439 -6.1548 2.2385
0.6650 -6.1353 2.2385
0.8852 -6.1079 2.2385
1.1044 -6.0728 2.2385
1.3222 -6.0299 2.2385
1.5383 -5.9793 2.2385
1.7526 -5.9211 2.2385
1.9647 -5.8553 2.2385
2.1743 -5.7820 2.2385
2.3395 -5.6013 2.1993
2.4662 -5.3548 2.1354
2.6578 -5.2640 2.1354
2.8460 -5.1664 2.1354
3.0307 -5.0621 2.1354
3.2117 -4.9514 2.1354
3.3886 -4.8342 2.1354
3.5613 -4.7108 2.1354
3.7296 -4.5813 2.1354
3.8932 -4.4459 2.1354
4.0519 -4.3046 2.1354
4.2056 -4.1578 2.1354
4.3540 -4.0056 2.1354
4.4969 -3.8481 2.1354
4.6342 -3.6855 2.1354
4.7656 -3.5181 2.1354
4.8911 -3.3461 2.1354
5.0104 -3.1696 2.1354
5.1233 -2.9889 2.1354
5.2298 -2.8043 2.1354
5.3297 -2.6158 2.1354
5.4228 -2.4239 2.1354
5.5090 -2.2286 2.1354
5.5883 -2.0303 2.1354
5.6604 -1.8292 2.1354
2.8167 -0.7998 1.0506
5.7829 -1.4197 2.1354
5.8332 -1.2118 2.1354
2.7185 -0.4636 0.9880
5.9112 -0.7909 2.1354
5.9388 -0.5784 2.1354
5.9589 -0.3651 2.1354
5.9712 -0.1510 2.1354
5.9759 0.0634 2.1354
5.9729 0.2780 2.1354
5.9622 0.4925 2.1354
5.9437 0.7065 2.1354
5.9176 0.9198 2.1354
5.8837 1.1321 2.1354
5.8423 1.3432 2.1354
5.7932 1.5527 2.1354
5.7366 1.7604 2.1354
5.6725 1.9661 2.1354
5.6011 2.1693 2.1354
5.5223 2.3700 2.1354
5.4362 2.5677 2.1354
5.3431 2.7623 2.1354
5.2429 2.9535 2.1354
5.1359 3.1410 2.1354
5.0221 3.3246 2.1354
4.9017 3.5040 2.1354
4.7748 3.6790 2.1354
4.6417 3.8494 2.1354
4.5024 4.0149 2.1354
4.3571 4.1753 2.1354
4.2061 4.3303 2.1354
4.0496 4.4799 2.1354
3.8876 4.6237 2.1354
3.7205 4.7616 2.1354
3.5485 4.8933 2.1354
3.3718 5.0188 2.1354
3.1905 5.1378 2.1354
3.0051 5.2502 2.1354
2.8156 5.3557 2.1354
2.6224 5.4544 2.1354
0.8580 1.9617 0.7553
2.3267 5.8857 2.2323
2.1205 5.9830 2.2385
1.9050 6.0560 2.2385
1.6869 6.1212 2.2385
1.4666 6.1784 2.2385
1.2444 6.2275 2.2385
1.0205 6.2685 2.2385
0.7952 6.3014 2.2385
0.5689 6.3261 2.2385
0.3418 6.3425 2.2385
0.1143 6.3506 2.2385
-0.1134 6.3505 2.2385
-0.3409 6.3421 2.2385
-0.5679 6.3254 2.2385
-0.7942 6.3005 2.2385
-1.0193 6.2674 2.2385
-1.2432 6.2261 2.2385
-1.4653 6.1767 2.2385
-1.6855 6.1192 2.2385
-1.9034 6.0539 2.2385
-2.1187 5.9806 2.2385
-2.3313 5.8996 2.2385
-0.8577 1.9617 0.7557
-0.9274 1.9296 0.7559
-2.9490 5.6112 2.2385
-3.1474 5.5004 2.2385
-3.3416 5.3825 2.2385
-3.5313 5.2576 2.2385
-3.7163 5.1260 2.2385
-3.8964 4.9878 2.2385
-4.0713 4.8432 2.2385
-4.2408 4.6925 2.2385
-4.4046 4.5357 2.2385
-4.5627 4.3731 2.2385
-4.7147 4.2050 2.2385
-4.8604 4.0316 2.2385
-4.9998 3.8531 2.2385
-5.1325 3.6697 2.2385
-5.2585 3.4817 2.2385
-5.3775 3.2894 2.2385
-5.4895 3.0929 2.2385
-5.5943 2.8927 2.2385
-5.6917 2.6888 2.2385
-5.7043 2.4485 2.2086
-5.7062 2.2104 2.1782
-5.7126 1.9803 2.1532
-5.7293 1.7585 2.1354
-5.7858 1.5510 2.1354
-5.8348 1.3417 2.1354
-5.8761 1.1308 2.1354
-5.9174 0.9199 2.1382
-5.9359 0.7057 2.1354
-5.9544 0.4919 2.1354
-5.9651 0.2777 2.1354
-5.9681 0.0634 2.1354
-5.9634 -0.1508 2.1354
-5.9511 -0.3646 2.1354
-5.9311 -0.5778 2.1354
-5.9170 -0.7917 2.1403
-5.8683 -1.0009 2.1354
-5.8257 -1.2104 2.1354
-5.7755 -1.4181 2.1354
-5.7181 -1.6238 2.1354
-5.7119 -1.8462 2.1576
-5.7065 -2.0736 2.1834
-5.7061 -2.3087 2.2145
-5.6777 -2.5382 2.2385
-5.5803 -2.7393 2.2385
-5.4758 -2.9367 2.2385
-5.3644 -3.1301 2.2385
-5.2462 -3.3194 2.2385
-5.1214 -3.5043 2.2385
-4.9902 -3.6845 2.2385
-4.8526 -3.8600 2.2385
-4.7090 -4.0303 2.2385
-4.5594 -4.1954 2.2385
-4.4041 -4.3550 2.2385
-4.2433 -4.5089 2.2385
-4.0771 -4.6570 2.2385
-3.9059 -4.7990 2.2385
-3.7298 -4.9348 2.2385
-3.5489 -5.0642 2.2385
-3.3637 -5.1871 2.2385
-3.1743 -5.3034 2.2385
-2.9809 -5.4128 2.2385
-2.7837 -5.5152 2.2385
-2.5831 -5.6106 2.2385
-2.3793 -5.6988 2.2385
-2.1725 -5.7797 2.2385
-1.9630 -5.8532 2.2385
-1.7511 -5.9192 2.2385
-1.5370 -5.9776 2.2385
-1.3209 -6.0284 2.2385
-1.1032 -6.0716 2.2385
-0.8841 -6.1069 2.2385
-0.6640 -6.1345 2.2385
-0.4430 -6.1543 2.2385
-0.2214 -6.1662 2.2385
0.0005 -5.7621 2.2385
0.2077 -5.7585 2.2385
0.4146 -5.7476 2.2385
0.6211 -5.7294 2.2385
0.8268 -5.7038 2.2385
1.0314 -5.6710 2.2385
1.2348 -5.6309 2.2385
1.4367 -5.5836 2.2385
1.6368 -5.5291 2.2385
1.8348 -5.4676 2.2385
2.0306 -5.3991 2.2385
2.2239 -5.3237 2.2385
2.3427 -5.0858 2.1721
2.4820 -4.9152 2.1354
2.6578 -4.8239 2.1354
2.8302 -4.7265 2.1354
2.9992 -4.6230 2.1354
3.1643 -4.5135 2.1354
3.3255 -4.3982 2.1354
3.4826 -4.2772 2.1354
3.6353 -4.1507 2.1354
3.7834 -4.0187 2.1354
3.9268 -3.8815 2.1354
4.0653 -3.7393 2.1354
4.1986 -3.5921 2.1354
4.3267 -3.4403 2.1354
4.4493 -3.2839 2.1354
4.5663 -3.1232 2.1354
4.6775 -2.9584 2.1354
4.7829 -2.7896 2.1354
4.8821 -2.6172 2.1354
4.9752 -2.4412 2.1354
5.0620 -2.2619 2.1354
5.1424 -2.0796 2.1354
5.2162 -1.8945 2.1354
5.2833 -1.7067 2.1354
2.8165 -0.7994 1.1255
5.3974 -1.3244 2.1354
5.4441 -1.1303 2.1354
2.7185 -0.4633 1.0586
5.5166 -0.7374 2.1354
5.5422 -0.5392 2.1354
5.5607 -0.3400 2.1354
5.5721 -0.1403 2.1354
5.5763 0.0599 2.1354
5.5733 0.2601 2.1354
5.5631 0.4602 2.1354
5.5457 0.6598 2.1354
5.5212 0.8588 2.1354
5.4895 1.0569 2.1354
5.4506 1.2538 2.1354
5.4047 1.4492 2.1354
5.3517 1.6430 2.1354
5.2918 1.8347 2.1354
5.2250 2.0243 2.1354
5.1513 2.2114 2.1354
5.0709 2.3958 2.1354
4.9839 2.5773 2.1354
4.8903 2.7555 2.1354
4.7904 2.9303 2.1354
4.6841 3.1015 2.1354
4.5717 3.2688 2.1354
4.4533 3.4319 2.1354
4.3290 3.5907 2.1354
4.1990 3.7450 2.1354
4.0634 3.8945 2.1354
3.9225 4.0390 2.1354
3.7764 4.1784 2.1354
3.6253 4.3124 2.1354
3.4695 4.4409 2.1354
3.3090 4.5637 2.1354
3.1441 4.6806 2.1354
2.9751 4.7915 2.1354
2.8021 4.8962 2.1354
2.6254 4.9946 2.1354
0.8657 1.8009 0.7561
0.8007 1.8308 0.7559
0.7346 1.8584 0.7558
0.6675 1.8835 0.7557
0.5996 1.9063 0.7556
0.5309 1.9266 0.7556
0.4615 1.9444 0.7555
0.3916 1.9597 0.7554
0.9515 5.8452 2.2385
0.7415 5.8759 2.2385
0.5304 5.8988 2.2385
0.3187 5.9141 2.2385
0.1066 5.9217 2.2385
-0.1057 5.9216 2.2385
-0.3178 5.9138 2.2385
-0.5295 5.8983 2.2385
-0.7404 5.8751 2.2385
-0.9504 5.8442 2.2385
-0.3912 1.9597 0.7556
-0.4612 1.9444 0.7557
-0.5306 1.9266 0.7558
-0.5993 1.9063 0.7559
-0.6672 1.8836 0.7560
-0.7342 1.8584 0.7561
-0.8004 1.8308 0.7563
-0.8654 1.8009 0.7564
-0.9294 1.7687 0.7566
-2.9348 5.1297 2.2385
-3.1160 5.0199 2.2385
-3.2930 4.9035 2.2385
-3.4656 4.7809 2.2385
-3.6336 4.6521 2.2385
-3.7967 4.5174 2.2385
-3.9549 4.3769 2.2385
-4.1078 4.2307 2.2385
-4.2553 4.0792 2.2385
-4.3971 3.9226 2.2385
-4.5332 3.7609 2.2385
-4.6633 3.5945 2.2385
-4.7872 3.4235 2.2385
-4.9048 3.2483 2.2385
-5.0160 3.0690 2.2385
-5.1206 2.8858 2.2385
-5.2185 2.6991 2.2385
-5.3095 2.5090 2.2385
-5.3936 2.3158 2.2385
-5.4707 2.1199 2.2385
-5.5406 1.9214 2.2385
-5.6033 1.7205 2.2385
-5.6587 1.5176 2.2385
-5.7045 1.3124 2.2376
-5.7045 1.0985 2.2218
-5.7045 0.8875 2.2091
-5.7045 0.6789 2.1993
-5.7045 0.4720 2.1925
-5.7046 0.2663 2.1885
-5.7046 0.0613 2.1873
-5.7046 -0.1436 2.1889
-5.7046 -0.3489 2.1934
-5.7047 -0.5550 2.2008
-5.7047 -0.7627 2.2110
-5.7047 -0.9723 2.2242
-5.6999 -1.1836 2.2385
-5.6511 -1.3869 2.2385
-5.5950 -1.5882 2.2385
-5.5318 -1.7873 2.2385
-5.4615 -1.9839 2.2385
-5.3843 -2.1778 2.2385
-5.3002 -2.3688 2.2385
-5.2094 -2.5566 2.2385
-5.1121 -2.7409 2.2385
-5.0082 -2.9216 2.2385
-4.8980 -3.0984 2.2385
-4.7816 -3.2711 2.2385
-4.6591 -3.4395 2.2385
-4.5308 -3.6033 2.2385
-4.3968 -3.7625 2.2385
-4.2572 -3.9167 2.2385
-4.1123 -4.0658 2.2385
-3.9622 -4.2096 2.2385
-3.8072 -4.3479 2.2385
-3.6473 -4.4807 2.2385
-3.4829 -4.6075 2.2385
-3.3141 -4.7285 2.2385
-3.1412 -4.8434 2.2385
-2.9643 -4.9520 2.2385
-2.7837 -5.0542 2.2385
-2.5997 -5.1499 2.2385
-2.4124 -5.2391 2.2385
-2.2220 -5.3215 2.2385
-2.0289 -5.3971 2.2385
-1.8333 -5.4658 2.2385
-1.6354 -5.5275 2.2385
-1.4354 -5.5821 2.2385
-1.2336 -5.6296 2.2385
-1.0303 -5.6699 2.2385
-0.8257 -5.7029 2.2385
-0.6201 -5.7287 2.2385
-0.4137 -5.7472 2.2385
-0.2067 -5.7583 2.2385
0.0005 -5.3987 2.2385
0.1946 -5.3953 2.2385
0.3886 -5.3851 2.2385
0.5820 -5.3680 2.2385
0.7747 -5.3440 2.2385
0.9665 -5.3132 2.2385
1.1571 -5.2756 2.2385
1.3462 -5.2312 2.2385
1.5337 -5.1802 2.2385
1.7193 -5.1225 2.2385
1.9027 -5.0583 2.2385
2.0837 -4.9875 2.2385
2.2622 -4.9104 2.2385
2.3467 -4.6465 2.1548
2.4902 -4.5191 2.1354
2.6517 -4.4278 2.1354
2.8100 -4.3307 2.1354
2.9647 -4.2281 2.1354
3.1157 -4.1200 2.1354
3.2627 -4.0066 2.1354
3.4057 -3.8879 2.1354
3.5444 -3.7642 2.1354
3.6787 -3.6356 2.1354
3.8083 -3.5023 2.1354
3.9332 -3.3644 2.1354
4.0531 -3.2221 2.1354
4.1678 -3.0755 2.1354
4.2773 -2.9249 2.1354
4.3814 -2.7705 2.1354
4.4800 -2.6123 2.1354
4.5729 -2.4507 2.1354
4.6599 -2.2859 2.1354
4.7411 -2.1179 2.1354
4.8162 -1.9471 2.1354
4.8852 -1.7736 2.1354
4.9480 -1.5978 2.1354
2.8163 -0.7989 1.2017
5.0545 -1.2396 2.1354
5.0981 -1.0578 2.1354
2.7186 -0.4630 1.1305
5.1657 -0.6899 2.1354
5.1896 -0.5042 2.1354
5.2068 -0.3178 2.1354
5.2173 -0.1307 2.1354
5.2211 0.0567 2.1354
5.2182 0.2441 2.1354
5.2085 0.4315 2.1354
5.1920 0.6184 2.1354
5.1689 0.8047 2.1354
5.1391 0.9901 2.1354
5.1026 1.1743 2.1354
5.0594 1.3573 2.1354
5.0097 1.5386 2.1354
4.9535 1.7181 2.1354
4.8908 1.8955 2.1354
4.8218 2.0706 2.1354
4.7464 2.2431 2.1354
4.6648 2.4129 2.1354
4.5772 2.5797 2.1354
4.4835 2.7432 2.1354
4.3839 2.9033 2.1354
4.2786 3.0598 2.1354
4.1677 3.2125 2.1354
4.0513 3.3610 2.1354
3.9296 3.5053 2.1354
3.8026 3.6451 2.1354
3.6707 3.7803 2.1354
3.5339 3.9106 2.1354
3.3925 4.0360 2.1354
3.2466 4.1562 2.1354
3.0963 4.2710 2.1354
2.9420 4.3803 2.1354
2.7838 4.4840 2.1354
2.6219 4.5819 2.1354
0.8705 1.6563 0.7567
0.8106 1.6865 0.7566
0.7497 1.7145 0.7565
0.6878 1.7403 0.7564
0.6250 1.7638 0.7563
0.5614 1.7851 0.7562
0.4971 1.8041 0.7561
0.4322 1.8208 0.7561
0.3666 1.8352 0.7560
0.3007 1.8471 0.7560
0.2343 1.8567 0.7559
0.1676 1.8639 0.7559
0.1007 1.8688 0.7559
0.0337 1.8711 0.7559
-0.0334 1.8712 0.7559
-0.1004 1.8687 0.7560
-0.1673 1.8639 0.7560
-0.2340 1.8567 0.7560
-0.3003 1.8471 0.7561
-0.3663 1.8352 0.7562
-0.4318 1.8208 0.7563
-0.4968 1.8041 0.7563
-0.5611 1.7851 0.7564
-0.6247 1.7639 0.7566
-0.6875 1.7403 0.7567
-0.7494 1.7145 0.7568
-0.8103 1.6865 0.7569
-0.8702 1.6563 0.7571
-0.9290 1.6240 0.7573
-2.9157 4.6980 2.2385
-3.0814 4.5892 2.2385
-3.2429 4.4745 2.2385
-3.4002 4.3541 2.2385
-3.5530 4.2280 2.2385
-3.7011 4.0966 2.2385
-3.8442 3.9600 2.2385
-3.9823 3.8183 2.2385
-4.1152 3.6717 2.2385
-4.2426 3.5205 2.2385
-4.3644 3.3648 2.2385
-4.4805 3.2049 2.2385
-4.5907 3.0409 2.2385
-4.6949 2.8732 2.2385
-4.7929 2.7018 2.2385
-4.8847 2.5271 2.2385
-4.9700 2.3492 2.2385
-5.0489 2.1685 2.2385
-5.1211 1.9851 2.2385
-5.1867 1.7993 2.2385
-5.2455 1.6113 2.2385
-5.2975 1.4214 2.2385
-5.3427 1.2298 2.2385
-5.3809 1.0368 2.2385
-5.4121 0.8427 2.2385
-5.4363 0.6476 2.2385
-5.4535 0.4518 2.2385
-5.4636 0.2557 2.2385
-5.4667 0.0594 2.2385
-5.4627 -0.1369 2.2385
-5.4517 -0.3327 2.2385
-5.4337 -0.5280 2.2385
-5.4087 -0.7225 2.2385
-5.3768 -0.9158 2.2385
-5.3380 -1.1078 2.2385
-5.2924 -1.2982 2.2385
-5.2400 -1.4868 2.2385
-5.1809 -1.6733 2.2385
-5.1153 -1.8575 2.2385
-5.0431 -2.0392 2.2385
-4.9645 -2.2181 2.2385
-4.8795 -2.3940 2.2385
-4.7884 -2.5668 2.2385
-4.6912 -2.7361 2.2385
-4.5881 -2.9017 2.2385
-4.4792 -3.0636 2.2385
-4.3646 -3.2214 2.2385
-4.2445 -3.3750 2.2385
-4.1190 -3.5241 2.2385
-3.9883 -3.6687 2.2385
-3.8526 -3.8084 2.2385
-3.7121 -3.9432 2.2385
-3.5669 -4.0729 2.2385
-3.4172 -4.1973 2.2385
-3.2632 -4.3163 2.2385
-3.1051 -4.4296 2.2385
-2.9431 -4.5373 2.2385
-2.7774 -4.6391 2.2385
-2.6082 -4.7350 2.2385
-2.4358 -4.8248 2.2385
-2.2603 -4.9083 2.2385
-2.0820 -4.9856 2.2385
-1.9011 -5.0565 2.2385
-1.7178 -5.1209 2.2385
-1.5323 -5.1787 2.2385
-1.3450 -5.2299 2.2385
-1.1559 -5.2744 2.2385
-0.9654 -5.3122 2.2385
-0.7737 -5.3432 2.2385
-0.5810 -5.3674 2.2385
-0.3876 -5.3847 2.2385
-0.1937 -5.3951 2.2385
0.0005 -5.0727 2.2385
0.1829 -5.0696 2.2385
0.3652 -5.0599 2.2385
0.5470 -5.0438 2.2385
0.7281 -5.0213 2.2385
0.9083 -4.9923 2.2385
1.0874 -4.9569 2.2385
1.2651 -4.9152 2.2385
1.4413 -4.8672 2.2385
1.6156 -4.8130 2.2385
1.7880 -4.7525 2.2385
1.9581 -4.6860 2.2385
2.1257 -4.6135 2.2385
2.2908 -4.5350 2.2385
2.3493 -4.2627 2.1439
2.4917 -4.1599 2.1354
2.6403 -4.0686 2.1354
2.7856 -3.9721 2.1354
2.9275 -3.8705 2.1354
3.0656 -3.7639 2.1354
3.1999 -3.6523 2.1354
3.3302 -3.5361 2.1354
3.4563 -3.4152 2.1354
3.5780 -3.2898 2.1354
3.6952 -3.1602 2.1354
3.8078 -3.0265 2.1354
3.9155 -2.8887 2.1354
4.0183 -2.7472 2.1354
4.1160 -2.6020 2.1354
4.2085 -2.4534 2.1354
4.2957 -2.3016 2.1354
4.3774 -2.1466 2.1354
4.4535 -1.9888 2.1354
4.5240 -1.8283 2.1354
4.5887 -1.6654 2.1354
4.6475 -1.5001 2.1354
2.8160 -0.7985 1.2793
4.7474 -1.1637 2.1354
4.7882 -0.9929 2.1354
2.7186 -0.4626 1.2037
4.8515 -0.6473 2.1354
4.8738 -0.4729 2.1354
4.8898 -0.2978 2.1354
4.8995 -0.1222 2.1354
4.9030 0.0538 2.1354
4.9001 0.2299 2.1354
4.8909 0.4057 2.1354
4.8753 0.5813 2.1354
4.8535 0.7561 2.1354
4.8254 0.9302 2.1354
4.7910 1.1032 2.1354
4.7504 1.2749 2.1354
4.7036 1.4451 2.1354
4.6507 1.6136 2.1354
4.5917 1.7801 2.1354
4.5268 1.9445 2.1354
4.4559 2.1064 2.1354
4.3793 2.2658 2.1354
4.2969 2.4223 2.1354
4.2088 2.5758 2.1354
4.1153 2.7260 2.1354
4.0164 2.8729 2.1354
3.9122 3.0161 2.1354
3.8028 3.1554 2.1354
3.6885 3.2908 2.1354
3.5693 3.4220 2.1354
3.4454 3.5488 2.1354
3.3170 3.6711 2.1354
3.1842 3.7887 2.1354
3.0472 3.9015 2.1354
2.9061 4.0092 2.1354
2.7613 4.1117 2.1354
2.6127 4.2090 2.1354
0.8727 1.5253 0.7573
0.8175 1.5556 0.7572
0.7613 1.5840 0.7571
0.7041 1.6103 0.7570
0.6459 1.6345 0.7569
0.5870 1.6566 0.7568
0.5272 1.6766 0.7567
0.4668 1.6945 0.7566
0.4058 1.7102 0.7566
0.3443 1.7236 0.7565
0.2824 1.7349 0.7565
0.2200 1.7439 0.7565
0.1574 1.7506 0.7565
0.0946 1.7551 0.7564
0.0316 1.7574 0.7564
-0.0313 1.7574 0.7565
-0.0943 1.7551 0.7565
-0.1571 1.7506 0.7565
-0.2197 1.7439 0.7566
-0.2820 1.7349 0.7566
-0.3440 1.7236 0.7567
-0.4055 1.7101 0.7568
-0.4665 1.6945 0.7568
-0.5269 1.6766 0.7569
-0.5866 1.6566 0.7570
-0.6456 1.6345 0.7572
-0.7037 1.6103 0.7573
-0.7610 1.5840 0.7574
-0.8172 1.5556 0.7575
-0.8724 1.5253 0.7577
-0.9265 1.4930 0.7579
-0.9793 1.4588 0.7580
-3.0438 4.2004 2.2385
-3.1914 4.0874 2.2385
-3.3349 3.9692 2.2385
-3.4739 3.8459 2.2385
-3.6084 3.7177 2.2385
-3.7381 3.5847 2.2385
-3.8628 3.4472 2.2385
-3.9825 3.3053 2.2385
-4.0970 3.1593 2.2385
-4.2061 3.0092 2.2385
-4.3096 2.8554 2.2385
-4.4075 2.6979 2.2385
-4.4996 2.5371 2.2385
-4.5858 2.3731 2.2385
-4.6661 2.2062 2.2385
-4.7402 2.0366 2.2385
-4.8082 1.8644 2.2385
-4.8699 1.6900 2.2385
-4.9252 1.5136 2.2385
-4.9742 1.3353 2.2385
-5.0167 1.1554 2.2385
-5.0526 0.9742 2.2385
-5.0821 0.7919 2.2385
-5.1049 0.6087 2.2385
-5.1212 0.4249 2.2385
-5.1308 0.2407 2.2385
-5.1338 0.0564 2.2385
-5.1302 -0.1279 2.2385
-5.1200 -0.3119 2.2385
-5.1033 -0.4953 2.2385
-5.0799 -0.6779 2.2385
-5.0501 -0.8595 2.2385
-5.0138 -1.0399 2.2385
-4.9710 -1.2187 2.2385
-4.9219 -1.3959 2.2385
-4.8666 -1.5711 2.2385
-4.8050 -1.7442 2.2385
-4.7373 -1.9149 2.2385
-4.6635 -2.0830 2.2385
-4.5838 -2.2483 2.2385
-4.4983 -2.4107 2.2385
-4.4071 -2.5698 2.2385
-4.3103 -2.7255 2.2385
-4.2081 -2.8776 2.2385
-4.1005 -3.0259 2.2385
-3.9877 -3.1702 2.2385
-3.8699 -3.3104 2.2385
-3.7472 -3.4463 2.2385
-3.6198 -3.5776 2.2385
-3.4878 -3.7043 2.2385
-3.3514 -3.8263 2.2385
-3.2108 -3.9432 2.2385
-3.0661 -4.0550 2.2385
-2.9176 -4.1616 2.2385
-2.7654 -4.2629 2.2385
-2.6098 -4.3586 2.2385
-2.4509 -4.4487 2.2385
-2.2889 -4.5331 2.2385
-2.1240 -4.6117 2.2385
-1.9564 -4.6843 2.2385
-1.7864 -4.7510 2.2385
-1.6142 -4.8115 2.2385
-1.4399 -4.8659 2.2385
-1.2639 -4.9140 2.2385
-1.0862 -4.9559 2.2385
-0.9072 -4.9914 2.2385
-0.7270 -5.0206 2.2385
-0.5460 -5.0433 2.2385
-0.3642 -5.0596 2.2385
-0.1820 -5.0694 2.2385
0.0005 -4.7784 2.2385
0.1724 -4.7754 2.2385
0.3440 -4.7663 2.2385
0.5153 -4.7511 2.2385
0.6859 -4.7299 2.2385
0.8557 -4.7025 2.2385
1.0244 -4.6692 2.2385
1.1918 -4.6299 2.2385
1.3578 -4.5846 2.2385
1.5220 -4.5335 2.2385
1.6844 -4.4766 2.2385
1.8446 -4.4139 2.2385
2.0025 -4.3455 2.2385
2.1580 -4.2715 2.2385
2.3107 -4.1921 2.2385
2.3506 -3.9236 2.1385
2.4872 -3.8321 2.1354
2.6240 -3.7411 2.1354
2.7576 -3.6453 2.1354
2.8877 -3.5448 2.1354
3.0141 -3.4397 2.1354
3.1368 -3.3301 2.1354
3.2555 -3.2162 2.1354
3.3701 -3.0981 2.1354
3.4805 -2.9760 2.1354
3.5864 -2.8499 2.1354
3.6878 -2.7202 2.1354
3.7846 -2.5868 2.1354
3.8765 -2.4501 2.1354
3.9636 -2.3101 2.1354
4.0456 -2.1670 2.1354
4.1224 -2.0210 2.1354
4.1940 -1.8724 2.1354
4.2603 -1.7212 2.1354
4.3212 -1.5677 2.1354
4.3765 -1.4121 2.1354
2.8158 -0.7981 1.3585
4.4703 -1.0952 2.1354
4.5087 -0.9344 2.1354
2.7187 -0.4623 1.2784
4.5680 -0.6089 2.1354
4.5889 -0.4447 2.1354
4.6039 -0.2798 2.1354
4.6130 -0.1144 2.1354
4.6161 0.0512 2.1354
4.6133 0.2170 2.1354
4.6045 0.3826 2.1354
4.5898 0.5478 2.1354
4.5691 0.7124 2.1354
4.5426 0.8763 2.1354
4.5101 1.0391 2.1354
4.4718 1.2007 2.1354
4.4276 1.3609 2.1354
4.3778 1.5195 2.1354
4.3222 1.6762 2.1354
4.2610 1.8309 2.1354
4.1942 1.9832 2.1354
4.1219 2.1332 2.1354
4.0443 2.2805 2.1354
3.9614 2.4249 2.1354
3.8733 2.5663 2.1354
3.7801 2.7044 2.1354
3.6820 2.8391 2.1354
3.5790 2.9703 2.1354
3.4713 3.0976 2.1354
3.3591 3.2210 2.1354
3.2424 3.3403 2.1354
3.1215 3.4554 2.1354
2.9965 3.5660 2.1354
2.8675 3.6720 2.1354
2.7348 3.7734 2.1354
2.5984 3.8698 2.1354
0.8726 1.4059 0.7579
0.8217 1.4363 0.7578
0.7697 1.4649 0.7576
0.7168 1.4916 0.7575
0.6629 1.5163 0.7574
0.6082 1.5391 0.7573
0.5526 1.5600 0.7572
0.4964 1.5788 0.7572
0.4396 1.5956 0.7571
0.3821 1.6103 0.7570
0.3242 1.6230 0.7570
0.2658 1.6336 0.7570
0.2072 1.6421 0.7569
0.1482 1.6485 0.7569
0.0891 1.6527 0.7569
0.0298 1.6549 0.7569
-0.0295 1.6548 0.7569
-0.0887 1.6527 0.7570
-0.1479 1.6485 0.7570
-0.2068 1.6421 0.7570
-0.2655 1.6336 0.7571
-0.3239 1.6230 0.7571
-0.3818 1.6104 0.7572
-0.4392 1.5956 0.7573
-0.4961 1.5788 0.7574
-0.5523 1.5600 0.7575
-0.6078 1.5391 0.7576
-0.6626 1.5163 0.7577
-0.7165 1.4916 0.7578
-0.7694 1.4649 0.7580
-0.8214 1.4363 0.7581
-0.8723 1.4059 0.7582
-0.9221 1.3737 0.7584
-0.9706 1.3397 0.7586
-3.0034 3.8472 2.2385
-3.1384 3.7360 2.2385
-3.2693 3.6200 2.2385
-3.3959 3.4994 2.2385
-3.5180 3.3743 2.2385
-3.6355 3.2450 2.2385
-3.7482 3.1115 2.2385
-3.8560 2.9741 2.2385
-3.9587 2.8329 2.2385
-4.0563 2.6881 2.2385
-4.1485 2.5400 2.2385
-4.2353 2.3887 2.2385
-4.3165 2.2344 2.2385
-4.3921 2.0773 2.2385
-4.4620 1.9177 2.2385
-4.5261 1.7557 2.2385
-4.5843 1.5915 2.2385
-4.6365 1.4254 2.2385
-4.6826 1.2576 2.2385
-4.7227 1.0883 2.2385
-4.7567 0.9178 2.2385
-4.7845 0.7462 2.2385
-4.8062 0.5737 2.2385
-4.8216 0.4007 2.2385
-4.8308 0.2273 2.2385
-4.8337 0.0537 2.2385
-4.8304 -0.1198 2.2385
-4.8209 -0.2931 2.2385
-4.8052 -0.4658 2.2385
-4.7834 -0.6377 2.2385
-4.7554 -0.8088 2.2385
-4.7213 -0.9786 2.2385
-4.6811 -1.1471 2.2385
-4.6350 -1.3139 2.2385
-4.5829 -1.4790 2.2385
