ply
format ascii 1.0
element vertex 2167
property float32 x
property float32 y
property float32 z
end_header
-9.3062 -3.7783 1.4326
-9.3474 -4.1920 1.4620
-9.3253 -4.5910 1.4842
-9.3064 -5.0046 1.5096
-9.3065 -5.4441 1.5411
-9.3066 -5.9026 1.5760
-9.3067 -6.3824 1.6146
-9.3068 -6.8865 1.6573
-9.3069 -7.4182 1.7044
-9.3070 -7.9812 1.7566
-9.3071 -8.5800 1.8144
-9.3073 -9.2199 1.8786
-9.3074 -9.9070 1.9500
-9.3075 -10.6488 2.0296
-9.3077 -11.4543 2.1188
-8.9516 -11.8622 2.1342
-8.5171 -12.1719 2.1342
-8.0720 -12.4659 2.1342
-7.6169 -12.7440 2.1342
-7.1525 -13.0056 2.1342
-6.2074 -12.3149 1.9835
-6.1975 -13.4787 2.1342
-5.7202 -13.7180 2.1386
-5.4642 -14.5545 2.2374
-4.9371 -14.7386 2.2374
-4.4040 -14.9040 2.2374
-3.8655 -15.0505 2.2374
-3.3221 -15.1777 2.2374
-2.7747 -15.2857 2.2374
-2.2239 -15.3743 2.2374
-1.6703 -15.4434 2.2374
-1.1146 -15.4928 2.2374
-0.5576 -15.5226 2.2374
0.0001 -13.3888 2.2374
0.4809 -13.3804 2.2374
0.9612 -13.3551 2.2374
1.4402 -13.3127 2.2374
1.9175 -13.2535 2.2374
2.3376 -12.8753 2.1861
2.7324 -12.4816 2.1343
3.1793 -12.3770 2.1343
3.6222 -12.2567 2.1343
4.0607 -12.1208 2.1343
4.4942 -11.9694 2.1343
4.9220 -11.8026 2.1343
5.3439 -11.6208 2.1343
5.7590 -11.4241 2.1343
6.1671 -11.2128 2.1343
6.7155 -11.2346 2.1824
6.3274 -9.7707 1.9404
6.4289 -9.1867 1.8685
6.6060 -8.7531 1.8269
6.6966 -8.2401 1.7683
6.6980 -7.6625 1.6943
6.7774 -7.2133 1.6472
6.9381 -6.8723 1.6246
7.0105 -6.4622 1.5856
7.0797 -6.0705 1.5503
7.0635 -5.6294 1.5009
6.8358 -5.0575 1.4124
7.0160 -4.8109 1.4124
7.1438 -4.5303 1.4038
7.2001 -4.2114 1.3836
7.2549 -3.9008 1.3657
6.5244 -3.2116 1.2052
7.3936 -3.3152 1.3422
7.5187 -3.0521 1.3435
7.5639 -2.7585 1.3324
7.6146 -2.4711 1.3242
7.6649 -2.1865 1.3177
7.7147 -1.9041 1.3131
7.7644 -1.6231 1.3101
7.8139 -1.3426 1.3088
7.8634 -1.0621 1.3092
7.9131 -0.7808 1.3112
7.9630 -0.4980 1.3150
8.0134 -0.2128 1.3205
8.0643 0.0755 1.3278
8.1158 0.3676 1.3369
8.1683 0.6644 1.3479
8.2217 0.9669 1.3609
8.2860 1.2775 1.3776
7.9764 1.5247 1.3337
7.2385 1.6549 1.2188
6.6163 1.7648 1.1234
6.2345 1.9052 1.0690
6.2689 2.1645 1.0870
6.3115 2.4362 1.1083
6.3620 2.7218 1.1331
2.8763 1.3547 0.5204
6.4704 3.3362 1.1909
6.5292 3.6690 1.2247
6.5915 4.0218 1.2621
2.7593 1.8226 0.5403
6.7289 4.8002 1.3498
6.8054 5.2332 1.4014
6.9363 5.7416 1.4693
6.9781 6.2113 1.5238
6.9734 6.6708 1.5735
6.6309 6.8154 1.5499
6.6297 7.3225 1.6095
6.6486 7.8953 1.6812
6.7857 8.6715 1.7929
7.7912 10.7285 2.1583
7.4860 11.1271 2.1824
7.0838 11.3917 2.1824
6.6721 11.6415 2.1824
6.1138 11.6146 2.1343
5.6944 11.8291 2.1343
5.2673 12.0283 2.1343
4.8332 12.2119 2.1343
4.3926 12.3795 2.1343
3.9462 12.5311 2.1343
3.4945 12.6663 2.1343
3.0381 12.7850 2.1343
2.5776 12.8871 2.1343
2.2157 13.5989 2.2374
1.7265 13.6704 2.2374
1.2349 13.7241 2.2374
0.7416 13.7599 2.2374
0.2474 13.7777 2.2374
-0.2471 13.7775 2.2374
-0.7413 13.7593 2.2374
-1.2345 13.7231 2.2374
-1.7260 13.6690 2.2374
-2.2152 13.5971 2.2374
-2.7014 13.5074 2.2374
-3.1839 13.4001 2.2374
-3.6622 13.2752 2.2374
-4.1355 13.1331 2.2374
-4.6032 12.9740 2.2374
-5.0648 12.7979 2.2374
-5.5196 12.6052 2.2374
-5.9670 12.3961 2.2374
-6.1112 11.6102 2.1343
-6.5221 11.3803 2.1343
-6.9243 11.1357 2.1343
-7.3172 10.8767 2.1343
-7.7003 10.6038 2.1343
-8.0732 10.3172 2.1342
-8.4353 10.0173 2.1342
-8.7862 9.7046 2.1342
-9.1254 9.3796 2.1342
-9.3032 8.8997 2.1005
-9.3033 8.2813 2.0329
-9.3035 7.7012 1.9720
-9.3036 7.1545 1.9171
-9.3037 6.6372 1.8676
-9.3039 6.1457 1.8230
-9.3040 5.6770 1.7827
-9.3041 5.2284 1.7464
-9.3042 4.7975 1.7138
-9.3043 4.3822 1.6845
-9.3044 3.9808 1.6584
-9.3045 3.5915 1.6352
-9.3046 3.2128 1.6146
-9.3047 2.8434 1.5967
-9.3047 2.4820 1.5812
-9.3048 2.1274 1.5680
-9.3049 1.7786 1.5571
-9.3050 1.4346 1.5482
-9.3051 1.0943 1.5415
-9.3051 0.7569 1.5368
-9.3052 0.4214 1.5341
-9.3053 0.0871 1.5334
-9.3054 -0.2471 1.5347
-9.3054 -0.5819 1.5380
-9.3055 -0.9182 1.5432
-9.3056 -1.2570 1.5505
-9.3057 -1.5990 1.5599
-9.3057 -1.9453 1.5714
-9.3058 -2.2969 1.5851
-9.3059 -2.6547 1.6011
-9.3060 -3.0200 1.6196
-9.3060 -3.3939 1.6405
-9.3061 -3.7777 1.6642
-9.3062 -4.1730 1.6907
-9.3063 -4.5811 1.7203
-9.3064 -5.0040 1.7532
-9.3065 -5.4435 1.7897
-9.3065 -5.9020 1.8301
-9.3066 -6.3818 1.8748
-9.3067 -6.8859 1.9242
-9.3068 -7.4175 1.9788
-9.3069 -7.9805 2.0393
-9.3071 -8.5793 2.1063
-9.1089 -9.0227 2.1342
-8.7760 -9.3407 2.1342
-8.4321 -9.6466 2.1342
-8.0777 -9.9400 2.1342
-7.7133 -10.2205 2.1342
-7.3392 -10.4879 2.1342
-6.9560 -10.7417 2.1342
-6.5641 -10.9817 2.1342
-6.1640 -11.2077 2.1342
-5.7563 -11.4192 2.1342
-5.5998 -12.1781 2.2374
-5.1579 -12.3690 2.2374
-4.7096 -12.5440 2.2374
-4.2555 -12.7030 2.2374
-3.7960 -12.8459 2.2374
-3.3319 -12.9723 2.2374
-2.8636 -13.0822 2.2374
-2.3918 -13.1755 2.2374
-1.9170 -13.2520 2.2374
-1.4398 -13.3116 2.2374
-0.9608 -13.3543 2.2374
-0.4806 -13.3800 2.2374
0.0001 -11.7541 2.2374
0.4223 -11.7467 2.2374
0.8439 -11.7244 2.2374
1.2644 -11.6872 2.2374
1.6834 -11.6350 2.2374
2.1004 -11.5681 2.2374
2.3988 -10.9571 2.1343
2.7911 -10.8652 2.1343
3.1799 -10.7594 2.1343
3.5648 -10.6398 2.1343
3.9452 -10.5066 2.1343
4.3207 -10.3600 2.1343
4.6909 -10.2002 2.1343
5.0552 -10.0272 2.1343
5.4132 -9.8414 2.1343
5.7645 -9.6429 2.1343
6.1085 -9.4321 2.1343
6.4383 -9.1995 2.1321
6.5273 -8.6482 2.0568
6.6141 -8.1381 1.9901
6.6981 -7.6620 1.9307
6.7774 -7.2128 1.8771
6.9382 -6.8718 1.8514
7.0106 -6.4617 1.8070
7.0797 -6.0700 1.7669
7.0636 -5.6290 1.7107
6.7194 -4.9710 1.5825
6.7767 -4.6464 1.5551
6.8322 -4.3323 1.5305
6.8861 -4.0273 1.5086
6.9385 -3.7303 1.4891
6.5256 -3.2118 1.3743
7.3952 -3.3155 1.5307
7.5188 -3.0517 1.5320
7.6584 -2.7925 1.5383
7.7098 -2.5015 1.5290
7.7607 -2.2134 1.5216
7.8112 -1.9275 1.5163
7.7644 -1.6227 1.4943
7.8140 -1.3422 1.4929
7.8635 -1.0617 1.4934
8.0120 -0.7902 1.5146
8.0625 -0.5037 1.5191
8.1135 -0.2150 1.5255
8.1650 0.0768 1.5340
8.1159 0.3680 1.5256
8.1683 0.6649 1.5383
8.2217 0.9673 1.5532
8.2861 1.2779 1.5723
7.9753 1.5249 1.5220
7.2375 1.6551 1.3910
6.6155 1.7649 1.2823
6.2346 1.9055 1.2204
6.2689 2.1649 1.2410
6.3116 2.4365 1.2654
6.3620 2.7222 1.2937
2.8757 1.3546 0.5941
6.4705 3.3367 1.3600
6.5293 3.6694 1.3986
6.5916 4.0223 1.4414
6.6580 4.3983 1.4889
6.7290 4.8007 1.5418
6.8531 5.2704 1.6119
6.9364 5.7421 1.6783
6.9782 6.2119 1.7407
6.9730 6.6709 1.7974
6.5607 6.7437 1.7519
6.5277 7.2103 1.8105
6.3772 7.5735 1.8424
6.5681 8.3939 1.9828
6.4335 8.8595 2.0364
6.5514 9.7386 2.1824
6.0626 9.7502 2.1343
5.7101 9.9637 2.1343
5.3501 10.1643 2.1343
4.9829 10.3517 2.1343
4.6091 10.5258 2.1343
4.2291 10.6861 2.1343
3.8435 10.8326 2.1343
3.4528 10.9650 2.1343
3.0575 11.0832 2.1343
2.6582 11.1869 2.1343
2.3324 11.6616 2.2073
1.9386 11.8987 2.2374
1.5105 11.9613 2.2374
1.0804 12.0082 2.2374
0.6489 12.0395 2.2374
0.2165 12.0550 2.2374
-0.2162 12.0549 2.2374
-0.6486 12.0390 2.2374
-1.0801 12.0074 2.2374
-1.5101 11.9602 2.2374
-1.9381 11.8974 2.2374
-2.3636 11.8190 2.2374
-2.7858 11.7253 2.2374
-3.2043 11.6163 2.2374
-3.6185 11.4922 2.2374
-4.0279 11.3532 2.2374
-4.4319 11.1994 2.2374
-4.8300 11.0310 2.2374
-5.2216 10.8484 2.2374
-5.6063 10.6517 2.2374
-5.7299 9.9986 2.1426
-6.0601 9.7465 2.1343
-6.4042 9.5202 2.1343
-6.7398 9.2816 2.1343
-7.0664 9.0311 2.1343
-7.3837 8.7691 2.1343
-7.6911 8.4957 2.1343
-7.9884 8.2116 2.1342
-8.2751 7.9169 2.1342
-8.5509 7.6121 2.1342
-8.8153 7.2977 2.1342
-9.0682 6.9741 2.1342
-9.3037 6.6378 2.1329
-9.3038 6.1463 2.0818
-9.3039 5.6776 2.0357
-9.3040 5.2289 1.9942
-9.3041 4.7980 1.9568
-9.3042 4.3827 1.9233
-9.3043 3.9813 1.8934
-9.3044 3.5920 1.8667
-9.3045 3.2133 1.8432
-9.3046 2.8439 1.8226
-9.3047 2.4825 1.8048
-9.3048 2.1279 1.7896
-9.3048 1.7791 1.7770
-9.3049 1.4351 1.7669
-9.3050 1.0948 1.7591
-9.3051 0.7574 1.7536
-9.3052 0.4219 1.7504
-9.3052 0.0876 1.7495
-9.3053 -0.2466 1.7509
-9.3054 -0.5814 1.7545
-9.3055 -0.9177 1.7604
-9.3055 -1.2565 1.7686
-9.3056 -1.5985 1.7792
-9.3057 -1.9448 1.7922
-9.3057 -2.2964 1.8077
-9.3058 -2.6542 1.8259
-9.3059 -3.0195 1.8468
-9.3060 -3.3933 1.8706
-9.3061 -3.7772 1.8974
-9.3061 -4.1724 1.9276
-9.3062 -4.5805 1.9612
-9.3063 -5.0034 1.9986
-9.3064 -5.4429 2.0401
-9.3065 -5.9014 2.0860
-9.2948 -6.3731 2.1342
-9.0567 -6.7003 2.1342
-8.8072 -7.0187 2.1342
-8.5466 -7.3279 2.1342
-8.2752 -7.6275 2.1342
-7.9934 -7.9172 2.1342
-7.7016 -8.1966 2.1342
-7.4002 -8.4654 2.1342
-7.0894 -8.7232 2.1342
-6.7698 -8.9698 2.1342
-6.4417 -9.2047 2.1342
-6.1055 -9.4278 2.1342
-5.7617 -9.6388 2.1342
-5.6725 -10.3133 2.2374
-5.2974 -10.5083 2.2374
-4.9157 -10.6897 2.2374
-4.5279 -10.8575 2.2374
-4.1344 -11.0114 2.2374
-3.7358 -11.1512 2.2374
-3.3325 -11.2768 2.2374
-2.9251 -11.3880 2.2374
-2.5140 -11.4846 2.2374
-2.0998 -11.5667 2.2374
-1.6830 -11.6339 2.2374
-1.2641 -11.6863 2.2374
-0.8435 -11.7239 2.2374
-0.4220 -11.7464 2.2374
0.0001 -10.4653 2.2374
0.3760 -10.4588 2.2374
0.7514 -10.4389 2.2374
1.1259 -10.4056 2.2374
1.4989 -10.3591 2.2374
1.8702 -10.2994 2.2374
2.2390 -10.2265 2.2374
2.4851 -9.6734 2.1343
2.8312 -9.5790 2.1343
3.1738 -9.4724 2.1343
3.5125 -9.3537 2.1343
3.8467 -9.2230 2.1343
4.1762 -9.0805 2.1343
4.5004 -8.9263 2.1343
4.8191 -8.7607 2.1343
5.1317 -8.5838 2.1343
5.4378 -8.3959 2.1343
5.7372 -8.1971 2.1343
6.0293 -7.9878 2.1343
6.3139 -7.7682 2.1343
6.7116 -7.6769 2.1735
6.7854 -7.2207 2.1114
6.8554 -6.7893 2.0554
6.9242 -6.3815 2.0054
6.9925 -5.9947 1.9609
6.5085 -5.1862 1.7712
6.5665 -4.8574 1.7378
6.6226 -4.5403 1.7078
6.6768 -4.2333 1.6809
6.6877 -3.9108 1.6466
6.7386 -3.6224 1.6254
6.5269 -3.2121 1.5450
7.3968 -3.3158 1.7209
7.5189 -3.0513 1.7221
7.6585 -2.7921 1.7293
7.7099 -2.5011 1.7188
7.7607 -2.2130 1.7107
7.8112 -1.9271 1.7048
7.7645 -1.6222 1.6801
7.8140 -1.3418 1.6786
7.8636 -1.0613 1.6793
8.0120 -0.7897 1.7031
8.0626 -0.5033 1.7083
8.1136 -0.2146 1.7156
8.1651 0.0773 1.7253
8.1160 0.3685 1.7159
8.1684 0.6653 1.7302
8.2218 0.9678 1.7470
8.2862 1.2784 1.7686
7.9741 1.5251 1.7119
7.2365 1.6553 1.5647
6.6146 1.7651 1.4424
6.2346 1.9059 1.3731
6.2690 2.1653 1.3963
6.3117 2.4369 1.4238
6.3621 2.7226 1.4558
2.8751 1.3544 0.6683
6.5159 3.3605 1.5412
6.5751 3.6955 1.5850
6.6378 4.0509 1.6335
6.6580 4.3987 1.6757
6.7291 4.8012 1.7353
6.9219 5.3237 1.8325
7.0060 5.8002 1.9081
6.9783 6.2125 1.9595
6.9725 6.6710 2.0232
6.5603 6.7438 1.9720
6.3184 6.9796 1.9728
6.1613 7.3175 2.0040
6.2797 8.0259 2.1343
5.9891 8.2481 2.1343
5.6906 8.4596 2.1343
5.3845 8.6602 2.1343
5.0714 8.8496 2.1343
4.7515 9.0276 2.1343
4.4253 9.1938 2.1343
4.0932 9.3482 2.1343
3.7557 9.4905 2.1343
3.4132 9.6204 2.1343
3.0662 9.7378 2.1343
2.7152 9.8426 2.1343
2.3605 9.9346 2.1343
2.0994 10.4974 2.2374
1.7215 10.5666 2.2374
1.3414 10.6220 2.2374
0.9594 10.6637 2.2374
0.5762 10.6914 2.2374
0.1923 10.7052 2.2374
-0.1920 10.7051 2.2374
-0.5759 10.6911 2.2374
-0.9591 10.6631 2.2374
-1.3410 10.6212 2.2374
-1.7211 10.5655 2.2374
-2.0989 10.4960 2.2374
-2.4738 10.4129 2.2374
-2.8455 10.3163 2.2374
-3.2134 10.2063 2.2374
-3.5771 10.0829 2.2374
-3.9359 9.9466 2.2374
-4.2895 9.7973 2.2374
-4.6375 9.6353 2.2374
-4.9792 9.4608 2.2374
-5.3144 9.2741 2.2374
-5.6425 9.0754 2.2374
-5.7128 8.4929 2.1435
-5.9866 8.2450 2.1343
-6.2770 8.0228 2.1343
-6.5590 7.7902 2.1343
-6.8323 7.5477 2.1343
-7.0967 7.2955 2.1343
-7.3516 7.0340 2.1343
-7.5969 6.7635 2.1343
-7.8322 6.4844 2.1342
-8.0572 6.1971 2.1342
-8.2715 5.9019 2.1342
-8.4750 5.5994 2.1342
-8.6674 5.2897 2.1342
-8.8484 4.9734 2.1342
-9.0179 4.6509 2.1342
-9.1755 4.3227 2.1342
-9.3043 3.9818 2.1303
-9.3044 3.5925 2.1002
-9.3044 3.2138 2.0737
-9.3045 2.8444 2.0504
-9.3046 2.4830 2.0303
-9.3047 2.1284 2.0131
-9.3048 1.7796 1.9989
-9.3049 1.4356 1.9873
-9.3049 1.0953 1.9785
-9.3050 0.7579 1.9722
-9.3051 0.4224 1.9686
-9.3052 0.0881 1.9675
-9.3052 -0.2461 1.9689
-9.3053 -0.5809 1.9728
-9.3054 -0.9172 1.9794
-9.3055 -1.2559 1.9885
-9.3055 -1.5980 2.0003
-9.3056 -1.9443 2.0148
-9.3057 -2.2958 2.0322
-9.3058 -2.6537 2.0525
-9.3058 -3.0189 2.0759
-9.3059 -3.3928 2.1026
-9.3060 -3.7766 2.1327
-9.1674 -4.1096 2.1342
-9.0107 -4.4345 2.1342
-8.8425 -4.7535 2.1342
-8.6631 -5.0662 2.1342
-8.4727 -5.3721 2.1342
-8.2716 -5.6710 2.1342
-8.0600 -5.9624 2.1342
-7.8382 -6.2460 2.1342
-7.6066 -6.5214 2.1342
-7.3653 -6.7883 2.1342
-7.1148 -7.0464 2.1342
-6.8553 -7.2953 2.1342
-6.5871 -7.5348 2.1342
-6.3107 -7.7645 2.1342
-6.0263 -7.9842 2.1342
-5.7344 -8.1936 2.1342
-5.6983 -8.7984 2.2374
-5.3775 -8.9956 2.2374
-5.0500 -9.1811 2.2374
-4.7162 -9.3549 2.2374
-4.3765 -9.5166 2.2374
-4.0313 -9.6662 2.2374
-3.6811 -9.8034 2.2374
-3.3262 -9.9280 2.2374
-2.9672 -10.0400 2.2374
-2.6044 -10.1390 2.2374
-2.2384 -10.2252 2.2374
-1.8697 -10.2983 2.2374
-1.4985 -10.3582 2.2374
-1.1255 -10.4050 2.2374
-0.7511 -10.4384 2.2374
-0.3757 -10.4585 2.2374
0.0001 -9.4222 2.2374
0.3386 -9.4163 2.2374
0.6766 -9.3984 2.2374
1.0137 -9.3684 2.2374
1.3496 -9.3265 2.2374
1.6838 -9.2727 2.2374
2.0159 -9.2070 2.2374
2.3384 -9.1019 2.2307
2.5491 -8.6238 2.1343
2.8575 -8.5277 2.1343
3.1623 -8.4207 2.1343
3.4632 -8.3029 2.1343
3.7598 -8.1745 2.1343
4.0516 -8.0356 2.1343
4.3384 -7.8863 2.1343
4.6197 -7.7269 2.1343
4.8952 -7.5576 2.1343
5.1645 -7.3785 2.1343
5.4274 -7.1899 2.1343
5.6835 -6.9920 2.1343
5.9323 -6.7850 2.1343
6.1737 -6.5693 2.1343
6.5517 -6.4880 2.1824
6.7824 -6.2503 2.1824
7.0044 -6.0044 2.1824
6.3608 -5.0680 1.9233
6.4175 -4.7467 1.8871
6.4312 -4.4086 1.8428
6.5092 -4.1266 1.8210
6.6554 -3.8915 1.8210
6.7807 -3.6446 1.8176
6.5282 -3.2123 1.7173
7.3985 -3.3161 1.9131
7.5189 -3.0508 1.9140
7.6586 -2.7917 1.9221
7.7100 -2.5007 1.9105
7.7608 -2.2126 1.9015
7.8113 -1.9266 1.8950
7.7646 -1.6218 1.8677
7.8141 -1.3414 1.8661
7.8636 -1.0609 1.8669
8.0121 -0.7893 1.8935
8.0627 -0.5029 1.8993
8.1137 -0.2141 1.9075
8.1652 0.0777 1.9183
8.1161 0.3689 1.9080
8.1685 0.6658 1.9240
8.2219 0.9683 1.9428
8.2863 1.2789 1.9668
7.9729 1.5253 1.9035
7.2356 1.6555 1.7399
6.6138 1.7652 1.6040
6.2347 1.9062 1.5272
6.2690 2.1657 1.5531
6.3117 2.4373 1.5838
6.3622 2.7230 1.6194
2.8745 1.3543 0.7433
6.5813 3.3946 1.7317
6.6410 3.7330 1.7809
6.7044 4.0920 1.8356
6.6581 4.3992 1.8644
6.7292 4.8017 1.9307
6.8057 5.2348 2.0047
6.8979 5.7111 2.0903
6.9851 6.2191 2.1824
6.7593 6.4674 2.1824
6.5245 6.7076 2.1824
6.1428 6.7862 2.1343
5.8968 7.0039 2.1343
5.6430 7.2126 2.1343
5.3817 7.4120 2.1343
5.1133 7.6019 2.1343
4.8382 7.7820 2.1343
4.5568 7.9520 2.1343
4.2692 8.1118 2.1343
3.9761 8.2611 2.1343
3.6777 8.3997 2.1343
3.3744 8.5273 2.1343
3.0666 8.6440 2.1343
2.7548 8.7494 2.1343
2.4394 8.8434 2.1343
2.2232 9.3571 2.2374
1.8862 9.4315 2.2374
1.5467 9.4937 2.2374
1.2051 9.5435 2.2374
0.8620 9.5808 2.2374
0.5177 9.6057 2.2374
0.1727 9.6181 2.2374
-0.1724 9.6180 2.2374
-0.5174 9.6054 2.2374
-0.8616 9.5803 2.2374
-1.2047 9.5428 2.2374
-1.5462 9.4928 2.2374
-1.8857 9.4305 2.2374
-2.2226 9.3559 2.2374
-2.5566 9.2692 2.2374
-2.8871 9.1704 2.2374
-3.2139 9.0598 2.2374
-3.5363 8.9373 2.2374
-3.8541 8.8034 2.2374
-4.1668 8.6580 2.2374
-4.4740 8.5014 2.2374
-4.7752 8.3338 2.2374
-5.0701 8.1554 2.2374
-5.3583 7.9666 2.2374
-5.6395 7.7674 2.2374
-5.7088 7.2971 2.1601
-5.9119 7.0222 2.1407
-6.1402 6.7836 2.1343
-6.3779 6.5571 2.1343
-6.6073 6.3223 2.1343
-6.8279 6.0794 2.1343
-7.0396 5.8287 2.1343
-7.2420 5.5707 2.1343
-7.4349 5.3055 2.1343
-7.6181 5.0337 2.1343
-7.7913 4.7555 2.1342
-7.9543 4.4714 2.1342
-8.1069 4.1816 2.1342
-8.2490 3.8867 2.1342
-8.3802 3.5869 2.1342
-8.5006 3.2826 2.1342
-8.6098 2.9744 2.1342
-8.7079 2.6625 2.1342
-8.7947 2.3474 2.1342
-8.8700 2.0295 2.1342
-8.9338 1.7092 2.1342
-8.9861 1.3869 2.1342
-9.0267 1.0631 2.1342
-9.0557 0.7381 2.1342
-9.0730 0.4124 2.1342
-9.0784 0.0864 2.1342
-9.0723 -0.2394 2.1342
-9.0545 -0.5647 2.1342
-9.0251 -0.8891 2.1342
-8.9840 -1.2121 2.1342
-8.9314 -1.5333 2.1342
-8.8674 -1.8522 2.1342
-8.7921 -2.1686 2.1342
-8.7054 -2.4820 2.1342
-8.6077 -2.7919 2.1342
-8.4989 -3.0981 2.1342
-8.3794 -3.4001 2.1342
-8.2491 -3.6975 2.1342
-8.1083 -3.9900 2.1342
-7.9573 -4.2771 2.1342
-7.7961 -4.5586 2.1342
-7.6250 -4.8342 2.1342
-7.4442 -5.1033 2.1342
-7.2540 -5.3657 2.1342
-7.0547 -5.6211 2.1342
-6.8464 -5.8692 2.1342
-6.6294 -6.1096 2.1342
-6.4041 -6.3421 2.1342
-6.1706 -6.5663 2.1342
-5.9294 -6.7820 2.1342
-5.7164 -7.0328 2.1476
-5.6874 -7.5346 2.2374
-5.4120 -7.7324 2.2374
-5.1298 -7.9202 2.2374
-4.8411 -8.0978 2.2374
-4.5464 -8.2650 2.2374
-4.2459 -8.4216 2.2374
-3.9402 -8.5673 2.2374
-3.6294 -8.7021 2.2374
-3.3141 -8.8257 2.2374
-2.9947 -8.9381 2.2374
-2.6715 -9.0389 2.2374
-2.3449 -9.1282 2.2374
-2.0154 -9.2059 2.2374
-1.6834 -9.2717 2.2374
-1.3492 -9.3258 2.2374
-1.0134 -9.3679 2.2374
-0.6762 -9.3980 2.2374
-0.3383 -9.4161 2.2374
0.0001 -8.5599 2.2374
0.3076 -8.5545 2.2374
0.6147 -8.5382 2.2374
0.9210 -8.5110 2.2374
1.2262 -8.4728 2.2374
1.5298 -8.4238 2.2374
1.8315 -8.3641 2.2374
2.1309 -8.2936 2.2374
2.3442 -7.9303 2.1605
2.5960 -7.7468 2.1343
2.8729 -7.6495 2.1343
3.1462 -7.5424 2.1343
3.4156 -7.4256 2.1343
3.6806 -7.2993 2.1343
3.9411 -7.1636 2.1343
4.1965 -7.0187 2.1343
4.4467 -6.8647 2.1343
4.6913 -6.7019 2.1343
4.9300 -6.5305 2.1343
5.1625 -6.3506 2.1343
5.3884 -6.1625 2.1343
5.6076 -5.9664 2.1343
5.8196 -5.7626 2.1343
6.0243 -5.5513 2.1343
6.2214 -5.3328 2.1343
6.2111 -4.9483 2.0679
6.2258 -4.6046 2.0159
6.3745 -4.3694 2.0113
6.5253 -4.1363 2.0101
6.5767 -3.8451 1.9815
6.6268 -3.5614 1.9562
6.6757 -3.2845 1.9340
7.4002 -3.3164 2.1073
7.5276 -3.0539 2.1103
7.5710 -2.7593 2.0927
7.6205 -2.4712 2.0798
7.6697 -2.1862 2.0698
7.7188 -1.9034 2.0626
7.7680 -1.6221 2.0581
7.8174 -1.3415 2.0564
7.8670 -1.0609 2.0574
7.9171 -0.7795 2.0612
7.9678 -0.4965 2.0677
8.0192 -0.2112 2.0770
8.0715 0.0773 2.0892
8.1248 0.3697 2.1043
8.1793 0.6671 2.1226
8.2352 0.9703 2.1440
8.2926 1.2803 2.1688
7.9717 1.5255 2.0971
7.2345 1.6556 1.9170
6.6130 1.7654 1.7674
6.2347 1.9066 1.6829
6.2691 2.1660 1.7116
6.3118 2.4377 1.7454
6.3622 2.7234 1.7847
2.8738 1.3542 0.8190
6.5814 3.3950 1.9086
6.5991 3.7099 1.9505
6.5918 4.0237 1.9892
6.6632 4.4030 2.0565
6.7439 4.8127 2.1328
6.7214 5.1704 2.1824
6.5332 5.4097 2.1824
6.1969 5.5178 2.1343
5.9964 5.7380 2.1343
5.7880 5.9508 2.1343
5.5721 6.1561 2.1343
5.3488 6.3534 2.1343
5.1184 6.5426 2.1343
4.8814 6.7234 2.1343
4.6379 6.8955 2.1343
4.3883 7.0587 2.1343
4.1329 7.2128 2.1343
3.8721 7.3576 2.1343
3.6061 7.4929 2.1343
3.3354 7.6185 2.1343
3.0604 7.7342 2.1343
2.7812 7.8399 2.1343
2.4984 7.9354 2.1343
2.3192 8.4080 2.2374
2.0162 8.4865 2.2374
1.7106 8.5539 2.2374
1.4027 8.6102 2.2374
1.0929 8.6553 2.2374
0.7817 8.6892 2.2374
0.4695 8.7118 2.2374
0.1567 8.7230 2.2374
-0.1564 8.7229 2.2374
-0.4692 8.7115 2.2374
-0.7814 8.6888 2.2374
-1.0925 8.6547 2.2374
-1.4023 8.6095 2.2374
-1.7101 8.5530 2.2374
-2.0157 8.4854 2.2374
-2.3186 8.4069 2.2374
-2.6184 8.3174 2.2374
-2.9148 8.2171 2.2374
-3.2073 8.1062 2.2374
-3.4955 7.9848 2.2374
-3.7792 7.8530 2.2374
-4.0578 7.7111 2.2374
-4.3311 7.5593 2.2374
-4.5987 7.3976 2.2374
-4.8602 7.2265 2.2374
-5.1153 7.0460 2.2374
-5.3637 6.8564 2.2374
-5.6050 6.6581 2.2374
-5.7028 6.3008 2.1853
-5.7857 5.9487 2.1343
-5.9939 5.7358 2.1343
-6.1942 5.5156 2.1343
-6.3864 5.2884 2.1343
-6.5702 5.0544 2.1343
-6.7454 4.8140 2.1343
-6.9118 4.5675 2.1343
-7.0692 4.3152 2.1343
-7.2173 4.0575 2.1343
-7.3560 3.7947 2.1343
-7.4851 3.5272 2.1343
-7.6044 3.2553 2.1343
-7.7138 2.9793 2.1343
-7.8132 2.6997 2.1342
-7.9025 2.4167 2.1342
-7.9815 2.1308 2.1342
-8.0501 1.8423 2.1342
-8.1083 1.5517 2.1342
-8.1560 1.2592 2.1342
-8.1931 0.9653 2.1342
-8.2197 0.6704 2.1342
-8.2357 0.3748 2.1342
-8.2407 0.0789 2.1342
-8.2355 -0.2169 2.1342
-8.2196 -0.5122 2.1342
-8.1931 -0.8067 2.1342
-8.1561 -1.0999 2.1342
-8.1086 -1.3915 2.1342
-8.0508 -1.6812 2.1342
-7.9826 -1.9685 2.1342
-7.9042 -2.2531 2.1342
-7.8157 -2.5346 2.1342
-7.7172 -2.8127 2.1342
-7.6088 -3.0870 2.1342
-7.4907 -3.3571 2.1342
-7.3631 -3.6228 2.1342
-7.2262 -3.8837 2.1342
-7.0800 -4.1395 2.1342
-6.9248 -4.3898 2.1342
-6.7608 -4.6343 2.1342
-6.5882 -4.8728 2.1342
-6.4073 -5.1049 2.1342
-6.2183 -5.3303 2.1342
-6.0214 -5.5488 2.1342
-5.8168 -5.7601 2.1342
-5.7094 -6.0751 2.1740
-5.6465 -6.4580 2.2374
-5.4098 -6.6552 2.2374
-5.1663 -6.8438 2.2374
-4.9162 -7.0236 2.2374
-4.6599 -7.1943 2.2374
-4.3978 -7.3558 2.2374
-4.1301 -7.5078 2.2374
-3.8572 -7.6501 2.2374
-3.5795 -7.7826 2.2374
-3.2972 -7.9052 2.2374
-3.0108 -8.0176 2.2374
-2.7206 -8.1197 2.2374
-2.4270 -8.2114 2.2374
-2.1304 -8.2926 2.2374
-1.8310 -8.3632 2.2374
-1.5294 -8.4231 2.2374
-1.2258 -8.4722 2.2374
-0.9207 -8.5105 2.2374
-0.6144 -8.5379 2.2374
-0.3073 -8.5544 2.2374
0.0001 -7.8344 2.2374
0.2816 -7.8295 2.2374
0.5626 -7.8145 2.2374
0.8430 -7.7895 2.2374
1.1223 -7.7546 2.2374
1.4002 -7.7097 2.2374
1.6763 -7.6550 2.2374
1.9504 -7.5905 2.2374
2.2220 -7.5162 2.2374
2.3760 -7.0899 2.1343
2.6294 -7.0008 2.1343
2.8795 -6.9027 2.1343
3.1260 -6.7957 2.1343
3.3686 -6.6800 2.1343
3.6069 -6.5557 2.1343
3.8406 -6.4230 2.1343
4.0695 -6.2820 2.1343
4.2933 -6.1329 2.1343
4.5117 -5.9759 2.1343
4.7243 -5.8112 2.1343
4.9310 -5.6389 2.1343
5.1315 -5.4594 2.1343
5.3254 -5.2728 2.1343
5.5126 -5.0793 2.1343
5.6929 -4.8793 2.1343
5.8659 -4.6729 2.1343
6.0314 -4.4603 2.1343
6.1893 -4.2420 2.1343
6.3394 -4.0181 2.1343
6.4220 -3.7542 2.1148
6.4709 -3.4772 2.0878
6.5186 -3.2068 2.0641
7.0115 -3.1418 2.1824
7.1219 -2.8889 2.1824
7.2232 -2.6321 2.1824
7.3152 -2.3718 2.1824
7.3979 -2.1083 2.1824
7.4711 -1.8419 2.1824
7.5348 -1.5730 2.1824
7.5888 -1.3019 2.1824
7.6330 -1.0289 2.1824
7.6674 -0.7545 2.1824
7.6920 -0.4789 2.1824
7.7067 -0.2025 2.1824
7.7114 0.0743 2.1824
7.7062 0.3511 2.1824
7.6911 0.6277 2.1824
7.6660 0.9036 2.1824
7.6310 1.1786 2.1824
7.5861 1.4522 2.1824
7.2335 1.6558 2.0961
6.6121 1.7656 1.9325
6.2348 1.9070 1.8405
6.2691 2.1664 1.8719
6.3119 2.4381 1.9090
6.3623 2.7239 1.9520
2.8732 1.3541 0.8956
6.4753 3.3407 2.0539
6.5416 3.6779 2.1149
6.6117 4.0363 2.1824
6.3219 4.1779 2.1343
6.1695 4.4032 2.1343
6.0090 4.6229 2.1343
5.8407 4.8367 2.1343
5.6647 5.0443 2.1343
5.4814 5.2455 2.1343
5.2908 5.4400 2.1343
5.0933 5.6275 2.1343
4.8891 5.8078 2.1343
4.6785 5.9806 2.1343
4.4617 6.1458 2.1343
4.2391 6.3030 2.1343
4.0109 6.4521 2.1343
3.7774 6.5928 2.1343
3.5390 6.7251 2.1343
3.2959 6.8486 2.1343
3.0484 6.9633 2.1343
2.7970 7.0690 2.1343
2.5419 7.1656 2.1343
2.3273 7.3923 2.1754
2.1196 7.6847 2.2374
1.8427 7.7564 2.2374
1.5633 7.8179 2.2374
1.2819 7.8693 2.2374
0.9988 7.9106 2.2374
0.7144 7.9415 2.2374
0.4291 7.9621 2.2374
0.1432 7.9724 2.2374
-0.1429 7.9723 2.2374
-0.4288 7.9619 2.2374
-0.7141 7.9412 2.2374
-0.9985 7.9101 2.2374
-1.2815 7.8687 2.2374
-1.5629 7.8172 2.2374
-1.8422 7.7555 2.2374
-2.1190 7.6837 2.2374
-2.3930 7.6020 2.2374
-2.6639 7.5105 2.2374
-2.9313 7.4092 2.2374
-3.1948 7.2983 2.2374
-3.4541 7.1780 2.2374
-3.7088 7.0484 2.2374
-3.9587 6.9097 2.2374
-4.2033 6.7620 2.2374
-4.4424 6.6057 2.2374
-4.6756 6.4408 2.2374
-4.9027 6.2677 2.2374
-5.1234 6.0865 2.2374
-5.3373 5.8975 2.2374
-5.5442 5.7009 2.2374
-5.7030 5.4579 2.2215
-5.7112 5.0859 2.1527
-5.8383 4.8349 2.1343
-6.0065 4.6211 2.1343
-6.1668 4.4015 2.1343
-6.3191 4.1762 2.1343
-6.4631 3.9457 2.1343
-6.5987 3.7102 2.1343
-6.7257 3.4700 2.1343
-6.8439 3.2255 2.1343
-6.9531 2.9769 2.1343
-7.0534 2.7246 2.1343
-7.1445 2.4690 2.1343
-7.2263 2.2103 2.1343
-7.2987 1.9490 2.1343
-7.3616 1.6852 2.1343
-7.4151 1.4195 2.1343
-7.4589 1.1520 2.1343
-7.4931 0.8833 2.1343
-7.5176 0.6136 2.1343
-7.5320 0.3432 2.1342
-7.5371 0.0726 2.1342
-7.5325 -0.1980 2.1342
-7.5181 -0.4681 2.1342
-7.4941 -0.7374 2.1342
-7.4605 -1.0057 2.1342
-7.4173 -1.2725 2.1342
-7.3646 -1.5375 2.1342
-7.3024 -1.8003 2.1342
-7.2308 -2.0607 2.1342
-7.1500 -2.3183 2.1342
-7.0601 -2.5728 2.1342
-6.9612 -2.8238 2.1342
-6.8533 -3.0710 2.1342
-6.7367 -3.3142 2.1342
-6.6116 -3.5530 2.1342
-6.4780 -3.7871 2.1342
-6.3361 -4.0162 2.1342
-6.1862 -4.2400 2.1342
-6.0284 -4.4583 2.1342
-5.8630 -4.6708 2.1342
-5.7168 -4.9000 2.1442
-5.7066 -5.2583 2.2103
-5.5805 -5.5257 2.2374
-5.3773 -5.7213 2.2374
-5.1673 -5.9095 2.2374
-4.9508 -6.0901 2.2374
-4.7280 -6.2628 2.2374
-4.4992 -6.4274 2.2374
-4.2647 -6.5838 2.2374
-4.0249 -6.7316 2.2374
-3.7800 -6.8708 2.2374
-3.5302 -7.0012 2.2374
-3.2761 -7.1226 2.2374
-3.0178 -7.2348 2.2374
-2.7557 -7.3377 2.2374
-2.4901 -7.4312 2.2374
-2.2214 -7.5152 2.2374
-1.9499 -7.5896 2.2374
-1.6759 -7.6543 2.2374
-1.3998 -7.7091 2.2374
-1.1219 -7.7541 2.2374
-0.8427 -7.7891 2.2374
-0.5623 -7.8142 2.2374
-0.2813 -7.8293 2.2374
0.0001 -7.2150 2.2374
0.2593 -7.2104 2.2374
0.5182 -7.1966 2.2374
0.7764 -7.1736 2.2374
1.0336 -7.1414 2.2374
1.2896 -7.1001 2.2374
1.5439 -7.0496 2.2374
1.7962 -6.9901 2.2374
2.0463 -6.9217 2.2374
2.2939 -6.8444 2.2374
2.4215 -6.4469 2.1343
2.6519 -6.3565 2.1343
2.8788 -6.2579 2.1343
3.1022 -6.1513 2.1343
3.3216 -6.0368 2.1343
3.5368 -5.9145 2.1343
3.7476 -5.7846 2.1343
3.9536 -5.6472 2.1343
4.1546 -5.5026 2.1343
4.3504 -5.3508 2.1343
4.5406 -5.1921 2.1343
4.7252 -5.0267 2.1343
4.9037 -4.8548 2.1343
5.0760 -4.6766 2.1343
5.2418 -4.4923 2.1343
5.4010 -4.3021 2.1343
5.5533 -4.1064 2.1343
5.6986 -3.9053 2.1343
5.8366 -3.6990 2.1343
5.9672 -3.4880 2.1343
6.0902 -3.2723 2.1343
6.2054 -3.0523 2.1343
6.3127 -2.8283 2.1343
6.5564 -2.6591 2.1824
6.6495 -2.4227 2.1824
6.7341 -2.1830 2.1824
6.8101 -1.9403 2.1824
6.8773 -1.6951 2.1824
6.9358 -1.4475 2.1824
6.9853 -1.1979 2.1824
7.0258 -0.9467 2.1824
7.0574 -0.6940 2.1824
7.0798 -0.4404 2.1824
7.0932 -0.1860 2.1824
7.0974 0.0687 2.1824
7.0924 0.3236 2.1824
7.0783 0.5781 2.1824
7.0551 0.8320 2.1824
7.0227 1.0850 2.1824
6.9813 1.3368 2.1824
6.9308 1.5869 2.1824
6.6112 1.7657 2.0998
6.2348 1.9074 2.0002
6.2713 2.1675 2.0350
6.3191 2.4413 2.0770
6.3754 2.7298 2.1258
2.8726 1.3539 0.9731
6.1912 3.1945 2.1343
6.0742 3.4155 2.1343
5.9492 3.6322 2.1343
5.8165 3.8443 2.1343
5.6761 4.0515 2.1343
5.5284 4.2535 2.1343
5.3734 4.4501 2.1343
5.2115 4.6411 2.1343
5.0427 4.8261 2.1343
4.8673 5.0049 2.1343
4.6855 5.1773 2.1343
4.4976 5.3431 2.1343
4.3038 5.5020 2.1343
4.1043 5.6539 2.1343
3.8995 5.7984 2.1343
3.6895 5.9355 2.1343
3.4747 6.0649 2.1343
3.2554 6.1865 2.1343
3.0317 6.3001 2.1343
2.8041 6.4055 2.1343
2.5728 6.5027 2.1343
2.3387 6.5931 2.1349
2.2018 6.9939 2.2374
1.9496 7.0689 2.2374
1.6949 7.1347 2.2374
1.4379 7.1913 2.2374
1.1791 7.2386 2.2374
0.9187 7.2765 2.2374
0.6571 7.3049 2.2374
0.3947 7.3239 2.2374
0.1317 7.3334 2.2374
-0.1314 7.3333 2.2374
-0.3944 7.3237 2.2374
-0.6568 7.3047 2.2374
-0.9184 7.2761 2.2374
-1.1787 7.2381 2.2374
-1.4375 7.1907 2.2374
-1.6944 7.1340 2.2374
-1.9491 7.0681 2.2374
-2.2012 6.9930 2.2374
-2.4504 6.9088 2.2374
-2.6963 6.8157 2.2374
-2.9387 6.7137 2.2374
-3.1772 6.6031 2.2374
-3.4116 6.4840 2.2374
-3.6415 6.3565 2.2374
-3.8665 6.2207 2.2374
-4.0865 6.0770 2.2374
-4.3012 5.9254 2.2374
-4.5101 5.7662 2.2374
-4.7132 5.5996 2.2374
-4.9101 5.4258 2.2374
-5.1005 5.2451 2.2374
-5.2843 5.0576 2.2374
-5.4611 4.8637 2.2374
-5.6308 4.6635 2.2374
-5.7032 4.3882 2.2027
-5.7124 4.0775 2.1488
-5.8141 3.8429 2.1343
-5.9467 3.6309 2.1343
-6.0716 3.4142 2.1343
-6.1885 3.1933 2.1343
-6.2974 2.9684 2.1343
-6.3982 2.7397 2.1343
-6.4905 2.5076 2.1343
-6.5745 2.2724 2.1343
-6.6499 2.0344 2.1343
-6.7167 1.7939 2.1343
-6.7748 1.5513 2.1343
-6.8241 1.3067 2.1343
-6.8646 1.0606 2.1343
-6.8962 0.8133 2.1343
-6.9190 0.5651 2.1343
-6.9323 0.3163 2.1342
-6.9372 0.0672 2.1342
-6.9331 -0.1818 2.1342
-6.9200 -0.4304 2.1342
-6.8981 -0.6784 2.1342
-6.8673 -0.9253 2.1342
-6.8277 -1.1709 2.1342
-6.7793 -1.4149 2.1342
-6.7222 -1.6569 2.1342
-6.6565 -1.8967 2.1342
-6.5823 -2.1338 2.1342
-6.4996 -2.3681 2.1342
-6.4087 -2.5993 2.1342
-6.3095 -2.8270 2.1342
-6.2023 -3.0509 2.1342
-6.0872 -3.2708 2.1342
-5.9643 -3.4864 2.1342
-5.8338 -3.6974 2.1342
-5.7171 -3.9181 2.1421
-5.7064 -4.2198 2.1940
-5.6597 -4.5084 2.2374
-5.4929 -4.7077 2.2374
-5.3192 -4.9009 2.2374
-5.1387 -5.0877 2.2374
-4.9516 -5.2680 2.2374
-4.7583 -5.4414 2.2374
-4.5590 -5.6077 2.2374
-4.3539 -5.7668 2.2374
-4.1433 -5.9185 2.2374
-3.9274 -6.0626 2.2374
-3.7065 -6.1988 2.2374
-3.4810 -6.3271 2.2374
-3.2511 -6.4472 2.2374
-3.0171 -6.5590 2.2374
-2.7792 -6.6624 2.2374
-2.5378 -6.7573 2.2374
-2.2933 -6.8435 2.2374
-2.0458 -6.9209 2.2374
-1.7958 -6.9894 2.2374
-1.5434 -7.0490 2.2374
-1.2892 -7.0995 2.2374
-1.0333 -7.1410 2.2374
-0.7761 -7.1733 2.2374
-0.5179 -7.1964 2.2374
-0.2590 -7.2103 2.2374
0.0001 -6.6794 2.2374
0.2401 -6.6752 2.2374
0.4798 -6.6624 2.2374
0.7188 -6.6411 2.2374
0.9570 -6.6113 2.2374
1.1939 -6.5730 2.2374
1.4293 -6.5262 2.2374
1.6630 -6.4711 2.2374
1.8945 -6.4077 2.2374
2.1237 -6.3361 2.2374
2.3391 -6.2270 2.2269
2.4551 -5.8844 2.1343
2.6652 -5.7931 2.1343
2.8719 -5.6943 2.1343
3.0750 -5.5882 2.1343
3.2742 -5.4750 2.1343
3.4693 -5.3546 2.1343
3.6600 -5.2274 2.1343
3.8460 -5.0934 2.1343
4.0272 -4.9529 2.1343
4.2032 -4.8059 2.1343
4.3740 -4.6527 2.1343
4.5392 -4.4935 2.1343
4.6986 -4.3285 2.1343
4.8520 -4.1579 2.1343
4.9993 -3.9818 2.1343
5.1402 -3.8005 2.1343
5.2746 -3.6143 2.1343
5.4023 -3.4234 2.1343
5.5230 -3.2279 2.1343
5.6368 -3.0283 2.1343
5.7433 -2.8246 2.1343
5.8425 -2.6172 2.1343
5.9342 -2.4064 2.1343
6.0184 -2.1923 2.1343
6.0948 -1.9754 2.1343
6.1635 -1.7557 2.1343
6.2242 -1.5337 2.1343
6.2769 -1.3096 2.1343
6.3216 -1.0838 2.1343
6.3582 -0.8563 2.1343
6.5305 -0.6418 2.1824
6.5512 -0.4071 2.1824
6.5634 -0.1717 2.1824
6.5671 0.0640 2.1824
6.5624 0.2997 2.1824
6.5492 0.5353 2.1824
6.5276 0.7702 2.1824
6.4975 1.0043 2.1824
6.3167 1.2099 2.1343
6.2709 1.4362 2.1343
6.2170 1.6608 2.1343
6.1550 1.8833 2.1343
6.0851 2.1035 2.1343
6.0072 2.3212 2.1343
5.9216 2.5359 2.1343
2.8719 1.3538 1.0517
5.7273 2.9555 2.1343
5.6189 3.1599 2.1343
5.5032 3.3602 2.1343
5.3803 3.5564 2.1343
5.2504 3.7480 2.1343
5.1137 3.9348 2.1343
4.9703 4.1166 2.1343
4.8204 4.2931 2.1343
4.6642 4.4642 2.1343
4.5019 4.6296 2.1343
4.3337 4.7890 2.1343
4.1598 4.9422 2.1343
3.9805 5.0891 2.1343
3.7960 5.2295 2.1343
3.6065 5.3631 2.1343
3.4123 5.4899 2.1343
3.2136 5.6095 2.1343
3.0107 5.7219 2.1343
2.8038 5.8269 2.1343
2.5933 5.9244 2.1343
2.3794 6.0142 2.1343
2.2667 6.3906 2.2374
2.0362 6.4684 2.2374
1.8030 6.5377 2.2374
1.5674 6.5986 2.2374
1.3298 6.6509 2.2374
1.0904 6.6946 2.2374
0.8496 6.7296 2.2374
0.6077 6.7559 2.2374
0.3650 6.7735 2.2374
0.1218 6.7822 2.2374
-0.1215 6.7822 2.2374
-0.3647 6.7733 2.2374
-0.6074 6.7557 2.2374
-0.8493 6.7293 2.2374
-1.0901 6.6942 2.2374
-1.3294 6.6504 2.2374
-1.5670 6.5980 2.2374
-1.8025 6.5370 2.2374
-2.0357 6.4676 2.2374
-2.2661 6.3898 2.2374
-2.4936 6.3037 2.2374
-2.7178 6.2095 2.2374
-2.9385 6.1073 2.2374
-3.1552 5.9971 2.2374
-3.3679 5.8793 2.2374
-3.5761 5.7538 2.2374
-3.7796 5.6209 2.2374
-3.9781 5.4808 2.2374
-4.1715 5.3336 2.2374
-4.3593 5.1796 2.2374
-4.5415 5.0189 2.2374
-4.7177 4.8518 2.2374
-4.8878 4.6785 2.2374
-5.0514 4.4992 2.2374
-5.2084 4.3141 2.2374
-5.3587 4.1235 2.2374
-5.5019 3.9277 2.2374
-5.6380 3.7269 2.2374
-5.7034 3.4827 2.2129
-5.7075 3.2098 2.1688
-5.7250 2.9545 2.1343
-5.8258 2.7464 2.1343
-5.9191 2.5349 2.1343
-6.0047 2.3203 2.1343
-6.0825 2.1027 2.1343
-6.1524 1.8826 2.1343
-6.2143 1.6601 2.1343
-6.2682 1.4356 2.1343
-6.3139 1.2094 2.1343
-6.3515 0.9817 2.1343
-6.3809 0.7529 2.1343
-6.4021 0.5232 2.1343
-6.4145 0.2930 2.1342
-6.4191 0.0625 2.1342
-6.4154 -0.1679 2.1342
-6.4035 -0.3980 2.1342
-6.3833 -0.6274 2.1342
-6.3550 -0.8559 2.1342
-6.3184 -1.0832 2.1342
-6.2738 -1.3090 2.1342
-6.2210 -1.5330 2.1342
-6.1604 -1.7549 2.1342
-6.0918 -1.9745 2.1342
-6.0154 -2.1914 2.1342
-5.9313 -2.4053 2.1342
-5.8397 -2.6161 2.1342
-5.7405 -2.8234 2.1342
-5.7114 -3.0685 2.1635
-5.7062 -3.3352 2.2060
-5.6610 -3.5875 2.2374
-5.5273 -3.7877 2.2374
-5.3865 -3.9828 2.2374
-5.2389 -4.1728 2.2374
-5.0846 -4.3574 2.2374
-4.9238 -4.5363 2.2374
-4.7568 -4.7093 2.2374
-4.5837 -4.8762 2.2374
-4.4048 -5.0367 2.2374
-4.2203 -5.1908 2.2374
-4.0305 -5.3382 2.2374
-3.8356 -5.4786 2.2374
-3.6358 -5.6121 2.2374
-3.4314 -5.7382 2.2374
-3.2226 -5.8570 2.2374
-3.0098 -5.9683 2.2374
-2.7931 -6.0719 2.2374
-2.5729 -6.1676 2.2374
-2.3495 -6.2555 2.2374
-2.1231 -6.3353 2.2374
-1.8940 -6.4070 2.2374
-1.6625 -6.4705 2.2374
-1.4289 -6.5257 2.2374
-1.1935 -6.5725 2.2374
-0.9566 -6.6109 2.2374
-0.7185 -6.6408 2.2374
-0.4794 -6.6622 2.2374
-0.2398 -6.6751 2.2374
0.0001 -6.2114 2.2374
0.2233 -6.2074 2.2374
0.4462 -6.1955 2.2374
0.6685 -6.1757 2.2374
0.8900 -6.1479 2.2374
1.1103 -6.1123 2.2374
1.3292 -6.0688 2.2374
1.5465 -6.0175 2.2374
1.7618 -5.9586 2.2374
1.9749 -5.8919 2.2374
2.1855 -5.8177 2.2374
2.3392 -5.6064 2.1868
2.4784 -5.3868 2.1343
2.6707 -5.2949 2.1343
2.8595 -5.1963 2.1343
3.0447 -5.0909 2.1343
3.2261 -4.9789 2.1343
3.4034 -4.8606 2.1343
3.5763 -4.7359 2.1343
3.7448 -4.6052 2.1343
3.9084 -4.4685 2.1343
4.0671 -4.3260 2.1343
4.2207 -4.1779 2.1343
4.3689 -4.0244 2.1343
4.5115 -3.8657 2.1343
4.6484 -3.7019 2.1343
4.7793 -3.5333 2.1343
4.9042 -3.3602 2.1343
5.0228 -3.1826 2.1343
5.1350 -3.0008 2.1343
5.2407 -2.8151 2.1343
5.3396 -2.6258 2.1343
5.4318 -2.4329 2.1343
5.5170 -2.2368 2.1343
5.5951 -2.0378 2.1343
5.6661 -1.8361 2.1343
5.7298 -1.6318 2.1343
5.7862 -1.4254 2.1343
5.8351 -1.2171 2.1343
5.8766 -1.0071 2.1343
5.9105 -0.7957 2.1343
5.9368 -0.5831 2.1343
5.9554 -0.3697 2.1343
5.9664 -0.1558 2.1343
5.9697 0.0585 2.1343
5.9653 0.2728 2.1343
5.9532 0.4869 2.1343
5.9335 0.7004 2.1343
5.9060 0.9132 2.1343
5.8710 1.1249 2.1343
5.8283 1.3352 2.1343
5.7781 1.5439 2.1343
5.7204 1.7507 2.1343
5.6553 1.9553 2.1343
5.5828 2.1575 2.1343
5.5031 2.3570 2.1343
2.8712 1.3537 1.1314
5.3224 2.7469 2.1343
5.2216 2.9368 2.1343
5.1140 3.1229 2.1343
4.9997 3.3051 2.1343
4.8790 3.4831 2.1343
4.7518 3.6567 2.1343
4.6185 3.8256 2.1343
4.4792 3.9896 2.1343
4.3340 4.1485 2.1343
4.1831 4.3021 2.1343
4.0268 4.4502 2.1343
3.8652 4.5925 2.1343
3.6985 4.7290 2.1343
3.5271 4.8593 2.1343
3.3510 4.9835 2.1343
3.1705 5.1011 2.1343
2.9858 5.2123 2.1343
2.7973 5.3167 2.1343
2.6051 5.4142 2.1343
0.8579 1.9600 0.7599
2.3174 5.8580 2.2374
2.1060 5.9379 2.2374
1.8918 6.0100 2.2374
1.6752 6.0744 2.2374
1.4563 6.1310 2.2374
1.2355 6.1795 2.2374
1.0131 6.2201 2.2374
0.7894 6.2527 2.2374
0.5646 6.2771 2.2374
0.3391 6.2934 2.2374
0.1132 6.3015 2.2374
-0.1129 6.3015 2.2374
-0.3388 6.2932 2.2374
-0.5643 6.2769 2.2374
-0.7891 6.2524 2.2374
-1.0128 6.2198 2.2374
-1.2351 6.1791 2.2374
-1.4559 6.1304 2.2374
-1.6747 6.0738 2.2374
-1.8913 6.0094 2.2374
-2.1055 5.9371 2.2374
-2.3168 5.8572 2.2374
-0.8578 1.9600 0.7600
-0.9275 1.9279 0.7601
-2.9316 5.5725 2.2374
-3.1292 5.4630 2.2374
-3.3227 5.3465 2.2374
-3.5118 5.2231 2.2374
-3.6963 5.0929 2.2374
-3.8760 4.9562 2.2374
-4.0506 4.8132 2.2374
-4.2199 4.6639 2.2374
-4.3837 4.5087 2.2374
-4.5418 4.3477 2.2374
-4.6939 4.1811 2.2374
-4.8399 4.0092 2.2374
-4.9796 3.8322 2.2374
-5.1128 3.6503 2.2374
-5.2393 3.4637 2.2374
-5.3590 3.2728 2.2374
-5.4717 3.0776 2.2374
-5.5773 2.8786 2.2374
-5.6757 2.6760 2.2374
-5.7037 2.4430 2.2130
-5.7044 2.2046 2.1817
-5.7110 1.9747 2.1562
-5.7181 1.7501 2.1343
-5.7757 1.5433 2.1343
-5.8259 1.3347 2.1343
-5.8685 1.1244 2.1343
-5.9164 0.9148 2.1389
-5.9310 0.7002 2.1343
-5.9508 0.4867 2.1343
-5.9624 0.2727 2.1342
-5.9668 0.0585 2.1342
-5.9635 -0.1557 2.1342
-5.9525 -0.3696 2.1342
-5.9338 -0.5829 2.1342
-5.9182 -0.7968 2.1380
-5.8737 -1.0066 2.1342
-5.8323 -1.2166 2.1342
-5.7834 -1.4248 2.1342
-5.7271 -1.6311 2.1342
-5.7138 -1.8516 2.1532
-5.7075 -2.0788 2.1780
-5.7059 -2.3136 2.2083
-5.6919 -2.5496 2.2374
-5.5954 -2.7517 2.2374
-5.4917 -2.9501 2.2374
-5.3810 -3.1448 2.2374
-5.2635 -3.3353 2.2374
-5.1392 -3.5214 2.2374
-5.0084 -3.7029 2.2374
-4.8712 -3.8796 2.2374
-4.7278 -4.0513 2.2374
-4.5783 -4.2177 2.2374
-4.4231 -4.3786 2.2374
-4.2622 -4.5338 2.2374
-4.0959 -4.6832 2.2374
-3.9244 -4.8265 2.2374
-3.7480 -4.9636 2.2374
-3.5667 -5.0943 2.2374
-3.3810 -5.2184 2.2374
-3.1909 -5.3357 2.2374
-2.9968 -5.4463 2.2374
-2.7989 -5.5498 2.2374
-2.5974 -5.6461 2.2374
-2.3927 -5.7352 2.2374
-2.1849 -5.8170 2.2374
-1.9744 -5.8912 2.2374
-1.7613 -5.9579 2.2374
-1.5461 -6.0170 2.2374
-1.3288 -6.0683 2.2374
-1.1099 -6.1119 2.2374
-0.8896 -6.1476 2.2374
-0.6682 -6.1754 2.2374
-0.4459 -6.1954 2.2374
-0.2230 -6.2073 2.2374
0.0001 -5.7984 2.2374
0.2085 -5.7947 2.2374
0.4165 -5.7836 2.2374
0.6241 -5.7651 2.2374
0.8308 -5.7391 2.2374
1.0365 -5.7058 2.2374
1.2409 -5.6652 2.2374
1.4438 -5.6174 2.2374
1.6448 -5.5623 2.2374
1.8437 -5.5000 2.2374
2.0403 -5.4307 2.2374
2.2343 -5.3545 2.2374
2.3444 -5.0951 2.1626
2.4931 -4.9426 2.1343
2.6694 -4.8504 2.1343
2.8423 -4.7520 2.1343
3.0116 -4.6475 2.1343
3.1770 -4.5370 2.1343
3.3385 -4.4206 2.1343
3.4956 -4.2985 2.1343
3.6484 -4.1708 2.1343
3.7965 -4.0378 2.1343
3.9398 -3.8995 2.1343
4.0780 -3.7562 2.1343
4.2111 -3.6080 2.1343
4.3388 -3.4551 2.1343
4.4610 -3.2977 2.1343
4.5775 -3.1360 2.1343
4.6882 -2.9702 2.1343
4.7928 -2.8005 2.1343
4.8914 -2.6272 2.1343
4.9837 -2.4504 2.1343
5.0696 -2.2703 2.1343
5.1491 -2.0873 2.1343
5.2219 -1.9016 2.1343
5.2881 -1.7132 2.1343
5.3475 -1.5226 2.1343
5.4000 -1.3300 2.1343
5.4456 -1.1355 2.1343
5.4842 -0.9395 2.1343
5.5157 -0.7422 2.1343
5.5402 -0.5439 2.1343
5.5575 -0.3447 2.1343
5.5677 -0.1450 2.1343
5.5707 0.0549 2.1343
5.5665 0.2549 2.1343
5.5551 0.4547 2.1343
5.5366 0.6539 2.1343
5.5109 0.8524 2.1343
5.4781 1.0499 2.1343
5.4382 1.2461 2.1343
5.3913 1.4408 2.1343
5.3374 1.6338 2.1343
5.2765 1.8247 2.1343
5.2089 2.0133 2.1343
5.1344 2.1994 2.1343
2.8706 1.3536 1.2124
4.9657 2.5631 2.1343
4.8716 2.7402 2.1343
4.7711 2.9139 2.1343
4.6644 3.0838 2.1343
4.5517 3.2498 2.1343
4.4331 3.4117 2.1343
4.3086 3.5692 2.1343
4.1786 3.7222 2.1343
4.0431 3.8704 2.1343
3.9023 4.0136 2.1343
3.7564 4.1517 2.1343
3.6057 4.2845 2.1343
3.4502 4.4117 2.1343
3.2902 4.5333 2.1343
3.1259 4.6490 2.1343
2.9575 4.7588 2.1343
2.7852 4.8624 2.1343
2.6093 4.9597 2.1343
0.8656 1.7992 0.7603
0.8006 1.8291 0.7602
0.7344 1.8567 0.7602
0.6674 1.8818 0.7601
0.5995 1.9046 0.7601
0.5308 1.9248 0.7600
0.4614 1.9426 0.7600
0.3914 1.9580 0.7600
0.9450 5.8023 2.2374
0.7363 5.8326 2.2374
0.5267 5.8554 2.2374
0.3163 5.8706 2.2374
0.1056 5.8782 2.2374
-0.1053 5.8781 2.2374
-0.3160 5.8705 2.2374
-0.5264 5.8552 2.2374
-0.7360 5.8324 2.2374
-0.9447 5.8020 2.2374
-0.3913 1.9580 0.7600
-0.4613 1.9427 0.7601
-0.5307 1.9248 0.7601
-0.5994 1.9045 0.7602
-0.6673 1.8818 0.7602
-0.7344 1.8567 0.7603
-0.8005 1.8291 0.7603
-0.8655 1.7992 0.7604
-0.9295 1.7669 0.7605
-2.9190 5.0964 2.2374
-3.0995 4.9877 2.2374
-3.2759 4.8726 2.2374
-3.4481 4.7513 2.2374
-3.6158 4.6238 2.2374
-3.7787 4.4904 2.2374
-3.9367 4.3512 2.2374
-4.0895 4.2065 2.2374
-4.2370 4.0563 2.2374
-4.3790 3.9010 2.2374
-4.5152 3.7406 2.2374
-4.6456 3.5755 2.2374
-4.7699 3.4058 2.2374
-4.8880 3.2318 2.2374
-4.9998 3.0537 2.2374
-5.1050 2.8717 2.2374
-5.2036 2.6861 2.2374
-5.2955 2.4971 2.2374
-5.3804 2.3049 2.2374
-5.4584 2.1099 2.2374
-5.5293 1.9122 2.2374
-5.5930 1.7121 2.2374
-5.6495 1.5099 2.2374
-5.6987 1.3059 2.2374
-5.7040 1.0933 2.2232
-5.7040 0.8823 2.2100
-5.7041 0.6737 2.1998
-5.7041 0.4669 2.1924
-5.7042 0.2612 2.1880
-5.7054 0.0563 2.1868
-5.7055 -0.1486 2.1880
-5.7055 -0.3539 2.1920
-5.7056 -0.5601 2.1989
-5.7056 -0.7678 2.2087
-5.7056 -0.9775 2.2214
-5.7057 -1.1898 2.2372
-5.6586 -1.3937 2.2374
-5.6036 -1.5956 2.2374
-5.5414 -1.7954 2.2374
-5.4721 -1.9927 2.2374
-5.3958 -2.1875 2.2374
-5.3125 -2.3793 2.2374
-5.2225 -2.5679 2.2374
-5.1258 -2.7532 2.2374
-5.0226 -2.9349 2.2374
-4.9129 -3.1128 2.2374
-4.7970 -3.2865 2.2374
-4.6749 -3.4560 2.2374
-4.5469 -3.6210 2.2374
-4.4131 -3.7812 2.2374
-4.2736 -3.9366 2.2374
-4.1288 -4.0869 2.2374
-3.9786 -4.2318 2.2374
-3.8235 -4.3713 2.2374
-3.6634 -4.5051 2.2374
-3.4987 -4.6331 2.2374
-3.3295 -4.7552 2.2374
-3.1561 -4.8711 2.2374
-2.9788 -4.9807 2.2374
-2.7976 -5.0839 2.2374
-2.6128 -5.1805 2.2374
-2.4248 -5.2705 2.2374
-2.2337 -5.3538 2.2374
-2.0397 -5.4301 2.2374
-1.8432 -5.4994 2.2374
-1.6443 -5.5617 2.2374
-1.4433 -5.6169 2.2374
-1.2406 -5.6648 2.2374
-1.0362 -5.7055 2.2374
-0.8305 -5.7389 2.2374
-0.6238 -5.7649 2.2374
-0.4162 -5.7835 2.2374
-0.2082 -5.7946 2.2374
0.0001 -5.4310 2.2374
0.1953 -5.4275 2.2374
0.3902 -5.4171 2.2374
0.5846 -5.3997 2.2374
0.7782 -5.3754 2.2374
0.9709 -5.3442 2.2374
1.1624 -5.3062 2.2374
1.3523 -5.2613 2.2374
1.5406 -5.2097 2.2374
1.7269 -5.1514 2.2374
1.9111 -5.0864 2.2374
2.0928 -5.0150 2.2374
2.2718 -4.9370 2.2374
2.3482 -4.6551 2.1463
2.5003 -4.5428 2.1343
2.6622 -4.4506 2.1343
2.8207 -4.3527 2.1343
2.9757 -4.2491 2.1343
3.1269 -4.1401 2.1343
3.2740 -4.0257 2.1343
3.4171 -3.9061 2.1343
3.5558 -3.7814 2.1343
3.6899 -3.6519 2.1343
3.8194 -3.5176 2.1343
3.9440 -3.3788 2.1343
4.0635 -3.2355 2.1343
4.1779 -3.0881 2.1343
4.2870 -2.9366 2.1343
4.3906 -2.7813 2.1343
4.4885 -2.6224 2.1343
4.5808 -2.4600 2.1343
4.6672 -2.2944 2.1343
4.7476 -2.1258 2.1343
4.8219 -1.9544 2.1343
4.8901 -1.7804 2.1343
4.9519 -1.6040 2.1343
5.0075 -1.4255 2.1343
5.0566 -1.2451 2.1343
5.0992 -1.0630 2.1343
5.1353 -0.8794 2.1343
5.1648 -0.6947 2.1343
5.1876 -0.5089 2.1343
5.2038 -0.3225 2.1343
5.2132 -0.1355 2.1343
5.2159 0.0518 2.1343
5.2120 0.2390 2.1343
5.2012 0.4260 2.1343
5.1838 0.6126 2.1343
5.1597 0.7984 2.1343
5.1289 0.9833 2.1343
5.0915 1.1670 2.1343
5.0475 1.3493 2.1343
4.9969 1.5299 2.1343
4.9399 1.7086 2.1343
4.8765 1.8852 2.1343
4.8068 2.0594 2.1343
2.8699 1.3534 1.2948
4.6487 2.3998 2.1343
4.5605 2.5656 2.1343
4.4664 2.7281 2.1343
4.3665 2.8872 2.1343
4.2610 3.0425 2.1343
4.1498 3.1940 2.1343
4.0333 3.3415 2.1343
3.9115 3.4846 2.1343
3.7846 3.6233 2.1343
3.6528 3.7573 2.1343
3.5163 3.8866 2.1343
3.3751 4.0108 2.1343
3.2295 4.1299 2.1343
3.0797 4.2436 2.1343
2.9259 4.3519 2.1343
2.7683 4.4546 2.1343
2.6070 4.5516 2.1343
0.8704 1.6546 0.7606
0.8105 1.6847 0.7606
0.7496 1.7127 0.7605
0.6877 1.7386 0.7605
0.6249 1.7621 0.7604
0.5613 1.7834 0.7604
0.4970 1.8024 0.7603
0.4320 1.8191 0.7603
0.3665 1.8334 0.7603
0.3005 1.8454 0.7602
0.2342 1.8550 0.7602
0.1675 1.8622 0.7602
0.1006 1.8670 0.7602
0.0336 1.8694 0.7602
-0.0335 1.8694 0.7602
-0.1005 1.8670 0.7602
-0.1674 1.8622 0.7602
-0.2341 1.8550 0.7602
-0.3004 1.8454 0.7603
-0.3664 1.8334 0.7603
-0.4319 1.8191 0.7603
-0.4969 1.8024 0.7604
-0.5612 1.7834 0.7604
-0.6248 1.7621 0.7605
-0.6876 1.7386 0.7605
-0.7495 1.7127 0.7606
-0.8104 1.6847 0.7607
-0.8703 1.6546 0.7608
-0.9291 1.6223 0.7608
-2.9012 4.6690 2.2374
-3.0664 4.5613 2.2374
-3.2276 4.4478 2.2374
-3.3845 4.3285 2.2374
-3.5371 4.2037 2.2374
-3.6850 4.0734 2.2374
-3.8281 3.9379 2.2374
-3.9662 3.7974 2.2374
-4.0992 3.6520 2.2374
-4.2268 3.5020 2.2374
-4.3489 3.3474 2.2374
-4.4653 3.1886 2.2374
-4.5759 3.0258 2.2374
-4.6806 2.8591 2.2374
-4.7791 2.6888 2.2374
-4.8715 2.5150 2.2374
-4.9575 2.3381 2.2374
-5.0371 2.1582 2.2374
-5.1102 1.9756 2.2374
-5.1767 1.7906 2.2374
-5.2364 1.6033 2.2374
-5.2893 1.4140 2.2374
-5.3354 1.2230 2.2374
-5.3746 1.0305 2.2374
-5.4069 0.8367 2.2374
-5.4322 0.6420 2.2374
-5.4504 0.4464 2.2374
-5.4616 0.2505 2.2374
-5.4658 0.0542 2.2374
-5.4630 -0.1420 2.2374
-5.4531 -0.3379 2.2374
-5.4361 -0.5333 2.2374
-5.4122 -0.7280 2.2374
-5.3813 -0.9216 2.2374
-5.3435 -1.1140 2.2374
-5.2989 -1.3048 2.2374
-5.2474 -1.4939 2.2374
-5.1892 -1.6810 2.2374
-5.1244 -1.8658 2.2374
-5.0530 -2.0482 2.2374
-4.9751 -2.2278 2.2374
-4.8909 -2.4046 2.2374
-4.8004 -2.5781 2.2374
-4.7037 -2.7483 2.2374
-4.6011 -2.9149 2.2374
-4.4926 -3.0777 2.2374
-4.3783 -3.2364 2.2374
-4.2585 -3.3910 2.2374
-4.1332 -3.5411 2.2374
-4.0026 -3.6867 2.2374
-3.8670 -3.8274 2.2374
-3.7264 -3.9632 2.2374
-3.5811 -4.0939 2.2374
-3.4312 -4.2193 2.2374
-3.2770 -4.3392 2.2374
-3.1185 -4.4535 2.2374
-2.9562 -4.5621 2.2374
-2.7900 -4.6648 2.2374
-2.6203 -4.7615 2.2374
-2.4473 -4.8521 2.2374
-2.2712 -4.9364 2.2374
-2.0922 -5.0144 2.2374
-1.9105 -5.0859 2.2374
-1.7265 -5.1509 2.2374
-1.5402 -5.2092 2.2374
-1.3520 -5.2609 2.2374
-1.1620 -5.3058 2.2374
-0.9706 -5.3439 2.2374
-0.7779 -5.3752 2.2374
-0.5843 -5.3996 2.2374
-0.3899 -5.4170 2.2374
-0.1950 -5.4275 2.2374
0.0001 -5.1017 2.2374
0.1835 -5.0984 2.2374
0.3665 -5.0886 2.2374
0.5492 -5.0723 2.2374
0.7311 -5.0495 2.2374
0.9121 -5.0201 2.2374
1.0920 -4.9844 2.2374
1.2704 -4.9422 2.2374
1.4473 -4.8937 2.2374
1.6223 -4.8389 2.2374
1.7952 -4.7779 2.2374
1.9659 -4.7107 2.2374
2.1341 -4.6375 2.2374
2.2996 -4.5583 2.2374
2.3507 -4.2707 2.1361
2.5008 -4.1805 2.1343
2.6497 -4.0884 2.1343
2.7952 -3.9911 2.1343
2.9372 -3.8887 2.1343
3.0755 -3.7812 2.1343
3.2098 -3.6688 2.1343
3.3400 -3.5517 2.1343
3.4660 -3.4300 2.1343
3.5876 -3.3038 2.1343
3.7046 -3.1734 2.1343
3.8169 -3.0388 2.1343
3.9243 -2.9003 2.1343
4.0267 -2.7580 2.1343
4.1239 -2.6121 2.1343
4.2159 -2.4628 2.1343
4.3025 -2.3103 2.1343
4.3836 -2.1547 2.1343
4.4590 -1.9963 2.1343
4.5288 -1.8353 2.1343
4.5927 -1.6718 2.1343
4.6508 -1.5062 2.1343
4.7029 -1.3385 2.1343
4.7490 -1.1690 2.1343
4.7890 -0.9980 2.1343
4.8228 -0.8256 2.1343
4.8504 -0.6521 2.1343
4.8718 -0.4776 2.1343
4.8869 -0.3025 2.1343
4.8957 -0.1269 2.1343
4.8982 0.0489 2.1343
4.8944 0.2247 2.1343
4.8843 0.4004 2.1343
4.8679 0.5755 2.1343
4.8452 0.7500 2.1343
4.8162 0.9236 2.1343
4.7810 1.0961 2.1343
4.7396 1.2673 2.1343
4.6921 1.4368 2.1343
4.6385 1.6047 2.1343
4.5789 1.7704 2.1343
4.5134 1.9340 2.1343
2.8692 1.3533 1.3786
2.9785 1.5378 1.4564
4.2820 2.4092 2.1343
4.1936 2.5618 2.1343
4.0998 2.7111 2.1343
4.0006 2.8569 2.1343
3.8963 2.9992 2.1343
3.7868 3.1375 2.1343
3.6724 3.2719 2.1343
3.5533 3.4021 2.1343
3.4295 3.5279 2.1343
3.3013 3.6492 2.1343
3.1687 3.7658 2.1343
3.0320 3.8776 2.1343
2.8914 3.9844 2.1343
2.7469 4.0860 2.1343
2.5989 4.1824 2.1343
0.8726 1.5236 0.7609
0.8174 1.5539 0.7609
0.7612 1.5822 0.7608
0.7039 1.6086 0.7608
0.6458 1.6328 0.7607
0.5869 1.6549 0.7607
0.5271 1.6749 0.7606
0.4667 1.6927 0.7606
0.4057 1.7084 0.7605
0.3442 1.7219 0.7605
0.2822 1.7331 0.7605
0.2199 1.7421 0.7605
0.1573 1.7489 0.7605
0.0945 1.7534 0.7605
0.0315 1.7557 0.7605
-0.0314 1.7557 0.7605
-0.0944 1.7534 0.7605
-0.1572 1.7489 0.7605
-0.2198 1.7421 0.7605
-0.2821 1.7331 0.7605
-0.3441 1.7219 0.7606
-0.4056 1.7084 0.7606
-0.4666 1.6927 0.7606
-0.5270 1.6749 0.7607
-0.5868 1.6549 0.7607
-0.6457 1.6328 0.7608
-0.7038 1.6085 0.7608
-0.7611 1.5822 0.7609
-0.8173 1.5539 0.7610
-0.8725 1.5236 0.7611
-0.9266 1.4913 0.7611
-0.9794 1.4570 0.7612
-3.0302 4.1761 2.2374
-3.1776 4.0641 2.2374
-3.3208 3.9469 2.2374
-3.4597 3.8247 2.2374
-3.5941 3.6975 2.2374
-3.7238 3.5656 2.2374
-3.8487 3.4292 2.2374
-3.9685 3.2883 2.2374
-4.0832 3.1433 2.2374
-4.1925 2.9942 2.2374
-4.2964 2.8413 2.2374
-4.3948 2.6848 2.2374
-4.4874 2.5249 2.2374
-4.5741 2.3618 2.2374
-4.6550 2.1957 2.2374
-4.7298 2.0268 2.2374
-4.7984 1.8554 2.2374
-4.8609 1.6817 2.2374
-4.9170 1.5058 2.2374
-4.9668 1.3281 2.2374
-5.0102 1.1488 2.2374
-5.0470 0.9680 2.2374
-5.0774 0.7860 2.2374
-5.1012 0.6031 2.2374
-5.1184 0.4196 2.2374
-5.1290 0.2355 2.2374
-5.1330 0.0512 2.2374
-5.1303 -0.1330 2.2374
-5.1211 -0.3170 2.2374
-5.1053 -0.5006 2.2374
-5.0829 -0.6834 2.2374
-5.0539 -0.8652 2.2374
-5.0185 -1.0459 2.2374
-4.9766 -1.2251 2.2374
-4.9284 -1.4028 2.2374
-4.8738 -1.5785 2.2374
-4.8129 -1.7521 2.2374
-4.7459 -1.9234 2.2374
-4.6728 -2.0921 2.2374
-4.5937 -2.2582 2.2374
-4.5088 -2.4212 2.2374
-4.4181 -2.5811 2.2374
-4.3217 -2.7376 2.2374
-4.2198 -2.8905 2.2374
-4.1125 -3.0396 2.2374
-4.0000 -3.1848 2.2374
-3.8823 -3.3259 2.2374
-3.7597 -3.4626 2.2374
-3.6324 -3.5949 2.2374
-3.5003 -3.7225 2.2374
-3.3639 -3.8453 2.2374
-3.2231 -3.9631 2.2374
-3.0782 -4.0757 2.2374
-2.9294 -4.1832 2.2374
-2.7769 -4.2852 2.2374
-2.6209 -4.3817 2.2374
-2.4615 -4.4726 2.2374
-2.2990 -4.5577 2.2374
-2.1336 -4.6369 2.2374
-1.9654 -4.7102 2.2374
-1.7948 -4.7774 2.2374
-1.6218 -4.8384 2.2374
-1.4469 -4.8933 2.2374
-1.2700 -4.9418 2.2374
-1.0916 -4.9841 2.2374
-0.9118 -5.0199 2.2374
-0.7308 -5.0492 2.2374
-0.5489 -5.0721 2.2374
-0.3662 -5.0885 2.2374
-0.1832 -5.0984 2.2374
0.0001 -4.8045 2.2374
0.1728 -4.8014 2.2374
0.3452 -4.7922 2.2374
0.5172 -4.7768 2.2374
0.6886 -4.7553 2.2374
0.8590 -4.7277 2.2374
1.0284 -4.6940 2.2374
1.1965 -4.6543 2.2374
1.3630 -4.6086 2.2374
1.5279 -4.5569 2.2374
1.6908 -4.4995 2.2374
1.8515 -4.4362 2.2374
2.0099 -4.3672 2.2374
2.1657 -4.2926 2.2374
2.3188 -4.2125 2.2374
2.3552 -3.9367 2.1343
2.4954 -3.8501 2.1343
2.6324 -3.7584 2.1343
2.7661 -3.6619 2.1343
2.8963 -3.5606 2.1343
3.0228 -3.4548 2.1343
3.1454 -3.3445 2.1343
3.2640 -3.2298 2.1343
3.3785 -3.1110 2.1343
3.4886 -2.9881 2.1343
3.5943 -2.8614 2.1343
3.6954 -2.7309 2.1343
3.7918 -2.5969 2.1343
3.8834 -2.4595 2.1343
3.9699 -2.3188 2.1343
4.0514 -2.1752 2.1343
4.1278 -2.0287 2.1343
4.1988 -1.8795 2.1343
4.2644 -1.7279 2.1343
