ply
format ascii 1.0
element vertex 2144
property float32 x
property float32 y
property float32 z
end_header
-38.4171 -17.2430 2.1296
-37.9309 -18.6885 2.1380
-37.2913 -20.0680 2.1407
-9.4962 -5.5589 0.5561
-9.3315 -5.9221 0.5585
-32.8521 -22.5431 2.0129
-18.9081 -13.9989 1.1884
-9.4783 -7.5589 0.6123
-9.3312 -8.0060 0.6208
-14.5189 -13.3913 0.9972
-26.9631 -26.7228 1.9162
-9.3308 -9.9366 0.6879
-28.0483 -32.1046 2.1512
-9.3886 -11.5589 0.7513
-12.8755 -17.0690 1.0786
-9.4838 -13.5589 0.8346
-11.6912 -18.0623 1.0851
-9.3299 -15.6159 0.9173
-20.3791 -37.0702 2.1330
-9.4569 -18.7682 1.0596
-11.7060 -25.4679 1.4130
-11.3968 -27.3410 1.4932
-9.5944 -25.5646 1.3763
-9.3278 -27.8553 1.4805
-9.3272 -31.5754 1.6593
-11.0386 -42.9932 2.2369
-9.4936 -43.3862 2.2380
-7.9297 -43.6966 2.2378
-6.3548 -43.9448 2.2373
-4.7721 -44.1334 2.2367
-3.1833 -44.2548 2.2356
-1.5463 -43.0506 2.1705
-0.0000 -30.6345 2.2361
1.0996 -30.6145 2.2361
2.1978 -30.5550 2.2361
3.1413 -29.0517 2.1330
4.1820 -28.9196 2.1330
5.2172 -28.7500 2.1330
6.2456 -28.5431 2.1330
6.6183 -25.7772 1.9429
6.6431 -22.4893 1.7121
7.1762 -21.4302 1.6501
7.5260 -20.0535 1.5640
6.2732 -15.0498 1.1906
6.4513 -14.0359 1.1281
6.6122 -13.1228 1.0732
6.7583 -12.2936 1.0246
6.8918 -11.5353 0.9815
6.9002 -10.6606 0.9277
7.0858 -10.1307 0.9032
7.1910 -9.5333 0.8725
7.2895 -8.9746 0.8449
7.4264 -8.5005 0.8249
7.4726 -7.9578 0.7979
7.6071 -7.5394 0.7829
7.6334 -7.0407 0.7592
7.7522 -6.6514 0.7468
7.7357 -6.1693 0.7235
7.9043 -5.8522 0.7193
7.9716 -5.4702 0.7071
7.9352 -5.0361 0.6875
8.0896 -4.7355 0.6858
6.2262 -3.3506 0.5174
6.2613 -3.0850 0.5108
6.3026 -2.8289 0.5057
6.3466 -2.5791 0.5015
6.3899 -2.3331 0.4981
6.3361 -2.0589 0.4879
6.4859 -1.8530 0.4940
6.5280 -1.6140 0.4926
6.5699 -1.3761 0.4918
6.5015 -1.1198 0.4834
6.6424 -0.8999 0.4912
6.6842 -0.6623 0.4923
6.7263 -0.4233 0.4941
6.6673 -0.1797 0.4890
6.7094 0.0601 0.4920
6.8666 0.3082 0.5041
6.9108 0.5593 0.5086
6.8401 0.8016 0.5053
6.9902 1.0748 0.5190
7.0373 1.3423 0.5258
6.9802 1.5930 0.5255
7.0796 1.8855 0.5379
7.1308 2.1760 0.5474
7.1838 2.4774 0.5581
7.2391 2.7911 0.5698
7.2968 3.1186 0.5829
7.4155 3.4893 0.6021
7.4424 3.8340 0.6152
7.5600 4.2448 0.6372
7.6320 4.6531 0.6570
7.5807 5.0038 0.6677
7.7776 5.5446 0.7022
7.7484 5.9545 0.7185
7.9743 6.5967 0.7611
7.9447 7.0676 0.7821
8.1604 7.8019 0.8304
20.6814 21.2453 2.1811
19.9033 21.9716 2.1811
18.0461 21.4189 2.0608
18.2719 23.3383 2.1811
17.4208 23.9769 2.1811
16.5474 24.5846 2.1811
15.6529 25.1607 2.1811
14.7384 25.7043 2.1811
10.9212 20.7384 1.7255
9.9937 20.7517 1.6957
11.8872 27.1342 2.1811
10.9048 27.5418 2.1811
9.9086 27.9140 2.1811
8.8998 28.2504 2.1811
7.2256 26.1808 2.0001
6.8494 28.8139 2.1811
5.6824 28.4000 2.1330
4.6591 28.5850 2.1330
2.8872 22.8544 1.6966
2.5961 28.8447 2.1330
1.6343 30.3167 2.2361
0.5450 30.3559 2.2361
-0.5450 30.3559 2.2361
-1.6344 30.3171 2.2361
-2.7217 30.2393 2.2361
-3.8055 30.1228 2.2361
-4.8845 29.9676 2.2361
-5.7032 28.5037 2.1407
-6.6983 28.1779 2.1329
-7.7058 27.9205 2.1329
-5.9645 18.9328 1.4616
-9.2916 26.1758 2.0451
-9.2912 23.4663 1.8582
-12.0791 27.5723 2.2161
-13.0620 27.1228 2.2161
-9.3589 17.7716 1.4785
-9.3352 16.2809 1.3813
-9.4408 15.1752 1.3153
-9.3828 13.9401 1.2366
-9.4499 13.0063 1.1830
-9.3617 11.9574 1.1174
-9.4418 11.2065 1.0781
-9.3342 10.3042 1.0227
-20.5032 21.0621 2.1619
-21.3756 20.4364 2.1749
-9.3339 8.3034 0.9187
-22.3243 18.4675 2.1302
-22.8148 17.5328 2.1153
-23.4469 16.7150 2.1166
-9.3335 6.1607 0.8219
-25.1642 15.3423 2.1658
-25.9427 14.5661 2.1861
-9.4618 4.8744 0.7819
-9.3332 4.3916 0.7577
-6.2559 2.6737 0.4997
-25.3863 9.7878 1.9979
-25.4689 8.7832 1.9780
-25.6296 7.8211 1.9671
-26.2602 6.9937 1.9946
-9.3329 2.1299 0.7025
-28.6657 5.4676 2.1413
-29.1653 4.4845 2.1648
-29.4462 3.4509 2.1747
-29.5061 2.3881 2.1711
-9.3558 0.4199 0.6867
-9.3325 0.0835 0.6843
-30.0637 -0.8105 2.2046
-29.9551 -1.8854 2.1998
-29.7629 -2.9490 2.1917
-29.3714 -3.9794 2.1717
-9.3322 -1.6074 0.6937
-9.3322 -1.9547 0.6984
-25.3381 -6.2645 1.9115
-24.5071 -7.0015 1.8663
-24.0577 -7.8175 1.8520
-9.4587 -3.4536 0.7371
-9.3319 -3.7922 0.7373
-27.2031 -12.2100 2.1820
-25.0088 -12.3221 2.0399
-23.7115 -12.7604 1.9699
-9.4961 -5.5589 0.8049
-9.3315 -5.9222 0.8083
-23.1063 -15.8558 2.0493
-18.8902 -13.9858 1.7185
-9.4781 -7.5588 0.8863
-9.3312 -8.0061 0.8988
-14.5059 -13.3794 1.4424
-18.8672 -18.6992 1.9414
-9.3308 -9.9367 0.9961
-17.8878 -20.4749 1.9866
-9.3885 -11.5589 1.0880
-12.8754 -17.0690 1.5619
-9.4451 -13.5037 1.2038
-11.6912 -18.0624 1.5716
-9.3299 -15.6160 1.3286
-9.5848 -17.4352 1.4530
-9.3294 -18.5154 1.5140
-9.3291 -20.2968 1.6311
-9.3287 -22.3800 1.7704
-9.3283 -24.8559 1.9384
-9.2772 -27.7043 2.1330
-8.2771 -28.0208 2.1330
-7.2663 -28.3009 2.1330
-6.2459 -28.5445 2.1330
-5.4696 -30.1406 2.2361
-4.3843 -30.3182 2.2361
-3.2932 -30.4566 2.2361
-2.1979 -30.5554 2.2361
-1.0997 -30.6148 2.2361
-0.0000 -23.3720 2.2361
0.8389 -23.3568 2.2361
1.6768 -23.3114 2.2361
2.3965 -22.1635 2.1329
3.1904 -22.0630 2.1329
3.9803 -21.9340 2.1329
2.9922 -13.6748 1.3394
5.5435 -21.5914 2.1330
6.3147 -21.3777 2.1330
6.8944 -20.5889 2.0778
7.5853 -20.2116 2.0659
6.2732 -15.0499 1.5604
6.4513 -14.0359 1.4785
6.6122 -13.1229 1.4065
6.7582 -12.2937 1.3428
6.2742 -10.5016 1.1710
7.0225 -10.8496 1.2372
7.0858 -10.1307 1.1836
7.1910 -9.5333 1.1433
7.2895 -8.9746 1.1071
7.4301 -8.5048 1.0815
7.5142 -8.0022 1.0513
7.5974 -7.5299 1.0245
7.6766 -7.0805 1.0003
7.7521 -6.6514 0.9785
7.6862 -6.1299 0.9419
7.7409 -5.7313 0.9229
7.7944 -5.3487 0.9058
7.8861 -5.0050 0.8951
7.9575 -4.6583 0.8838
6.2262 -3.3507 0.6778
6.2613 -3.0850 0.6691
6.3026 -2.8289 0.6624
6.3466 -2.5791 0.6569
6.3899 -2.3332 0.6524
6.3365 -2.0591 0.6390
6.4859 -1.8530 0.6470
6.5280 -1.6140 0.6451
6.5699 -1.3762 0.6440
6.5019 -1.1199 0.6331
6.6424 -0.9000 0.6433
6.6842 -0.6623 0.6447
6.7263 -0.4234 0.6470
6.6677 -0.1798 0.6404
6.7098 0.0600 0.6443
6.8666 0.3082 0.6600
6.9108 0.5593 0.6659
6.8405 0.8016 0.6615
6.9902 1.0748 0.6794
7.0373 1.3422 0.6883
6.9803 1.5930 0.6879
7.0796 1.8854 0.7040
7.1307 2.1760 0.7165
7.1838 2.4774 0.7304
7.2391 2.7910 0.7458
7.2968 3.1186 0.7629
7.4155 3.4892 0.7880
7.4425 3.8340 0.8051
7.5600 4.2447 0.8338
7.4517 4.5432 0.8394
7.5203 4.9638 0.8668
7.6108 5.4256 0.8992
7.6800 5.9019 0.9319
7.9610 6.5856 0.9941
8.0647 7.1742 1.0387
8.1792 7.8198 1.0890
15.8073 16.2381 2.1811
15.2129 16.7937 2.1811
14.5991 17.3275 2.1811
13.9666 17.8391 2.1811
13.3163 18.3277 2.1811
12.6490 18.7926 2.1811
11.9654 19.2333 2.1811
11.2666 19.6492 2.1811
10.5534 20.0399 2.1811
9.8267 20.4047 2.1811
9.0875 20.7433 2.1811
7.2096 18.2088 1.8862
7.5751 21.3400 2.1811
6.8039 21.5974 2.1811
5.8912 21.3458 2.1330
5.1211 21.5430 2.1330
4.3443 21.7124 2.1330
3.5620 21.8539 2.1330
2.7752 21.9674 2.1330
2.0807 23.1184 2.2361
1.2495 23.1781 2.2361
0.4167 23.2079 2.2361
-0.4167 23.2080 2.2361
-1.2495 23.1783 2.2361
-2.0808 23.1187 2.2361
-2.9094 23.0295 2.2361
-3.7343 22.9107 2.2361
-4.5545 22.7625 2.2361
-5.3688 22.5850 2.2361
-5.9036 21.3903 2.1374
-6.6538 21.1207 2.1329
-7.4080 20.8691 2.1329
-8.1527 20.5907 2.1329
-8.8871 20.2857 2.1329
-9.6100 19.9547 2.1329
-9.3355 17.7271 1.9292
-9.3352 16.2808 1.8071
-9.3350 15.0051 1.7015
-9.3348 13.8687 1.6095
-9.3347 12.8475 1.5288
-9.3584 11.9532 1.4613
-9.4419 11.2064 1.4105
-9.3342 10.3041 1.3381
-16.0427 16.4799 2.2133
-16.5147 15.7889 2.1986
-9.3339 8.3033 1.2020
-9.4479 7.8155 1.1797
-17.9779 13.8155 2.1811
-18.5249 13.2059 2.1883
-9.3335 6.1607 1.0756
-18.5865 11.3318 2.0935
-18.5118 10.3937 2.0415
-9.4468 4.8666 1.0217
-9.3332 4.3915 0.9916
-6.2552 2.6734 0.6539
-21.0203 8.1043 2.1653
-20.7694 7.1624 2.1114
-9.4407 2.8808 0.9485
-20.4241 5.4392 2.0308
-9.3329 2.1299 0.9197
-20.1263 3.8386 1.9681
-20.6251 3.1712 2.0042
-21.1128 2.4742 2.0414
-21.8257 1.7663 2.1026
-9.3557 0.4199 0.8992
-9.3325 0.0835 0.8960
-22.4468 -0.6053 2.1554
-22.2987 -1.4036 2.1444
-22.2987 -2.2096 2.1503
-22.3726 -3.0313 2.1663
-9.3322 -1.6075 0.9085
-9.3322 -1.9548 0.9147
-20.8567 -5.1567 2.0607
-20.9085 -5.9736 2.0855
-21.4982 -6.9859 2.1677
-9.4455 -3.4489 0.9642
-9.3319 -3.7923 0.9657
-20.7319 -9.3056 2.1784
-19.9509 -9.8301 2.1318
-18.9260 -10.1852 2.0599
-9.4959 -5.5589 1.0545
-9.3315 -5.9223 1.0590
-17.2372 -11.8285 2.0029
-16.9618 -12.5583 2.0219
-9.4780 -7.5588 1.1613
-9.3312 -8.0062 1.1777
-14.4929 -13.3675 1.8883
-16.3983 -16.2525 2.2110
-9.3308 -9.9368 1.3053
-15.1988 -17.3971 2.2119
-9.3884 -11.5588 1.4257
-9.3464 -12.3907 1.4859
-9.3303 -13.3396 1.5584
-9.3301 -14.4147 1.6436
-9.3299 -15.6161 1.7412
-9.3297 -16.9711 1.8536
-9.3294 -18.5156 1.9843
-9.3075 -20.2500 2.1329
-8.5750 -20.5720 2.1329
-7.8314 -20.8674 2.1329
-7.0776 -21.1359 2.1329
-6.3146 -21.3771 2.1329
-5.6831 -22.1347 2.1866
-4.9956 -22.8304 2.2361
-4.1730 -22.9955 2.2361
-3.3449 -23.1309 2.2361
-2.5125 -23.2363 2.2361
-1.6768 -23.3117 2.2361
-0.8390 -23.3570 2.2361
-0.0000 -18.8774 2.2361
0.6776 -18.8652 2.2361
1.3543 -18.8286 2.2361
2.0292 -18.7676 2.2361
2.5770 -17.8211 2.1330
3.2150 -17.7168 2.1330
2.9641 -13.5463 1.6427
4.4775 -17.4396 2.1330
5.1005 -17.2672 2.1330
5.7168 -17.0724 2.1330
6.3257 -16.8556 2.1330
6.2732 -15.0500 1.9319
6.5240 -14.1942 1.8510
6.6866 -13.2708 1.7608
6.7582 -12.2938 1.6624
6.8918 -11.5355 1.5924
7.0230 -10.8505 1.5318
7.0858 -10.1308 1.4652
7.1910 -9.5334 1.4154
7.2894 -8.9747 1.3705
7.4377 -8.5135 1.3401
7.5142 -8.0022 1.3013
7.5974 -7.5299 1.2682
7.6765 -7.0806 1.2382
7.7521 -6.6515 1.2112
7.8246 -6.2403 1.1868
7.8942 -5.8449 1.1649
7.9614 -5.4634 1.1452
8.0265 -5.0941 1.1276
8.0896 -4.7357 1.1120
6.1639 -3.3172 0.8304
6.2613 -3.0851 0.8282
6.3026 -2.8290 0.8197
6.3466 -2.5792 0.8130
6.3899 -2.3332 0.8073
6.3369 -2.0592 0.7908
6.4859 -1.8531 0.8007
6.5280 -1.6141 0.7983
6.5699 -1.3762 0.7969
6.5023 -1.1201 0.7834
6.6424 -0.9000 0.7960
6.6842 -0.6624 0.7977
6.7263 -0.4235 0.8005
6.6681 -0.1799 0.7924
6.7102 0.0600 0.7972
6.8666 0.3081 0.8166
6.9108 0.5592 0.8238
6.8409 0.8016 0.8185
6.9064 1.0618 0.8304
6.8865 1.3134 0.8333
6.9337 1.5823 0.8454
7.0795 1.8853 0.8709
7.1307 2.1759 0.8864
7.1838 2.4773 0.9035
7.2391 2.7910 0.9226
7.2968 3.1185 0.9437
7.2033 3.3893 0.9468
7.4796 3.8531 1.0008
7.5474 4.2375 1.0296
7.6192 4.6452 1.0616
7.6957 5.0795 1.0971
7.7776 5.5444 1.1365
7.8657 6.0445 1.1804
7.9610 6.5855 1.2295
8.0646 7.1741 1.2846
8.1792 7.8197 1.3468
12.5640 12.9063 2.1439
12.3014 13.5795 2.1811
11.8053 14.0114 2.1811
11.2940 14.4253 2.1811
10.7683 14.8205 2.1811
10.2287 15.1967 2.1811
9.6761 15.5533 2.1811
9.1111 15.8898 2.1811
8.5344 16.2059 2.1811
7.9468 16.5011 2.1811
7.3491 16.7751 2.1811
6.7419 17.0274 2.1811
5.9911 16.8774 2.1330
5.3812 17.0811 2.1330
4.7644 17.2628 2.1330
4.1416 17.4224 2.1330
3.5134 17.5595 2.1330
2.8807 17.6740 2.1330
2.3529 18.6244 2.2361
1.6828 18.6967 2.2361
1.0105 18.7450 2.2361
0.3370 18.7692 2.2361
-0.3370 18.7692 2.2361
-1.0106 18.7451 2.2361
-1.6828 18.6969 2.2361
-2.3530 18.6247 2.2361
-3.0201 18.5286 2.2361
-3.6833 18.4086 2.2361
-4.3419 18.2649 2.2361
-4.9949 18.0978 2.2361
-5.6415 17.9074 2.2361
-5.9909 16.8769 2.1329
-6.5931 16.6516 2.1329
-7.1869 16.4049 2.1329
-7.7715 16.1370 2.1329
-8.3462 15.8484 2.1329
-8.9102 15.5393 2.1329
-9.3350 15.0049 2.1041
-9.3348 13.8686 1.9903
-9.3347 12.8474 1.8906
-9.3345 11.9225 1.8025
-9.3344 11.0787 1.7244
-9.3342 10.3040 1.6549
-9.3341 9.5884 1.5926
-9.3340 8.9237 1.5368
-9.3339 8.3032 1.4866
-9.4090 7.7833 1.4530
-13.6450 10.4857 2.0475
-13.8420 9.8675 2.0224
-9.3335 6.1606 1.3304
-14.3344 8.7393 1.9970
-14.8229 8.3224 2.0219
-9.4468 4.8665 1.2638
-9.3332 4.3915 1.2266
-6.2546 2.6731 0.8088
-9.4395 3.6393 1.2029
-9.4440 3.2567 1.1876
-9.4407 2.8808 1.1734
-17.6360 4.6966 2.1693
-9.3329 2.1298 1.1377
-17.9376 3.4211 2.1701
-18.0128 2.7694 2.1656
-18.1538 2.1272 2.1717
-14.5140 1.1745 1.7300
-9.3557 0.4198 1.1125
-9.3325 0.0834 1.1086
-18.4329 -0.4972 2.1900
-18.4067 -1.1588 2.1902
-18.3954 -1.8229 2.1950
-18.2920 -2.4786 2.1917
-9.3322 -1.6075 1.1243
-9.3322 -1.9548 1.1319
-17.5909 -4.3494 2.1509
-17.4105 -4.9743 2.1491
-9.4502 -3.0709 1.1792
-9.4423 -3.4478 1.1928
-9.3319 -3.7924 1.1952
-16.1400 -7.2446 2.0989
-15.8709 -7.8200 2.0989
-15.5720 -8.3803 2.0977
-9.4958 -5.5589 1.3051
-9.3315 -5.9224 1.3108
-15.1866 -10.4215 2.1843
-14.8719 -11.0111 2.1943
-9.4779 -7.5588 1.4375
-9.3312 -8.0063 1.4578
-9.3311 -8.6066 1.5050
-9.3309 -9.2481 1.5574
-9.3308 -9.9368 1.6158
-9.3307 -10.6804 1.6810
-9.3306 -11.4877 1.7541
-9.3304 -12.3696 1.8363
-9.3303 -13.3398 1.9292
-9.3301 -14.4149 2.0348
-9.2315 -15.4516 2.1329
-8.6713 -15.7738 2.1329
-8.0999 -16.0756 2.1329
-7.5180 -16.3567 2.1329
-6.9263 -16.6166 2.1329
-6.3256 -16.8551 2.1329
-5.7167 -17.0718 2.1329
-5.3472 -18.1024 2.2361
-4.6941 -18.2831 2.2361
-4.0349 -18.4402 2.2361
-3.3705 -18.5735 2.2361
-2.7016 -18.6827 2.2361
-2.0293 -18.7679 2.2361
-1.3543 -18.8287 2.2361
-0.6776 -18.8653 2.2361
-0.0000 -15.8190 2.2361
0.5678 -15.8088 2.2361
1.1349 -15.7781 2.2361
1.7005 -15.7271 2.2361
2.2639 -15.6557 2.2361
2.6941 -14.8466 2.1330
2.9611 -13.5328 1.9583
3.7522 -14.6144 2.1330
4.2742 -14.4700 2.1330
4.7907 -14.3068 2.1330
5.3010 -14.1252 2.1330
5.8044 -13.9254 2.1330
6.3003 -13.7076 2.1330
6.6866 -13.2709 2.1012
6.7582 -12.2938 1.9837
6.9694 -11.6655 1.9216
6.6580 -10.2866 1.7328
6.7319 -9.6249 1.6611
7.0727 -9.3766 1.6611
7.2452 -8.9203 1.6254
7.4381 -8.5141 1.5991
7.5142 -8.0023 1.5527
7.5974 -7.5300 1.5132
7.6765 -7.0807 1.4774
7.7521 -6.6516 1.4451
7.8246 -6.2404 1.4160
7.8942 -5.8449 1.3899
7.9614 -5.4634 1.3664
8.0265 -5.0942 1.3453
8.0896 -4.7357 1.3267
6.2262 -3.3508 1.0008
6.2613 -3.0851 0.9880
6.3026 -2.8290 0.9779
6.2106 -2.5240 0.9491
6.2530 -2.2833 0.9425
6.2779 -2.0401 0.9347
6.3157 -1.8045 0.9301
6.3542 -1.5711 0.9270
6.3935 -1.3393 0.9252
6.4338 -1.1083 0.9247
6.4999 -0.8808 0.9291
6.5409 -0.6482 0.9312
6.5821 -0.4144 0.9344
6.6237 -0.1787 0.9388
6.6545 0.0594 0.9430
6.7035 0.3007 0.9509
6.8992 0.5582 0.9810
6.9442 0.8137 0.9910
6.9919 1.0749 1.0027
7.0395 1.3425 1.0159
6.9938 1.5960 1.0170
7.0795 1.8853 1.0387
7.1307 2.1759 1.0571
7.1838 2.4772 1.0776
7.2391 2.7909 1.1003
7.2968 3.1184 1.1254
7.2033 3.3892 1.1292
6.7157 3.4595 1.0716
7.5473 4.2375 1.2279
7.6192 4.6451 1.2660
7.6957 5.0794 1.3083
7.7775 5.5443 1.3552
7.8656 6.0444 1.4076
7.9609 6.5854 1.4662
8.0646 7.1740 1.5318
8.1792 7.8196 1.6060
10.7192 11.0111 2.1811
10.3164 11.3881 2.1811
9.9004 11.7505 2.1811
9.4718 12.0977 2.1811
9.0309 12.4293 2.1811
8.5785 12.7449 2.1811
8.1151 13.0441 2.1811
7.6413 13.3264 2.1811
7.1577 13.5916 2.1811
6.6650 13.8393 2.1811
6.0278 13.7590 2.1330
5.5298 13.9661 2.1330
5.0248 14.1552 2.1330
4.5133 14.3261 2.1330
3.9960 14.4785 2.1330
3.4736 14.6124 2.1330
2.9468 14.7274 2.1330
2.4162 14.8235 2.1330
1.9734 15.6207 2.2361
1.4114 15.6814 2.2361
0.8475 15.7218 2.2361
0.2826 15.7421 2.2361
-0.2827 15.7421 2.2361
-0.8476 15.7219 2.2361
-1.4114 15.6815 2.2361
-1.9735 15.6209 2.2361
-2.5330 15.5402 2.2361
-3.0893 15.4395 2.2361
-3.6416 15.3190 2.2361
-4.1893 15.1787 2.2361
-4.7316 15.0189 2.2361
-5.2678 14.8398 2.2361
-5.6900 14.3705 2.1947
-6.0276 13.7586 2.1329
-6.5179 13.5338 2.1329
-6.9998 13.2916 2.1329
-7.4727 13.0323 2.1329
-7.9361 12.7563 2.1329
-8.3893 12.4637 2.1329
-8.8318 12.1551 2.1329
-9.2629 11.8309 2.1329
-9.3344 11.0786 2.0562
-9.3342 10.3039 1.9733
-9.3341 9.5883 1.8991
-9.3340 8.9236 1.8326
-9.3339 8.3031 1.7727
-9.3338 7.7210 1.7188
-9.3337 7.1725 1.6702
-9.3336 6.6535 1.6262
-9.3335 6.1605 1.5865
-9.3335 5.6903 1.5507
-9.3334 5.2402 1.5183
-9.3443 4.8136 1.4909
-9.3332 4.3914 1.4629
-6.2539 2.6728 0.9645
-9.5609 3.6860 1.4530
-14.7758 5.0952 2.2161
-9.4408 2.8807 1.3994
-15.1057 4.0226 2.2161
-9.3329 2.1297 1.3570
-15.3580 2.9289 2.2161
-15.4545 2.3759 2.2161
-15.5311 1.8198 2.2161
-14.4816 1.1718 2.0589
-9.3556 0.4197 1.3270
-9.3325 0.0833 1.3223
-15.6370 -0.4219 2.2161
-15.6131 -0.9830 2.2161
-15.5690 -1.5430 2.2161
-15.5049 -2.1010 2.2161
-9.3322 -1.6076 1.3411
-9.3322 -1.9549 1.3502
-15.1930 -3.7566 2.2161
-15.0496 -4.2999 2.2161
-14.8867 -4.8377 2.2161
-9.4454 -3.4490 1.4235
-9.3319 -3.7925 1.4259
-9.3786 -4.2097 1.4551
-9.3572 -4.6106 1.4764
-9.3335 -5.0230 1.5001
-9.3316 -5.4628 1.5302
-9.3315 -5.9225 1.5639
-9.3314 -6.4035 1.6013
-9.3313 -6.9090 1.6427
-9.3312 -7.4420 1.6886
-9.3312 -8.0064 1.7394
-9.3311 -8.6067 1.7957
-9.3309 -9.2482 1.8583
-9.3308 -9.9369 1.9280
-9.3307 -10.6805 2.0058
-9.3306 -11.4878 2.0930
-9.0822 -12.0407 2.1329
-8.6446 -12.3595 2.1329
-8.1957 -12.6624 2.1329
-7.7363 -12.9490 2.1329
-7.2668 -13.2189 2.1329
-6.7879 -13.4718 2.1329
-6.3002 -13.7072 2.1329
-5.8043 -13.9249 2.1329
-5.5575 -14.8085 2.2361
-5.0225 -14.9988 2.2361
-4.4810 -15.1698 2.2361
-3.9336 -15.3212 2.2361
-3.3812 -15.4528 2.2361
-2.8244 -15.5644 2.2361
-2.2639 -15.6559 2.2361
-1.7005 -15.7273 2.2361
-1.1349 -15.7783 2.2361
-0.5678 -15.8088 2.2361
-0.0000 -13.6014 2.2361
0.4882 -13.5926 2.2361
0.9758 -13.5662 2.2361
1.4621 -13.5223 2.2361
1.9465 -13.4610 2.2361
2.3623 -13.0184 2.1753
2.7731 -12.6737 2.1330
3.2262 -12.5658 2.1330
3.6750 -12.4416 2.1330
4.1192 -12.3014 2.1330
4.5579 -12.1453 2.1330
4.9908 -11.9735 2.1330
5.4172 -11.7863 2.1330
5.8366 -11.5839 2.1330
6.2484 -11.3665 2.1330
6.8021 -11.3855 2.1811
6.5221 -10.0767 1.9741
6.5911 -9.4237 1.8914
6.8398 -9.0679 1.8682
6.9604 -8.5698 1.8160
7.4381 -8.5142 1.8597
7.5988 -8.0925 1.8261
7.6830 -7.6149 1.7795
7.6765 -7.0807 1.7181
7.7521 -6.6516 1.6806
7.8246 -6.2404 1.6467
7.8942 -5.8450 1.6163
7.9614 -5.4635 1.5889
8.0264 -5.0943 1.5645
8.0896 -4.7358 1.5427
6.2262 -3.3508 1.1637
6.2613 -3.0852 1.1489
6.3025 -2.8291 1.1372
6.3465 -2.5793 1.1278
6.3899 -2.3333 1.1199
6.4327 -2.0905 1.1136
6.4750 -1.8501 1.1088
6.5170 -1.6114 1.1055
6.5589 -1.3740 1.1035
6.6006 -1.1371 1.1031
6.6423 -0.9001 1.1040
6.6842 -0.6625 1.1064
6.7263 -0.4236 1.1102
6.7687 -0.1827 1.1155
6.8116 0.0608 1.1223
6.8551 0.3075 1.1306
6.8992 0.5582 1.1405
6.9442 0.8136 1.1521
6.9952 1.0754 1.1663
7.0455 1.3436 1.1821
7.0322 1.6047 1.1889
7.0795 1.8852 1.2076
7.1307 2.1758 1.2290
7.1838 2.4772 1.2527
7.2391 2.7908 1.2791
7.2968 3.1184 1.3083
7.2033 3.3892 1.3127
7.4796 3.8530 1.3874
7.5473 4.2374 1.4274
7.6191 4.6451 1.4717
7.6956 5.0794 1.5208
7.7775 5.5442 1.5754
7.8656 6.0443 1.6363
8.0786 6.6826 1.7295
8.0646 7.1739 1.7806
8.1792 7.8195 1.8668
9.2216 9.4726 2.1811
8.8751 9.7970 2.1811
8.5173 10.1089 2.1811
8.1486 10.4076 2.1811
7.7694 10.6930 2.1811
7.3803 10.9645 2.1811
6.9816 11.2220 2.1811
6.5740 11.4650 2.1811
6.0222 11.4354 2.1330
5.6077 11.6438 2.1330
5.1859 11.8373 2.1330
4.7575 12.0155 2.1330
4.3230 12.1782 2.1330
3.8830 12.3253 2.1330
3.4380 12.4565 2.1330
2.9885 12.5717 2.1330
2.5468 12.7286 2.1428
2.1792 13.3698 2.2361
1.6979 13.4393 2.2361
1.2143 13.4915 2.2361
0.7292 13.5263 2.2361
0.2432 13.5438 2.2361
-0.2432 13.5438 2.2361
-0.7292 13.5264 2.2361
-1.2143 13.4916 2.2361
-1.6979 13.4395 2.2361
-2.1793 13.3700 2.2361
-2.6579 13.2833 2.2361
-3.1331 13.1796 2.2361
-3.6043 13.0589 2.2361
-4.0708 12.9214 2.2361
-4.5321 12.7672 2.2361
-4.9877 12.5966 2.2361
-5.4368 12.4098 2.2361
-5.6939 11.8229 2.1657
-6.0221 11.4350 2.1329
-6.4289 11.2119 2.1329
-6.8275 10.9743 2.1329
-7.2174 10.7226 2.1329
-7.5980 10.4570 2.1329
-7.9688 10.1780 2.1329
-8.3295 9.8858 2.1329
-8.6794 9.5809 2.1329
-9.0182 9.2637 2.1329
-9.3340 8.9235 2.1302
-9.3339 8.3030 2.0607
-9.3338 7.7209 1.9981
-9.3337 7.1724 1.9415
-9.3336 6.6535 1.8905
-9.3335 6.1604 1.8443
-9.3335 5.6902 1.8026
-9.3334 5.2401 1.7650
-9.3333 4.8079 1.7311
-9.3332 4.3913 1.7006
-6.2533 2.6724 1.1211
-9.3331 3.5981 1.6490
-9.3330 3.2183 1.6274
-9.3330 2.8478 1.6084
-9.3329 2.4853 1.5918
-9.3329 2.1296 1.5776
-9.3328 1.7798 1.5657
-9.3327 1.4347 1.5559
-9.3327 1.0935 1.5483
-9.3326 0.7551 1.5427
-9.3326 0.4186 1.5391
-9.3325 0.0833 1.5374
-9.3325 -0.2519 1.5378
-9.3324 -0.5876 1.5402
-9.3323 -0.9250 1.5445
-9.3323 -1.2647 1.5509
-9.3322 -1.6077 1.5594
-9.3322 -1.9550 1.5700
-9.3321 -2.3075 1.5828
-9.3320 -2.6664 1.5979
-9.3320 -3.0327 1.6154
-9.3319 -3.4076 1.6354
-9.3319 -3.7925 1.6581
-9.3318 -4.1888 1.6836
-9.3317 -4.5981 1.7122
-9.3317 -5.0221 1.7440
-9.3316 -5.4629 1.7794
-9.3315 -5.9226 1.8187
-9.3314 -6.4036 1.8622
-9.3313 -6.9091 1.9103
-9.3312 -7.4421 1.9637
-9.3312 -8.0065 2.0227
-9.3311 -8.6068 2.0883
-9.2090 -9.1274 2.1329
-8.8759 -9.4526 2.1329
-8.5313 -9.7655 2.1329
-8.1756 -10.0659 2.1329
-7.8094 -10.3534 2.1329
-7.4331 -10.6275 2.1329
-7.0471 -10.8878 2.1329
-6.6520 -11.1342 2.1329
-6.2482 -11.3662 2.1329
-5.8364 -11.5835 2.1329
-5.6793 -12.3564 2.2361
-5.2322 -12.5527 2.2361
-4.7784 -12.7327 2.2361
-4.3184 -12.8963 2.2361
-3.8528 -13.0433 2.2361
-3.3822 -13.1734 2.2361
-2.9072 -13.2865 2.2361
-2.4285 -13.3825 2.2361
-1.9465 -13.4612 2.2361
-1.4621 -13.5225 2.2361
-0.9758 -13.5663 2.2361
-0.4882 -13.5926 2.2361
-0.0000 -11.9182 2.2361
0.4278 -11.9104 2.2361
0.8550 -11.8874 2.2361
1.2811 -11.8489 2.2361
1.7056 -11.7952 2.2361
2.1278 -11.7262 2.2361
2.4299 -11.1054 2.1330
2.8269 -11.0108 2.1330
3.2202 -10.9021 2.1330
3.6094 -10.7792 2.1330
3.9939 -10.6425 2.1330
4.3732 -10.4920 2.1330
4.7469 -10.3280 2.1330
5.1144 -10.1506 2.1330
5.4753 -9.9602 2.1330
5.8291 -9.7569 2.1330
6.1753 -9.5411 2.1330
6.4931 -9.2837 2.1263
6.6400 -8.8032 2.0696
6.9441 -8.5497 2.0674
7.4381 -8.5143 2.1222
7.5988 -8.0926 2.0839
7.6829 -7.6150 2.0307
7.6765 -7.0808 1.9606
7.7521 -6.6517 1.9178
7.8245 -6.2405 1.8791
7.9831 -5.9109 1.8651
8.0511 -5.5251 1.8335
8.1169 -5.1517 1.8053
8.0896 -4.7359 1.7604
6.2262 -3.3509 1.3279
6.2612 -3.0852 1.3110
6.3025 -2.8291 1.2976
6.3465 -2.5793 1.2868
6.3899 -2.3334 1.2779
6.4326 -2.0905 1.2707
6.4750 -1.8501 1.2652
6.5170 -1.6115 1.2613
6.5589 -1.3740 1.2592
6.6006 -1.1371 1.2586
6.6423 -0.9002 1.2597
6.6842 -0.6625 1.2624
6.7263 -0.4236 1.2667
6.7687 -0.1827 1.2727
6.8116 0.0607 1.2804
6.8551 0.3074 1.2899
6.8992 0.5581 1.3013
6.9442 0.8136 1.3145
6.9952 1.0753 1.3307
7.0516 1.3447 1.3498
7.0715 1.6136 1.3639
7.0795 1.8852 1.3777
7.1307 2.1757 1.4021
7.1838 2.4771 1.4292
7.2390 2.7908 1.4593
7.2967 3.1183 1.4926
7.2033 3.3891 1.4975
7.4796 3.8529 1.5828
7.5473 4.2373 1.6284
7.6191 4.6450 1.6789
7.6956 5.0793 1.7349
7.7775 5.5441 1.7972
7.9819 6.1336 1.8942
8.0786 6.6826 1.9730
8.0646 7.1738 2.0313
8.1791 7.8194 2.1296
8.0837 8.3037 2.1811
7.7801 8.5882 2.1811
7.4665 8.8616 2.1811
7.1433 9.1235 2.1811
6.8109 9.3737 2.1811
6.3271 9.3999 2.1330
5.9854 9.6207 2.1330
5.6360 9.8290 2.1330
5.2794 10.0247 2.1330
4.9160 10.2075 2.1330
4.5463 10.3771 2.1330
4.1707 10.5334 2.1330
3.7898 10.6761 2.1330
3.4040 10.8050 2.1330
3.0139 10.9201 2.1330
2.6199 11.0211 2.1330
2.3300 11.6447 2.2361
1.9104 11.7208 2.2361
1.4885 11.7817 2.2361
1.0645 11.8275 2.2361
0.6393 11.8580 2.2361
0.2132 11.8733 2.2361
-0.2132 11.8733 2.2361
-0.6393 11.8581 2.2361
-1.0646 11.8276 2.2361
-1.4885 11.7818 2.2361
-1.9105 11.7209 2.2361
-2.3301 11.6449 2.2361
-2.7467 11.5540 2.2361
-3.1597 11.4481 2.2361
-3.5687 11.3275 2.2361
-3.9731 11.1924 2.2361
-4.3725 11.0428 2.2361
-4.7662 10.8790 2.2361
-5.1538 10.7012 2.2361
-5.5348 10.5096 2.2361
-5.6962 9.9339 2.1557
-5.9853 9.6204 2.1329
-6.3270 9.3996 2.1329
-6.6606 9.1668 2.1329
-6.9857 8.9222 2.1329
-7.3018 8.6660 2.1329
-7.6085 8.3987 2.1329
-7.9054 8.1205 2.1329
-8.1922 7.8318 2.1329
-8.4685 7.5331 2.1329
-8.7339 7.2246 2.1329
-8.9881 6.9067 2.1329
-9.2307 6.5800 2.1329
-9.3335 6.1603 2.1040
-9.3335 5.6901 2.0565
-9.3334 5.2400 2.0136
-9.3333 4.8078 1.9749
-9.3332 4.3912 1.9402
-6.2526 2.6721 1.2789
-9.3331 3.5981 1.8812
-9.3330 3.2182 1.8566
-9.3330 2.8477 1.8350
-9.3329 2.4852 1.8161
-9.3329 2.1296 1.7999
-9.3328 1.7797 1.7863
-9.3327 1.4347 1.7752
-9.3327 1.0934 1.7665
-9.3326 0.7550 1.7601
-9.3326 0.4185 1.7560
-9.3325 0.0832 1.7542
-9.3325 -0.2519 1.7546
-9.3324 -0.5877 1.7573
-9.3323 -0.9250 1.7623
-9.3323 -1.2647 1.7696
-9.3322 -1.6077 1.7793
-9.3322 -1.9550 1.7914
-9.3321 -2.3076 1.8060
-9.3320 -2.6664 1.8233
-9.3320 -3.0327 1.8432
-9.3319 -3.4077 1.8661
-9.3319 -3.7926 1.8920
-9.3318 -4.1889 1.9211
-9.3317 -4.5982 1.9537
-9.3317 -5.0222 1.9901
-9.3316 -5.4630 2.0305
-9.3315 -5.9226 2.0753
-9.3314 -6.4037 2.1250
-9.1297 -6.7599 2.1329
-8.8817 -7.0836 2.1329
-8.6221 -7.3982 2.1329
-8.3514 -7.7033 2.1329
-8.0699 -7.9984 2.1329
-7.7779 -8.2833 2.1329
-7.4759 -8.5575 2.1329
-7.1642 -8.8207 2.1329
-6.8432 -9.0725 2.1329
-6.5134 -9.3127 2.1329
-6.1752 -9.5408 2.1329
-5.8289 -9.7566 2.1329
-5.6858 -10.3431 2.2149
-5.3618 -10.6416 2.2361
-4.9765 -10.8275 2.2361
-4.5848 -10.9994 2.2361
-4.1871 -11.1572 2.2361
-3.7840 -11.3005 2.2361
-3.3760 -11.4292 2.2361
-2.9636 -11.5432 2.2361
-2.5474 -11.6423 2.2361
-2.1279 -11.7264 2.2361
-1.7056 -11.7953 2.2361
-1.2812 -11.8490 2.2361
-0.8550 -11.8874 2.2361
-0.4278 -11.9105 2.2361
-0.0000 -10.5958 2.2361
0.3803 -10.5889 2.2361
0.7601 -10.5684 2.2361
1.1390 -10.5342 2.2361
1.5163 -10.4865 2.2361
1.8917 -10.4252 2.2361
2.2647 -10.3504 2.2361
2.5132 -9.7892 2.1330
2.8629 -9.6925 2.1330
3.2089 -9.5833 2.1330
3.5508 -9.4618 2.1330
3.8880 -9.3280 2.1330
4.2202 -9.1822 2.1330
4.5470 -9.0246 2.1330
4.8678 -8.8553 2.1330
5.1824 -8.6746 2.1330
5.4903 -8.4827 2.1330
5.7910 -8.2799 2.1330
6.0843 -8.0664 2.1330
6.3696 -7.8426 2.1330
6.7966 -7.7801 2.1811
7.0712 -7.5308 2.1811
7.3367 -7.2718 2.1811
7.5926 -7.0035 2.1811
7.7521 -6.6518 2.1570
7.8245 -6.2406 2.1135
7.9831 -5.9110 2.0977
8.0511 -5.5252 2.0622
8.1168 -5.1518 2.0305
7.4282 -4.3488 1.8180
6.2262 -3.3509 1.4935
6.2612 -3.0853 1.4745
6.3025 -2.8292 1.4594
6.3465 -2.5794 1.4473
6.3899 -2.3334 1.4372
6.4326 -2.0906 1.4291
6.4750 -1.8502 1.4229
6.5170 -1.6115 1.4186
6.5588 -1.3741 1.4161
6.6006 -1.1372 1.4154
6.6423 -0.9002 1.4166
6.6842 -0.6626 1.4197
6.7263 -0.4236 1.4245
6.7687 -0.1828 1.4313
6.8116 0.0607 1.4400
6.8550 0.3074 1.4506
6.8992 0.5581 1.4634
6.9442 0.8135 1.4782
6.9952 1.0753 1.4964
7.0561 1.3455 1.5189
7.0093 1.5993 1.5203
7.0230 1.8701 1.5370
7.0738 2.1583 1.5641
7.1265 2.4573 1.5943
7.1813 2.7684 1.6279
7.2211 3.0859 1.6611
7.1053 3.3430 1.6611
7.4796 3.8528 1.7799
7.6589 4.2999 1.8582
7.7317 4.7136 1.9158
7.6956 5.0792 1.9509
7.7775 5.5441 2.0209
7.9819 6.1335 2.1300
7.9424 6.5698 2.1811
7.7011 6.8504 2.1811
7.4499 7.1221 2.1811
7.1891 7.3847 2.1811
6.9192 7.6377 2.1811
6.6403 7.8809 2.1811
6.2128 7.9350 2.1330
5.9237 8.1526 2.1330
5.6271 8.3598 2.1330
5.3232 8.5561 2.1330
5.0124 8.7415 2.1330
4.6953 8.9155 2.1330
4.3721 9.0781 2.1330
4.0433 9.2290 2.1330
3.7093 9.3680 2.1330
3.3705 9.4949 2.1330
3.0275 9.6097 2.1330
2.6805 9.7120 2.1330
2.3616 9.9342 2.1618
2.0722 10.3565 2.2361
1.6991 10.4241 2.2361
1.3238 10.4783 2.2361
0.9468 10.5190 2.2361
0.5685 10.5462 2.2361
0.1896 10.5598 2.2361
-0.1896 10.5599 2.2361
-0.5686 10.5463 2.2361
-0.9468 10.5191 2.2361
-1.3238 10.4784 2.2361
-1.6992 10.4242 2.2361
-2.0723 10.3566 2.2361
-2.4428 10.2757 2.2361
-2.8102 10.1816 2.2361
-3.1739 10.0743 2.2361
-3.5336 9.9541 2.2361
-3.8887 9.8210 2.2361
-4.2389 9.6753 2.2361
-4.5836 9.5171 2.2361
-4.9224 9.3467 2.2361
-5.2549 9.1643 2.2361
-5.5807 8.9700 2.2361
-5.6952 8.4609 2.1587
-5.9236 8.1524 2.1329
-6.2126 7.9348 2.1329
-6.4937 7.7069 2.1329
-6.7665 7.4691 2.1329
-7.0305 7.2217 2.1329
-7.2855 6.9650 2.1329
-7.5312 6.6992 2.1329
-7.7672 6.4248 2.1329
-7.9932 6.1422 2.1329
-8.2089 5.8516 2.1329
-8.4141 5.5534 2.1329
-8.6084 5.2480 2.1329
-8.7917 4.9359 2.1329
-8.9637 4.6173 2.1329
-9.1242 4.2928 2.1329
-6.2520 2.6717 1.4380
-9.3331 3.5980 2.1155
-9.3330 3.2182 2.0878
-9.3330 2.8476 2.0635
-9.3329 2.4851 2.0423
-9.3329 2.1295 2.0241
-9.3328 1.7797 2.0088
-9.3327 1.4346 1.9963
-9.3327 1.0933 1.9865
-9.3326 0.7549 1.9794
-9.3326 0.4185 1.9748
-9.3325 0.0831 1.9727
-9.3325 -0.2520 1.9733
-9.3324 -0.5878 1.9763
-9.3323 -0.9251 1.9819
-9.3323 -1.2648 1.9902
-9.3322 -1.6078 2.0011
-9.3322 -1.9551 2.0147
-9.3321 -2.3077 2.0312
-9.3320 -2.6665 2.0506
-9.3320 -3.0328 2.0730
-9.3319 -3.4078 2.0987
-9.3319 -3.7927 2.1279
-9.2117 -4.1351 2.1329
-9.0578 -4.4633 2.1329
-8.8922 -4.7858 2.1329
-8.7151 -5.1021 2.1329
-8.5268 -5.4119 2.1329
-8.3274 -5.7148 2.1329
-8.1173 -6.0103 2.1329
-7.8967 -6.2981 2.1329
-7.6659 -6.5778 2.1329
-7.4251 -6.8490 2.1329
-7.1748 -7.1114 2.1329
-6.9152 -7.3646 2.1329
-6.6466 -7.6084 2.1329
-6.3695 -7.8423 2.1329
-6.0841 -8.0662 2.1329
-5.7908 -8.2796 2.1329
-5.6861 -8.7852 2.2090
-5.4331 -9.0942 2.2361
-5.1033 -9.2836 2.2361
-4.7669 -9.4611 2.2361
-4.4244 -9.6263 2.2361
-4.0761 -9.7791 2.2361
-3.7225 -9.9193 2.2361
-3.3641 -10.0467 2.2361
-3.0014 -10.1612 2.2361
-2.6348 -10.2625 2.2361
-2.2648 -10.3506 2.2361
-1.8918 -10.4253 2.2361
-1.5164 -10.4866 2.2361
-1.1390 -10.5343 2.2361
-0.7602 -10.5684 2.2361
-0.3803 -10.5889 2.2361
-0.0000 -9.5284 2.2361
0.3420 -9.5223 2.2361
0.6836 -9.5038 2.2361
1.0242 -9.4731 2.2361
1.3636 -9.4301 2.2361
1.7012 -9.3750 2.2361
2.0366 -9.3078 2.2361
2.3599 -9.1920 2.2272
2.5746 -8.7162 2.1330
2.8857 -8.6180 2.1330
3.1931 -8.5088 2.1330
3.4964 -8.3885 2.1330
3.7951 -8.2574 2.1330
4.0890 -8.1157 2.1330
4.3775 -7.9635 2.1330
4.6604 -7.8010 2.1330
4.9373 -7.6285 2.1330
5.2078 -7.4461 2.1330
5.4715 -7.2541 2.1330
5.7282 -7.0528 2.1330
5.9774 -6.8424 2.1330
6.2190 -6.6232 2.1330
6.5979 -6.5397 2.1811
6.8281 -6.2984 2.1811
7.0495 -6.0490 2.1811
7.2618 -5.7918 2.1811
7.4647 -5.5272 2.1811
7.6580 -5.2555 2.1811
6.5633 -4.1658 1.8256
6.6149 -3.8727 1.8002
6.2262 -3.3510 1.6607
6.2612 -3.0853 1.6395
6.3025 -2.8292 1.6227
6.3465 -2.5794 1.6092
6.3898 -2.3335 1.5980
6.4326 -2.0906 1.5890
6.4750 -1.8502 1.5821
6.5170 -1.6116 1.5773
6.5588 -1.3741 1.5745
6.6006 -1.1372 1.5738
6.6423 -0.9003 1.5751
6.6842 -0.6626 1.5785
6.7263 -0.4237 1.5839
6.7687 -0.1828 1.5914
6.8116 0.0606 1.6010
6.8550 0.3073 1.6129
6.8992 0.5580 1.6270
6.9442 0.8135 1.6435
6.9952 1.0752 1.6638
7.0561 1.3455 1.6888
6.8881 1.5716 1.6611
6.8269 1.8178 1.6611
6.7569 2.0616 1.6611
6.7086 2.3131 1.6686
6.8095 2.6251 1.7162
6.8638 2.9332 1.7553
6.9207 3.2560 1.7987
7.4796 3.8528 1.9788
7.6588 4.2998 2.0658
7.7317 4.7135 2.1299
7.6956 5.0791 2.1689
7.5503 5.3820 2.1811
7.3520 5.6494 2.1811
7.1441 5.9094 2.1811
6.9271 6.1618 2.1811
6.7012 6.4063 2.1811
6.3241 6.4960 2.1330
6.0866 6.7186 2.1330
5.8413 6.9326 2.1330
5.5885 7.1376 2.1330
5.3285 7.3334 2.1330
5.0616 7.5197 2.1330
4.7883 7.6963 2.1330
4.5088 7.8631 2.1330
4.2235 8.0197 2.1330
3.9328 8.1659 2.1330
3.6371 8.3017 2.1330
3.3366 8.4267 2.1330
3.0319 8.5409 2.1330
2.7233 8.6441 2.1330
2.4112 8.7362 2.1330
2.1973 9.2432 2.2361
1.8641 9.3160 2.2361
1.5284 9.3768 2.2361
1.1908 9.4256 2.2361
0.8517 9.4622 2.2361
0.5114 9.4867 2.2361
0.1705 9.4989 2.2361
-0.1706 9.4989 2.2361
-0.5115 9.4867 2.2361
-0.8517 9.4623 2.2361
-1.1909 9.4257 2.2361
-1.5285 9.3769 2.2361
-1.8641 9.3161 2.2361
-2.1974 9.2433 2.2361
-2.5278 9.1586 2.2361
-2.8550 9.0621 2.2361
-3.1786 8.9539 2.2361
-3.4980 8.8342 2.2361
-3.8130 8.7031 2.2361
-4.1230 8.5608 2.2361
-4.4278 8.4075 2.2361
-4.7269 8.2434 2.2361
-5.0199 8.0686 2.2361
-5.3065 7.8834 2.2361
-5.5863 7.6881 2.2361
-5.6915 7.2691 2.1722
-5.8411 6.9324 2.1329
-6.0865 6.7184 2.1329
-6.3239 6.4958 2.1329
-6.5533 6.2649 2.1329
-6.7742 6.0258 2.1329
-6.9865 5.7790 2.1329
-7.1897 5.5247 2.1329
-7.3837 5.2633 2.1329
-7.5682 4.9951 2.1329
-7.7430 4.7204 2.1329
-7.9079 4.4396 2.1329
-8.0625 4.1530 2.1329
-8.2068 3.8611 2.1329
-6.1805 2.6412 1.5805
-8.4635 3.2627 2.1329
-8.5756 2.9569 2.1329
-8.6766 2.6473 2.1329
-8.7665 2.3342 2.1329
-8.8451 2.0181 2.1329
-8.9123 1.6994 2.1329
-8.9681 1.3785 2.1329
-9.0122 1.0557 2.1329
-9.0448 0.7316 2.1329
-9.0657 0.4064 2.1329
-9.0749 0.0808 2.1329
-9.0725 -0.2451 2.1329
-9.0583 -0.5706 2.1329
-9.0325 -0.8954 2.1329
-8.9950 -1.2192 2.1329
-8.9459 -1.5413 2.1329
-8.8852 -1.8615 2.1329
-8.8131 -2.1794 2.1329
-8.7297 -2.4945 2.1329
-8.6349 -2.8064 2.1329
-8.5291 -3.1147 2.1329
-8.4122 -3.4190 2.1329
-8.2844 -3.7189 2.1329
-8.1460 -4.0141 2.1329
-7.9970 -4.3041 2.1329
-7.8377 -4.5886 2.1329
-7.6683 -4.8672 2.1329
-7.4890 -5.1395 2.1329
-7.3000 -5.4052 2.1329
-7.1016 -5.6640 2.1329
-6.8940 -5.9155 2.1329
-6.6774 -6.1594 2.1329
-6.4523 -6.3953 2.1329
-6.2188 -6.6230 2.1329
-5.9773 -6.8422 2.1329
-5.7280 -7.0526 2.1329
-5.6863 -7.5388 2.2166
-5.4597 -7.8063 2.2361
-5.1761 -7.9974 2.2361
-4.8859 -8.1783 2.2361
-4.5893 -8.3486 2.2361
-4.2868 -8.5081 2.2361
-3.9787 -8.6567 2.2361
-3.6655 -8.7941 2.2361
-3.3475 -8.9202 2.2361
-3.0253 -9.0348 2.2361
-2.6991 -9.1377 2.2361
-2.3694 -9.2288 2.2361
-2.0366 -9.3080 2.2361
-1.7012 -9.3752 2.2361
-1.3636 -9.4303 2.2361
-1.0243 -9.4732 2.2361
-0.6836 -9.5039 2.2361
-0.3420 -9.5223 2.2361
-0.0000 -8.6480 2.2361
0.3104 -8.6424 2.2361
0.6204 -8.6257 2.2361
0.9296 -8.5978 2.2361
1.2376 -8.5589 2.2361
1.5440 -8.5088 2.2361
1.8484 -8.4479 2.2361
2.1504 -8.3760 2.2361
2.3652 -8.0077 2.1591
2.6191 -7.8218 2.1330
2.8981 -7.7227 2.1330
3.1733 -7.6135 2.1330
3.4445 -7.4945 2.1330
3.7112 -7.3659 2.1330
3.9731 -7.2278 2.1330
4.2299 -7.0803 2.1330
4.4812 -6.9238 2.1330
4.7267 -6.7583 2.1330
4.9661 -6.5841 2.1330
5.1990 -6.4014 2.1330
5.4253 -6.2105 2.1330
5.6445 -6.0115 2.1330
5.8564 -5.8048 2.1330
6.0608 -5.5907 2.1330
6.2573 -5.3693 2.1330
6.5911 -5.2570 2.1811
6.7753 -5.0168 2.1811
6.9507 -4.7702 2.1811
6.5633 -4.1659 2.0114
6.6149 -3.8728 1.9834
6.2262 -3.3510 1.8296
6.2612 -3.0854 1.8063
6.3025 -2.8293 1.7878
6.3465 -2.5795 1.7729
6.3898 -2.3335 1.7606
6.5277 -2.1216 1.7765
6.5707 -1.8776 1.7688
6.6133 -1.6355 1.7634
6.6558 -1.3945 1.7603
6.6981 -1.1541 1.7595
6.6423 -0.9003 1.7353
6.6842 -0.6627 1.7390
6.7263 -0.4237 1.7449
6.7687 -0.1829 1.7532
6.9122 0.0615 1.7899
6.9563 0.3118 1.8031
7.0012 0.5662 1.8189
7.0468 0.8254 1.8374
6.9952 1.0752 1.8329
7.0561 1.3454 1.8604
6.6129 1.5088 1.7568
6.6595 1.7732 1.7850
6.7076 2.0465 1.8165
6.7575 2.3300 1.8516
6.7289 2.5939 1.8682
6.6311 2.8336 1.8682
6.7321 3.1673 1.9275
6.7903 3.4977 1.9789
7.3405 4.1210 2.1811
7.1875 4.3816 2.1811
7.0253 4.6367 2.1811
6.8541 4.8857 2.1811
6.6740 5.1284 2.1811
6.3424 5.2462 2.1330
6.1497 5.4703 2.1330
5.9492 5.6873 2.1330
5.7410 5.8970 2.1330
5.5254 6.0991 2.1330
5.3027 6.2934 2.1330
5.0732 6.4795 2.1330
4.8372 6.6572 2.1330
4.5950 6.8264 2.1330
4.3469 6.9868 2.1330
4.0932 7.1382 2.1330
3.8342 7.2803 2.1330
3.5703 7.4131 2.1330
3.3018 7.5364 2.1330
3.0291 7.6499 2.1330
2.7524 7.7536 2.1330
2.4723 7.8473 2.1330
2.2948 8.3142 2.2361
1.9948 8.3911 2.2361
1.6922 8.4572 2.2361
1.3875 8.5125 2.2361
1.0810 8.5568 2.2361
0.7732 8.5900 2.2361
0.4643 8.6122 2.2361
0.1548 8.6233 2.2361
-0.1549 8.6233 2.2361
-0.4643 8.6122 2.2361
-0.7732 8.5901 2.2361
-1.0811 8.5568 2.2361
-1.3876 8.5126 2.2361
-1.6923 8.4574 2.2361
-1.9949 8.3912 2.2361
-2.2948 8.3143 2.2361
-2.5919 8.2267 2.2361
-2.8856 8.1285 2.2361
-3.1756 8.0198 2.2361
-3.4615 7.9008 2.2361
-3.7430 7.7716 2.2361
-4.0196 7.6324 2.2361
-4.2912 7.4834 2.2361
-4.5572 7.3247 2.2361
-4.8173 7.1566 2.2361
-5.0712 6.9792 2.2361
-5.3187 6.7929 2.2361
-5.5593 6.5978 2.2361
-5.6886 6.2792 2.1959
-5.7408 5.8968 2.1329
-5.9490 5.6871 2.1329
-6.1496 5.4701 2.1329
-6.3422 5.2460 2.1329
-6.5267 5.0152 2.1329
-6.7028 4.7778 2.1329
-6.8703 4.5343 2.1329
-7.0289 4.2849 2.1329
-7.1785 4.0300 2.1329
-7.3189 3.7699 2.1329
-7.4498 3.5049 2.1329
-6.1738 2.6382 1.7392
-7.6828 2.9616 2.1329
-7.7845 2.6841 2.1329
-7.8762 2.4030 2.1329
-7.9577 2.1188 2.1329
-8.0290 1.8319 2.1329
-8.0900 1.5425 2.1329
-8.1406 1.2512 2.1329
-8.1806 0.9582 2.1329
-8.2101 0.6640 2.1329
-8.2291 0.3689 2.1329
-8.2374 0.0732 2.1329
-8.2351 -0.2225 2.1329
-8.2222 -0.5180 2.1329
-8.1987 -0.8128 2.1329
-8.1647 -1.1067 2.1329
-8.1201 -1.3991 2.1329
-8.0650 -1.6898 2.1329
-7.9995 -1.9783 2.1329
-7.9237 -2.2642 2.1329
-7.8377 -2.5473 2.1329
-7.7416 -2.8271 2.1329
-7.6354 -3.1033 2.1329
-7.5195 -3.3756 2.1329
-7.3938 -3.6435 2.1329
-7.2585 -3.9067 2.1329
-7.1139 -4.1649 2.1329
-6.9601 -4.4177 2.1329
-6.7973 -4.6649 2.1329
-6.6258 -4.9061 2.1329
-6.4456 -5.1409 2.1329
-6.2572 -5.3692 2.1329
-6.0606 -5.5905 2.1329
-5.8563 -5.8046 2.1329
-5.6945 -6.0647 2.1518
-5.6865 -6.5094 2.2356
-5.4505 -6.7110 2.2361
-5.2063 -6.9025 2.2361
-4.9553 -7.0852 2.2361
-4.6979 -7.2586 2.2361
-4.4345 -7.4228 2.2361
-4.1653 -7.5773 2.2361
-3.8907 -7.7221 2.2361
-3.6111 -7.8570 2.2361
-3.3268 -7.9817 2.2361
-3.0382 -8.0961 2.2361
-2.7457 -8.2000 2.2361
-2.4497 -8.2934 2.2361
-2.1504 -8.3761 2.2361
-1.8484 -8.4479 2.2361
-1.5440 -8.5089 2.2361
-1.2376 -8.5589 2.2361
-0.9296 -8.5979 2.2361
-0.6204 -8.6257 2.2361
-0.3104 -8.6425 2.2361
-0.0000 -7.9087 2.2361
0.2838 -7.9036 2.2361
0.5673 -7.8883 2.2361
0.8501 -7.8628 2.2361
1.1318 -7.8272 2.2361
1.4120 -7.7815 2.2361
1.6903 -7.7257 2.2361
1.9665 -7.6599 2.2361
2.2402 -7.5843 2.2361
2.3952 -7.1532 2.1330
2.6503 -7.0625 2.1330
2.9021 -6.9627 2.1330
3.1500 -6.8539 2.1330
3.3940 -6.7363 2.1330
3.6335 -6.6100 2.1330
3.8683 -6.4752 2.1330
4.0981 -6.3320 2.1330
4.3227 -6.1807 2.1330
4.5416 -6.0214 2.1330
4.7547 -5.8543 2.1330
4.9616 -5.6797 2.1330
5.1621 -5.4978 2.1330
5.3559 -5.3088 2.1330
5.5428 -5.1130 2.1330
5.7226 -4.9105 2.1330
5.8950 -4.7018 2.1330
6.0597 -4.4870 2.1330
6.2166 -4.2665 2.1330
6.3655 -4.0404 2.1330
6.6149 -3.8728 2.1687
6.2261 -3.3511 2.0005
6.2612 -3.0854 1.9750
6.3025 -2.8293 1.9548
6.3465 -2.5795 1.9385
6.3898 -2.3336 1.9250
6.5277 -2.1216 1.9424
6.5707 -1.8777 1.9340
6.6133 -1.6355 1.9281
6.6558 -1.3946 1.9247
6.6981 -1.1542 1.9238
6.6423 -0.9004 1.8973
6.6842 -0.6627 1.9013
6.7262 -0.4238 1.9078
6.7687 -0.1829 1.9169
6.9122 0.0614 1.9570
6.9563 0.3118 1.9714
7.0012 0.5662 1.9887
7.0468 0.8254 2.0089
6.9952 1.0751 2.0040
7.0561 1.3454 2.0341
6.4643 1.4748 1.8776
6.4298 1.7119 1.8843
6.5248 1.9907 1.9320
6.5734 2.2664 1.9693
6.6240 2.5534 2.0107
6.6768 2.8531 2.0566
6.6116 3.1105 2.0696
6.5543 3.3760 2.0884
6.7140 3.7692 2.1811
6.5741 4.0076 2.1811
6.2841 4.1474 2.1330
6.1309 4.3702 2.1330
5.9699 4.5873 2.1330
5.8012 4.7985 2.1330
5.6250 5.0034 2.1330
5.4416 5.2020 2.1330
5.2511 5.3938 2.1330
5.0540 5.5787 2.1330
4.8503 5.7563 2.1330
4.6404 5.9266 2.1330
4.4245 6.0892 2.1330
4.2030 6.2440 2.1330
3.9760 6.3907 2.1330
3.7440 6.5291 2.1330
3.5071 6.6592 2.1330
3.2657 6.7807 2.1330
3.0201 6.8934 2.1330
2.7707 6.9973 2.1330
2.5177 7.0921 2.1330
2.3571 7.4816 2.2233
2.0990 7.6049 2.2361
1.8246 7.6753 2.2361
1.5479 7.7358 2.2361
1.2692 7.7863 2.2361
0.9888 7.8268 2.2361
0.7072 7.8572 2.2361
0.4247 7.8776 2.2361
0.1416 7.8877 2.2361
-0.1416 7.8877 2.2361
-0.4247 7.8776 2.2361
-0.7073 7.8573 2.2361
-0.9889 7.8269 2.2361
-1.2692 7.7864 2.2361
-1.5480 7.7359 2.2361
-1.8247 7.6754 2.2361
-2.0991 7.6050 2.2361
-2.3708 7.5249 2.2361
-2.6394 7.4350 2.2361
-2.9047 7.3356 2.2361
-3.1662 7.2268 2.2361
-3.4237 7.1086 2.2361
-3.6767 6.9812 2.2361
-3.9251 6.8449 2.2361
-4.1684 6.6997 2.2361
-4.4063 6.5459 2.2361
-4.6386 6.3837 2.2361
-4.8649 6.2132 2.2361
-5.0849 6.0348 2.2361
-5.2985 5.8485 2.2361
-5.5052 5.6547 2.2361
-5.6885 5.4380 2.2297
-5.6945 5.0652 2.1593
-5.8010 4.7983 2.1329
-5.9697 4.5871 2.1329
-6.1308 4.3700 2.1329
-6.2839 4.1473 2.1329
-6.4290 3.9192 2.1329
-6.5658 3.6860 2.1329
-6.6942 3.4481 2.1329
-6.8139 3.2057 2.1329
-6.1670 2.6353 1.8994
-7.0269 2.7088 2.1329
-7.1199 2.4549 2.1329
-7.2038 2.1978 2.1329
-7.2784 1.9379 2.1329
-7.3435 1.6754 2.1329
-7.3993 1.4108 2.1329
-7.4455 1.1443 2.1329
-7.4821 0.8764 2.1329
-7.5091 0.6072 2.1329
-7.5264 0.3373 2.1329
-7.5340 0.0669 2.1329
-7.5318 -0.2036 2.1329
-7.5200 -0.4738 2.1329
-7.4985 -0.7435 2.1329
-7.4673 -1.0122 2.1329
-7.4265 -1.2797 2.1329
-7.3761 -1.5455 2.1329
-7.3162 -1.8093 2.1329
-7.2468 -2.0709 2.1329
-7.1681 -2.3298 2.1329
-7.0802 -2.5857 2.1329
-6.9831 -2.8383 2.1329
-6.8770 -3.0872 2.1329
-6.7620 -3.3322 2.1329
-6.6383 -3.5729 2.1329
-6.5061 -3.8090 2.1329
-6.3654 -4.0403 2.1329
-6.2165 -4.2663 2.1329
-6.0596 -4.4869 2.1329
-5.8999 -4.7057 2.1347
-5.7224 -4.9104 2.1329
-5.6867 -5.2456 2.1883
-5.6150 -5.5656 2.2361
-5.4118 -5.7637 2.2361
-5.2016 -5.9544 2.2361
-4.9847 -6.1375 2.2361
-4.7613 -6.3126 2.2361
-4.5317 -6.4796 2.2361
-4.2964 -6.6382 2.2361
-4.0554 -6.7883 2.2361
-3.8092 -6.9296 2.2361
-3.5581 -7.0621 2.2361
-3.3024 -7.1854 2.2361
-3.0424 -7.2994 2.2361
-2.7785 -7.4040 2.2361
-2.5110 -7.4991 2.2361
-2.2402 -7.5844 2.2361
-1.9666 -7.6601 2.2361
-1.6904 -7.7258 2.2361
-1.4120 -7.7815 2.2361
-1.1318 -7.8272 2.2361
-0.8502 -7.8629 2.2361
-0.5674 -7.8883 2.2361
-0.2839 -7.9036 2.2361
-0.0000 -7.2785 2.2361
0.2612 -7.2738 2.2361
0.5221 -7.2597 2.2361
0.7824 -7.2363 2.2361
1.0416 -7.2035 2.2361
1.2995 -7.1614 2.2361
1.5556 -7.1101 2.2361
1.8098 -7.0496 2.2361
2.0617 -6.9800 2.2361
2.3108 -6.9014 2.2361
2.4391 -6.4998 2.1330
2.6708 -6.4079 2.1330
2.8990 -6.3079 2.1330
3.1235 -6.1996 2.1330
3.3440 -6.0834 2.1330
3.5601 -5.9593 2.1330
3.7716 -5.8275 2.1330
3.9782 -5.6883 2.1330
4.1797 -5.5417 2.1330
4.3758 -5.3879 2.1330
4.5663 -5.2273 2.1330
4.7508 -5.0598 2.1330
4.9292 -4.8859 2.1330
5.1013 -4.7057 2.1330
5.2667 -4.5194 2.1330
5.4254 -4.3273 2.1330
5.5770 -4.1296 2.1330
5.7215 -3.9267 2.1330
5.8585 -3.7186 2.1330
5.9880 -3.5058 2.1330
6.1097 -3.2885 2.1330
6.2236 -3.0670 2.1330
6.3025 -2.8294 2.1239
6.3465 -2.5796 2.1063
6.3898 -2.3336 2.0916
6.5277 -2.1217 2.1105
6.5707 -1.8777 2.1013
6.6133 -1.6356 2.0949
6.6558 -1.3946 2.0912
6.6981 -1.1542 2.0902
6.6423 -0.9004 2.0614
6.6841 -0.6628 2.0658
6.7262 -0.4239 2.0729
6.7687 -0.1830 2.0826
6.9122 0.0613 2.1262
6.9563 0.3117 2.1419
7.0011 0.5661 2.1607
7.0419 0.8247 2.1811
6.9952 1.0751 2.1773
6.9640 1.3277 2.1811
6.4644 1.4748 2.0400
6.4780 1.7247 2.0626
6.4336 1.9628 2.0696
6.3588 2.1924 2.0696
6.4431 2.4836 2.1248
6.3740 2.7237 2.1330
6.2719 2.9506 2.1330
6.1617 3.1738 2.1330
6.0435 3.3928 2.1330
5.9176 3.6074 2.1330
5.7841 3.8174 2.1330
5.6432 4.0224 2.1330
5.4950 4.2223 2.1330
5.3397 4.4167 2.1330
5.1775 4.6054 2.1330
5.0087 4.7881 2.1330
4.8334 4.9647 2.1330
4.6520 5.1349 2.1330
4.4645 5.2984 2.1330
4.2713 5.4551 2.1330
4.0726 5.6048 2.1330
3.8687 5.7473 2.1330
3.6598 5.8823 2.1330
3.4462 6.0098 2.1330
3.2282 6.1295 2.1330
3.0060 6.2413 2.1330
2.7799 6.3451 2.1330
2.5503 6.4407 2.1330
2.3598 6.6474 2.1720
2.1822 6.9263 2.2361
1.9321 7.0001 2.2361
1.6795 7.0649 2.2361
1.4248 7.1206 2.2361
1.1683 7.1671 2.2361
0.9102 7.2044 2.2361
0.6510 7.2324 2.2361
0.3909 7.2510 2.2361
0.1304 7.2604 2.2361
-0.1304 7.2604 2.2361
-0.3909 7.2511 2.2361
-0.6510 7.2324 2.2361
-0.9102 7.2044 2.2361
-1.1683 7.1671 2.2361
-1.4248 7.1206 2.2361
-1.6796 7.0650 2.2361
-1.9321 7.0002 2.2361
-2.1822 6.9264 2.2361
-2.4295 6.8437 2.2361
-2.6737 6.7522 2.2361
-2.9144 6.6519 2.2361
-3.1514 6.5431 2.2361
-3.3843 6.4259 2.2361
-3.6129 6.3004 2.2361
-3.8368 6.1668 2.2361
-4.0558 6.0252 2.2361
-4.2696 5.8759 2.2361
-4.4779 5.7190 2.2361
-4.6805 5.5547 2.2361
-4.8770 5.3832 2.2361
-5.0673 5.2048 2.2361
-5.2510 5.0197 2.2361
-5.4280 4.8281 2.2361
-5.5980 4.6303 2.2361
-5.6883 4.3708 2.2080
-5.6959 4.0600 2.1529
-5.7840 3.8173 2.1329
-5.9175 3.6073 2.1329
-6.0434 3.3927 2.1329
-6.1615 3.1736 2.1329
-6.2717 2.9505 2.1329
-6.1601 2.6323 2.0613
-6.4677 2.4931 2.1329
-6.5533 2.2594 2.1329
-6.6305 2.0228 2.1329
-6.6991 1.7836 2.1329
-6.7591 1.5420 2.1329
-6.8104 1.2984 2.1329
-6.8529 1.0532 2.1329
-6.8865 0.8065 2.1329
-6.9113 0.5589 2.1329
-6.9272 0.3104 2.1329
-6.9342 0.0615 2.1329
-6.9322 -0.1874 2.1329
-6.9213 -0.4361 2.1329
-6.9015 -0.6843 2.1329
-6.8728 -0.9317 2.1329
-6.8352 -1.1778 2.1329
-6.7888 -1.4225 2.1329
-6.7336 -1.6653 2.1329
-6.6698 -1.9060 2.1329
-6.5973 -2.1443 2.1329
-6.5163 -2.3798 2.1329
-6.4270 -2.6123 2.1329
-6.3293 -2.8414 2.1329
-6.2235 -3.0669 2.1329
-6.1096 -3.2884 2.1329
-5.9878 -3.5057 2.1329
-5.8583 -3.7185 2.1329
-5.7213 -3.9265 2.1329
-5.6887 -4.2123 2.1756
-5.6868 -4.5358 2.2357
-5.5215 -4.7380 2.2361
-5.3481 -4.9333 2.2361
-5.1677 -5.1222 2.2361
-4.9807 -5.3046 2.2361
-4.7872 -5.4801 2.2361
-4.5875 -5.6485 2.2361
-4.3819 -5.8097 2.2361
-4.1707 -5.9634 2.2361
-3.9540 -6.1094 2.2361
-3.7323 -6.2475 2.2361
-3.5057 -6.3775 2.2361
-3.2746 -6.4994 2.2361
-3.0392 -6.6128 2.2361
-2.8000 -6.7178 2.2361
-2.5571 -6.8140 2.2361
-2.3109 -6.9015 2.2361
-2.0617 -6.9801 2.2361
-1.8099 -7.0497 2.2361
-1.5557 -7.1102 2.2361
-1.2995 -7.1615 2.2361
-1.0416 -7.2035 2.2361
-0.7824 -7.2363 2.2361
-0.5222 -7.2598 2.2361
-0.2613 -7.2738 2.2361
-0.0000 -6.7344 2.2361
0.2417 -6.7301 2.2361
0.4831 -6.7170 2.2361
0.7239 -6.6953 2.2361
0.9637 -6.6650 2.2361
1.2023 -6.6261 2.2361
1.4393 -6.5786 2.2361
1.6745 -6.5226 2.2361
1.9075 -6.4582 2.2361
2.1381 -6.3855 2.2361
2.3594 -6.2875 2.2300
2.4711 -5.9290 2.1330
2.6823 -5.8363 2.1330
2.8900 -5.7362 2.1330
3.0940 -5.6287 2.1330
3.2940 -5.5139 2.1330
3.4897 -5.3920 2.1330
3.6809 -5.2631 2.1330
3.8673 -5.1275 2.1330
4.0488 -4.9853 2.1330
4.2250 -4.8366 2.1330
4.3602 -4.6439 2.1158
4.5240 -4.4843 2.1158
4.7200 -4.3540 2.1330
4.8731 -4.1817 2.1330
5.0199 -4.0040 2.1330
5.1602 -3.8211 2.1330
5.2939 -3.6333 2.1330
5.4207 -3.4408 2.1330
5.5405 -3.2439 2.1330
5.6532 -3.0428 2.1330
5.7586 -2.8379 2.1330
5.8565 -2.6292 2.1330
5.9469 -2.4172 2.1330
6.0296 -2.2021 2.1330
6.1046 -1.9842 2.1330
6.1716 -1.7637 2.1330
6.2307 -1.5410 2.1330
6.2818 -1.3163 2.1330
6.3247 -1.0899 2.1330
6.3595 -0.8621 2.1330
6.5301 -0.6476 2.1811
6.5489 -0.4127 2.1811
6.5592 -0.1774 2.1811
6.5611 0.0582 2.1811
6.5545 0.2936 2.1811
6.5395 0.5287 2.1811
6.3724 0.7463 2.1330
6.3412 0.9745 2.1330
6.3019 1.2015 2.1330
6.2545 1.4269 2.1330
6.1990 1.6504 2.1330
6.1355 1.8718 2.1330
6.0642 2.0908 2.1330
5.9850 2.3070 2.1330
5.8981 2.5203 2.1330
5.8036 2.7303 2.1330
5.7017 2.9368 2.1330
5.5924 3.1394 2.1330
5.4759 3.3381 2.1330
5.3524 3.5324 2.1330
5.2219 3.7221 2.1330
5.0848 3.9071 2.1330
4.9411 4.0869 2.1330
4.7911 4.2616 2.1330
4.6349 4.4307 2.1330
4.4727 4.5941 2.1330
4.3048 4.7516 2.1330
4.1313 4.9029 2.1330
3.9525 5.0480 2.1330
3.7687 5.1865 2.1330
3.5800 5.3183 2.1330
3.3867 5.4433 2.1330
3.1890 5.5613 2.1330
2.9873 5.6721 2.1330
2.7817 5.7756 2.1330
2.5725 5.8716 2.1330
2.3674 5.9787 2.1397
2.2482 6.3329 2.2361
2.0193 6.4094 2.2361
1.7879 6.4777 2.2361
1.5542 6.5376 2.2361
1.3185 6.5892 2.2361
1.0811 6.6322 2.2361
0.8423 6.6667 2.2361
0.6024 6.6927 2.2361
0.3617 6.7100 2.2361
0.1206 6.7186 2.2361
-0.1207 6.7186 2.2361
-0.3618 6.7100 2.2361
-0.6024 6.6927 2.2361
-0.8423 6.6668 2.2361
-1.0811 6.6323 2.2361
-1.3185 6.5893 2.2361
-1.5543 6.5377 2.2361
-1.7880 6.4778 2.2361
-2.0194 6.4095 2.2361
-2.2482 6.3330 2.2361
-2.4742 6.2483 2.2361
-2.6969 6.1555 2.2361
-2.9162 6.0548 2.2361
-3.1318 5.9463 2.2361
-3.3433 5.8302 2.2361
-3.5505 5.7065 2.2361
-3.7532 5.5755 2.2361
-3.9510 5.4373 2.2361
-4.1437 5.2921 2.2361
-4.3312 5.1400 2.2361
-4.5130 4.9814 2.2361
-4.6891 4.8163 2.2361
-4.8591 4.6450 2.2361
-5.0228 4.4677 2.2361
-5.1801 4.2846 2.2361
-5.3308 4.0960 2.2361
-5.4746 3.9022 2.2361
-5.6113 3.7033 2.2361
-5.6881 3.4674 2.2156
-5.6912 3.1949 2.1706
-5.7015 2.9367 2.1329
-5.8035 2.7302 2.1329
-5.9013 2.5216 2.1341
-5.9848 2.3069 2.1329
-6.0640 2.0907 2.1329
-6.1354 1.8717 2.1329
-6.1989 1.6503 2.1329
-6.2543 1.4268 2.1329
-6.3018 1.2014 2.1329
-6.3411 0.9745 2.1329
-6.3722 0.7462 2.1329
-6.3952 0.5171 2.1329
-6.4099 0.2872 2.1329
-6.4163 0.0569 2.1329
-6.4144 -0.1735 2.1329
-6.4043 -0.4036 2.1329
-6.3860 -0.6333 2.1329
-6.3594 -0.8621 2.1329
-6.3246 -1.0899 2.1329
-6.2816 -1.3163 2.1329
-6.2305 -1.5410 2.1329
-6.1715 -1.7637 2.1329
-6.1044 -1.9841 2.1329
-6.0295 -2.2021 2.1329
-5.9468 -2.4171 2.1329
-5.8564 -2.6291 2.1329
-5.7584 -2.8377 2.1329
-5.6957 -3.0657 2.1490
-5.6870 -3.3296 2.1893
-5.6830 -3.6072 2.2361
-5.5500 -3.8090 2.2361
-5.4099 -4.0059 2.2361
-5.2628 -4.1976 2.2361
-5.1089 -4.3839 2.2361
-4.9483 -4.5646 2.2361
-4.7815 -4.7394 2.2361
-4.6084 -4.9081 2.2361
-4.4294 -5.0705 2.2361
-4.2446 -5.2264 2.2361
-4.0544 -5.3755 2.2361
-3.8589 -5.5177 2.2361
-3.6585 -5.6527 2.2361
-3.4533 -5.7805 2.2361
-3.2436 -5.9008 2.2361
-3.0298 -6.0136 2.2361
-2.8121 -6.1185 2.2361
-2.5907 -6.2156 2.2361
-2.3659 -6.3047 2.2361
-2.1381 -6.3856 2.2361
-1.9076 -6.4583 2.2361
-1.6746 -6.5227 2.2361
-1.4394 -6.5786 2.2361
-1.2023 -6.6261 2.2361
-0.9637 -6.6650 2.2361
-0.7239 -6.6954 2.2361
-0.4831 -6.7171 2.2361
-0.2417 -6.7301 2.2361
-0.0000 -6.2594 2.2361
0.2246 -6.2554 2.2361
0.4490 -6.2433 2.2361
0.6728 -6.2231 2.2361
0.8957 -6.1949 2.2361
1.1175 -6.1587 2.2361
1.3378 -6.1146 2.2361
1.5564 -6.0626 2.2361
1.7730 -6.0028 2.2361
1.9873 -5.9352 2.2361
2.1990 -5.8600 2.2361
2.3593 -5.6607 2.1910
