ply
format ascii 1.0
element vertex 2131
property float32 x
property float32 y
property float32 z
end_header
-10.6025 -16.3820 0.9515
-21.7282 -36.3715 2.0641
-19.7523 -35.9336 1.9961
-18.7172 -37.1501 2.0236
-17.1873 -37.3967 2.0007
-15.7909 -37.8863 1.9941
-14.2174 -37.8862 1.9648
-10.4831 -31.3080 1.6023
-12.7019 -43.0036 2.1751
-11.1546 -43.4487 2.1751
-7.6124 -34.7918 1.7264
-7.8550 -43.2884 2.1320
-6.6021 -45.6584 2.2351
-4.9599 -45.8729 2.2351
-3.3105 -46.0257 2.2351
-1.6565 -46.1164 2.2351
-0.0002 -31.4633 2.2351
1.1290 -31.4412 2.2351
1.8480 -25.6968 1.8305
3.2247 -29.8292 2.1320
4.2924 -29.6888 2.1320
5.3540 -29.5090 2.1320
5.3919 -24.6456 1.7940
6.2312 -24.2736 1.7826
6.4825 -21.9490 1.6285
5.5919 -16.7017 1.2537
6.2330 -16.6111 1.2635
6.2037 -14.8855 1.1489
6.1262 -13.3307 1.0458
6.7347 -13.3683 1.0676
7.3474 -13.3676 1.0885
1.7556 -2.9389 0.2444
6.6748 -10.3142 0.8778
6.9901 -9.9956 0.8721
5.8326 -7.7338 0.6931
5.8429 -7.1949 0.6636
5.9910 -6.8588 0.6526
6.1229 -6.5217 0.6415
6.4681 -6.4119 0.6537
6.7378 -6.2160 0.6585
5.9968 -5.1464 0.5681
6.2988 -5.0245 0.5798
6.8379 -5.0639 0.6129
7.2832 -4.9991 0.6369
7.3781 -4.6838 0.6307
5.9017 -3.4557 0.4940
6.1810 -3.3273 0.5076
6.7734 -3.3384 0.5466
7.2831 -3.2701 0.5785
7.3803 -3.0003 0.5779
7.3780 -2.6950 0.5704
5.9445 -1.9325 0.4544
6.3861 -1.8254 0.4833
7.3201 -1.8109 0.5494
7.3206 -1.5344 0.5455
7.3212 -1.2621 0.5424
6.7799 -0.9195 0.5001
6.1496 -0.6102 0.4522
6.0601 -0.3823 0.4448
5.9474 -0.1612 0.4363
5.9716 0.0526 0.4385
5.9716 0.2672 0.4394
5.9715 0.4825 0.4409
5.9715 0.6990 0.4429
5.9620 0.9159 0.4448
6.0863 1.1600 0.4574
6.4916 1.4806 0.4921
6.8248 1.8166 0.5225
15.9122 4.8534 1.2321
15.9122 5.4851 1.2479
15.8210 6.0975 1.2584
16.4795 7.0407 1.3314
15.7391 7.4034 1.2935
16.7529 8.6278 1.4027
16.7529 9.4036 1.4314
16.2646 9.9137 1.4206
15.7389 10.3861 1.4076
15.8842 11.3209 1.4573
15.8206 12.1551 1.4919
15.9013 13.1513 1.5443
17.8690 15.8929 1.7912
16.3454 15.6241 1.6949
14.9774 15.3828 1.6105
13.7395 15.1644 1.5361
12.6111 14.9654 1.4701
11.5757 14.7827 1.4114
10.6199 14.6142 1.3588
10.3271 15.3405 1.3918
10.1544 16.3197 1.4474
9.9672 17.3805 1.5095
9.7633 18.5368 1.5793
9.5395 19.8055 1.6578
9.1031 20.7761 1.7113
8.9985 22.7238 1.8447
8.6439 24.3477 1.9507
7.8482 24.9090 1.9724
7.3529 26.6386 2.0877
6.4656 27.1958 2.1123
5.5563 27.7668 2.1401
4.5552 27.9439 2.1401
3.5485 28.0862 2.1401
2.5377 28.1932 2.1401
1.5238 28.2650 2.1401
0.5080 28.3015 2.1401
-0.5084 28.3025 2.1401
-1.3097 24.2891 1.8389
-2.5289 28.0919 2.1320
-3.5364 27.9874 2.1320
-4.5398 27.8477 2.1320
-5.5380 27.6732 2.1320
-6.5297 27.4639 2.1320
-7.5138 27.2201 2.1320
-8.6557 27.4708 2.1739
-9.7909 27.5775 2.2079
-10.9121 27.5554 2.2351
-11.9004 27.1597 2.2353
-12.8734 26.7265 2.2351
-13.8318 26.2608 2.2351
-14.7740 25.7617 2.2351
-15.6986 25.2296 2.2351
-10.3881 15.4308 1.3983
-11.4119 15.7037 1.4583
-10.3881 13.2659 1.2649
-13.1921 15.6546 1.5357
-14.1838 15.6545 1.5835
-15.2421 15.6544 1.6366
-14.3921 13.7568 1.4901
-13.2807 11.8118 1.3291
-13.8407 11.4469 1.3420
-13.8728 10.6585 1.3060
-21.9641 15.6539 2.0116
-17.6555 11.6506 1.5762
-19.1651 11.6815 1.6708
-17.2526 9.6840 1.4714
-15.1013 7.7772 1.2620
-22.7095 10.6820 1.8627
-13.9872 5.9758 1.1278
-26.7032 10.2914 2.1197
-14.9486 5.1529 1.1699
-15.1323 4.6155 1.1693
-13.5286 3.6009 1.0336
-21.0751 4.8066 1.5943
-25.1236 4.7883 1.8842
-28.7504 4.4166 2.1406
-29.0797 3.4038 2.1522
-28.6467 2.3144 2.1103
-27.8859 1.2477 2.0473
-27.2231 0.2398 1.9945
-25.5414 -0.6922 1.8698
-25.5597 -1.6123 1.8721
-26.0863 -2.5884 1.9141
-26.4080 -3.5816 1.9438
-27.2216 -4.6926 2.0125
-28.4231 -5.9575 2.1135
-29.0837 -7.1947 2.1780
-28.8420 -8.2441 2.1784
-24.0119 -7.8061 1.8316
-23.4616 -8.5699 1.8100
-27.3547 -11.1203 2.1376
-26.9859 -12.1166 2.1392
-26.5491 -13.0850 2.1383
-26.1792 -14.0924 2.1457
-26.3344 -15.4200 2.2003
-13.2546 -8.4142 1.1309
-14.3353 -9.8394 1.2513
-18.7616 -13.8938 1.6786
-13.2122 -10.5391 1.2141
-15.8658 -13.6157 1.5006
-13.8388 -12.7667 1.3503
-17.4173 -17.2655 1.7574
-16.2098 -17.2654 1.6957
-15.0812 -17.2654 1.6403
-14.0211 -17.2653 1.5903
-12.9983 -17.2348 1.5424
-10.4498 -14.9426 1.3020
-10.6020 -16.3822 1.3925
-16.0716 -26.9041 2.2351
-15.1037 -27.4784 2.2351
-14.1148 -28.0167 2.2351
-13.1062 -28.5185 2.2351
-12.0793 -28.9828 2.2351
-11.0356 -29.4091 2.2351
-9.9765 -29.7965 2.2351
-8.9034 -30.1446 2.2351
-7.8179 -30.4530 2.2351
-6.7214 -30.7209 2.2351
-5.6155 -30.9481 2.2351
-4.5018 -31.1343 2.2351
-3.3818 -31.2790 2.2351
-2.2572 -31.3823 2.2351
-1.1294 -31.4438 2.2351
-0.0002 -23.8508 2.2351
0.8558 -23.8343 2.2351
1.6316 -22.6893 2.1320
2.4445 -22.6136 2.1320
3.2541 -22.5082 2.1320
4.0591 -22.3731 2.1320
4.8584 -22.2085 2.1320
5.6696 -22.0873 2.1391
6.4569 -21.8638 2.1391
5.5607 -16.6097 1.6440
5.5848 -14.8845 1.4926
5.6170 -13.4785 1.3714
6.1435 -13.3692 1.3824
6.7344 -13.3683 1.4070
6.6473 -12.0947 1.2978
1.7553 -2.9386 0.3220
6.6445 -10.2680 1.1512
7.0615 -10.0983 1.1604
5.8991 -7.8225 0.9232
5.8790 -7.2399 0.8792
5.9909 -6.8592 0.8591
6.1581 -6.5597 0.8492
6.3864 -6.3314 0.8494
6.6683 -6.1523 0.8575
5.8537 -5.0241 0.7296
6.3468 -5.0632 0.7684
6.8370 -5.0636 0.8057
7.2832 -4.9995 0.8372
5.7384 -3.6432 0.6447
5.9079 -3.4597 0.6498
6.1995 -3.3376 0.6688
6.7722 -3.3382 0.7178
7.2831 -3.2706 0.7596
7.3780 -2.9998 0.7584
7.3780 -2.6954 0.7485
5.9640 -1.9392 0.5981
6.3646 -1.8196 0.6319
7.3203 -1.8113 0.7204
7.3206 -1.5348 0.7152
7.3212 -1.2625 0.7109
6.7805 -0.9200 0.6554
6.1500 -0.6106 0.5924
6.0602 -0.3826 0.5826
5.9476 -0.1615 0.5713
5.9716 0.0523 0.5739
5.9716 0.2669 0.5750
5.9715 0.4821 0.5767
5.9715 0.6987 0.5793
5.9618 0.9155 0.5816
6.0862 1.1596 0.5980
6.4918 1.4803 0.6432
6.8233 1.8158 0.6826
15.8211 4.8248 1.6003
15.8211 5.4528 1.6203
15.8210 6.0966 1.6430
16.4816 7.0407 1.7381
15.5439 7.3107 1.6671
15.9201 8.1980 1.7392
15.6040 8.7578 1.7392
15.4255 9.4013 1.7571
15.1028 9.9654 1.7612
15.8847 11.3203 1.8999
15.8206 12.1541 1.9445
15.8953 13.1454 2.0117
16.3872 14.5737 2.1401
15.8439 15.1435 2.1401
14.9787 15.3830 2.0978
13.7406 15.1646 2.0005
12.6120 14.9656 1.9142
11.5765 14.7829 1.8374
10.6207 14.6143 1.7688
10.1740 15.1122 1.7845
9.7023 15.5922 1.7996
9.9674 17.3797 1.9641
9.2877 17.6329 1.9545
9.4668 19.6536 2.1401
8.7522 19.9743 2.1401
8.0271 20.2697 2.1401
7.2922 20.5393 2.1401
6.5485 20.7830 2.1401
5.7969 21.0003 2.1401
5.0382 21.1911 2.1401
4.2573 21.2743 2.1320
3.4903 21.4108 2.1320
2.7191 21.5204 2.1320
1.9446 21.6028 2.1320
1.1676 21.6580 2.1320
0.3893 21.6860 2.1320
-0.3898 21.6994 2.1333
-1.2245 22.7072 2.2351
-2.0397 22.6556 2.2356
-2.8528 22.5758 2.2362
-3.6630 22.4677 2.2367
-4.4691 22.3306 2.2372
-5.2702 22.1652 2.2377
-6.0655 21.9720 2.2382
-6.8510 21.7419 2.2378
-7.6280 21.4842 2.2374
-8.3955 21.1993 2.2370
-9.1530 20.8881 2.2366
-9.8989 20.5499 2.2362
-10.6328 20.1859 2.2358
-10.8286 18.8809 2.1320
-11.5048 18.4884 2.1320
-10.3879 15.4296 1.8203
-10.3879 14.2936 1.7283
-10.3878 13.2646 1.6471
-8.9818 10.6576 1.3618
-14.1847 15.6544 2.0629
-15.2409 15.6520 2.1320
-12.6255 12.0673 1.7034
-16.9823 15.1027 2.2151
-17.5251 14.4929 2.2151
-13.8937 10.6735 1.7054
-18.5454 13.2162 2.2151
-17.7622 11.7199 2.0685
-19.4741 11.8686 2.2151
-19.9024 11.1701 2.2151
-15.1061 7.7788 1.6479
-20.6844 9.7282 2.2151
-17.1387 7.3213 1.8047
-19.3910 7.4722 2.0107
-21.5291 7.4200 2.2015
-21.6137 6.5912 2.1828
-13.5848 3.6152 1.3568
-16.0053 3.6495 1.5831
-21.7874 4.1513 2.1371
-21.7734 3.3436 2.1208
-22.1014 2.5858 2.1405
-22.1821 1.7910 2.1389
-21.9689 0.9818 2.1117
-20.4092 0.1788 1.9583
-20.3009 -0.5512 1.9468
-20.1610 -1.2728 1.9349
-20.0322 -1.9887 1.9265
-20.0595 -2.7216 1.9356
-21.0341 -3.6270 2.0392
-20.7717 -4.3548 2.0259
-20.4416 -5.0579 2.0085
-20.1206 -5.7523 1.9943
-19.5461 -6.3553 1.9571
-19.1445 -6.9940 1.9392
-18.8754 -7.6743 1.9371
-18.7413 -8.4158 1.9516
-20.2310 -9.9722 2.1410
-20.3468 -10.9540 2.1918
-14.9214 -8.7380 1.6389
-18.8692 -11.9795 2.1168
-19.1452 -13.1419 2.1978
-13.3140 -9.8605 1.5669
-13.3403 -10.6421 1.6129
-15.3673 -13.1889 1.9127
-17.2479 -15.9128 2.2151
-16.6758 -16.5317 2.2151
-16.0812 -17.1296 2.2151
-15.0802 -17.2654 2.1600
-14.0202 -17.2653 2.0945
-12.9975 -17.2348 2.0319
-10.4498 -14.9435 1.7155
-10.4498 -16.1479 1.8087
-11.6307 -19.4712 2.1319
-10.9289 -19.8842 2.1319
-10.2121 -20.2713 2.1319
-7.2321 -15.7376 1.6261
-9.1608 -21.9812 2.2351
-8.3685 -22.3024 2.2351
-7.5647 -22.5944 2.2351
-6.7505 -22.8566 2.2351
-5.9271 -23.0889 2.2351
-5.0955 -23.2908 2.2351
-4.2570 -23.4619 2.2351
-3.4126 -23.6022 2.2351
-2.5636 -23.7114 2.2351
-1.7110 -23.7892 2.2351
-0.8562 -23.8358 2.2351
-0.0002 -19.1884 2.2351
0.6884 -19.1754 2.2351
1.3641 -18.9715 2.2158
1.9666 -18.1940 2.1320
2.6180 -18.1096 2.1320
3.2657 -18.0015 2.1320
3.9090 -17.8698 2.1320
4.5469 -17.7147 2.1320
5.1786 -17.5364 2.1320
5.5604 -16.6096 2.0428
5.5844 -14.8842 1.8546
5.5714 -13.3699 1.6902
6.1293 -13.3391 1.7136
6.7340 -13.3684 1.7478
6.6471 -12.0949 1.6120
1.7550 -2.9384 0.3999
6.6442 -10.2683 1.4297
7.0612 -10.0985 1.4410
5.8952 -7.8178 1.1456
5.8350 -7.1862 1.0835
5.9907 -6.8595 1.0665
6.1224 -6.5222 1.0481
6.3494 -6.2951 1.0481
5.6369 -5.2011 0.8995
5.8983 -5.0627 0.9122
6.3463 -5.0633 0.9532
6.8254 -5.0555 0.9978
6.9951 -4.8022 0.9974
5.7445 -3.6475 0.8004
5.7607 -3.3739 0.7857
6.1988 -3.3377 0.8291
6.7717 -3.3383 0.8897
7.2831 -3.2710 0.9414
7.3780 -3.0002 0.9398
7.3780 -2.6958 0.9275
5.8272 -1.8950 0.7240
6.3631 -1.8195 0.7825
7.3204 -1.8117 0.8922
7.3206 -1.5352 0.8856
7.3212 -1.2628 0.8802
6.4095 -0.8700 0.7668
6.1503 -0.6109 0.7333
6.0604 -0.3829 0.7209
5.9477 -0.1618 0.7069
5.8394 0.0508 0.6943
5.8064 0.2592 0.6915
5.8066 0.4685 0.6935
5.8406 0.6831 0.7006
5.9616 0.9152 0.7190
6.0860 1.1593 0.7391
6.2346 1.4213 0.7634
16.2805 4.3317 2.0125
15.8211 4.8239 1.9771
15.8211 5.4520 2.0016
15.8210 6.0958 2.0293
16.4250 7.0156 2.1391
14.9714 7.0406 1.9827
14.6004 7.5176 1.9692
14.8425 8.3295 2.0421
14.8911 9.0748 2.0935
14.8638 9.8068 2.1391
14.5014 10.3334 2.1401
14.1134 10.8416 2.1401
13.7079 11.3353 2.1401
13.2854 11.8142 2.1401
12.8464 12.2776 2.1401
12.3914 12.7249 2.1401
11.9212 13.1556 2.1401
11.4362 13.5693 2.1401
10.9371 13.9654 2.1401
10.4246 14.3434 2.1401
9.8991 14.7031 2.1401
9.3615 15.0437 2.1401
8.8124 15.3651 2.1401
8.2525 15.6667 2.1401
7.6824 15.9484 2.1401
7.1030 16.2096 2.1401
6.5148 16.4503 2.1401
5.9187 16.6699 2.1401
5.3153 16.8684 2.1401
4.6876 16.9810 2.1320
4.0743 17.1358 2.1320
3.4559 17.2689 2.1320
2.8334 17.3802 2.1320
2.2074 17.4694 2.1320
1.5786 17.5365 2.1320
0.9874 18.3148 2.2210
0.3313 18.4582 2.2355
-0.3317 18.4627 2.2360
-0.9947 18.4439 2.2365
-1.6568 18.4018 2.2370
-2.3172 18.3363 2.2375
-2.9752 18.2476 2.2380
-3.6289 18.1316 2.2380
-4.2775 17.9890 2.2375
-4.9206 17.8235 2.2371
-5.5574 17.6355 2.2366
-6.1872 17.4252 2.2361
-6.8093 17.1930 2.2357
-7.4229 16.9390 2.2353
-7.6581 15.8971 2.1320
-8.2266 15.6170 2.1320
-7.4450 12.9804 1.8068
-9.3329 14.9972 2.1320
-9.8692 14.6582 2.1320
-10.3878 14.2925 2.1309
-10.3877 13.2636 2.0309
-9.0148 10.6960 1.6855
-12.3501 13.6287 2.2151
-12.8377 13.1829 2.2151
-13.3094 12.7199 2.2151
-13.7647 12.2403 2.2151
-14.2029 11.7445 2.2151
-14.6235 11.2333 2.2151
-14.9987 10.6877 2.2111
-15.3762 10.1446 2.2103
-15.5675 9.4867 2.1861
-15.8597 8.9002 2.1795
-15.9240 8.1989 2.1452
-16.4065 7.7153 2.1701
-14.1491 6.0434 1.8404
-14.5372 5.6010 1.8623
-16.9049 5.8254 2.1360
-16.9972 5.1824 2.1214
-14.1973 3.7774 1.7527
-17.4218 3.9715 2.1303
-17.8711 3.4041 2.1674
-18.0978 2.7782 2.1799
-18.1837 2.1265 2.1781
-18.1126 1.4615 2.1604
-18.0098 0.8039 2.1419
-17.7466 0.1545 2.1071
-17.0667 -0.4643 2.0256
-16.5161 -1.0435 1.9621
-16.1242 -1.6016 1.9198
-15.9136 -2.1599 1.9014
-15.7913 -2.7238 1.8960
-16.1680 -3.3905 1.9532
-16.3446 -4.0451 1.9895
-17.4969 -5.0031 2.1488
-17.0447 -5.5429 2.1149
-16.6677 -6.0901 2.0926
-16.4053 -6.6709 2.0870
-16.2016 -7.2763 2.0917
-16.0272 -7.9010 2.1031
-15.3956 -8.2893 2.0567
-13.7266 -8.0392 1.8700
-15.6936 -9.9643 2.1840
-15.3533 -10.5400 2.1867
-15.0264 -11.1296 2.1944
-13.3549 -10.6546 2.0038
-14.3128 -12.2848 2.2111
-13.8950 -12.8204 2.2151
-13.4325 -13.3174 2.2151
-12.9521 -13.7974 2.2151
-12.4542 -14.2598 2.2151
-11.9396 -14.7040 2.2151
-11.4090 -15.1294 2.2151
-10.4498 -14.9444 2.1309
-9.9152 -15.3228 2.1319
-9.3622 -15.6743 2.1319
-8.7966 -16.0055 2.1319
-8.2190 -16.3159 2.1319
-7.2156 -15.7023 2.0160
-7.0314 -16.8726 2.1319
-6.7340 -17.9472 2.2351
-6.0868 -18.1812 2.2351
-5.4315 -18.3914 2.2351
-4.7688 -18.5775 2.2351
-4.0996 -18.7393 2.2351
-3.4248 -18.8765 2.2351
-2.7455 -18.9890 2.2351
-2.0624 -19.0765 2.2351
-1.3765 -19.1390 2.2351
-0.6888 -19.1763 2.2351
-0.0002 -16.0370 2.2351
0.5753 -16.0262 2.2351
1.1500 -15.9944 2.2351
1.6436 -15.2064 2.1320
2.1880 -15.1362 2.1320
2.7294 -15.0461 2.1320
3.2672 -14.9364 2.1320
3.8004 -14.8072 2.1320
4.3286 -14.6587 2.1320
4.8509 -14.4911 2.1320
5.3666 -14.3045 2.1320
5.4931 -13.1828 1.9934
5.9486 -12.9467 1.9893
6.5211 -12.9467 2.0245
6.6468 -12.0952 1.9280
1.7547 -2.9381 0.4782
6.6440 -10.2685 1.7097
7.0374 -10.0652 1.7174
5.8948 -7.8179 1.3697
5.9721 -7.3555 1.3259
5.9906 -6.8598 1.2750
6.1222 -6.5224 1.2529
6.4673 -6.4125 1.2761
5.4794 -5.0562 1.0451
5.8979 -5.0628 1.0901
6.3458 -5.0633 1.1391
6.4558 -4.7822 1.1278
6.5716 -4.5119 1.1195
5.4533 -3.4629 0.9077
5.6311 -3.2983 0.9175
6.1982 -3.3377 0.9902
6.6300 -3.2689 1.0403
6.6288 -2.9775 1.0233
6.6277 -2.6955 1.0081
5.6871 -2.0783 0.8536
5.6959 -1.8527 0.8448
6.3616 -1.8194 0.9338
7.3205 -1.8122 1.0649
7.3206 -1.5356 1.0569
7.3212 -1.2632 1.0503
6.5423 -0.8884 0.9340
6.2321 -0.6194 0.8864
6.0606 -0.3833 0.8600
5.9479 -0.1621 0.8432
5.8918 0.0510 0.8354
5.8585 0.2612 0.8320
5.8597 0.4725 0.8345
5.8940 0.6890 0.8429
5.9614 0.9149 0.8572
6.0858 1.1589 0.8810
6.3290 1.4425 0.9236
6.8204 1.8143 1.0047
14.3644 4.3790 2.1391
14.1902 4.8892 2.1391
13.9979 5.3925 2.1391
13.7879 5.8884 2.1391
13.5605 6.3763 2.1391
13.3160 6.8555 2.1391
13.0547 7.3255 2.1391
12.7770 7.7856 2.1391
12.4833 8.2354 2.1391
12.1739 8.6742 2.1391
11.8492 9.1015 2.1391
11.5097 9.5169 2.1391
11.1558 9.9198 2.1391
10.7934 10.3147 2.1401
10.4119 10.6913 2.1401
10.0175 11.0540 2.1401
9.6106 11.4024 2.1401
9.1918 11.7360 2.1401
8.7616 12.0545 2.1401
8.3205 12.3574 2.1401
7.8690 12.6444 2.1401
7.4079 12.9152 2.1401
6.9376 13.1694 2.1401
6.4586 13.4068 2.1401
5.9717 13.6270 2.1401
5.4774 13.8300 2.1401
4.9575 13.9621 2.1320
4.4523 14.1288 2.1320
3.9415 14.2775 2.1320
3.4259 14.4080 2.1320
2.9060 14.5202 2.1320
2.3825 14.6140 2.1320
1.8561 14.6892 2.1320
1.3552 15.0541 2.1766
0.8357 15.5003 2.2354
0.2786 15.5232 2.2358
-0.2790 15.5256 2.2361
-0.8364 15.5080 2.2364
-1.3930 15.4706 2.2366
-1.9480 15.4133 2.2368
-2.5006 15.3363 2.2370
-3.0500 15.2380 2.2370
-3.5951 15.1181 2.2366
-4.1355 14.9790 2.2361
-4.6710 14.8219 2.2359
-5.2008 14.6463 2.2357
-5.7241 14.4520 2.2355
-6.2403 14.2393 2.2353
-6.7488 14.0087 2.2351
-6.9196 13.1349 2.1334
-7.3842 12.8735 2.1320
-7.8441 12.6041 2.1320
-8.2944 12.3184 2.1320
-8.7344 12.0168 2.1320
-9.1636 11.6997 2.1320
-9.0317 10.7154 2.0097
-9.9873 11.0205 2.1320
-10.3809 10.6592 2.1320
-11.1808 10.6847 2.2151
-11.5623 10.2809 2.2151
-11.9294 9.8637 2.2151
-12.2671 9.4223 2.2125
-12.5666 8.9538 2.2060
-12.7761 8.4284 2.1872
-13.0162 7.9312 2.1770
-13.1909 7.4017 2.1592
-13.3320 6.8636 2.1395
-13.4948 6.3452 2.1265
-13.6921 5.8474 2.1220
-13.9513 5.3744 2.1297
-14.1679 4.8814 2.1334
-14.3115 4.3628 2.1289
-14.2447 3.7892 2.0961
-14.8339 3.3808 2.1624
-15.0494 2.8659 2.1761
-15.1439 2.3240 2.1750
-15.1305 1.7687 2.1613
-15.0440 1.2131 2.1401
-15.0855 0.6726 2.1399
-15.0506 0.1303 2.1317
-15.0540 -0.4103 2.1316
-14.8397 -0.9384 2.1035
-14.5822 -1.4492 2.0718
-14.3859 -1.9533 2.0514
-14.3512 -2.4762 2.0566
-14.3422 -3.0084 2.0682
-14.4260 -3.5710 2.0963
-14.2752 -4.0827 2.0931
-13.9574 -4.5397 2.0680
-13.7624 -5.0293 2.0634
-13.5509 -5.5110 2.0589
-13.3838 -6.0115 2.0639
-13.2094 -6.5127 2.0706
-13.0040 -7.0024 2.0754
-12.7827 -7.4871 2.0806
-12.7207 -8.0775 2.1153
-12.9057 -8.8605 2.1965
-12.4533 -9.2246 2.1735
-11.9018 -9.4961 2.1344
-11.4467 -9.8256 2.1138
-11.1089 -10.2505 2.1171
-10.7547 -10.6632 2.1203
-10.3639 -11.0411 2.1192
-9.9447 -11.3872 2.1150
-9.5315 -11.7391 2.1146
-9.1818 -12.1767 2.1319
-8.7418 -12.5025 2.1319
-8.2901 -12.8122 2.1319
-7.8273 -13.1053 2.1319
-7.3540 -13.3815 2.1319
-6.8737 -13.6460 2.1328
-6.6720 -14.5201 2.2300
-6.1622 -14.7876 2.2351
-5.6287 -15.0022 2.2351
-5.0876 -15.1972 2.2351
-4.5397 -15.3725 2.2351
-3.9857 -15.5276 2.2351
-3.4263 -15.6625 2.2351
-2.8623 -15.7768 2.2351
-2.2945 -15.8706 2.2351
-1.7236 -15.9436 2.2351
-1.1504 -15.9957 2.2351
-0.5757 -16.0268 2.2351
-0.0002 -13.7625 2.2351
0.4936 -13.7533 2.2351
0.9868 -13.7261 2.2351
1.4104 -13.0500 2.1320
1.8776 -12.9899 2.1320
2.3423 -12.9128 2.1320
2.8038 -12.8190 2.1320
3.2615 -12.7084 2.1320
3.7149 -12.5812 2.1320
4.1632 -12.4377 2.1320
4.6060 -12.2779 2.1320
5.0426 -12.1022 2.1320
5.4904 -11.9501 2.1391
5.9143 -11.7426 2.1391
6.3302 -11.5199 2.1391
1.7544 -2.9378 0.5570
6.6437 -10.2688 1.9914
7.0605 -10.0990 2.0070
5.8945 -7.8179 1.5952
5.9721 -7.3560 1.5442
5.9904 -6.8601 1.4848
6.1219 -6.5226 1.4590
5.1967 -5.1531 1.1940
5.4853 -5.0621 1.2183
5.8974 -5.0628 1.2691
6.2763 -5.0083 1.3116
6.2778 -4.6507 1.2767
5.2993 -3.6387 1.0509
5.4641 -3.4701 1.0587
5.6965 -3.3370 1.0803
6.1976 -3.3377 1.1523
6.4592 -3.1851 1.1795
6.4581 -2.9012 1.1601
6.4569 -2.6264 1.1427
5.5598 -2.0321 0.9709
5.5695 -1.8119 0.9611
6.3604 -1.8195 1.0861
7.3207 -1.8126 1.2388
7.3207 -1.5360 1.2293
7.3212 -1.2636 1.2216
6.4102 -0.8708 1.0642
6.1511 -0.6116 1.0174
6.0607 -0.3836 1.0000
5.9480 -0.1624 0.9803
5.8919 0.0507 0.9713
5.8586 0.2609 0.9672
5.8597 0.4722 0.9700
5.8940 0.6887 0.9797
5.9613 0.9145 0.9962
6.0856 1.1586 1.0237
6.2337 1.4204 1.0571
6.8188 1.8136 1.1672
12.3635 3.7683 2.1391
8.1609 2.8114 1.4292
12.0499 4.6414 2.1391
11.8700 5.0687 2.1391
11.6751 5.4891 2.1391
11.4654 5.9021 2.1391
11.2412 6.3071 2.1391
11.0028 6.7038 2.1391
10.7505 7.0916 2.1391
10.4847 7.4699 2.1391
10.2057 7.8385 2.1391
9.9138 8.1967 2.1391
9.6096 8.5442 2.1391
9.2933 8.8806 2.1391
8.9653 9.2053 2.1391
8.6261 9.5182 2.1391
8.2762 9.8186 2.1391
7.9199 10.1114 2.1401
7.5495 10.3862 2.1401
7.1697 10.6477 2.1401
6.7810 10.8955 2.1401
6.3839 11.1292 2.1401
5.9788 11.3487 2.1401
5.5662 11.5537 2.1401
5.1272 11.6995 2.1320
4.7030 11.8740 2.1320
4.2729 12.0332 2.1320
3.8375 12.1772 2.1320
3.3973 12.3056 2.1320
2.9529 12.4183 2.1320
2.5048 12.5152 2.1320
2.0536 12.5962 2.1320
1.6274 12.8784 2.1686
1.1995 13.3245 2.2351
0.7203 13.3587 2.2351
0.2401 13.3759 2.2351
-0.2404 13.3762 2.2351
-0.7206 13.3594 2.2351
-1.2000 13.3256 2.2351
-1.6778 13.2749 2.2351
-2.1536 13.2072 2.2351
-2.6268 13.1228 2.2351
-3.0967 13.0216 2.2351
-3.5628 12.9039 2.2351
-4.0245 12.7696 2.2351
-4.4812 12.6191 2.2351
-4.9324 12.4524 2.2351
-5.3775 12.2699 2.2351
-5.8160 12.0716 2.2351
-6.2472 11.8578 2.2351
-6.6707 11.6289 2.2351
-6.7591 10.8598 2.1320
-7.1467 10.6132 2.1320
-7.5255 10.3529 2.1320
-7.8948 10.0792 2.1320
-8.2544 9.7924 2.1320
-8.6037 9.4930 2.1320
-8.9421 9.1812 2.1320
-9.2695 8.8575 2.1320
-9.5852 8.5223 2.1320
-9.8889 8.1758 2.1320
-10.1802 7.8187 2.1320
-10.4587 7.4512 2.1320
-11.1419 7.3496 2.2151
-11.4036 6.9478 2.2151
-11.6508 6.5368 2.2151
-11.8453 6.0975 2.2080
-12.0025 5.6429 2.1971
-12.1157 5.1735 2.1814
-12.2054 4.7012 2.1647
-12.3629 4.2588 2.1631
-12.5071 3.8120 2.1619
-12.6679 3.3691 2.1663
-12.7930 2.9150 2.1673
-12.8827 2.4526 2.1651
-12.9901 1.9928 2.1686
-13.0863 1.5290 2.1730
-13.0926 1.0551 2.1653
-13.1286 0.5847 2.1653
-13.1619 0.1132 2.1676
-13.1418 -0.3589 2.1639
-13.1259 -0.8307 2.1637
-13.0927 -1.3018 2.1634
-12.9927 -1.7649 2.1549
-12.9122 -2.2286 2.1524
-12.8214 -2.6901 2.1509
-12.7304 -3.1520 2.1522
-12.6292 -3.6126 2.1545
-12.3850 -4.0289 2.1351
-12.0485 -4.4036 2.1020
-11.7106 -4.7632 2.0706
-11.5747 -5.1996 2.0773
-11.4412 -5.6415 2.0874
-11.3125 -6.0922 2.1016
-11.1940 -6.5572 2.1210
-11.0829 -7.0382 2.1455
-10.9732 -7.5344 2.1744
-10.4911 -7.7718 2.1319
-10.2094 -8.1465 2.1319
-9.9143 -8.5109 2.1319
-9.6061 -8.8645 2.1319
-9.2851 -9.2068 2.1319
-8.9518 -9.5374 2.1319
-8.6066 -9.8557 2.1319
-8.2500 -10.1615 2.1319
-7.8825 -10.4542 2.1319
-7.5044 -10.7334 2.1319
-7.1163 -10.9987 2.1319
-6.7188 -11.2499 2.1319
-6.6180 -12.0428 2.2351
-6.1829 -12.2753 2.2351
-5.7397 -12.4919 2.2351
-5.2887 -12.6922 2.2351
-4.8307 -12.8760 2.2351
-4.3662 -13.0431 2.2351
-3.8959 -13.1932 2.2351
-3.4204 -13.3261 2.2351
-2.9403 -13.4416 2.2351
-2.4563 -13.5396 2.2351
-1.9690 -13.6199 2.2351
-1.4791 -13.6824 2.2351
-0.9872 -13.7271 2.2351
-0.4940 -13.7538 2.2351
-0.0002 -12.0421 2.2351
0.4319 -12.0340 2.2351
0.8634 -12.0103 2.2351
1.2937 -11.9709 2.2351
1.6428 -11.3663 2.1320
2.0494 -11.2991 2.1320
2.4533 -11.2171 2.1320
2.8538 -11.1205 2.1320
3.2506 -11.0094 2.1320
3.6430 -10.8840 2.1320
4.0305 -10.7445 2.1320
4.4126 -10.5911 2.1320
4.7889 -10.4239 2.1320
5.1587 -10.2431 2.1320
5.5399 -10.0823 2.1391
1.7542 -2.9375 0.6363
6.2457 -9.6543 2.1391
6.5863 -9.4214 2.1391
5.8941 -7.8180 1.8224
5.9721 -7.3566 1.7642
5.9902 -6.8604 1.6962
6.1217 -6.5229 1.6666
5.1473 -5.1045 1.3510
5.4850 -5.0622 1.3915
5.8970 -5.0628 1.4494
6.0930 -4.8624 1.4543
6.0944 -4.5153 1.4155
5.3083 -3.6453 1.2022
5.3329 -3.3871 1.1799
5.6961 -3.3371 1.2335
6.1969 -3.3377 1.3156
6.2803 -3.0972 1.3094
6.2791 -2.8212 1.2878
6.2781 -2.5540 1.2685
5.2933 -1.9350 1.0552
5.4777 -1.7823 1.0790
6.3593 -1.8195 1.2395
7.3209 -1.8130 1.4139
7.3208 -1.5364 1.4030
7.3212 -1.2640 1.3941
6.7829 -0.9217 1.2850
6.1514 -0.6120 1.1610
6.0609 -0.3839 1.1411
5.9482 -0.1628 1.1186
5.8395 0.0499 1.0982
5.8065 0.2583 1.0936
5.8065 0.4676 1.0965
5.8405 0.6821 1.1073
5.9611 0.9142 1.1362
6.0854 1.1582 1.1676
6.4926 1.4791 1.2556
6.8173 1.8128 1.3307
10.8421 3.3040 2.1391
8.3001 2.8589 1.6575
10.5682 4.0701 2.1391
10.4110 4.4451 2.1391
10.2406 4.8140 2.1391
10.0572 5.1766 2.1391
9.8610 5.5322 2.1391
9.6524 5.8805 2.1391
9.4315 6.2209 2.1391
9.1988 6.5532 2.1391
8.9544 6.8769 2.1391
8.6988 7.1915 2.1391
8.4322 7.4968 2.1391
8.1550 7.7922 2.1391
7.8675 8.0776 2.1391
7.5702 8.3524 2.1391
7.2633 8.6164 2.1391
6.9474 8.8693 2.1391
6.6227 9.1107 2.1391
6.2898 9.3404 2.1391
5.9489 9.5581 2.1391
5.6007 9.7634 2.1391
5.2281 9.9236 2.1320
4.8675 10.1030 2.1320
4.5008 10.2695 2.1320
4.1285 10.4229 2.1320
3.7207 10.4776 2.1148
3.3416 10.6032 2.1148
2.9824 10.8024 2.1320
2.5923 10.9015 2.1320
2.1990 10.9867 2.1320
1.8029 11.0578 2.1320
1.4046 11.1149 2.1320
1.0531 11.6973 2.2351
0.6323 11.7274 2.2351
0.2107 11.7425 2.2351
-0.2111 11.7427 2.2351
-0.6327 11.7279 2.2351
-1.0535 11.6982 2.2351
-1.4730 11.6535 2.2351
-1.8907 11.5941 2.2351
-2.3061 11.5198 2.2351
-2.7185 11.4308 2.2351
-3.1277 11.3272 2.2351
-3.5329 11.2092 2.2351
-3.9338 11.0768 2.2351
-4.3298 10.9303 2.2351
-4.7203 10.7697 2.2351
-5.1051 10.5954 2.2351
-5.4834 10.4074 2.2351
-5.8550 10.2061 2.2351
-6.2192 9.9917 2.2351
-6.5756 9.7645 2.2351
-6.7011 9.2181 2.1632
-6.9284 8.8448 2.1320
-7.2437 8.5928 2.1320
-7.5499 8.3297 2.1320
-7.8466 8.0558 2.1320
-8.1334 7.7714 2.1320
-8.4101 7.4768 2.1320
-8.6761 7.1726 2.1320
-8.9313 6.8589 2.1320
-9.1751 6.5362 2.1320
-9.4075 6.2049 2.1320
-9.6279 5.8654 2.1320
-9.8361 5.5181 2.1320
-10.0319 5.1634 2.1320
-10.2150 4.8019 2.1320
-10.3851 4.4339 2.1320
-10.5421 4.0599 2.1320
-10.6855 3.6804 2.1320
-11.1025 3.3833 2.1886
-11.2170 2.9826 2.1877
-11.3091 2.5762 2.1853
-11.3771 2.1653 2.1810
-11.4312 1.7530 2.1769
-11.4715 1.3397 2.1731
-11.5034 0.9264 2.1704
-11.5005 0.5116 2.1641
-11.4921 0.0983 2.1595
-11.5043 -0.3148 2.1615
-11.5075 -0.7289 2.1647
-11.4942 -1.1435 2.1675
-11.4856 -1.5608 2.1741
-11.4554 -1.9777 2.1795
-11.3905 -2.3904 2.1811
-11.3089 -2.8006 2.1823
-11.2135 -3.2083 2.1838
-11.1046 -3.6130 2.1855
-10.9820 -4.0144 2.1874
-10.5601 -4.2959 2.1319
-10.4034 -4.6740 2.1319
-10.2331 -5.0464 2.1319
-10.0493 -5.4125 2.1319
-9.8524 -5.7719 2.1319
-9.6426 -6.1241 2.1319
-9.4200 -6.4686 2.1319
-9.1851 -6.8049 2.1319
-8.9381 -7.1326 2.1319
-8.6793 -7.4513 2.1319
-8.4091 -7.7605 2.1319
-8.1278 -8.0599 2.1319
-7.8357 -8.3489 2.1319
-7.5333 -8.6272 2.1319
-7.2209 -8.8945 2.1319
-6.8989 -9.1503 2.1319
-6.6563 -9.5210 2.1606
-6.5296 -10.0925 2.2351
-6.1646 -10.3226 2.2351
-5.7915 -10.5394 2.2351
-5.4106 -10.7426 2.2351
-5.0226 -10.9318 2.2351
-4.6279 -11.1068 2.2351
-4.2270 -11.2674 2.2351
-3.8205 -11.4134 2.2351
-3.4089 -11.5445 2.2351
-2.9928 -11.6607 2.2351
-2.5727 -11.7616 2.2351
-2.1492 -11.8472 2.2351
-1.7228 -11.9174 2.2351
-1.2942 -11.9720 2.2351
-0.8638 -12.0110 2.2351
-0.4323 -12.0344 2.2351
-0.0002 -10.6940 2.2351
0.3835 -10.6869 2.2351
0.7667 -10.6659 2.2351
1.1488 -10.6309 2.2351
1.4589 -10.0941 2.1320
1.8199 -10.0345 2.1320
2.1786 -9.9618 2.1320
2.5343 -9.8761 2.1320
2.8867 -9.7777 2.1320
3.2352 -9.6665 2.1320
3.5794 -9.5427 2.1320
3.9189 -9.4066 2.1320
4.2531 -9.2583 2.1320
4.5817 -9.0980 2.1320
4.9042 -8.9260 2.1320
1.7539 -2.9372 0.7163
5.5476 -8.5757 2.1391
5.8503 -8.3691 2.1391
5.8332 -7.7378 2.0304
5.9721 -7.3571 1.9861
5.9901 -6.8607 1.9094
4.7205 -5.0302 1.4466
5.1034 -5.0614 1.5078
5.4847 -5.0623 1.5661
5.8965 -5.0629 1.6313
5.9024 -4.7107 1.5856
4.9327 -3.6549 1.2895
5.1798 -3.5574 1.3202
5.2067 -3.3073 1.2964
5.6956 -3.3372 1.3879
6.0971 -3.2844 1.4566
6.0960 -3.0067 1.4302
6.0949 -2.7387 1.4064
6.1324 -2.4951 1.3940
5.2225 -1.9094 1.1713
5.5945 -1.8206 1.2398
6.3581 -1.8195 1.3941
7.3210 -1.8135 1.5906
7.3210 -1.5369 1.5782
7.3212 -1.2644 1.5681
6.7836 -0.9222 1.4455
6.1518 -0.6124 1.3059
6.0611 -0.3843 1.2834
5.9484 -0.1631 1.2579
5.9716 0.0507 1.2629
5.9716 0.2653 1.2646
5.9715 0.4806 1.2680
5.9715 0.6971 1.2730
5.9609 0.9138 1.2774
6.0852 1.1579 1.3126
6.4751 1.4747 1.4078
6.8158 1.8120 1.4956
9.6450 2.9387 2.1391
9.5297 3.2818 2.1391
7.6366 2.9406 1.7374
7.7268 3.2986 1.7844
9.1115 4.2828 2.1391
8.9487 4.6055 2.1391
8.7745 4.9221 2.1391
8.5892 5.2322 2.1391
8.3931 5.5354 2.1391
8.1862 5.8313 2.1391
7.9691 6.1196 2.1391
7.7418 6.3999 2.1391
7.5048 6.6718 2.1391
7.2583 6.9350 2.1391
7.0027 7.1892 2.1391
6.7383 7.4340 2.1391
6.4653 7.6693 2.1391
6.1843 7.8946 2.1391
5.8954 8.1097 2.1391
5.5992 8.3144 2.1391
5.2785 8.4804 2.1320
4.9696 8.6628 2.1320
4.6545 8.8341 2.1320
4.3335 8.9941 2.1320
4.0071 9.1425 2.1320
3.6756 9.2792 2.1320
3.3396 9.4040 2.1320
2.9994 9.5168 2.1320
2.6554 9.6174 2.1320
2.3081 9.7057 2.1320
1.9579 9.7817 2.1320
1.6226 9.9513 2.1550
1.3111 10.3745 2.2351
0.9376 10.4146 2.2351
0.5630 10.4414 2.2351
0.1876 10.4548 2.2351
-0.1880 10.4550 2.2351
-0.5633 10.4418 2.2351
-0.9380 10.4153 2.2351
-1.3115 10.3754 2.2351
-1.6834 10.3224 2.2351
-2.0532 10.2561 2.2351
-2.4205 10.1768 2.2351
-2.7847 10.0844 2.2351
-3.1454 9.9792 2.2351
-3.5023 9.8612 2.2351
-3.8548 9.7305 2.2351
-4.2024 9.5874 2.2351
-4.5448 9.4320 2.2351
-4.8816 9.2645 2.2351
-5.2122 9.0851 2.2351
-5.5363 8.8940 2.2351
-5.8534 8.6914 2.2351
-6.1632 8.4776 2.2351
-6.4653 8.2529 2.2351
-6.6942 7.9403 2.2136
-6.7198 7.4134 2.1320
-6.9837 7.1693 2.1320
-7.2387 6.9160 2.1320
-7.4847 6.6536 2.1320
-7.7212 6.3825 2.1320
-7.9479 6.1031 2.1320
-8.1646 5.8158 2.1320
-8.3710 5.5207 2.1320
-8.5668 5.2184 2.1320
-8.7517 4.9092 2.1320
-8.9256 4.5935 2.1320
-9.0881 4.2716 2.1320
-9.2390 3.9440 2.1320
-9.3782 3.6111 2.1320
-9.5054 3.2734 2.1320
-9.6198 2.9309 2.1319
-9.7226 2.5847 2.1319
-9.8130 2.2349 2.1319
-9.8908 1.8819 2.1319
-9.9560 1.5262 2.1319
-10.0084 1.1683 2.1319
-10.0479 0.8086 2.1319
-10.0745 0.4476 2.1319
-10.0881 0.0857 2.1319
-10.0888 -0.2766 2.1319
-10.0764 -0.6388 2.1319
-10.0510 -1.0005 2.1319
-10.0126 -1.3611 2.1319
-9.9613 -1.7203 2.1319
-9.8970 -2.0776 2.1319
-9.8199 -2.4324 2.1319
-9.7300 -2.7843 2.1319
-9.6275 -3.1330 2.1319
-9.5125 -3.4778 2.1319
-9.3850 -3.8184 2.1319
-9.2453 -4.1542 2.1319
-9.0935 -4.4850 2.1319
-8.9299 -4.8101 2.1319
-8.7546 -5.1293 2.1319
-8.5677 -5.4420 2.1319
-8.3697 -5.7479 2.1319
-8.1607 -6.0464 2.1319
-7.9409 -6.3374 2.1319
-7.7107 -6.6203 2.1319
-7.4704 -6.8947 2.1319
-7.2202 -7.1604 2.1319
-6.9605 -7.4169 2.1319
-6.6917 -7.6639 2.1319
-6.6559 -8.1991 2.2123
-6.4246 -8.5217 2.2351
-6.1160 -8.7487 2.2351
-5.7994 -8.9645 2.2351
-5.4751 -9.1686 2.2351
-5.1436 -9.3610 2.2351
-4.8053 -9.5412 2.2351
-4.4606 -9.7091 2.2351
-4.1100 -9.8643 2.2351
-3.7539 -10.0068 2.2351
-3.3928 -10.1363 2.2351
-3.0273 -10.2526 2.2351
-2.6578 -10.3556 2.2351
-2.2847 -10.4451 2.2351
-1.9086 -10.5211 2.2351
-1.5299 -10.5833 2.2351
-1.1493 -10.6318 2.2351
-0.7671 -10.6664 2.2351
-0.3839 -10.6872 2.2351
-0.0002 -9.6082 2.2351
0.3445 -9.6018 2.2351
0.6888 -9.5830 2.2351
1.0321 -9.5517 2.2351
1.3577 -9.3951 2.2086
1.6351 -9.0159 2.1320
1.9573 -8.9506 2.1320
2.2770 -8.8738 2.1320
2.5936 -8.7854 2.1320
2.9068 -8.6856 2.1320
3.2161 -8.5746 2.1320
3.5211 -8.4524 2.1320
3.8215 -8.3193 2.1320
4.1169 -8.1754 2.1320
4.4067 -8.0210 2.1320
1.7536 -2.9369 0.7970
4.9686 -7.6812 2.1320
5.2399 -7.4964 2.1320
5.5224 -7.3260 2.1391
5.7803 -7.1215 2.1391
4.9371 -5.6551 1.7512
4.7665 -5.0796 1.6253
5.1030 -5.0613 1.6775
5.4844 -5.0624 1.7425
5.7155 -4.9078 1.7593
4.7202 -3.7676 1.4108
4.7194 -3.4972 1.3725
4.8364 -3.3218 1.3714
5.2519 -3.3363 1.4548
5.6950 -3.3372 1.5438
5.9055 -3.1815 1.5694
5.9043 -2.9125 1.5408
5.9651 -2.6808 1.5311
6.0560 -2.4644 1.5312
5.2040 -1.9030 1.2982
5.5936 -1.8206 1.3786
6.3569 -1.8195 1.5502
7.3212 -1.8139 1.7689
7.3211 -1.5373 1.7551
7.3212 -1.2648 1.7437
6.7842 -0.9227 1.6075
6.1522 -0.6127 1.4521
6.0613 -0.3846 1.4270
5.9485 -0.1634 1.3987
5.9446 0.0502 1.3978
5.9448 0.2638 1.3997
5.9450 0.4781 1.4034
5.9451 0.6937 1.4089
5.9607 0.9135 1.4200
6.0850 1.1575 1.4591
6.4930 1.4785 1.5692
6.8143 1.8112 1.6620
8.6777 2.6435 2.1391
8.5743 2.9523 2.1391
8.4599 3.2572 2.1391
8.3347 3.5576 2.1391
8.1989 3.8533 2.1391
8.0527 4.1439 2.1391
7.8962 4.4290 2.1391
7.7297 4.7082 2.1391
7.5534 4.9812 2.1391
7.3675 5.2477 2.1391
7.1723 5.5073 2.1391
6.9680 5.7597 2.1391
6.7548 6.0046 2.1391
6.5332 6.2416 2.1391
6.3032 6.4706 2.1391
6.0654 6.6912 2.1391
5.8198 6.9031 2.1391
5.5669 7.1061 2.1391
5.2896 7.2759 2.1320
5.0239 7.4597 2.1320
4.7519 7.6339 2.1320
4.4739 7.7983 2.1320
4.1902 7.9526 2.1320
3.9013 8.0967 2.1320
3.6075 8.2305 2.1320
3.3092 8.3537 2.1320
3.0067 8.4661 2.1320
2.7004 8.5678 2.1320
2.3907 8.6584 2.1320
2.0781 8.7380 2.1320
1.7628 8.8065 2.1320
1.4453 8.8636 2.1320
1.1804 9.3403 2.2351
0.8442 9.3764 2.2351
0.5069 9.4005 2.2351
0.1689 9.4127 2.2351
-0.1693 9.4128 2.2351
-0.5072 9.4009 2.2351
-0.8446 9.3769 2.2351
-1.1809 9.3410 2.2351
-1.5157 9.2932 2.2351
-1.8486 9.2335 2.2351
-2.1792 9.1620 2.2351
-2.5071 9.0787 2.2351
-2.8319 8.9838 2.2351
-3.1531 8.8775 2.2351
-3.4704 8.7597 2.2351
-3.7833 8.6307 2.2351
-4.0915 8.4907 2.2351
-4.3946 8.3397 2.2351
-4.6921 8.1781 2.2351
-4.9838 8.0059 2.2351
-5.2692 7.8233 2.2351
-5.5479 7.6307 2.2351
-5.8197 7.4283 2.2351
-6.0842 7.2162 2.2351
-6.3409 6.9948 2.2351
-6.5897 6.7644 2.2351
-6.6955 6.3965 2.1911
-6.7364 5.9879 2.1320
-6.9490 5.7437 2.1320
-7.1529 5.4921 2.1320
-7.3477 5.2333 2.1320
-7.5332 4.9676 2.1320
-7.7091 4.6954 2.1320
-7.8752 4.4170 2.1320
-8.0314 4.1328 2.1320
-8.1773 3.8430 2.1320
-8.3128 3.5482 2.1320
-8.4377 3.2485 2.1320
-8.5513 2.9443 2.1319
-8.6545 2.6363 2.1319
-8.7467 2.3248 2.1319
-8.8276 2.0100 2.1319
-8.8973 1.6924 2.1319
-8.9556 1.3724 2.1319
-9.0024 1.0504 2.1319
-9.0375 0.7268 2.1319
-9.0611 0.4021 2.1319
-9.0731 0.0766 2.1319
-9.0733 -0.2492 2.1319
-9.0618 -0.5749 2.1319
-9.0386 -0.9002 2.1319
-9.0037 -1.2245 2.1319
-8.9572 -1.5474 2.1319
-8.8991 -1.8686 2.1319
-8.8294 -2.1875 2.1319
-8.7483 -2.5039 2.1319
-8.6558 -2.8172 2.1319
-8.5520 -3.1271 2.1319
-8.4372 -3.4332 2.1319
-8.3113 -3.7350 2.1319
-8.1746 -4.0322 2.1319
-8.0272 -4.3244 2.1319
-7.8693 -4.6111 2.1319
-7.7011 -4.8920 2.1319
-7.5229 -5.1668 2.1319
-7.3347 -5.4350 2.1319
-7.1370 -5.6963 2.1319
-6.9299 -5.9504 2.1319
-6.7137 -6.1969 2.1319
-6.6560 -6.6014 2.1868
-6.5581 -6.9886 2.2351
-6.3047 -7.2211 2.2351
-6.0429 -7.4444 2.2351
-5.7731 -7.6581 2.2351
-5.4957 -7.8619 2.2351
-5.2112 -8.0556 2.2351
-4.9197 -8.2389 2.2351
-4.6217 -8.4116 2.2351
-4.3176 -8.5734 2.2351
-4.0078 -8.7241 2.2351
-3.6927 -8.8634 2.2351
-3.3728 -8.9913 2.2351
-3.0483 -9.1076 2.2351
-2.7199 -9.2120 2.2351
-2.3878 -9.3044 2.2351
-2.0526 -9.3848 2.2351
-1.7147 -9.4530 2.2351
-1.3745 -9.5088 2.2351
-1.0325 -9.5524 2.2351
-0.6891 -9.5834 2.2351
-0.3449 -9.6021 2.2351
-0.0002 -8.7141 2.2351
0.3124 -8.7084 2.2351
0.6246 -8.6913 2.2351
0.9360 -8.6629 2.2351
1.2461 -8.6233 2.2351
1.4829 -8.1771 2.1320
1.7751 -8.1180 2.1320
2.0650 -8.0483 2.1320
2.3522 -7.9683 2.1320
2.6363 -7.8779 2.1320
2.9168 -7.7772 2.1320
3.1936 -7.6666 2.1320
3.4661 -7.5459 2.1320
3.7340 -7.4156 2.1320
3.9970 -7.2756 2.1320
1.7533 -2.9366 0.8786
4.5067 -6.9677 2.1320
4.7529 -6.8001 2.1320
4.9928 -6.6239 2.1320
5.2261 -6.4390 2.1320
4.9371 -5.6556 1.9305
4.7741 -5.0882 1.7946
5.1026 -5.0614 1.8490
5.4840 -5.0624 1.9206
5.5352 -4.7534 1.8781
5.5365 -4.4195 1.8240
4.7610 -3.5284 1.5262
4.8560 -3.3356 1.5177
5.2515 -3.3364 1.6033
5.6945 -3.3372 1.7013
5.7190 -3.0814 1.6750
5.8116 -2.8671 1.6714
5.9033 -2.6534 1.6698
4.9218 -2.0031 1.3714
4.9888 -1.8246 1.3714
5.5926 -1.8207 1.5189
6.3557 -1.8195 1.7078
7.3213 -1.8144 1.9492
7.3213 -1.5377 1.9339
7.3213 -1.2652 1.9213
6.6966 -0.9111 1.7482
6.1525 -0.6131 1.5999
6.0614 -0.3849 1.5722
5.9487 -0.1637 1.5409
5.9716 0.0501 1.5468
5.9716 0.2647 1.5488
5.9715 0.4799 1.5528
5.9715 0.6965 1.5588
5.9606 0.9131 1.5640
6.0849 1.1571 1.6070
6.4738 1.4737 1.7232
6.8127 1.8104 1.8301
7.8792 2.3998 2.1391
7.7855 2.6803 2.1391
7.6818 2.9571 2.1391
7.5684 3.2301 2.1391
7.4453 3.4987 2.1391
7.3127 3.7626 2.1391
7.1708 4.0216 2.1391
7.0198 4.2753 2.1391
6.8598 4.5234 2.1391
6.6912 4.7655 2.1391
6.5140 5.0014 2.1391
6.3286 5.2308 2.1391
6.1352 5.4533 2.1391
5.9340 5.6688 2.1391
5.7253 5.8768 2.1391
5.5093 6.0773 2.1391
5.2690 6.2494 2.1320
5.0402 6.4333 2.1320
4.8050 6.6089 2.1320
4.5637 6.7759 2.1320
4.3166 6.9343 2.1320
4.0642 7.0837 2.1320
3.8065 7.2240 2.1320
3.5442 7.3550 2.1320
3.2773 7.4766 2.1320
3.0063 7.5886 2.1320
2.7315 7.6909 2.1320
2.4533 7.7833 2.1320
2.1720 7.8657 2.1320
1.8879 7.9381 2.1320
1.6206 8.0956 2.1574
1.3499 8.2780 2.1918
1.0724 8.4853 2.2351
0.7669 8.5181 2.2351
0.4605 8.5401 2.2351
0.1534 8.5511 2.2351
-0.1538 8.5512 2.2351
-0.4608 8.5403 2.2351
-0.7673 8.5186 2.2351
-1.0728 8.4859 2.2351
-1.3770 8.4424 2.2351
-1.6795 8.3881 2.2351
-1.9798 8.3231 2.2351
-2.2777 8.2474 2.2351
-2.5727 8.1611 2.2351
-2.8645 8.0644 2.2351
-3.1527 7.9573 2.2351
-3.4369 7.8400 2.2351
-3.7168 7.7127 2.2351
-3.9921 7.5754 2.2351
-4.2623 7.4284 2.2351
-4.5272 7.2719 2.2351
-4.7863 7.1060 2.2351
-5.0394 6.9309 2.2351
-5.2862 6.7469 2.2351
-5.5263 6.5541 2.2351
-5.7595 6.3529 2.2351
-5.9853 6.1434 2.2351
-6.2035 5.9260 2.2351
-6.4140 5.7008 2.2351
-6.6163 5.4683 2.2351
-6.6948 5.1399 2.1972
-6.7008 4.7721 2.1410
-6.8411 4.5108 2.1320
-7.0007 4.2635 2.1320
-7.1514 4.0106 2.1320
-7.2930 3.7523 2.1320
-7.4253 3.4891 2.1320
-7.5481 3.2213 2.1320
-7.6607 2.9489 2.1319
-7.7641 2.6728 2.1319
-7.8576 2.3931 2.1319
-7.9410 2.1102 2.1319
-8.0143 1.8243 2.1319
-8.0773 1.5360 2.1319
-8.1299 1.2454 2.1319
-8.1721 0.9531 2.1319
-8.2039 0.6593 2.1319
-8.2250 0.3645 2.1319
-8.2355 0.0691 2.1319
-8.2355 -0.2267 2.1319
-8.2248 -0.5223 2.1319
-8.2035 -0.8175 2.1319
-8.1716 -1.1117 2.1319
-8.1291 -1.4048 2.1319
-8.0761 -1.6962 2.1319
-8.0126 -1.9856 2.1319
-7.9388 -2.2726 2.1319
-7.8546 -2.5569 2.1319
-7.7602 -2.8380 2.1319
-7.6557 -3.1157 2.1319
-7.5413 -3.3894 2.1319
-7.4170 -3.6590 2.1319
-7.2831 -3.9240 2.1319
-7.1396 -4.1840 2.1319
-6.9869 -4.4388 2.1319
-6.8250 -4.6879 2.1319
-6.6811 -4.9511 2.1405
-6.6561 -5.3129 2.1916
-6.5910 -5.6599 2.2351
-6.3853 -5.8942 2.2351
-6.1711 -6.1209 2.2351
-5.9489 -6.3398 2.2351
-5.7188 -6.5506 2.2351
-5.4813 -6.7530 2.2351
-5.2365 -6.9467 2.2351
-4.9848 -7.1315 2.2351
-4.7266 -7.3070 2.2351
-4.4621 -7.4732 2.2351
-4.1918 -7.6297 2.2351
-3.9160 -7.7763 2.2351
-3.6349 -7.9128 2.2351
-3.3491 -8.0392 2.2351
-3.0589 -8.1551 2.2351
-2.7646 -8.2604 2.2351
-2.4667 -8.3550 2.2351
-2.1656 -8.4388 2.2351
-1.8616 -8.5116 2.2351
-1.5551 -8.5734 2.2351
-1.2466 -8.6240 2.2351
-0.9364 -8.6635 2.2351
-0.6250 -8.6917 2.2351
-0.3128 -8.7085 2.2351
-0.0002 -7.9644 2.2351
0.2855 -7.9591 2.2351
0.5708 -7.9435 2.2351
0.8554 -7.9176 2.2351
1.1388 -7.8815 2.2351
1.3626 -7.5141 2.1436
1.6224 -7.4197 2.1320
1.8873 -7.3561 2.1320
2.1498 -7.2830 2.1320
2.4094 -7.2004 2.1320
2.6659 -7.1086 2.1320
2.9188 -7.0075 2.1320
3.1679 -6.8973 2.1320
3.4128 -6.7782 2.1320
3.6532 -6.6504 2.1320
1.7530 -2.9363 0.9611
4.1193 -6.3691 2.1320
4.3444 -6.2161 2.1320
4.5637 -6.0551 2.1320
4.7771 -5.8862 2.1320
4.9371 -5.6560 2.1119
4.7819 -5.0968 1.9664
5.1023 -5.0614 2.0226
5.3484 -4.9377 2.0490
5.3498 -4.5946 1.9856
5.4000 -4.3109 1.9460
4.7676 -3.5336 1.6717
4.8553 -3.3354 1.6598
5.2511 -3.3365 1.7535
5.5387 -3.2464 1.8100
5.6362 -3.0371 1.8055
5.7179 -2.8213 1.7986
5.7169 -2.5699 1.7686
4.7195 -1.9211 1.4382
4.9797 -1.8215 1.4970
5.5915 -1.8206 1.6607
5.9444 -1.7021 1.7468
5.8676 -1.4545 1.7083
7.3214 -1.5382 2.1148
7.3214 -1.2657 2.1009
6.7854 -0.9236 1.9369
6.1529 -0.6135 1.7495
6.0616 -0.3853 1.7190
5.9489 -0.1641 1.6848
5.9716 0.0498 1.6912
5.9716 0.2643 1.6933
5.9716 0.4796 1.6976
5.9577 0.6945 1.7002
5.9604 0.9128 1.7098
6.0847 1.1568 1.7567
6.4935 1.4778 1.8895
6.8112 1.8096 2.0001
7.2080 2.1950 2.1391
7.1225 2.4516 2.1391
7.0279 2.7050 2.1391
6.9242 2.9547 2.1391
6.8118 3.2006 2.1391
6.6907 3.4422 2.1391
6.5610 3.6792 2.1391
6.4229 3.9114 2.1391
6.2767 4.1385 2.1391
6.1226 4.3601 2.1391
5.9606 4.5760 2.1391
5.7910 4.7860 2.1391
5.6141 4.9898 2.1391
5.4301 5.1870 2.1391
5.2220 5.3599 2.1320
5.0251 5.5429 2.1320
4.8219 5.7186 2.1320
4.6125 5.8870 2.1320
4.3973 6.0478 2.1320
4.1766 6.2008 2.1320
3.9505 6.3458 2.1320
3.7195 6.4826 2.1320
3.4838 6.6111 2.1320
3.2437 6.7311 2.1320
2.9995 6.8425 2.1320
2.7515 6.9450 2.1320
2.5000 7.0387 2.1320
2.2454 7.1233 2.1320
1.9879 7.1988 2.1320
1.7279 7.2651 2.1320
1.4658 7.3220 2.1320
1.2599 7.7260 2.2351
0.9815 7.7660 2.2351
0.7019 7.7961 2.2351
0.4215 7.8161 2.2351
0.1404 7.8262 2.2351
-0.1408 7.8263 2.2351
-0.4218 7.8164 2.2351
-0.7023 7.7964 2.2351
-0.9819 7.7665 2.2351
-1.2604 7.7267 2.2351
-1.5372 7.6769 2.2351
-1.8121 7.6173 2.2351
-2.0847 7.5480 2.2351
-2.3547 7.4690 2.2351
-2.6217 7.3804 2.2351
-2.8854 7.2823 2.2351
-3.1456 7.1749 2.2351
-3.4017 7.0583 2.2351
-3.6536 6.9326 2.2351
-3.9008 6.7980 2.2351
-4.1431 6.6546 2.2351
-4.3802 6.5026 2.2351
-4.6118 6.3423 2.2351
-4.8376 6.1738 2.2351
-5.0572 5.9973 2.2351
-5.2704 5.8130 2.2351
-5.4770 5.6213 2.2351
-5.6766 5.4222 2.2351
-5.8691 5.2160 2.2351
-6.0541 5.0031 2.2351
-6.2314 4.7837 2.2351
-6.4008 4.5580 2.2351
-6.5620 4.3264 2.2351
-6.6921 4.0751 2.2275
-6.6951 3.7543 2.1816
-6.7025 3.4481 2.1417
-6.7932 3.1917 2.1320
-6.9049 2.9464 2.1319
-7.0082 2.6973 2.1319
-7.1027 2.4447 2.1319
-7.1880 2.1888 2.1319
-7.2641 1.9299 2.1319
-7.3310 1.6684 2.1319
-7.3884 1.4045 2.1319
-7.4364 1.1388 2.1319
-7.4747 0.8713 2.1319
-7.5035 0.6026 2.1319
-7.5227 0.3330 2.1319
-7.5321 0.0628 2.1319
-7.5319 -0.2077 2.1319
-7.5219 -0.4781 2.1319
-7.5022 -0.7480 2.1319
-7.4728 -1.0171 2.1319
-7.4338 -1.2850 2.1319
-7.3851 -1.5515 2.1319
-7.3269 -1.8161 2.1319
-7.2592 -2.0785 2.1319
-7.1820 -2.3384 2.1319
-7.0955 -2.5954 2.1319
-6.9998 -2.8491 2.1319
-6.8950 -3.0994 2.1319
-6.7812 -3.3458 2.1319
-6.6815 -3.6003 2.1392
-6.6713 -3.9100 2.1789
-6.6705 -4.2382 2.2263
-6.5415 -4.4936 2.2351
-6.3777 -4.7266 2.2351
-6.2055 -4.9536 2.2351
-6.0251 -5.1743 2.2351
-5.8369 -5.3884 2.2351
-5.6411 -5.5956 2.2351
-5.4378 -5.7956 2.2351
-5.2274 -5.9882 2.2351
-5.0102 -6.1731 2.2351
-4.7864 -6.3500 2.2351
-4.5563 -6.5188 2.2351
-4.3202 -6.6791 2.2351
-4.0784 -6.8309 2.2351
-3.8313 -6.9738 2.2351
-3.5791 -7.1078 2.2351
-3.3222 -7.2325 2.2351
-3.0610 -7.3479 2.2351
-2.7957 -7.4537 2.2351
-2.5267 -7.5500 2.2351
-2.2545 -7.6364 2.2351
-1.9792 -7.7129 2.2351
-1.7014 -7.7794 2.2351
-1.4213 -7.8358 2.2351
-1.1393 -7.8821 2.2351
-0.8558 -7.9181 2.2351
-0.5712 -7.9439 2.2351
-0.2859 -7.9593 2.2351
-0.0002 -7.3260 2.2351
0.2626 -7.3212 2.2351
0.5251 -7.3069 2.2351
0.7868 -7.2831 2.2351
1.0475 -7.2499 2.2351
1.3068 -7.2072 2.2351
1.4923 -6.8252 2.1320
1.7360 -6.7667 2.1320
1.9774 -6.6995 2.1320
2.2163 -6.6236 2.1320
2.4522 -6.5392 2.1320
2.6849 -6.4462 2.1320
2.9140 -6.3450 2.1320
3.1393 -6.2355 2.1320
3.3605 -6.1180 2.1320
1.7527 -2.9360 1.0446
3.7894 -5.8594 2.1320
3.9965 -5.7187 2.1320
4.1983 -5.5706 2.1320
4.3946 -5.4154 2.1320
4.5852 -5.2532 2.1320
4.7698 -5.0843 2.1320
4.9481 -4.9089 2.1320
5.1199 -4.7271 2.1320
5.1798 -4.4490 2.0896
5.3227 -4.2496 2.0848
4.7743 -3.5389 1.8195
4.8545 -3.3352 1.8037
5.2507 -3.3366 1.9057
5.4795 -3.2120 1.9461
5.5377 -2.9844 1.9279
5.5366 -2.7322 1.8927
5.5356 -2.4888 1.8611
4.7637 -1.9394 1.5776
4.9786 -1.8214 1.6265
5.5667 -1.8129 1.7967
5.9444 -1.7025 1.8982
5.7364 -1.4223 1.8148
6.8153 -1.4323 2.1391
6.8604 -1.1864 2.1391
6.4761 -0.8818 2.0087
6.1533 -0.6139 1.9010
6.0618 -0.3856 1.8678
5.9490 -0.1644 1.8306
5.9716 0.0494 1.8374
5.9716 0.2640 1.8397
5.9716 0.4793 1.8443
5.9715 0.6958 1.8514
5.9602 0.9124 1.8574
6.0845 1.1564 1.9084
6.3547 1.4459 2.0087
6.7057 1.7812 2.1391
6.6356 2.0203 2.1391
6.5570 2.2566 2.1391
6.4700 2.4899 2.1391
6.3747 2.7199 2.1391
6.2713 2.9463 2.1391
6.1599 3.1687 2.1391
6.0407 3.3870 2.1391
5.9137 3.6009 2.1391
5.7792 3.8100 2.1391
5.6373 4.0142 2.1391
5.4883 4.2131 2.1391
5.3148 4.3920 2.1320
5.1525 4.5791 2.1320
4.9837 4.7602 2.1320
4.8085 4.9352 2.1320
4.6273 5.1037 2.1320
4.4402 5.2656 2.1320
4.2475 5.4208 2.1320
4.0494 5.5689 2.1320
3.8462 5.7099 2.1320
3.6380 5.8435 2.1320
3.4253 5.9695 2.1320
3.2083 6.0879 2.1320
2.9872 6.1985 2.1320
2.7623 6.3011 2.1320
2.5339 6.3956 2.1320
2.3024 6.4819 2.1320
2.0679 6.5598 2.1320
1.8308 6.6294 2.1320
1.6157 6.7929 2.1647
1.3645 6.8157 2.1550
1.1603 7.1150 2.2351
0.9040 7.1519 2.2351
0.6465 7.1796 2.2351
0.3881 7.1981 2.2351
0.1293 7.2074 2.2351
-0.1297 7.2074 2.2351
-0.3885 7.1983 2.2351
-0.6468 7.1799 2.2351
-0.9044 7.1523 2.2351
-1.1608 7.1156 2.2351
-1.4157 7.0697 2.2351
-1.6688 7.0148 2.2351
-1.9199 6.9509 2.2351
-2.1685 6.8781 2.2351
-2.4144 6.7964 2.2351
-2.6573 6.7061 2.2351
-2.8968 6.6071 2.2351
-3.1327 6.4996 2.2351
-3.3646 6.3838 2.2351
-3.5922 6.2598 2.2351
-3.8153 6.1277 2.2351
-4.0336 5.9877 2.2351
-4.2468 5.8399 2.2351
-4.4546 5.6847 2.2351
-4.6568 5.5221 2.2351
-4.8531 5.3523 2.2351
-5.0432 5.1756 2.2351
-5.2269 4.9922 2.2351
-5.4041 4.8024 2.2351
-5.5743 4.6062 2.2351
-5.7374 4.4041 2.2351
-5.8933 4.1962 2.2351
-6.0417 3.9829 2.2351
-6.1823 3.7643 2.2351
-6.3151 3.5408 2.2351
-6.4399 3.3126 2.2351
-6.5564 3.0800 2.2351
-6.6645 2.8434 2.2351
-6.6710 2.5671 2.2043
-6.6726 2.2963 2.1756
-6.6786 2.0333 2.1518
-6.6868 1.7761 2.1319
-6.7482 1.5354 2.1319
-6.8009 1.2925 2.1319
-6.8449 1.0478 2.1319
-6.8841 0.8021 2.1331
-6.9064 0.5543 2.1319
-6.9239 0.3061 2.1319
-6.9324 0.0574 2.1319
-6.9320 -0.1915 2.1319
-6.9227 -0.4404 2.1319
-6.9044 -0.6888 2.1319
-6.8838 -0.9373 2.1339
-6.8411 -1.1830 2.1319
-6.7962 -1.4281 2.1319
-6.7425 -1.6716 2.1319
-6.6832 -1.9140 2.1329
-6.6778 -2.1746 2.1541
-6.6715 -2.4407 2.1784
-6.6706 -2.7155 2.2079
-6.6516 -2.9904 2.2351
-6.5417 -3.2280 2.2351
-6.4233 -3.4615 2.2351
-6.2965 -3.6907 2.2351
-6.1615 -3.9152 2.2351
-6.0185 -4.1347 2.2351
-5.8676 -4.3490 2.2351
-5.7091 -4.5578 2.2351
-5.5431 -4.7607 2.2351
-5.3698 -4.9576 2.2351
-5.1896 -5.1481 2.2351
-5.0025 -5.3320 2.2351
-4.8089 -5.5091 2.2351
-4.6090 -5.6791 2.2351
-4.4030 -5.8418 2.2351
-4.1913 -5.9970 2.2351
-3.9741 -6.1444 2.2351
-3.7516 -6.2840 2.2351
-3.5243 -6.4154 2.2351
-3.2923 -6.5385 2.2351
-3.0560 -6.6532 2.2351
-2.8156 -6.7593 2.2351
-2.5716 -6.8566 2.2351
-2.3242 -6.9450 2.2351
-2.0737 -7.0245 2.2351
-1.8205 -7.0948 2.2351
-1.5649 -7.1560 2.2351
-1.3073 -7.2079 2.2351
-1.0479 -7.2504 2.2351
-0.7872 -7.2835 2.2351
-0.5254 -7.3072 2.2351
-0.2630 -7.3214 2.2351
-0.0002 -6.7755 2.2351
0.2429 -6.7710 2.2351
0.4856 -6.7578 2.2351
0.7276 -6.7358 2.2351
0.9687 -6.7051 2.2351
1.2085 -6.6657 2.2351
1.3800 -6.3124 2.1320
1.6055 -6.2584 2.1320
1.8288 -6.1962 2.1320
2.0497 -6.1261 2.1320
2.2679 -6.0480 2.1320
2.4831 -5.9621 2.1320
2.6950 -5.8685 2.1320
2.9035 -5.7673 2.1320
3.1081 -5.6587 2.1320
1.7524 -2.9357 1.1292
3.5047 -5.4197 2.1320
3.6963 -5.2896 2.1320
3.8830 -5.1527 2.1320
4.0647 -5.0092 2.1320
4.2410 -4.8593 2.1320
4.4118 -4.7031 2.1320
4.5768 -4.5409 2.1320
4.7358 -4.3729 2.1320
4.8886 -4.1992 2.1320
5.0350 -4.0203 2.1320
4.7811 -3.5443 1.9698
4.8537 -3.3350 1.9496
5.2503 -3.3367 2.0599
5.3522 -3.1377 2.0549
5.3512 -2.8843 2.0139
5.3502 -2.6405 1.9770
5.3544 -2.4076 1.9459
4.7696 -1.9421 1.7074
4.9369 -1.8065 1.7433
4.9369 -1.6081 1.7223
4.9788 -1.4262 1.7184
5.7350 -1.4223 1.9610
6.3057 -1.3255 2.1391
6.3475 -1.0981 2.1391
6.3811 -0.8693 2.1391
6.1537 -0.6143 2.0547
6.0620 -0.3860 2.0187
5.9492 -0.1647 1.9784
5.9716 0.0491 1.9857
5.9716 0.2637 1.9881
5.9716 0.4789 1.9931
5.9715 0.6955 2.0007
5.9600 0.9120 2.0070
6.0843 1.1560 2.0621
6.2626 1.4246 2.1391
6.2058 1.6481 2.1391
6.1411 1.8693 2.1391
6.0684 2.0881 2.1391
5.9881 2.3041 2.1391
5.9000 2.5170 2.1391
5.8044 2.7265 2.1391
5.7014 2.9325 2.1391
5.5911 3.1346 2.1391
5.4736 3.3326 2.1391
5.3316 3.5147 2.1320
5.2009 3.7031 2.1320
5.0634 3.8866 2.1320
4.9196 4.0651 2.1320
4.7695 4.2383 2.1320
4.6133 4.4061 2.1320
4.4512 4.5681 2.1320
4.2835 4.7241 2.1320
4.1104 4.8741 2.1320
3.9320 5.0178 2.1320
3.7486 5.1550 2.1320
3.5605 5.2855 2.1320
3.3679 5.4092 2.1320
3.1710 5.5260 2.1320
2.9701 5.6356 2.1320
2.7655 5.7380 2.1320
2.5573 5.8331 2.1320
2.3459 5.9206 2.1320
2.1315 6.0005 2.1320
1.9144 6.0728 2.1320
1.6949 6.1372 2.1320
1.4733 6.1937 2.1320
1.3102 6.5442 2.2351
1.0742 6.5868 2.2351
0.8369 6.6209 2.2351
0.5985 6.6466 2.2351
0.3593 6.6637 2.2351
0.1197 6.6723 2.2351
-0.1201 6.6724 2.2351
-0.3597 6.6639 2.2351
-0.5989 6.6469 2.2351
-0.8373 6.6213 2.2351
-1.0747 6.5873 2.2351
-1.3107 6.5448 2.2351
-1.5450 6.4939 2.2351
-1.7774 6.4347 2.2351
-2.0076 6.3673 2.2351
-2.2353 6.2917 2.2351
-2.4601 6.2080 2.2351
-2.6818 6.1163 2.2351
-2.9001 6.0167 2.2351
-3.1148 5.9094 2.2351
-3.3255 5.7946 2.2351
-3.5320 5.6722 2.2351
-3.7340 5.5425 2.2351
-3.9313 5.4057 2.2351
-4.1237 5.2619 2.2351
-4.3108 5.1113 2.2351
-4.4924 4.9541 2.2351
-4.6683 4.7905 2.2351
-4.8383 4.6207 2.2351
-5.0022 4.4449 2.2351
-5.1597 4.2632 2.2351
-5.3106 4.0761 2.2351
-5.4548 3.8836 2.2351
-5.5920 3.6861 2.2351
-5.7221 3.4837 2.2351
-5.8449 3.2768 2.2351
-5.9603 3.0655 2.2351
-6.0680 2.8502 2.2351
-6.1680 2.6312 2.2351
-6.2601 2.4086 2.2351
-6.3442 2.1829 2.2351
-6.4201 1.9542 2.2351
-6.4879 1.7229 2.2351
-6.5473 1.4893 2.2351
-6.5983 1.2536 2.2351
-6.6408 1.0162 2.2351
-6.6709 0.7769 2.2338
-6.6709 0.5350 2.2253
-6.6708 0.2945 2.2197
-6.6708 0.0548 2.2171
-6.6708 -0.1847 2.2172
-6.6708 -0.4247 2.2202
-6.6708 -0.6658 2.2262
-6.6708 -0.9087 2.2350
-6.6360 -1.1479 2.2351
-6.5923 -1.3857 2.2351
-6.5401 -1.6218 2.2351
-6.4793 -1.8560 2.2351
-6.4102 -2.0878 2.2351
-6.3328 -2.3171 2.2351
-6.2471 -2.5435 2.2351
-6.1533 -2.7667 2.2351
-6.0515 -2.9865 2.2351
-5.9419 -3.2025 2.2351
-5.8245 -3.4144 2.2351
-5.6996 -3.6220 2.2351
-5.5672 -3.8250 2.2351
-5.4275 -4.0232 2.2351
-5.2808 -4.2162 2.2351
-5.1272 -4.4039 2.2351
-4.9669 -4.5859 2.2351
-4.8000 -4.7621 2.2351
-4.6270 -4.9321 2.2351
-4.4478 -5.0958 2.2351
-4.2629 -5.2530 2.2351
-4.0723 -5.4034 2.2351
-3.8765 -5.5469 2.2351
-3.6755 -5.6832 2.2351
-3.4698 -5.8122 2.2351
-3.2594 -5.9337 2.2351
-3.0448 -6.0475 2.2351
-2.8263 -6.1535 2.2351
-2.6040 -6.2516 2.2351
-2.3783 -6.3415 2.2351
-2.1495 -6.4233 2.2351
-1.9178 -6.4967 2.2351
-1.6836 -6.5618 2.2351
-1.4473 -6.6183 2.2351
-1.2090 -6.6662 2.2351
-0.9691 -6.7055 2.2351
-0.7280 -6.7362 2.2351
-0.4859 -6.7580 2.2351
-0.2432 -6.7712 2.2351
-0.0002 -6.2953 2.2351
0.2256 -6.2912 2.2351
0.4511 -6.2789 2.2351
0.6760 -6.2585 2.2351
0.9000 -6.2299 2.2351
1.1228 -6.1933 2.2351
1.3442 -6.1487 2.2351
1.4916 -5.8150 2.1320
1.6991 -5.7573 2.1320
1.9044 -5.6921 2.1320
2.1071 -5.6196 2.1320
2.3071 -5.5399 2.1320
2.5040 -5.4529 2.1320
2.6977 -5.3589 2.1320
2.8878 -5.2581 2.1320
