ply
format ascii 1.0
element vertex 2107
property float32 x
property float32 y
property float32 z
end_header
6.2074 -57.3912 -1.5540
6.5627 -45.3695 -1.2314
7.3043 -40.2397 -1.0958
6.5503 -29.9271 -0.8183
7.2846 -28.3648 -0.7795
6.5291 -22.0970 -0.6108
6.9414 -20.7233 -0.5768
6.5271 -17.3870 -0.4877
6.8684 -16.4730 -0.4661
7.3444 -15.9743 -0.4564
7.8996 -15.6734 -0.4527
7.9534 -14.4634 -0.4228
7.8525 -13.1395 -0.3892
6.4256 -9.9244 -0.2982
6.4170 -9.1717 -0.2799
6.6371 -8.7962 -0.2731
6.9584 -8.5643 -0.2709
7.2796 -8.3299 -0.2689
7.6235 -8.1159 -0.2679
8.1464 -8.0712 -0.2729
8.7523 -8.0699 -0.2801
9.4595 -8.1134 -0.2897
10.2505 -8.1718 -0.3010
10.8976 -8.0653 -0.3073
11.7554 -8.0634 -0.3188
12.6582 -8.0302 -0.3306
13.8499 -8.1039 -0.3488
14.9776 -8.0565 -0.3642
6.7075 -2.1781 -0.1391
6.5748 -1.8769 -0.1325
6.3972 -1.5803 -0.1254
6.5174 -1.3637 -0.1243
6.5168 -1.1211 -0.1211
6.5163 -0.8815 -0.1180
6.5056 -0.6433 -0.1150
6.6211 -0.4154 -0.1143
6.9453 -0.1859 -0.1171
7.2914 0.0667 -0.1203
7.8635 0.3544 -0.1270
7.8629 0.6379 -0.1244
7.8623 0.9229 -0.1220
7.8354 1.2062 -0.1194
7.9174 1.5116 -0.1185
7.9167 1.8082 -0.1165
7.9161 2.1097 -0.1146
7.8178 2.3871 -0.1116
7.8584 2.7115 -0.1106
7.8186 3.0160 -0.1087
7.9133 3.3836 -0.1087
7.9126 3.7246 -0.1076
7.9118 4.0774 -0.1067
7.8547 4.4117 -0.1052
7.8539 4.7900 -0.1045
7.8067 5.1545 -0.1035
7.3060 5.2098 -0.0966
7.1335 5.4834 -0.0943
6.8632 5.6789 -0.0909
6.5996 5.8723 -0.0878
6.4487 6.1668 -0.0864
6.4737 6.6516 -0.0875
6.3828 7.0475 -0.0874
7.6748 9.1110 -0.1067
7.2878 9.3102 -0.1033
6.9439 9.5589 -0.1008
6.6023 9.8108 -0.0985
6.5047 10.4575 -0.1003
7.9038 13.7867 -0.1266
2.2927 4.3543 -0.0384
7.8420 16.2861 -0.1382
7.4360 16.9763 -0.1391
6.8938 17.4137 -0.1381
6.3761 17.9648 -0.1383
7.2326 22.9614 -0.1722
8.2737 29.9822 -0.2196
7.2942 30.6886 -0.2202
6.9187 34.5829 -0.2438
6.9098 42.3980 -0.2946
6.7604 53.5178 -0.3678
7.3235 81.3761 -0.5547
2.1789 40.4192 -0.2742
1.5858 88.3102 -0.5981
-1.6179 90.1506 -0.6116
-4.7126 87.4373 -0.5960
-7.7486 86.1089 -0.5917
-10.9398 86.6111 -0.6018
-14.2161 87.2349 -0.6149
-17.1309 85.6332 -0.6141
-20.4615 86.0914 -0.6301
-23.9133 86.6605 -0.6492
-27.5032 87.3177 -0.6715
-30.4121 85.6900 -0.6783
-25.8856 65.3892 -0.5344
-6.6287 15.1335 -0.1280
-31.1269 64.6455 -0.5675
-17.3328 32.9194 -0.3007
-13.3464 18.3729 -0.2018
-12.6442 15.0106 -0.1835
-9.5232 10.5152 -0.1362
-9.4292 9.6885 -0.1332
-9.4278 9.0157 -0.1320
-9.4528 8.4113 -0.1315
-9.5626 7.9126 -0.1325
-9.9127 7.6199 -0.1371
-10.6832 7.6182 -0.1478
-11.5350 7.6162 -0.1600
-12.4843 7.6141 -0.1738
-12.5246 7.0348 -0.1753
-12.5234 6.4541 -0.1765
-12.6121 5.9369 -0.1793
-12.6110 5.3923 -0.1810
-12.5199 4.8295 -0.1816
-9.5464 3.2940 -0.1402
-9.4551 2.8871 -0.1407
-9.4137 2.5089 -0.1421
-9.4129 2.1500 -0.1442
-9.4122 1.7971 -0.1466
-9.4114 1.4489 -0.1491
-9.4445 1.1087 -0.1523
-9.4945 0.7703 -0.1560
-9.5448 0.4303 -0.1600
-9.5957 0.0878 -0.1641
-31.7210 -0.8488 -0.5543
-31.7185 -1.9899 -0.5667
-31.7161 -3.1361 -0.5798
-31.7136 -4.2901 -0.5937
-31.7111 -5.4553 -0.6084
-31.7085 -6.6348 -0.6240
-23.5405 -5.8150 -0.4756
-31.7033 -9.0504 -0.6582
-23.5244 -7.6389 -0.5023
-21.7709 -7.9442 -0.4785
-20.0981 -8.1627 -0.4552
-18.9450 -8.4988 -0.4425
-17.4583 -8.5976 -0.4211
-14.0799 -7.5736 -0.3510
-15.4558 -9.0437 -0.3987
-12.1129 -7.6843 -0.3238
-12.2681 -8.4152 -0.3402
-12.4360 -9.2039 -0.3583
-14.7845 -11.7864 -0.4432
-14.9675 -12.8377 -0.4676
-15.1672 -13.9847 -0.4946
-15.3866 -15.2446 -0.5248
-15.3907 -16.3849 -0.5502
-14.5414 -16.6394 -0.5461
-13.6459 -16.7954 -0.5397
-12.7145 -16.8508 -0.5310
-11.9210 -17.0387 -0.5273
-11.4046 -17.6149 -0.5362
-11.3323 -18.9625 -0.5685
-13.5733 -24.6839 -0.7298
-12.7763 -25.3497 -0.7399
-13.3391 -29.0137 -0.8371
-15.1028 -36.2232 -1.0341
-15.3717 -40.9488 -1.1579
-16.3191 -48.7218 -1.3659
-16.2622 -55.0398 -1.5314
-15.8943 -61.8911 -1.7105
-16.2623 -89.5950 -2.4498
-12.9578 -89.5878 -2.4396
-9.6881 -89.5807 -2.4315
6.1380 -85.3338 -0.3796
6.2084 -57.4174 -0.2537
6.5608 -45.3692 -0.1988
7.3025 -40.2410 -0.1745
6.5486 -29.9273 -0.1282
7.2830 -28.3659 -0.1198
6.5274 -22.0973 -0.0918
6.9531 -20.7637 -0.0846
6.5271 -17.3916 -0.0693
6.8670 -16.4741 -0.0640
7.3428 -15.9752 -0.0604
7.8996 -15.6777 -0.0573
7.9534 -14.4674 -0.0510
7.8527 -13.1435 -0.0443
6.4239 -9.9247 -0.0319
6.4166 -9.1739 -0.0278
6.6363 -8.7977 -0.0249
6.9571 -8.5653 -0.0224
7.2782 -8.3309 -0.0198
7.6214 -8.1162 -0.0171
8.1437 -8.0712 -0.0146
8.7493 -8.0699 -0.0119
9.4562 -8.1134 -0.0090
10.2467 -8.1718 -0.0057
10.8934 -8.0653 -0.0019
11.7505 -8.0634 0.0023
12.6582 -8.0336 0.0070
13.8435 -8.1040 0.0126
14.9703 -8.0565 0.0188
6.7099 -2.1805 0.0197
6.5757 -1.8788 0.0215
6.3975 -1.5818 0.0231
6.5174 -1.3653 0.0257
6.5168 -1.1227 0.0279
6.5163 -0.8830 0.0301
6.5049 -0.6447 0.0323
6.6203 -0.4169 0.0351
6.9432 -0.1874 0.0393
7.2891 0.0650 0.0439
7.8635 0.3527 0.0503
7.8629 0.6361 0.0532
7.8623 0.9211 0.0563
7.0164 1.0785 0.0530
7.9174 1.5098 0.0631
7.9167 1.8064 0.0664
7.9161 2.1078 0.0699
7.8177 2.3852 0.0725
7.5232 2.5940 0.0733
7.2851 2.8084 0.0746
7.9133 3.3816 0.0851
7.9126 3.7227 0.0893
7.9118 4.0754 0.0937
7.7030 4.3245 0.0958
7.0903 4.3224 0.0926
7.8093 5.1541 0.1072
7.3076 5.2089 0.1054
7.1349 5.4825 0.1083
6.8645 5.6780 0.1097
6.6003 5.8710 0.1111
6.4494 6.1654 0.1146
6.4737 6.6495 0.1215
6.3824 7.0450 0.1267
7.6767 9.1106 0.1616
7.2891 9.3093 0.1630
6.9452 9.5580 0.1653
6.6030 9.8093 0.1678
6.3750 10.2463 0.1735
7.2917 12.7159 0.2134
2.2931 4.3539 0.0724
6.9118 14.3510 0.2370
6.9924 15.9598 0.2617
6.8353 17.2620 0.2812
6.3487 17.8838 0.2897
7.1907 22.8234 0.3678
7.2231 26.1697 0.4198
7.3049 30.7276 0.4909
6.9196 34.5810 0.5505
6.9107 42.3961 0.6728
2.4201 19.1556 0.3032
7.3245 81.3745 1.2854
4.6368 86.0065 1.3564
1.5855 88.3103 1.3911
-1.6189 90.1512 1.4191
-4.7138 87.4300 1.3759
-7.7510 86.1093 1.3555
-10.9429 86.6116 1.3643
-14.2201 87.2356 1.3757
-13.6010 67.9699 1.0737
-14.7155 61.8987 0.9799
-10.1204 36.6661 0.5820
-18.5945 59.0186 0.9397
-20.9184 58.9249 0.9417
-14.4828 36.5752 0.5871
-30.5629 69.7579 1.1252
-31.1470 64.6699 1.0488
-17.3368 32.9181 0.5371
-22.7250 36.5251 0.6048
-24.5843 36.5218 0.6098
-13.3503 18.3729 0.3097
-28.5894 36.5131 0.6217
-12.6442 15.0060 0.2584
-9.5226 10.5111 0.1833
-9.4292 9.6853 0.1712
-9.4277 9.0126 0.1617
-9.4534 8.4089 0.1534
-9.5632 7.9102 0.1470
-9.9169 7.6202 0.1445
-10.6870 7.6178 0.1477
-11.5393 7.6158 0.1514
-12.4891 7.6136 0.1556
-12.5246 7.0314 0.1482
-12.5234 6.4508 0.1408
-12.6027 5.9293 0.1346
-12.6017 5.3852 0.1278
-12.5199 4.8264 0.1206
-9.5460 3.2915 0.0872
-9.4546 2.8847 0.0820
-9.4137 2.5067 0.0773
-9.4129 2.1478 0.0732
-9.4122 1.7949 0.0692
-9.4114 1.4468 0.0654
-9.4448 1.1066 0.0619
-9.4949 0.7681 0.0585
-9.5452 0.4281 0.0552
-9.5967 0.0856 0.0520
-31.7210 -0.8561 0.1604
-31.7185 -1.9972 0.1491
-31.7160 -3.1433 0.1380
-31.7136 -4.2974 0.1271
-31.7111 -5.4626 0.1163
-31.7085 -6.6422 0.1056
-23.5275 -5.8173 0.0705
-6.6515 -1.9004 0.0177
-23.5132 -7.6408 0.0548
-21.7612 -7.9459 0.0434
-20.0897 -8.1641 0.0334
-18.9375 -8.5002 0.0251
-17.4517 -8.5987 0.0172
-16.4751 -8.8662 0.0106
-15.4505 -9.0446 0.0046
-12.2577 -7.7793 -0.0007
-14.4600 -9.9226 -0.0060
-14.7204 -10.8986 -0.0116
-14.7853 -11.7913 -0.0173
-14.9684 -12.8428 -0.0234
-15.1642 -13.9865 -0.0299
-15.3876 -15.2504 -0.0370
-15.3867 -16.3856 -0.0439
-14.5377 -16.6401 -0.0483
-13.6425 -16.7959 -0.0522
-12.7114 -16.8513 -0.0555
-11.9189 -17.0402 -0.0589
-11.3992 -17.6111 -0.0635
-11.3300 -18.9634 -0.0709
-13.5705 -24.6848 -0.0952
-12.7716 -25.3464 -0.1005
-13.3378 -29.0177 -0.1178
-15.0918 -36.2050 -0.1499
-15.4740 -41.2304 -0.1738
-17.6421 -52.6831 -0.2254
-15.8555 -53.6748 -0.2326
-15.8382 -61.6856 -0.2702
-7.0269 -38.7210 -0.1722
-12.9555 -89.5878 -0.4004
-9.6865 -89.5807 -0.4017
2.2502 -31.2933 0.5674
6.2069 -57.4203 1.0471
6.5680 -45.4320 0.8348
6.4923 -35.7857 0.6639
6.5469 -29.9276 0.5618
6.9671 -27.1426 0.5165
6.5258 -22.0975 0.4271
6.8987 -20.6065 0.4055
6.4179 -17.1051 0.3433
6.8109 -16.3438 0.3352
6.9635 -15.1541 0.3184
7.5530 -14.9939 0.3233
7.2922 -13.2684 0.2943
6.9953 -11.7117 0.2677
6.3834 -9.8648 0.2330
6.4163 -9.1760 0.2244
6.6355 -8.7993 0.2233
6.8593 -8.4475 0.2230
7.1789 -8.2197 0.2263
7.5971 -8.0929 0.2330
8.0402 -7.9713 0.2406
8.6380 -7.9700 0.2529
9.2840 -7.9686 0.2667
9.9862 -7.9671 0.2821
10.8892 -8.0653 0.3033
11.7458 -8.0635 0.3232
12.6965 -8.0614 0.3458
13.7606 -8.0591 0.3717
14.9631 -8.0565 0.4016
92.1920 -37.4891 2.4511
92.1944 -33.6870 2.4511
6.7123 -2.1829 0.1787
6.5767 -1.8806 0.1756
6.3977 -1.5834 0.1715
6.3575 -1.3333 0.1714
6.3510 -1.0955 0.1723
6.3867 -0.8669 0.1747
6.5042 -0.6461 0.1795
6.6196 -0.4184 0.1846
6.7308 -0.1832 0.1898
6.9771 0.0606 0.1992
7.8635 0.3509 0.2276
7.8629 0.6343 0.2309
7.8623 0.9193 0.2346
6.9274 1.0633 0.2102
7.9174 1.5079 0.2446
7.9167 1.8045 0.2493
7.9161 2.1060 0.2544
7.8176 2.3834 0.2567
7.1662 2.4692 0.2406
6.9237 2.6674 0.2381
6.9240 2.9572 0.2441
7.9126 3.7207 0.2863
7.9118 4.0734 0.2942
7.5468 4.2349 0.2889
6.9212 4.2175 0.2730
7.6778 5.0652 0.3126
7.2647 5.1764 0.3058
6.9480 5.3369 0.3029
6.7192 5.5559 0.3038
6.5236 5.8008 0.3065
6.3745 6.0919 0.3119
6.2967 6.4657 0.3215
6.3228 6.9771 0.3377
7.6787 9.1104 0.4301
7.2044 9.1986 0.4243
6.8538 9.4297 0.4258
6.6038 9.8079 0.4343
6.3753 10.2442 0.4454
7.3157 12.7545 0.5454
2.2934 4.3535 0.1833
6.8570 14.2338 0.5911
6.3860 14.5724 0.5975
6.8962 17.4119 0.7057
6.3769 17.9593 0.7204
7.2094 22.8779 0.9093
7.1924 26.0527 1.0270
6.5552 27.5684 1.0791
6.9206 34.5791 1.3452
6.0793 37.2885 1.4432
6.1168 48.4062 1.8659
4.9856 55.3814 2.1280
2.9926 55.5025 2.1280
1.0459 58.2633 2.2311
-1.0472 58.2800 2.2311
-3.1412 58.2412 2.2311
-5.2356 58.1473 2.2311
-6.9906 55.3137 2.1279
-8.9871 55.1176 2.1279
-11.2091 56.0016 2.1718
-13.1646 55.3605 2.1589
-10.1225 36.6640 1.4392
-11.5873 36.7682 1.4543
-12.9905 36.5831 1.4596
-14.4786 36.5549 1.4728
-16.0167 36.5474 1.4888
-17.6015 36.5359 1.5065
-17.3408 32.9168 1.3756
-20.9526 36.5287 1.5493
-22.7312 36.5248 1.5743
-24.5907 36.5208 1.6020
-13.3542 18.3729 0.8215
-28.5972 36.5121 1.6669
-12.6442 15.0014 0.7005
-9.5220 10.5071 0.5028
-9.4292 9.6822 0.4757
-9.4277 9.0096 0.4555
-9.4540 8.4064 0.4385
-9.5638 7.9079 0.4266
-9.9213 7.6207 0.4264
-10.6919 7.6182 0.4436
-11.5437 7.6156 0.4630
-12.4938 7.6131 0.4853
-12.5246 7.0281 0.4717
-12.5234 6.4476 0.4581
-12.5933 5.9217 0.4480
-12.5925 5.3781 0.4362
-12.5199 4.8233 0.4228
-9.5455 3.2891 0.3147
-9.4540 2.8823 0.3046
-9.4137 2.5044 0.2968
-9.4129 2.1456 0.2907
-9.4122 1.7927 0.2851
-9.4114 1.4446 0.2799
-9.4451 1.1044 0.2761
-9.4952 0.7660 0.2731
-9.5455 0.4260 0.2705
-9.5978 0.0834 0.2682
-31.7210 -0.8633 0.8752
-31.7185 -2.0044 0.8650
-31.7160 -3.1505 0.8559
-31.7136 -4.3047 0.8480
-31.7110 -5.4699 0.8411
-31.7085 -6.6495 0.8353
-23.5254 -5.8222 0.6163
-6.6513 -1.9019 0.1735
-19.9167 -6.4769 0.5181
-21.7516 -7.9476 0.5650
-20.2065 -8.2165 0.5249
-18.8294 -8.4563 0.4899
-17.5913 -8.6719 0.4591
-13.9261 -7.4980 0.3652
-15.4453 -9.0455 0.4078
-12.2537 -7.7800 0.3262
-14.4608 -9.9270 0.3890
-14.6173 -10.8264 0.3982
-14.7862 -11.7962 0.4087
-14.9693 -12.8480 0.4209
-15.1691 -13.9956 0.4349
-15.3886 -15.2562 0.4511
-15.3828 -16.3863 0.4623
-14.4532 -16.5481 0.4468
-13.5632 -16.7031 0.4327
-12.7083 -16.8519 0.4199
-11.9168 -17.0418 0.4095
-11.3774 -17.5819 0.4083
-11.2112 -18.7693 0.4222
-12.2517 -22.2914 0.4869
-12.7668 -25.3430 0.5387
-13.3366 -29.0218 0.6016
-14.0272 -33.6588 0.6819
-15.2731 -40.7044 0.8076
-17.6382 -52.6831 1.0259
-16.1463 -54.6710 1.0470
-16.1783 -63.0235 1.1894
-17.2301 -78.7572 1.4678
-7.0328 -38.7615 0.7149
-12.9531 -89.5878 1.6383
-9.6849 -89.5807 1.6276
-0.0008 -54.9824 2.2311
1.9705 -54.9075 2.2305
2.2495 -31.2936 1.2746
5.5393 -51.2590 2.0968
5.3970 -37.3420 1.5366
6.4975 -35.8243 1.4853
5.9592 -27.2482 1.1402
6.1337 -23.9021 1.0111
6.4093 -21.7088 0.9298
6.9157 -20.6628 0.8977
6.4174 -17.1083 0.7552
6.2848 -15.0852 0.6778
6.8881 -14.9940 0.6869
6.6822 -13.2688 0.6210
6.5584 -11.9365 0.5717
6.9934 -11.7118 0.5752
6.4206 -9.9252 0.5009
6.4160 -9.1782 0.4769
6.6347 -8.8009 0.4718
6.9544 -8.5672 0.4749
7.2754 -8.3329 0.4788
7.6171 -8.1169 0.4846
8.1383 -8.0713 0.5020
8.7433 -8.0700 0.5243
9.3971 -8.0686 0.5492
10.1077 -8.0670 0.5772
10.8849 -8.0653 0.6086
11.7410 -8.0635 0.6442
12.6910 -8.0614 0.6847
13.7543 -8.0591 0.7310
14.9558 -8.0565 0.7844
47.2689 -23.3149 2.4511
47.7324 -21.4494 2.4511
48.1234 -19.5810 2.4511
48.4425 -17.7123 2.4511
6.6128 -2.1522 0.3329
6.4457 -1.8447 0.3233
6.3469 -1.5723 0.3176
6.3070 -1.3242 0.3153
6.3030 -1.0887 0.3153
6.3384 -0.8619 0.3176
6.3965 -0.6369 0.3215
6.5100 -0.4129 0.3286
6.6628 -0.1829 0.3382
6.9739 0.0590 0.3564
7.8634 0.3491 0.4051
7.8621 0.6324 0.4088
7.8608 0.9173 0.4131
6.9271 1.0616 0.3683
7.9174 1.5061 0.4264
7.9168 1.8027 0.4325
7.9161 2.1041 0.4392
7.8175 2.3815 0.4410
7.2844 2.5082 0.4184
6.8411 2.6339 0.4006
6.9237 2.9553 0.4139
7.9126 3.7187 0.4835
7.9118 4.0714 0.4950
7.5501 4.2348 0.4843
6.9209 4.2155 0.4559
6.5527 4.3212 0.4439
7.3109 5.2073 0.5103
7.1375 5.4805 0.5142
6.8670 5.6761 0.5115
6.6017 5.8683 0.5095
6.4508 6.1628 0.5169
6.4737 6.6454 0.5399
6.3816 7.0399 0.5553
7.6807 9.1101 0.6991
7.2917 9.3074 0.6963
6.9476 9.5562 0.6983
6.6046 9.8064 0.7011
6.3756 10.2421 0.7177
7.3176 12.7547 0.8774
2.2937 4.3531 0.2944
6.2531 12.9771 0.8641
6.2382 14.2318 0.9343
6.3369 15.9962 1.0368
6.3774 17.9566 1.1505
7.2365 22.9587 1.4559
7.1939 26.0528 1.6372
6.1959 26.0519 1.6243
5.8634 29.2908 1.8139
5.6351 34.5571 2.1280
4.3873 34.7136 2.1280
3.1362 34.8325 2.1280
1.8827 34.9140 2.1280
0.6579 36.6513 2.2311
-0.6591 36.6579 2.2311
-1.9761 36.6251 2.2311
-3.2923 36.5528 2.2311
-4.6068 36.4410 2.2311
-5.9188 36.2898 2.2311
-7.1150 35.5376 2.1964
-8.1561 34.2893 2.1329
-9.3760 33.9511 2.1279
-10.6092 33.6559 2.1279
-11.8359 33.3229 2.1279
-13.0551 32.9521 2.1279
-14.2658 32.5435 2.1279
-15.6568 32.4905 2.1539
-17.1159 32.4809 2.1863
-13.6868 23.8548 1.6326
-19.9288 32.0129 2.2311
-21.1397 31.3865 2.2311
-13.3581 18.3729 1.3343
-23.5159 30.0154 2.2311
-12.6442 14.9967 1.1431
-9.5219 10.5037 0.8227
-9.4290 9.6788 0.7806
-9.4276 9.0064 0.7497
-9.4542 8.4036 0.7239
-9.5641 7.9052 0.7066
-9.9241 7.6199 0.7088
-10.6948 7.6173 0.7399
-11.5467 7.6144 0.7752
-12.2044 7.4335 0.7964
-12.2051 6.8456 0.7754
-12.2044 6.2801 0.7561
-12.2036 5.7353 0.7383
-12.2029 5.2086 0.7220
-12.2021 4.6979 0.7071
-9.5449 3.2865 0.5424
-9.4535 2.8798 0.5275
-9.4137 2.5022 0.5165
-9.4129 2.1434 0.5085
-9.4122 1.7905 0.5012
-9.4114 1.4424 0.4946
-9.4454 1.1023 0.4906
-9.4955 0.7638 0.4880
-9.5458 0.4238 0.4860
-9.5989 0.0813 0.4847
-31.7209 -0.8705 1.5909
-31.7185 -2.0116 1.5818
-31.7160 -3.1578 1.5748
-31.7136 -4.3119 1.5698
-31.7110 -5.4772 1.5669
-31.7085 -6.6568 1.5660
-23.4403 -5.8066 1.1587
-6.6510 -1.9034 0.3295
-19.8565 -6.4620 0.9875
-21.5805 -7.8902 1.0788
-20.1981 -8.2180 1.0164
-18.8220 -8.4576 0.9550
-17.5846 -8.6730 0.9011
-16.4634 -8.8682 0.8535
-15.4400 -9.0464 0.8111
-12.2496 -7.7807 0.6534
-14.4615 -9.9315 0.7846
-14.6181 -10.8310 0.8084
-14.7870 -11.8011 0.8353
-14.9702 -12.8531 0.8658
-15.1701 -14.0011 0.9004
-15.3896 -15.2620 0.9398
-15.3788 -16.3870 0.9689
-14.4495 -16.5488 0.9420
-13.5599 -16.7036 0.9177
-12.7052 -16.8524 0.8956
-11.9444 -17.0858 0.8804
-11.4062 -17.6310 0.8828
-11.3431 -18.9949 0.9260
-11.4132 -20.7709 0.9879
-12.0797 -23.9848 1.1151
-13.3353 -29.0259 1.3217
-13.3137 -31.9542 1.4276
-13.2267 -35.2583 1.5484
-14.9982 -44.8076 1.9376
-14.7530 -49.9638 2.1311
-12.9782 -50.5675 2.1311
-11.1755 -51.0924 2.1311
-7.0241 -38.7210 1.6012
-6.6429 -45.9526 1.8869
-5.9052 -54.6291 2.2311
-3.9434 -54.8350 2.2311
-1.9738 -54.9529 2.2311
-0.0008 -35.3244 2.2311
1.2660 -35.2919 2.2311
2.4130 -33.5800 2.1280
2.4913 -23.0606 1.4671
4.8068 -33.2679 2.1280
6.0103 -33.1470 2.1350
5.5659 -25.4567 1.6537
6.1420 -23.9406 1.5708
6.5225 -22.0981 1.4668
6.9355 -20.7276 1.3941
6.5271 -17.4055 1.1881
6.2453 -14.9945 1.0405
6.1541 -13.3998 0.9469
6.6804 -13.2689 0.9565
6.4552 -11.7519 0.8657
7.0143 -11.7500 0.8861
6.4100 -9.9115 0.7667
6.4156 -9.1804 0.7299
6.6339 -8.8024 0.7208
6.8570 -8.4498 0.7141
7.1758 -8.2213 0.7188
7.6150 -8.1173 0.7359
8.1356 -8.0713 0.7608
8.7403 -8.0700 0.7929
9.3937 -8.0686 0.8289
10.1039 -8.0670 0.8691
10.8807 -8.0654 0.9145
11.7361 -8.0635 0.9657
12.6582 -8.0441 1.0218
13.8256 -8.1046 1.0969
14.9485 -8.0566 1.1678
27.7076 -13.6736 2.1351
28.0446 -12.6095 2.1351
28.3404 -11.5386 2.1351
28.5951 -10.4625 2.1351
6.7172 -2.1878 0.4978
6.5785 -1.8843 0.4846
6.3982 -1.5866 0.4692
6.5174 -1.3699 0.4764
6.5168 -1.1272 0.4755
6.5163 -0.8876 0.4752
6.5027 -0.6490 0.4746
6.6181 -0.4213 0.4840
6.9369 -0.1920 0.5090
7.2821 0.0599 0.5368
7.8634 0.3473 0.5831
7.8621 0.6306 0.5872
7.8608 0.9155 0.5920
6.9268 1.0600 0.5267
7.9174 1.5043 0.6087
7.9168 1.8009 0.6161
7.9161 2.1023 0.6244
7.8174 2.3796 0.6258
7.2892 2.5081 0.5930
6.6900 2.5741 0.5538
6.5956 2.8137 0.5564
7.9126 3.7168 0.6812
7.9118 4.0694 0.6962
7.5533 4.2346 0.6803
6.8877 4.1934 0.6360
6.5249 4.3011 0.6188
7.3125 5.2064 0.7134
7.0573 5.4169 0.7096
6.8343 5.6471 0.7096
6.6023 5.8669 0.7093
6.4515 6.1615 0.7188
6.3393 6.5055 0.7342
6.3812 7.0374 0.7701
7.6826 9.1098 0.9688
7.2399 9.2387 0.9569
6.8868 9.4700 0.9570
6.6053 9.8050 0.9686
6.4177 10.3070 0.9971
7.3195 12.7548 1.2103
2.2941 4.3527 0.4058
6.1469 12.7538 1.1698
6.2567 14.2706 1.2896
5.7763 14.5778 1.2998
5.6678 15.9551 1.4056
7.2377 22.9578 2.0008
6.8305 24.7316 2.1350
5.9319 24.9369 2.1350
5.0117 25.0310 2.1280
4.1065 25.1784 2.1280
3.1978 25.2971 2.1280
2.2861 25.3870 2.1280
1.4389 26.6809 2.2311
0.4794 26.7147 2.2311
-0.4807 26.7182 2.2311
-1.4406 26.6914 2.2311
-2.3996 26.6343 2.2311
-3.3569 26.5469 2.2311
-4.3117 26.4292 2.2311
-5.2632 26.2813 2.2311
-6.2106 26.1031 2.2311
-7.1530 25.8949 2.2311
-8.0897 25.6565 2.2311
-9.0199 25.3881 2.2311
-7.6641 19.3397 1.7198
-10.3557 23.6174 2.1280
-11.2194 23.2758 2.1280
-12.0737 22.9061 2.1280
-12.9178 22.5084 2.1279
-13.7509 22.0827 2.1279
-14.5722 21.6293 2.1279
-13.3621 18.3729 1.8486
-15.4065 19.6588 2.0267
-12.6442 14.9920 1.5867
-9.5220 10.5005 1.1433
-9.4288 9.6754 1.0862
-9.4274 9.0031 1.0446
-9.4540 8.4005 1.0099
-9.5637 7.9020 0.9871
-9.9223 7.6156 0.9916
-10.6925 7.6126 1.0366
-11.5440 7.6093 1.0877
-11.8541 7.2169 1.0874
-11.8530 6.6449 1.0603
-11.8524 6.0959 1.0357
-11.8518 5.5669 1.0131
-11.8512 5.0555 0.9926
-11.8506 4.5596 0.9738
-9.5437 3.2838 0.7705
-9.4524 2.8772 0.7509
-9.4136 2.4999 0.7367
-9.4128 2.1411 0.7267
-9.4121 1.7882 0.7178
-9.4113 1.4402 0.7099
-9.4460 1.1002 0.7056
-9.4960 0.7617 0.7034
-9.5462 0.4216 0.7020
-9.6000 0.0791 0.7018
-29.8370 -0.8256 2.1711
-29.9379 -1.9055 2.1711
-30.0007 -2.9938 2.1711
-30.0245 -4.0892 2.1711
-30.0088 -5.1901 2.1711
-29.9528 -6.2952 2.1711
-23.4273 -5.8089 1.7036
-6.6507 -1.9049 0.4859
-19.7842 -6.4432 1.4541
-18.3117 -6.6995 1.3560
-17.0119 -6.9258 1.2712
-15.8533 -7.1275 1.1972
-14.8114 -7.3089 1.1323
-13.0346 -7.0246 1.0103
-13.1388 -7.7015 1.0344
-12.2456 -7.7814 0.9810
-13.5201 -9.2886 1.1042
-14.6190 -10.8357 1.2197
-14.7879 -11.8060 1.2630
-14.9711 -12.8583 1.3118
-15.1710 -14.0065 1.3670
-15.3906 -15.2678 1.4297
-13.8655 -14.7790 1.3315
-14.5267 -16.6420 1.4462
-13.6324 -16.7977 1.4114
-12.7021 -16.8530 1.3722
-11.9126 -17.0449 1.3479
-11.3830 -17.5996 1.3545
-11.3228 -18.9658 1.4234
-11.4302 -20.8070 1.5257
-10.5361 -20.9250 1.5019
-11.0946 -24.1544 1.7001
-12.8395 -30.8230 2.1311
-11.7484 -31.3246 2.1311
-10.6357 -31.7816 2.1311
-9.4891 -32.1436 2.1279
-8.3413 -32.5075 2.1279
-7.1782 -32.8239 2.1279
-6.1229 -33.7594 2.1708
-5.0482 -34.9275 2.2311
-3.7941 -35.1055 2.2311
-2.5332 -35.2310 2.2311
-1.2680 -35.3041 2.2311
-0.0008 -26.0015 2.2311
0.9315 -25.9795 2.2311
1.8620 -25.9202 2.2311
2.4882 -23.0383 1.9905
3.5394 -24.5029 2.1280
4.4123 -24.3405 2.1280
5.2773 -24.1434 2.1280
6.0256 -23.4934 2.0907
6.5209 -22.0983 1.9886
6.9472 -20.7679 1.8928
5.6072 -14.9564 1.3827
5.5620 -13.3575 1.2546
6.0925 -13.2693 1.2683
5.9318 -11.7850 1.1483
6.4535 -11.7519 1.1693
7.0123 -11.7499 1.1960
6.4105 -9.9153 1.0344
6.4581 -9.2439 0.9903
6.6331 -8.8040 0.9705
6.8887 -8.4914 0.9653
7.2093 -8.2623 0.9707
7.6128 -8.1176 0.9880
8.1329 -8.0713 1.0202
8.7373 -8.0700 1.0623
9.4426 -8.1135 1.1154
10.2314 -8.1719 1.1769
10.8764 -8.0654 1.2211
11.7313 -8.0635 1.2880
12.6582 -8.0476 1.3619
13.8256 -8.1084 1.4603
14.9412 -8.0566 1.5521
20.8618 -10.3007 2.1351
21.1406 -9.5107 2.1351
21.3891 -8.7138 2.1351
21.6072 -7.9111 2.1351
7.0491 -2.2976 0.6905
6.5795 -1.8862 0.6399
6.3985 -1.5882 0.6187
6.5174 -1.3714 0.6274
6.5168 -1.1287 0.6255
6.5163 -0.8891 0.6244
6.5020 -0.6504 0.6227
6.6174 -0.4228 0.6343
6.9348 -0.1935 0.6662
7.2798 0.0583 0.7018
7.8634 0.3455 0.7616
7.8621 0.6288 0.7661
7.8610 0.9137 0.7716
6.5044 0.9939 0.6439
6.4983 1.2332 0.6496
7.9168 1.7990 0.8003
7.9161 2.1004 0.8102
7.8173 2.3777 0.8112
7.2938 2.5080 0.7684
6.4509 2.4806 0.6909
6.4377 2.7447 0.7019
7.9126 3.7148 0.8796
7.9118 4.0674 0.8981
7.5564 4.2344 0.8772
6.9547 4.2324 0.8270
6.3616 4.1918 0.7762
7.3619 5.2395 0.9233
7.0408 5.4022 0.9094
6.8000 5.6168 0.9062
6.6030 5.8656 0.9099
6.4522 6.1601 0.9214
6.3846 6.5499 0.9470
6.4500 7.1110 0.9963
7.6846 9.1095 1.2396
7.2943 9.3055 1.2325
6.9501 9.5545 1.2341
6.6061 9.8035 1.2371
6.5048 10.4442 1.2900
7.3213 12.7547 1.5445
2.2944 4.3522 0.5175
6.1484 12.7538 1.4915
5.5759 12.7149 1.4645
5.6549 14.2681 1.6210
5.6828 15.9938 1.7947
6.0664 19.2381 2.1350
5.3488 19.3626 2.1280
4.6461 19.5274 2.1280
3.9389 19.6692 2.1280
3.2279 19.7878 2.1280
2.5138 19.8832 2.1280
1.8046 20.0364 2.1367
1.1312 20.9732 2.2311
0.3768 20.9999 2.2311
-0.3781 21.0021 2.2311
-1.1327 20.9797 2.2311
-1.8865 20.9328 2.2311
-2.6387 20.8615 2.2311
-3.3887 20.7656 2.2311
-4.1356 20.6453 2.2311
-4.8789 20.5007 2.2311
-5.6178 20.3318 2.2311
-6.3516 20.1386 2.2311
-6.7524 19.0008 2.1280
-7.4405 18.7705 2.1280
-8.1217 18.5174 2.1280
-8.7953 18.2418 2.1279
-9.4606 17.9437 2.1279
-10.1171 17.6233 2.1279
-10.9828 17.6324 2.1711
-11.6324 17.2609 2.1711
-12.2708 16.8674 2.1711
-12.8973 16.4521 2.1711
-12.6442 14.9874 2.0318
-9.5214 10.4965 1.4649
-9.4288 9.6722 1.3927
-9.4274 9.0001 1.3404
-9.4546 8.3980 1.2970
-9.5643 7.8996 1.2687
-9.9248 7.6146 1.2757
-10.6946 7.6110 1.3347
-11.5422 7.6049 1.4012
-11.5416 7.0234 1.3653
-11.5413 6.4671 1.3327
-11.5410 5.9327 1.3029
-11.5406 5.4178 1.2758
-11.5403 4.9200 1.2512
-11.5184 4.4290 1.2265
-9.5423 3.2810 0.9994
-9.4510 2.8745 0.9749
-9.4134 2.4976 0.9577
-9.4126 2.1388 0.9457
-9.4118 1.7860 0.9351
-9.4111 1.4380 0.9258
-9.4476 1.0982 0.9215
-9.4972 0.7596 0.9196
-9.5471 0.4195 0.9188
-9.6011 0.0769 0.9197
-22.7449 -0.6346 2.1711
-22.7948 -1.4561 2.1711
-22.8153 -2.2820 2.1711
-22.8060 -3.1113 2.1711
-22.7666 -3.9429 2.1711
-22.2786 -4.6875 2.1311
-22.1801 -5.5048 2.1311
-6.6506 -1.9064 0.6427
-19.7747 -6.4448 1.9250
-18.3036 -6.7009 1.7974
-17.0048 -6.9271 1.6870
-15.8470 -7.1286 1.5907
-13.1982 -6.5162 1.3426
-12.8791 -6.9441 1.3300
-13.8751 -8.1368 1.4570
-12.2416 -7.7821 1.3095
-13.5158 -9.2894 1.4756
-14.6198 -10.8404 1.6323
-14.7887 -11.8109 1.6920
-13.2514 -11.3852 1.5571
-13.3708 -12.3485 1.6173
-15.3916 -15.2737 1.9213
-15.3707 -16.3884 1.9853
-14.5230 -16.6427 1.9464
-13.6290 -16.7983 1.9013
-12.6991 -16.8535 1.8502
-11.9105 -17.0465 1.8190
-11.3775 -17.5958 1.8287
-11.3204 -18.9666 1.9237
-11.4275 -20.8073 2.0633
-10.5521 -20.9618 2.0360
-10.2684 -22.3610 2.1311
-9.4603 -22.7161 2.1279
-8.6520 -23.0740 2.1279
-7.8290 -23.3997 2.1279
-6.9928 -23.6928 2.1279
-6.1542 -23.9887 2.1311
-5.5429 -25.3513 2.2311
-4.6334 -25.5519 2.2311
-3.7161 -25.7160 2.2311
-2.7926 -25.8432 2.2311
-1.8645 -25.9333 2.2311
-0.9333 -25.9861 2.2311
-0.0007 -20.5555 2.2311
0.7361 -20.5390 2.2311
1.4717 -20.4936 2.2311
2.1028 -19.4759 2.1280
2.7983 -19.3778 2.1280
3.4890 -19.2526 2.1280
4.1739 -19.1005 2.1280
4.8519 -18.9220 2.1280
5.5217 -18.7172 2.1280
6.2029 -18.5478 2.1350
5.6201 -14.9946 1.7503
5.5238 -13.2694 1.5731
5.3785 -11.7173 1.4131
5.9145 -11.7539 1.4444
6.4517 -11.7520 1.4741
7.0103 -11.7500 1.5071
6.4157 -9.9260 1.3042
6.4149 -9.1848 1.2387
6.6323 -8.8056 1.2213
6.9504 -8.5701 1.2251
7.2712 -8.3359 1.2308
7.6107 -8.1180 1.2410
8.1302 -8.0713 1.2807
8.7342 -8.0700 1.3326
9.4392 -8.1135 1.3983
10.2276 -8.1719 1.4745
10.8721 -8.0654 1.5288
11.7264 -8.0635 1.6115
12.6582 -8.0512 1.7034
13.8256 -8.1121 1.8253
14.9339 -8.0566 1.9377
16.7140 -8.2571 2.1350
16.9495 -7.6296 2.1350
17.1612 -6.9957 2.1350
17.3489 -6.3563 2.1350
6.7221 -2.1926 0.8195
6.5804 -1.8880 0.7959
6.3987 -1.5897 0.7689
6.3585 -1.3395 0.7601
6.3500 -1.1013 0.7563
6.3857 -0.8728 0.7586
6.5013 -0.6519 0.7715
6.6166 -0.4243 0.7853
6.7249 -0.1892 0.7993
7.0797 0.0550 0.8438
7.8634 0.3437 0.9410
7.8621 0.6270 0.9458
7.8611 0.9119 0.9519
6.3607 0.9704 0.7763
6.3541 1.2043 0.7826
7.9168 1.7971 0.9853
7.9161 2.0985 0.9968
7.8172 2.3758 0.9974
7.2995 2.5081 0.9449
6.5199 2.5055 0.8575
6.1343 2.6138 0.8208
6.2717 2.9428 0.8551
7.4972 3.8523 1.0431
7.3384 4.1103 1.0436
6.9578 4.2324 1.0130
6.4231 4.2306 0.9590
6.1690 4.3888 0.9463
6.9968 5.3665 1.1047
6.7610 5.5826 1.1009
6.6037 5.8642 1.1113
6.4528 6.1588 1.1248
6.3399 6.5020 1.1475
6.3804 7.0323 1.2021
7.6866 9.1091 1.5117
7.2956 9.3046 1.5023
6.9513 9.5536 1.5037
6.6068 9.8020 1.5068
6.5048 10.4415 1.5705
7.3231 12.7547 1.8803
2.2947 4.3518 0.6298
5.9242 12.2858 1.7482
5.3885 12.2846 1.7213
5.6563 14.2683 1.9715
5.5428 15.5963 2.1280
4.9746 15.7723 2.1280
4.4013 15.9292 2.1280
3.8236 16.0670 2.1280
3.2419 16.1855 2.1280
2.6570 16.2846 2.1280
2.0693 16.3642 2.1280
1.5511 17.2201 2.2311
0.9311 17.2626 2.2311
0.3101 17.2846 2.2311
-0.3114 17.2861 2.2311
-0.9326 17.2670 2.2311
-1.5531 17.2274 2.2311
-2.1721 17.1672 2.2311
-2.7891 17.0865 2.2311
-3.4034 16.9853 2.2311
-4.0144 16.8638 2.2311
-4.6216 16.7220 2.2311
-5.2243 16.5599 2.2311
-5.8218 16.3778 2.2311
-6.2294 15.7111 2.1670
-6.6757 15.2165 2.1280
-7.2274 14.9858 2.1280
-7.7719 14.7366 2.1280
-8.3085 14.4689 2.1279
-8.8368 14.1830 2.1279
-9.3560 13.8790 2.1279
-9.8657 13.5573 2.1279
-10.5759 13.4867 2.1711
-11.0748 13.1230 2.1711
-11.5621 12.7420 2.1711
-12.0373 12.3439 2.1711
-9.4274 8.9970 1.6375
-9.4552 8.3956 1.5853
-9.5651 7.8973 1.5516
-9.9266 7.6130 1.5611
-14.2112 10.1095 2.1711
-14.6016 9.6165 2.1711
-11.1892 6.8059 1.6221
-11.1891 6.2667 1.5843
-11.1890 5.7488 1.5499
-11.1887 5.2497 1.5186
-11.1885 4.7672 1.4902
-11.1875 4.2989 1.4644
-9.5418 3.2784 1.2292
-9.4505 2.8721 1.1999
-9.4134 2.4953 1.1795
-9.4126 2.1366 1.1656
-9.4118 1.7838 1.1533
-9.4111 1.4358 1.1427
-9.4479 1.0960 1.1382
-9.4975 0.7574 1.1367
-9.5474 0.4173 1.1366
-9.6022 0.0747 1.1385
-18.3617 -0.5165 2.1711
-18.3885 -1.1789 2.1711
-18.3915 -1.8438 2.1711
-18.3704 -2.5104 2.1711
-18.3251 -3.1779 2.1711
-18.2555 -3.8453 2.1711
-17.8266 -4.4286 2.1311
-6.6507 -1.9080 0.8003
-17.5693 -5.7303 2.1311
-17.4043 -6.3760 2.1311
-16.9976 -6.9283 2.1042
-15.8406 -7.1297 1.9856
-13.1989 -6.5199 1.6778
-12.8797 -6.9478 1.6632
-13.3546 -7.8350 1.7548
-12.2376 -7.7828 1.6392
-13.4797 -9.2682 1.8441
-14.6206 -10.8451 2.0468
-14.7896 -11.8158 2.1230
-14.4465 -12.4163 2.1311
-14.0254 -12.9574 2.1311
-13.5830 -13.4832 2.1311
-13.1200 -13.9929 2.1311
-12.6368 -14.4855 2.1311
-12.1341 -14.9602 2.1311
-11.6127 -15.4160 2.1311
-11.0731 -15.8523 2.1311
-10.5162 -16.2680 2.1311
-9.9276 -16.6372 2.1279
-9.3394 -17.0093 2.1279
-8.7363 -17.3588 2.1279
-8.1193 -17.6850 2.1279
-7.4893 -17.9874 2.1279
-6.8473 -18.2652 2.1279
-6.1944 -18.5181 2.1279
-5.7999 -19.6550 2.2311
-5.0955 -19.8662 2.2311
-4.3829 -20.0498 2.2311
-3.6632 -20.2054 2.2311
-2.9377 -20.3328 2.2311
-2.2075 -20.4316 2.2311
-1.4738 -20.5018 2.2311
-0.7378 -20.5431 2.2311
-0.0007 -16.9813 2.2311
0.6079 -16.9681 2.2311
1.2155 -16.9314 2.2311
1.8210 -16.8713 2.2311
2.3116 -16.0122 2.1280
2.8826 -15.9105 2.1280
3.4489 -15.7870 2.1280
4.0097 -15.6418 2.1280
4.5641 -15.4752 2.1280
5.1112 -15.2876 2.1280
5.6186 -14.9947 2.1161
5.5222 -13.2690 1.9014
5.3948 -11.7559 1.7133
5.8628 -11.6543 1.7302
6.1873 -11.2735 1.7079
7.0084 -11.7500 1.8196
6.4140 -9.9263 1.5742
6.4146 -9.1870 1.4949
6.6315 -8.8072 1.4734
6.9490 -8.5711 1.4773
7.2698 -8.3370 1.4837
7.6085 -8.1183 1.4952
8.1274 -8.0713 1.5423
8.7312 -8.0700 1.6042
9.4358 -8.1135 1.6826
10.1412 -8.1060 1.7592
10.8678 -8.0654 1.8379
11.7216 -8.0635 1.9364
12.6582 -8.0547 2.0468
13.4650 -7.9043 2.1350
13.7070 -7.3984 2.1350
13.9297 -6.8852 2.1350
14.1328 -6.3653 2.1350
14.3163 -5.8396 2.1350
14.4799 -5.3088 2.1350
6.8338 -2.2307 0.9977
6.5814 -1.8899 0.9528
6.4536 -1.6049 0.9278
6.4131 -1.3525 0.9167
6.4009 -1.1117 0.9111
6.4368 -0.8813 0.9135
6.5005 -0.6533 0.9210
6.6159 -0.4258 0.9370
6.7944 -0.1928 0.9633
7.0765 0.0534 1.0055
7.8634 0.3418 1.1212
7.8621 0.6252 1.1264
7.8613 0.9101 1.1332
6.2323 0.9494 0.9050
6.2153 1.1765 0.9104
7.1658 1.6250 1.0601
7.1664 1.8981 1.0723
7.1669 2.1765 1.0860
7.1674 2.4610 1.1014
6.5242 2.5055 1.0182
6.1420 2.6156 0.9748
5.9823 2.8056 0.9671
7.0675 3.6297 1.1654
6.9900 3.9134 1.1777
6.9609 4.2325 1.2002
6.4259 4.2306 1.1358
6.0123 4.2756 1.0914
7.1430 5.4766 1.3341
6.8722 5.6724 1.3233
6.6044 5.8628 1.3139
6.4535 6.1574 1.3295
6.4737 6.6372 1.3843
6.3800 7.0297 1.4197
7.6885 9.1088 1.7854
7.2698 9.2691 1.7671
6.9291 9.5204 1.7689
6.6076 9.8005 1.7781
6.5048 10.4388 1.8526
7.0507 12.2771 2.1350
2.2951 4.3514 0.7427
5.9257 12.2858 2.0614
5.3897 12.2846 2.0294
5.1805 13.0652 2.1280
4.7038 13.2324 2.1280
4.2221 13.3835 2.1280
3.7359 13.5182 2.1280
3.2458 13.6364 2.1280
2.7523 13.7381 2.1280
2.2558 13.8231 2.1280
1.8055 14.2756 2.1869
1.3170 14.6184 2.2311
0.7906 14.6548 2.2311
0.2632 14.6735 2.2311
-0.2645 14.6746 2.2311
-0.7920 14.6579 2.2311
-1.3187 14.6236 2.2311
-1.8442 14.5717 2.2311
-2.3679 14.5021 2.2311
-2.8891 14.4150 2.2311
-3.4075 14.3103 2.2311
-3.9224 14.1882 2.2311
-4.4333 14.0488 2.2311
-4.9396 13.8922 2.2311
-5.4408 13.7185 2.2311
-5.9364 13.5278 2.2311
-6.2248 12.9035 2.1613
-6.5894 12.4909 2.1280
-7.0428 12.2613 2.1280
-7.4889 12.0161 2.1280
-7.9269 11.7556 2.1280
-8.3566 11.4801 2.1279
-8.7773 11.1896 2.1279
-9.1886 10.8846 2.1279
-9.5900 10.5652 2.1279
-9.9809 10.2317 2.1279
-10.5715 10.0853 2.1711
-10.9477 9.7174 2.1711
-11.3118 9.3360 2.1711
-11.6633 8.9415 2.1711
-12.0018 8.5343 2.1711
-12.3268 8.1149 2.1711
-12.6379 7.6836 2.1711
-12.9344 7.2408 2.1711
-13.2161 6.7869 2.1711
-13.4825 6.3225 2.1711
-13.7332 5.8479 2.1711
-13.9678 5.3638 2.1711
-9.5415 3.2760 1.4603
-9.4500 2.8696 1.4261
-9.4134 2.4930 1.4026
-9.4126 2.1343 1.3867
-9.4118 1.7815 1.3728
-9.4111 1.4335 1.3608
-9.4483 1.0938 1.3561
-9.4979 0.7553 1.3549
-9.5477 0.4151 1.3555
-9.6032 0.0725 1.3586
-15.3815 -0.4363 2.1711
-15.3962 -0.9906 2.1711
-15.3910 -1.5466 2.1711
-15.3657 -2.1034 2.1711
-15.3202 -2.6604 2.1711
-15.2543 -3.2167 2.1711
-15.1681 -3.7717 2.1711
-6.6509 -1.9096 0.9587
-14.6593 -4.7847 2.1311
-14.5145 -5.3209 2.1311
-14.3498 -5.8526 2.1311
-14.1652 -6.3792 2.1311
-13.1995 -6.5235 2.0149
-13.7368 -7.4137 2.1311
-12.9970 -7.6287 2.0527
-12.2335 -7.7836 1.9705
-12.9491 -8.9069 2.1311
-12.6487 -9.3860 2.1311
-12.3301 -9.8544 2.1311
-11.9934 -10.3115 2.1311
-11.6391 -10.7564 2.1311
-11.2676 -11.1884 2.1311
-10.8794 -11.6068 2.1311
-10.4749 -12.0109 2.1311
-10.0395 -12.3812 2.1279
-9.6048 -12.7541 2.1279
-9.1557 -13.1107 2.1279
-6.6716 -10.3233 1.6331
-8.2162 -13.7727 2.1279
-7.7273 -14.0769 2.1279
-7.2265 -14.3624 2.1279
-6.7145 -14.6289 2.1279
-6.1923 -14.8757 2.1279
-5.9350 -15.8353 2.2311
-5.3681 -16.0516 2.2311
-4.7929 -16.2461 2.2311
-4.2102 -16.4183 2.2311
-3.6210 -16.5681 2.2311
-3.0262 -16.6951 2.2311
-2.4267 -16.7990 2.2311
-1.8234 -16.8797 2.2311
-1.2173 -16.9371 2.2311
-0.6095 -16.9709 2.2311
-0.0007 -14.4533 2.2311
0.5172 -14.4423 2.2311
1.0342 -14.4116 2.2311
1.5496 -14.3612 2.2311
1.9672 -13.6307 2.1280
2.4534 -13.5453 2.1280
2.9357 -13.4414 2.1280
3.4134 -13.3192 2.1280
3.8858 -13.1790 2.1280
4.3522 -13.0209 2.1280
4.8119 -12.8454 2.1280
5.2643 -12.6527 2.1280
5.3935 -11.7564 2.0106
5.6649 -11.2641 1.9620
6.1798 -11.2630 2.0015
7.0063 -11.7498 2.1340
6.4124 -9.9267 1.8459
6.4143 -9.1892 1.7528
6.6307 -8.8088 1.7270
6.9228 -8.5414 1.7248
7.2399 -8.3053 1.7312
7.6063 -8.1187 1.7509
8.1247 -8.0713 1.8055
8.7281 -8.0700 1.8773
9.4323 -8.1135 1.9684
10.0240 -8.0154 2.0344
10.7944 -8.0141 2.1350
11.0533 -7.6071 2.1350
11.2965 -7.1914 2.1350
11.5238 -6.7679 2.1350
11.7349 -6.3372 2.1350
11.9296 -5.8998 2.1350
12.1078 -5.4564 2.1350
12.2693 -5.0078 2.1350
12.4140 -4.5545 2.1350
6.7271 -2.1976 1.1452
6.5824 -1.8918 1.1107
6.3992 -1.5930 1.0719
6.3590 -1.3426 1.0588
6.3496 -1.1043 1.0523
6.3853 -0.8757 1.0547
6.4998 -0.6548 1.0715
6.6151 -0.4273 1.0897
6.7218 -0.1923 1.1080
6.9639 0.0509 1.1500
7.8634 0.3400 1.3027
7.8621 0.6234 1.3083
7.8615 0.9083 1.3157
6.4964 0.9881 1.0949
6.0817 1.1498 1.0335
6.9953 1.5847 1.2003
6.9958 1.8512 1.2136
6.9963 2.1230 1.2288
6.9968 2.4008 1.2458
6.5285 2.5056 1.1801
6.0030 2.5549 1.1033
5.9842 2.8049 1.1198
6.8141 3.4978 1.3003
6.8121 3.8120 1.3278
6.8101 4.1389 1.3581
6.4286 4.2307 1.3139
5.8942 4.1900 1.2368
5.6892 4.3603 1.2280
6.8735 5.6715 1.5292
6.6051 5.8615 1.5179
6.4542 6.1561 1.5355
6.4737 6.6351 1.5982
6.3796 7.0271 1.6387
7.6905 9.1085 2.0611
7.2982 9.3027 2.0470
6.9538 9.5517 2.0480
6.6083 9.7990 2.0511
6.3773 10.2316 2.0946
6.1148 10.6447 2.1350
2.2954 4.3509 0.8564
5.3065 10.9994 2.1280
4.9035 11.1737 2.1280
4.4952 11.3341 2.1280
4.0819 11.4804 2.1280
3.6642 11.6126 2.1280
3.2425 11.7304 2.1280
2.8173 11.8339 2.1280
2.3891 11.9228 2.1280
1.9582 11.9972 2.1280
1.5991 12.6410 2.2311
1.1433 12.6882 2.2311
0.6862 12.7200 2.2311
0.2284 12.7362 2.2311
-0.2297 12.7370 2.2311
-0.6877 12.7223 2.2311
-1.1449 12.6922 2.2311
-1.6010 12.6465 2.2311
-2.0555 12.5854 2.2311
-2.5078 12.5089 2.2311
-2.9575 12.4172 2.2311
-3.4041 12.3101 2.2311
-3.8471 12.1879 2.2311
-4.2860 12.0507 2.2311
-4.7203 11.8985 2.2311
-5.1496 11.7315 2.2311
-5.5734 11.5499 2.2311
-5.9911 11.3537 2.2311
-6.2189 10.8237 2.1671
-6.4922 10.4140 2.1280
-6.8708 10.1864 2.1280
-7.2418 9.9456 2.1280
-7.6048 9.6919 2.1280
-7.9595 9.4256 2.1280
-8.3053 9.1469 2.1279
-8.6419 8.8561 2.1279
-8.9688 8.5534 2.1279
-9.2856 8.2391 2.1279
-9.5918 7.9134 2.1279
-9.8872 7.5769 2.1279
-10.1714 7.2298 2.1279
-10.6562 7.0121 2.1711
-10.9218 6.6373 2.1711
-11.1748 6.2527 2.1711
-11.4148 5.8588 2.1711
-11.6413 5.4560 2.1711
-11.8539 5.0447 2.1711
-12.0525 4.6253 2.1711
-12.2367 4.1983 2.1711
-12.4061 3.7642 2.1711
-9.4133 2.4908 1.6271
-9.4126 2.1321 1.6092
-9.4118 1.7793 1.5936
-9.4111 1.4313 1.5802
-9.4486 1.0916 1.5754
-9.4982 0.7530 1.5746
-9.5480 0.4129 1.5758
-9.6043 0.0702 1.5801
-13.2219 -0.3781 2.1711
-13.2297 -0.8543 2.1711
-13.2205 -1.3316 2.1711
-13.1940 -1.8092 2.1711
-13.1502 -2.2866 2.1711
-13.0889 -2.7632 2.1711
-13.0103 -3.2382 2.1711
-6.6510 -1.9113 1.1181
-12.6271 -4.1245 2.1417
-12.4364 -4.5621 2.1311
-12.2910 -5.0160 2.1311
-12.1287 -5.4651 2.1311
-11.9496 -5.9089 2.1311
-11.7540 -6.3466 2.1311
-11.5418 -6.7776 2.1311
-11.3135 -7.2013 2.1311
-11.0692 -7.6169 2.1311
-10.8091 -8.0240 2.1311
-10.5336 -8.4217 2.1311
-10.2429 -8.8096 2.1311
-9.9224 -9.1729 2.1279
-9.6030 -9.5386 2.1279
-9.2697 -9.8925 2.1279
-8.9228 -10.2342 2.1279
-8.5628 -10.5631 2.1279
-8.1901 -10.8786 2.1279
-7.8053 -11.1801 2.1279
-6.6621 -10.3113 1.9134
-7.0015 -11.7396 2.1279
-6.5836 -11.9965 2.1279
-6.1783 -12.2821 2.1356
-5.9963 -13.0672 2.2311
-5.5291 -13.2856 2.2311
-5.0535 -13.4862 2.2311
-4.5702 -13.6687 2.2311
-4.0800 -13.8328 2.2311
-3.5837 -13.9780 2.2311
-3.0819 -14.1043 2.2311
-2.5755 -14.2114 2.2311
-2.0652 -14.2991 2.2311
-1.5517 -14.3672 2.2311
-1.0360 -14.4157 2.2311
-0.5187 -14.4444 2.2311
-0.0007 -12.5690 2.2311
0.4496 -12.5597 2.2311
0.8992 -12.5333 2.2311
1.3473 -12.4899 2.2311
1.7934 -12.4296 2.2311
2.1334 -11.7816 2.1280
2.5529 -11.6921 2.1280
2.9686 -11.5867 2.1280
3.3798 -11.4658 2.1280
3.7859 -11.3295 2.1280
4.1862 -11.1780 2.1280
4.5803 -11.0117 2.1280
4.9675 -10.8307 2.1280
5.3473 -10.6355 2.1280
5.7191 -10.4263 2.1280
6.1025 -10.2372 2.1350
6.4580 -10.0003 2.1350
6.4139 -9.1915 2.0126
6.6299 -8.8104 1.9825
6.9463 -8.5731 1.9865
7.2670 -8.3391 1.9942
7.6042 -8.1190 2.0084
8.1219 -8.0713 2.0704
8.6550 -8.0053 2.1350
8.9223 -7.6777 2.1350
9.1769 -7.3409 2.1350
9.4184 -6.9954 2.1350
9.6467 -6.6418 2.1350
9.8614 -6.2806 2.1350
10.0623 -5.9124 2.1350
10.2493 -5.5377 2.1350
10.4220 -5.1570 2.1350
10.5805 -4.7709 2.1350
10.7244 -4.3800 2.1350
10.8538 -3.9848 2.1350
7.0451 -2.3032 1.3714
6.5833 -1.8937 1.2699
6.3995 -1.5946 1.2250
6.5174 -1.3776 1.2398
6.5169 -1.1349 1.2336
6.5163 -0.8952 1.2291
6.4990 -0.6562 1.2230
6.6143 -0.4288 1.2435
6.9263 -0.1998 1.3026
7.2704 0.0514 1.3695
7.8634 0.3382 1.4855
7.8623 0.6215 1.4915
7.8616 0.9065 1.4995
6.5067 0.9881 1.2495
5.8085 1.0968 1.1244
6.8166 1.5425 1.3320
6.8171 1.8023 1.3465
6.8176 2.0671 1.3629
6.8182 2.3378 1.3815
6.5328 2.5056 1.3435
5.8692 2.4965 1.2269
5.8486 2.7399 1.2446
6.6357 3.4045 1.4397
6.6288 3.7077 1.4686
6.6268 4.0258 1.5018
6.4314 4.2307 1.4934
5.9511 4.2288 1.4185
5.6840 4.3547 1.3934
6.8748 5.6705 1.7367
6.6058 5.8601 1.7234
6.4549 6.1547 1.7430
6.4737 6.6330 1.8138
6.3792 7.0245 1.8593
7.0222 8.3144 2.1350
6.7109 8.5515 2.1350
6.3920 8.7775 2.1350
6.0659 8.9921 2.1350
5.7141 9.1651 2.1280
5.3758 9.3558 2.1280
2.2958 4.3505 0.9710
4.6816 9.7017 2.1280
4.3265 9.8564 2.1280
3.9665 9.9988 2.1280
3.6021 10.1287 2.1280
3.2338 10.2460 2.1280
2.8618 10.3507 2.1280
2.4866 10.4425 2.1280
2.1087 10.5215 2.1280
1.8098 11.0855 2.2281
1.4115 11.1560 2.2311
1.0092 11.1979 2.2311
0.6057 11.2261 2.2311
0.2016 11.2405 2.2311
-0.2029 11.2411 2.2311
-0.6071 11.2280 2.2311
-1.0107 11.2010 2.2311
-1.4133 11.1603 2.2311
-1.8144 11.1060 2.2311
-2.2135 11.0379 2.2311
-2.6102 10.9562 2.2311
-3.0042 10.8610 2.2311
-3.3948 10.7524 2.2311
-3.7818 10.6304 2.2311
-4.1647 10.4951 2.2311
-4.5430 10.3467 2.2311
-4.9163 10.1853 2.2311
-5.2842 10.0111 2.2311
-5.6462 9.8242 2.2311
-6.0020 9.6248 2.2311
-6.2126 9.2078 2.1825
-6.3838 8.7646 2.1280
-6.7028 8.5397 2.1280
-7.0143 8.3037 2.1280
-7.3178 8.0567 2.1280
-7.6126 7.7986 2.1279
-7.8991 7.5306 2.1279
-8.1766 7.2525 2.1279
-8.4448 6.9644 2.1279
-8.7031 6.6668 2.1279
-8.9513 6.3599 2.1279
-9.1891 6.0441 2.1279
-9.4162 5.7196 2.1279
-9.6321 5.3868 2.1279
-9.8366 5.0461 2.1279
-10.0294 4.6979 2.1279
-10.2102 4.3425 2.1279
-10.5897 4.0612 2.1711
-10.7488 3.6851 2.1711
-10.8948 3.3030 2.1711
-11.0275 2.9152 2.1711
-11.1467 2.5222 2.1711
-11.2520 2.1245 2.1711
-11.3433 1.7225 2.1711
-11.4204 1.3167 2.1711
-11.4832 0.9077 2.1711
-11.5313 0.4959 2.1711
-11.5648 0.0818 2.1711
-11.5834 -0.3340 2.1711
-11.5872 -0.7510 2.1711
-11.5759 -1.1686 2.1711
-11.5495 -1.5864 2.1711
-11.5080 -2.0038 2.1711
-11.4513 -2.4202 2.1711
-11.3793 -2.8351 2.1711
-6.6511 -1.9129 1.2788
-11.1900 -3.6578 2.1711
-11.0727 -4.0646 2.1711
-10.7388 -4.3852 2.1311
-10.5943 -4.7764 2.1311
-10.4352 -5.1627 2.1311
-10.2617 -5.5435 2.1311
-10.0587 -5.9093 2.1279
-9.8573 -6.2770 2.1279
-9.6421 -6.6376 2.1279
-9.4134 -6.9905 2.1279
-9.1714 -7.3353 2.1279
-8.9163 -7.6713 2.1279
-8.6486 -7.9980 2.1279
-8.3685 -8.3150 2.1279
-8.0764 -8.6217 2.1279
-7.7727 -8.9177 2.1279
-7.4577 -9.2025 2.1279
-7.1319 -9.4756 2.1279
-6.7956 -9.7366 2.1279
-6.4495 -9.9850 2.1279
-6.1770 -10.3597 2.1569
-6.0074 -10.9493 2.2311
-5.6163 -11.1678 2.2311
-5.2170 -11.3716 2.2311
-4.8099 -11.5603 2.2311
-4.3957 -11.7336 2.2311
-3.9750 -11.8912 2.2311
-3.5484 -12.0329 2.2311
-3.1165 -12.1583 2.2311
-2.6800 -12.2674 2.2311
-2.2395 -12.3599 2.2311
-1.7957 -12.4356 2.2311
-1.3492 -12.4945 2.2311
-0.9008 -12.5364 2.2311
-0.4511 -12.5613 2.2311
-0.0007 -11.1091 2.2311
0.3972 -11.1010 2.2311
0.7945 -11.0779 2.2311
1.1905 -11.0399 2.2311
1.5848 -10.9869 2.2311
1.8859 -10.4180 2.1287
2.2562 -10.3361 2.1280
2.6238 -10.2436 2.1280
2.9874 -10.1374 2.1280
3.3466 -10.0177 2.1280
3.7008 -9.8847 2.1280
4.0496 -9.7385 2.1280
4.3924 -9.5795 2.1280
4.7287 -9.4079 2.1280
5.0581 -9.2239 2.1280
5.3801 -9.0280 2.1280
5.6943 -8.8203 2.1280
6.0200 -8.6297 2.1350
6.3182 -8.3988 2.1350
6.6073 -8.1573 2.1350
6.8868 -7.9055 2.1350
7.1565 -7.6437 2.1350
7.4160 -7.3725 2.1350
7.6650 -7.0921 2.1350
7.9031 -6.8032 2.1350
8.1301 -6.5060 2.1350
8.3456 -6.2011 2.1350
8.5494 -5.8889 2.1350
8.7414 -5.5698 2.1350
8.9213 -5.2444 2.1350
9.0888 -4.9132 2.1350
9.2439 -4.5765 2.1350
9.3863 -4.2349 2.1350
9.5160 -3.8889 2.1350
9.6328 -3.5390 2.1350
7.0441 -2.3047 1.5446
6.5843 -1.8956 1.4305
6.3998 -1.5962 1.3795
6.5174 -1.3792 1.3957
6.5169 -1.1365 1.3885
6.5163 -0.8968 1.3831
6.4983 -0.6577 1.3758
6.6136 -0.4303 1.3986
6.8627 -0.1995 1.4514
7.2680 0.0497 1.5393
7.8635 0.3363 1.6698
7.8624 0.6197 1.6762
7.8618 0.9046 1.6849
6.5171 0.9881 1.4059
5.7042 1.0757 1.2403
6.6326 1.4993 1.4554
6.6331 1.7520 1.4709
6.6336 2.0097 1.4886
6.6341 2.2730 1.5086
6.5372 2.5057 1.5085
5.7968 2.4642 1.3594
5.7183 2.6773 1.3649
5.4692 2.8046 1.3307
6.4382 3.5994 1.5993
6.4363 3.9083 1.6351
6.4342 4.2308 1.6746
5.9537 4.2290 1.5904
5.5196 4.2271 1.5161
5.2530 4.3312 1.4867
6.6066 5.8587 1.9307
6.4556 6.1533 1.9524
6.4737 6.6308 2.0311
6.3788 7.0219 2.0817
6.2722 7.4242 2.1350
5.9949 7.6369 2.1350
5.6919 7.8139 2.1280
5.4021 8.0060 2.1280
5.1061 8.1877 2.1280
4.8043 8.3590 2.1280
2.2961 4.3500 1.0865
4.1846 8.6696 2.1280
3.8674 8.8085 2.1280
3.5459 8.9365 2.1280
3.2204 9.0532 2.1280
2.8912 9.1586 2.1280
2.5588 9.2526 2.1280
2.2234 9.3351 2.1280
1.8855 9.4061 2.1280
1.6204 9.9239 2.2311
1.2621 9.9739 2.2311
0.9024 10.0115 2.2311
0.5416 10.0367 2.2311
0.1802 10.0496 2.2311
-0.1815 10.0501 2.2311
-0.5430 10.0382 2.2311
-0.9039 10.0140 2.2311
-1.2639 9.9773 2.2311
-1.6225 9.9283 2.2311
-1.9793 9.8671 2.2311
-2.3339 9.7936 2.2311
-2.6860 9.7080 2.2311
-3.0351 9.6102 2.2311
-3.3808 9.5005 2.2311
-3.7228 9.3789 2.2311
-4.0606 9.2455 2.2311
-4.3938 9.1005 2.2311
-4.7222 8.9440 2.2311
-5.0452 8.7761 2.2311
-5.3626 8.5970 2.2311
-5.6739 8.4068 2.2311
-5.9787 8.2059 2.2311
-6.2098 7.9091 2.2073
-6.2636 7.4126 2.1279
-6.5338 7.1911 2.1279
-6.7964 6.9601 2.1279
-7.0512 6.7199 2.1279
-7.2978 6.4706 2.1279
-7.5359 6.2125 2.1279
-7.7652 5.9460 2.1279
-7.9854 5.6712 2.1279
-8.1961 5.3885 2.1279
-8.3971 5.0982 2.1279
-8.5882 4.8006 2.1279
-8.7689 4.4960 2.1279
-8.9391 4.1848 2.1279
-9.0985 3.8673 2.1279
-9.2469 3.5438 2.1279
-9.3840 3.2148 2.1279
-9.5095 2.8806 2.1279
-9.6234 2.5416 2.1279
-9.7254 2.1982 2.1279
-9.8152 1.8508 2.1279
-9.8928 1.4998 2.1279
-9.9580 1.1457 2.1279
-10.0106 0.7889 2.1279
-10.0504 0.4298 2.1279
-10.0775 0.0689 2.1279
-10.0916 -0.2933 2.1279
-10.0926 -0.6565 2.1279
-10.0807 -1.0201 2.1279
-10.0555 -1.3836 2.1279
-10.0172 -1.7466 2.1279
-9.9657 -2.1086 2.1279
-9.9010 -2.4691 2.1279
-9.8232 -2.8276 2.1279
-9.7322 -3.1837 2.1279
-9.6282 -3.5367 2.1279
-9.5111 -3.8863 2.1279
-9.3812 -4.2319 2.1279
-9.2385 -4.5730 2.1279
-9.0831 -4.9092 2.1279
-8.9153 -5.2400 2.1279
-8.7351 -5.5649 2.1279
-8.5428 -5.8833 2.1279
-8.3387 -6.1949 2.1279
-8.1229 -6.4991 2.1279
-7.8956 -6.7955 2.1279
-7.6573 -7.0837 2.1279
-7.4081 -7.3631 2.1279
-7.1484 -7.6335 2.1279
-6.8785 -7.8943 2.1279
-6.5988 -8.1451 2.1279
-6.3097 -8.3856 2.1279
-6.1748 -8.8495 2.1857
-5.9813 -9.2626 2.2311
-5.6509 -9.4799 2.2311
-5.3123 -9.6848 2.2311
-4.9659 -9.8770 2.2311
-4.6124 -10.0562 2.2311
-4.2521 -10.2221 2.2311
-3.8857 -10.3745 2.2311
-3.5135 -10.5131 2.2311
-3.1362 -10.6376 2.2311
-2.7544 -10.7479 2.2311
-2.3685 -10.8438 2.2311
-1.9791 -10.9251 2.2311
-1.5869 -10.9917 2.2311
-1.1923 -11.0435 2.2311
-0.7961 -11.0803 2.2311
-0.3987 -11.1022 2.2311
-0.0007 -9.9437 2.2311
0.3554 -9.9365 2.2311
0.7109 -9.9160 2.2311
1.0653 -9.8822 2.2311
1.4182 -9.8351 2.2311
1.7690 -9.7748 2.2311
2.0193 -9.2532 2.1280
2.3484 -9.1709 2.1280
2.6740 -9.0764 2.1280
2.9957 -8.9698 2.1280
3.3130 -8.8513 2.1280
3.6255 -8.7211 2.1280
3.9327 -8.5794 2.1280
4.2342 -8.4265 2.1280
4.5296 -8.2625 2.1280
4.8185 -8.0878 2.1280
5.1004 -7.9026 2.1280
5.3749 -7.7072 2.1280
5.6418 -7.5020 2.1280
5.9201 -7.3113 2.1350
6.1714 -7.0865 2.1350
6.4139 -6.8528 2.1350
6.6473 -6.6106 2.1350
6.8714 -6.3602 2.1350
7.0859 -6.1020 2.1350
7.2904 -5.8364 2.1350
7.4848 -5.5638 2.1350
7.6688 -5.2846 2.1350
7.8422 -4.9991 2.1350
8.0048 -4.7080 2.1350
8.1565 -4.4114 2.1350
8.2970 -4.1099 2.1350
8.4262 -3.8040 2.1350
8.5441 -3.4939 2.1350
8.6504 -3.1803 2.1350
7.0431 -2.3061 1.7195
6.5853 -1.8976 1.5926
6.4000 -1.5979 1.5354
6.5174 -1.3808 1.5532
6.5169 -1.1381 1.5448
6.5163 -0.8984 1.5386
6.4976 -0.6592 1.5300
6.6128 -0.4318 1.5551
6.9219 -0.2029 1.6277
7.2656 0.0479 1.7106
7.8635 0.3344 1.8560
7.8626 0.6178 1.8628
7.8620 0.9028 1.8722
6.5276 0.9882 1.5644
5.7073 1.0749 1.3783
6.4728 1.4616 1.5773
6.4418 1.6999 1.5861
6.4422 1.9501 1.6049
6.4427 2.2058 1.6262
6.4432 2.4680 1.6501
5.8922 2.5033 1.5333
5.3523 2.5046 1.4174
5.2561 2.6939 1.4186
5.2565 2.9373 1.4483
6.2509 3.7940 1.7612
6.2490 4.1072 1.8035
5.9563 4.2291 1.7640
5.5215 4.2269 1.6813
5.2985 4.3671 1.6622
5.4033 4.7899 1.7500
6.3704 6.0700 2.1350
6.1413 6.2883 2.1350
5.9050 6.4982 2.1350
5.6432 6.6776 2.1280
5.3942 6.8697 2.1280
5.1389 7.0528 2.1280
4.8777 7.2268 2.1280
4.6108 7.3915 2.1280
4.3386 7.5468 2.1280
2.2964 4.3496 1.2033
3.7795 7.8284 2.1280
3.4933 7.9544 2.1280
3.2030 8.0704 2.1280
2.9091 8.1762 2.1280
2.6119 8.2718 2.1280
2.3116 8.3571 2.1280
2.0207 8.4820 2.1407
1.7861 8.9079 2.2311
1.4640 8.9643 2.2311
1.1403 9.0096 2.2311
0.8153 9.0437 2.2311
0.4893 9.0666 2.2311
0.1627 9.0782 2.2311
-0.1640 9.0786 2.2311
-0.4907 9.0678 2.2311
-0.8168 9.0457 2.2311
-1.1420 9.0124 2.2311
-1.4659 8.9679 2.2311
-1.7882 8.9123 2.2311
-2.1086 8.8455 2.2311
-2.4265 8.7678 2.2311
-2.7417 8.6791 2.2311
-3.0539 8.5795 2.2311
-3.3626 8.4691 2.2311
-3.6675 8.3481 2.2311
-3.9682 8.2165 2.2311
-4.2644 8.0745 2.2311
-4.5557 7.9222 2.2311
-4.8419 7.7599 2.2311
-5.1224 7.5875 2.2311
-5.3971 7.4054 2.2311
-5.6655 7.2136 2.2311
-5.9274 7.0125 2.2311
-6.1824 6.8022 2.2311
-6.2133 6.3608 2.1558
-6.3618 6.0607 2.1279
-6.5835 5.8351 2.1279
-6.7974 5.6015 2.1279
-7.0033 5.3604 2.1279
-7.2009 5.1119 2.1279
-7.3899 4.8563 2.1279
-7.5701 4.5939 2.1279
-7.7411 4.3250 2.1279
-7.9029 4.0499 2.1279
-8.0551 3.7688 2.1279
-8.1974 3.4821 2.1279
-8.3298 3.1902 2.1279
-8.4519 2.8934 2.1279
-8.5637 2.5919 2.1279
-8.6648 2.2863 2.1279
-8.7551 1.9767 2.1279
-8.8346 1.6637 2.1279
-8.9029 1.3476 2.1279
-8.9600 1.0287 2.1279
-9.0058 0.7076 2.1279
-9.0401 0.3845 2.1279
-9.0628 0.0598 2.1279
-9.0739 -0.2659 2.1279
-9.0733 -0.5924 2.1279
-9.0610 -0.9191 2.1279
-9.0368 -1.2456 2.1279
-9.0008 -1.5716 2.1279
-8.9530 -1.8965 2.1279
-8.8934 -2.2200 2.1279
-8.8220 -2.5416 2.1279
-8.7388 -2.8609 2.1279
-8.6439 -3.1773 2.1279
-8.5374 -3.4906 2.1279
-8.4194 -3.8002 2.1279
-8.2900 -4.1057 2.1279
-8.1493 -4.4067 2.1279
-7.9975 -4.7028 2.1279
-7.8347 -4.9934 2.1279
-7.6611 -5.2782 2.1279
-7.4769 -5.5568 2.1279
-7.2824 -5.8288 2.1279
-7.0777 -6.0937 2.1279
-6.8631 -6.3512 2.1279
-6.6389 -6.6008 2.1279
-6.4054 -6.8422 2.1279
-6.1891 -7.1052 2.1369
-6.1775 -7.6273 2.2236
-5.9261 -7.8781 2.2311
-5.6454 -8.0930 2.2311
-5.3567 -8.2975 2.2311
-5.0603 -8.4913 2.2311
-4.7566 -8.6740 2.2311
-4.4462 -8.8454 2.2311
-4.1293 -9.0052 2.2311
-3.8065 -9.1531 2.2311
-3.4782 -9.2889 2.2311
-3.1449 -9.4124 2.2311
-2.8071 -9.5234 2.2311
-2.4652 -9.6216 2.2311
-2.1198 -9.7071 2.2311
-1.7712 -9.7795 2.2311
-1.4202 -9.8389 2.2311
-1.0671 -9.8850 2.2311
-0.7125 -9.9179 2.2311
-0.3568 -9.9375 2.2311
-0.0007 -8.9909 2.2311
0.3212 -8.9844 2.2311
0.6426 -8.9660 2.2311
0.9630 -8.9356 2.2311
1.2820 -8.8933 2.2311
1.5992 -8.8390 2.2311
1.8705 -8.5738 2.1804
2.1231 -8.2936 2.1280
2.4176 -8.2085 2.1280
2.7086 -8.1125 2.1280
2.9957 -8.0059 2.1280
3.2785 -7.8886 2.1280
3.5566 -7.7610 2.1280
3.8295 -7.6232 2.1280
4.0970 -7.4755 2.1280
4.3586 -7.3180 2.1280
4.6140 -7.1511 2.1280
4.8628 -6.9750 2.1280
5.1047 -6.7899 2.1280
5.3394 -6.5962 2.1280
5.5666 -6.3941 2.1280
5.7860 -6.1840 2.1280
6.0170 -5.9859 2.1350
6.2205 -5.7598 2.1350
6.4154 -5.5267 2.1350
6.6014 -5.2869 2.1350
6.7782 -5.0406 2.1350
6.9457 -4.7884 2.1350
7.1037 -4.5304 2.1350
7.2519 -4.2672 2.1350
7.3903 -3.9991 2.1350
7.5186 -3.7264 2.1350
7.6368 -3.4496 2.1350
7.7446 -3.1691 2.1350
7.8421 -2.8852 2.1350
7.0421 -2.3076 1.8962
6.5863 -1.8995 1.7566
