ply
format ascii 1.0
element vertex 2140
property float32 x
property float32 y
property float32 z
end_header
7.9242 1.5117 0.4087
7.5373 1.7204 0.3916
6.8503 1.8246 0.3591
6.9333 2.1160 0.3671
7.9240 2.7330 0.4244
7.9239 3.0554 0.4300
7.8272 3.3456 0.4309
7.3213 3.4452 0.4095
6.8599 3.5343 0.3905
7.7840 4.3708 0.4517
7.3069 4.4552 0.4330
7.1315 4.7075 0.4323
6.8697 4.8976 0.4267
6.6157 5.0843 0.4220
6.4763 5.3577 0.4250
6.5172 5.7980 0.4410
6.4774 6.1931 0.4530
8.4805 8.7121 0.6146
7.8922 8.7128 0.5942
7.3772 8.7564 0.5786
7.1143 9.0873 0.5832
6.7086 9.2338 0.5767
6.5113 9.6743 0.5892
6.5317 10.4996 0.6247
7.1029 12.3882 0.7213
2.3119 4.3902 0.2506
6.6968 13.9062 0.7796
6.8479 15.6319 0.8619
6.2439 15.7704 0.8566
6.3941 18.0136 0.9653
7.8513 24.9230 1.3195
7.0017 25.3704 1.3289
6.7966 28.5928 1.4839
5.7133 28.5557 1.4703
6.5779 40.3588 2.0645
5.2958 41.9208 2.1333
3.7876 42.0844 2.1333
2.2746 42.1936 2.1333
0.7952 44.2897 2.2364
-0.7952 44.2897 2.2364
-2.3844 44.2321 2.2364
-3.9706 44.1175 2.2364
-5.5515 43.9455 2.2364
-6.7967 41.7013 2.1333
-8.2887 41.4278 2.1332
-9.7698 41.1008 2.1332
-11.4661 41.5470 2.1764
-9.3953 29.8245 1.5790
-9.8055 27.6245 1.4803
-10.9371 27.6244 1.5005
-12.1014 27.6242 1.5232
-13.3028 27.6240 1.5487
-14.5466 27.6238 1.5771
-15.8382 27.6235 1.6086
-12.2887 19.7539 1.1754
-24.0503 35.7334 2.1764
-13.2786 18.2767 1.1416
-14.3582 18.3402 1.1771
-14.5473 17.2670 1.1412
-14.7253 16.2563 1.1087
-14.8937 15.3005 1.0795
-15.0535 14.3929 1.0530
-11.5531 10.2781 0.7819
-11.3119 9.3582 0.7425
-11.4150 8.7728 0.7282
-11.6131 8.2794 0.7215
-12.1175 7.9989 0.7346
-12.7882 7.7974 0.7579
-11.8103 6.6317 0.6855
-13.0988 6.7485 0.7458
-13.2869 6.2525 0.7434
-12.0804 5.1635 0.6651
-13.3844 5.1609 0.7264
-13.5642 4.6783 0.7267
-13.6542 4.1672 0.7231
-13.6874 3.6457 0.7176
-13.7768 3.1446 0.7160
-13.0700 2.4934 0.6743
-12.6462 1.9450 0.6485
-12.6981 1.4886 0.6481
-12.7781 1.0347 0.6500
-12.9604 0.5822 0.6579
-13.7577 0.1237 0.6978
-14.4700 -0.3896 0.7343
-13.7721 -0.8663 0.7001
-13.3967 -1.3269 0.6831
-13.3912 -1.8138 0.6858
-13.4806 -2.3214 0.6943
-13.7094 -2.8710 0.7111
-15.0988 -3.7324 0.7897
-14.4268 -4.1211 0.7619
-13.7575 -4.4699 0.7347
-15.1601 -5.5348 0.8198
-14.0167 -5.6955 0.7687
-15.6831 -7.0387 0.8734
-14.8865 -7.3341 0.8434
-14.0668 -7.5695 0.8119
-14.9159 -8.7309 0.8786
-14.6720 -9.3109 0.8835
-14.7826 -10.1433 0.9116
-16.0340 -11.8705 1.0145
-15.5499 -12.4004 1.0115
-15.3956 -13.2088 1.0318
-16.6378 -15.3450 1.1514
-15.6589 -15.5187 1.1217
-15.9684 -17.0043 1.1870
-16.3314 -18.6925 1.2632
-16.7270 -20.5928 1.3502
-18.8814 -25.0301 1.5958
-6.5876 -9.4180 0.5850
-7.2040 -11.1294 0.6749
-8.0093 -13.4051 0.7950
-7.8583 -14.2939 0.8305
-7.2025 -14.2938 0.8150
-13.0697 -28.4338 1.5936
-16.1408 -38.7210 2.1364
-12.6188 -33.6223 1.8290
-13.3197 -39.7749 2.1364
-10.0250 -33.9368 1.8024
-10.1970 -39.7140 2.0885
-7.3562 -33.6173 1.7529
-7.4773 -41.2030 2.1331
-6.1693 -42.6606 2.1958
-4.7196 -43.6467 2.2364
-3.1497 -43.7876 2.2364
-1.5759 -43.8723 2.2364
0.0000 -30.4060 2.2364
1.0915 -30.3865 2.2364
2.0515 -28.5192 2.1030
3.1182 -28.8370 2.1333
4.1514 -28.7070 2.1333
5.1794 -28.5400 2.1333
6.2211 -28.4298 2.1403
5.6301 -21.9273 1.6649
6.0300 -20.4124 1.5653
2.1133 -6.3108 0.4894
2.3305 -6.2094 0.4877
2.5464 -6.1087 0.4866
2.7617 -6.0083 0.4862
2.9769 -5.9079 0.4864
2.0593 -3.7458 0.3143
2.1991 -3.6806 0.3152
2.3399 -3.6149 0.3165
2.4821 -3.5485 0.3183
2.6261 -3.4813 0.3205
2.7724 -3.4131 0.3232
2.9213 -3.3436 0.3263
7.7162 -8.2167 0.8283
6.4270 -6.3694 0.6649
6.4995 -5.9944 0.6496
6.4597 -5.5421 0.6253
6.6013 -5.2642 0.6203
6.8599 -5.0786 0.6270
7.1229 -4.8874 0.6345
7.2795 -4.6196 0.6332
7.7818 -4.5550 0.6621
8.4404 -4.5418 0.7038
9.2187 -4.5417 0.7545
7.3478 -3.2977 0.5912
6.5798 -2.6736 0.5213
6.4038 -2.3379 0.5004
6.5185 -2.1179 0.5030
6.5185 -1.8620 0.4975
6.4002 -1.5821 0.4837
6.5392 -1.3694 0.4902
6.6531 -1.1457 0.4952
6.9865 -0.9463 0.5171
7.2945 -0.7224 0.5376
7.8465 -0.4935 0.5765
7.8674 -0.2118 0.5771
7.8667 0.0707 0.5768
6.4702 0.2907 0.4748
7.9243 0.6417 0.5827
7.9243 0.9290 0.5848
7.9242 1.2188 0.5875
7.9242 1.5118 0.5911
7.5362 1.7202 0.5664
6.7144 1.7885 0.5090
6.6519 2.0302 0.5094
7.9240 2.7330 0.6139
7.9239 3.0555 0.6220
7.8271 3.3456 0.6233
7.3209 3.4451 0.5924
6.6101 3.4056 0.5444
6.5620 3.6847 0.5509
7.3069 4.4553 0.6264
7.1314 4.7076 0.6254
6.8697 4.8977 0.6175
6.6156 5.0844 0.6106
6.4763 5.3578 0.6150
6.5172 5.7980 0.6382
6.4773 6.1931 0.6556
8.4804 8.7121 0.8894
7.8922 8.7128 0.8599
7.4114 8.7971 0.8414
7.0365 8.9880 0.8349
6.7394 9.2762 0.8386
6.5113 9.6744 0.8528
6.3358 10.1847 0.8771
7.1028 12.3880 1.0442
2.3116 4.3897 0.3627
6.0652 12.5948 1.0221
6.0746 13.8667 1.1068
6.1886 15.6309 1.2290
6.5225 18.3755 1.4255
7.8512 24.9230 1.9102
7.0017 25.3705 1.9239
6.7712 28.4861 2.1403
5.6085 28.0318 2.0897
4.6948 28.8049 2.1333
3.6578 28.9552 2.1333
2.6161 29.0681 2.1333
1.6470 30.5518 2.2364
0.5492 30.5912 2.2364
-0.5492 30.5912 2.2364
-1.6469 30.5516 2.2364
-2.7425 30.4724 2.2364
-3.8345 30.3539 2.2364
-4.9215 30.1962 2.2364
-6.0022 29.9994 2.2364
-6.7483 28.3897 2.1331
-7.7628 28.1282 2.1331
-8.7671 27.8305 2.1331
-9.7601 27.4969 2.1331
-10.9581 27.6776 2.1764
-11.9440 27.2651 2.1764
-12.9144 26.8175 2.1764
-13.8680 26.3353 2.1764
-14.8035 25.8190 2.1764
-12.2886 19.7539 1.7013
-13.4500 19.9838 1.7617
-13.2727 18.2687 1.6516
-13.1494 16.7962 1.5603
-13.3469 15.8423 1.5153
-14.7253 16.2564 1.6046
-14.8937 15.3006 1.5622
-15.0535 14.3930 1.5239
-11.5533 10.2784 1.1315
-11.2367 9.2961 1.0672
-11.3431 8.7176 1.0470
-11.6131 8.2794 1.0439
-12.0355 7.9448 1.0556
-12.7881 7.7974 1.0965
-11.9121 6.6889 1.0002
-13.0987 6.7486 1.0789
-13.2869 6.2526 1.0753
-11.6465 4.9782 0.9276
-13.3844 5.1610 1.0507
-13.5641 4.6783 1.0510
-12.0576 3.6800 0.9236
-13.6876 3.6459 1.0378
-13.7768 3.1447 1.0355
-12.9014 2.4613 0.9625
-12.6462 1.9450 0.9378
-12.5970 1.4768 0.9297
-12.6939 1.0279 0.9336
-12.9603 0.5823 0.9512
-13.7227 0.1234 1.0063
-14.4702 -0.3895 1.0615
-13.6690 -0.8598 1.0045
-13.3968 -1.3268 0.9875
-13.3056 -1.8021 0.9850
-13.3804 -2.3041 0.9961
-13.7093 -2.8709 1.0277
-15.0988 -3.7323 1.1413
-14.4267 -4.1210 1.1011
-13.4063 -4.3558 1.0346
-14.6836 -5.3607 1.1474
-14.0843 -5.7229 1.1161
-13.6480 -6.1252 1.0983
-14.8508 -7.3164 1.2156
-13.8827 -7.4703 1.1577
-14.9943 -8.7767 1.2760
-14.6720 -9.3109 1.2763
-14.7882 -10.1471 1.3174
-16.1008 -11.9198 1.4717
-15.5093 -12.3679 1.4574
-15.5064 -13.3037 1.5012
-16.6378 -15.3449 1.6631
-15.6591 -15.5188 1.6201
-14.7286 -15.6840 1.5812
-15.0035 -17.1724 1.6760
-15.3257 -18.8675 1.7867
-17.5026 -23.2022 2.1364
-6.5868 -9.4167 0.8448
-7.2040 -11.1294 0.9747
-8.0093 -13.4050 1.1481
-7.8583 -14.2939 1.1993
-7.2025 -14.2938 1.1769
-12.1343 -26.3987 2.1364
-11.1783 -26.8160 2.1364
-10.2081 -27.1990 2.1364
-9.2108 -27.5050 2.1331
-8.2173 -27.8170 2.1331
-7.2133 -28.0933 2.1331
-6.2000 -28.3335 2.1331
-5.4295 -29.9185 2.2364
-4.3519 -30.0937 2.2364
-3.2688 -30.2301 2.2364
-2.1815 -30.3277 2.2364
-1.0915 -30.3864 2.2364
0.0000 -23.2390 2.2364
0.8342 -23.2240 2.2364
1.6674 -23.1793 2.2364
2.0317 -18.7891 1.8187
3.1729 -21.9402 2.1333
3.9585 -21.8125 2.1333
4.7390 -21.6567 2.1333
5.5135 -21.4731 2.1333
5.9044 -19.9874 2.0054
2.1134 -6.3107 0.6404
2.3305 -6.2094 0.6382
2.5464 -6.1087 0.6368
2.7617 -6.0083 0.6362
2.9770 -5.9079 0.6365
2.0593 -3.7458 0.4112
2.1991 -3.6806 0.4125
2.3399 -3.6149 0.4142
2.4821 -3.5485 0.4165
2.6262 -3.4813 0.4194
2.7724 -3.4131 0.4229
2.9213 -3.3436 0.4270
7.7164 -8.2169 1.0840
6.4224 -6.3648 0.8695
6.3925 -5.8957 0.8362
6.4598 -5.5421 0.8184
6.6013 -5.2642 0.8118
6.7880 -5.0253 0.8120
7.0143 -4.8129 0.8178
7.3303 -4.6518 0.8345
7.7819 -4.5550 0.8667
8.4405 -4.5418 0.9212
9.2188 -4.5417 0.9876
6.7883 -3.0465 0.7150
6.5798 -2.6735 0.6824
6.4039 -2.3379 0.6550
6.5185 -2.1179 0.6585
6.5185 -1.8620 0.6512
6.4002 -1.5820 0.6333
6.5392 -1.3694 0.6417
6.6532 -1.1456 0.6484
6.8610 -0.9292 0.6649
7.0400 -0.6972 0.6793
7.8467 -0.4935 0.7549
7.8674 -0.2117 0.7556
7.8667 0.0708 0.7552
6.4846 0.2914 0.6231
7.9243 0.6417 0.7631
7.9243 0.9291 0.7657
7.9242 1.2188 0.7694
7.9242 1.5118 0.7741
7.5352 1.7200 0.7416
6.4644 1.7219 0.6418
6.4574 1.9709 0.6477
7.9240 2.7330 0.8041
7.9239 3.0555 0.8146
7.8271 3.3457 0.8164
7.3204 3.4449 0.7759
6.6850 3.4442 0.7211
6.3967 3.5919 0.7035
7.3345 4.4722 0.8237
7.0185 4.6331 0.8063
6.7979 4.8465 0.8004
6.6156 5.0844 0.7998
6.4763 5.3578 0.8057
6.4111 5.7036 0.8225
6.4363 6.1539 0.8535
8.4803 8.7121 1.1652
7.8921 8.7128 1.1266
7.3771 8.7564 1.0972
7.0039 8.9465 1.0887
6.7086 9.2338 1.0936
6.5113 9.6744 1.1173
6.5317 10.4998 1.1847
7.1027 12.3880 1.3680
2.3112 4.3891 0.4752
5.9663 12.3894 1.3173
6.0915 13.9054 1.4542
5.4897 13.8657 1.4285
5.5477 15.6295 1.5886
6.7139 21.3126 2.1403
5.9446 21.5404 2.1403
5.1508 21.6690 2.1333
4.3697 21.8403 2.1333
3.5830 21.9833 2.1333
2.7916 22.0980 2.1333
1.9966 22.1841 2.1333
1.2569 23.3164 2.2364
0.4192 23.3465 2.2364
-0.4191 23.3465 2.2364
-1.2569 23.3163 2.2364
-2.0930 23.2560 2.2364
-2.9264 23.1656 2.2364
-3.7560 23.0453 2.2364
-4.5808 22.8952 2.2364
-5.3995 22.7156 2.2364
-6.1801 22.3934 2.2251
-6.6911 21.2405 2.1331
-7.4490 20.9860 2.1331
-6.7450 17.0363 1.7552
-8.9349 20.3961 2.1331
-9.6609 20.0615 2.1331
-10.3902 19.7310 2.1364
-11.0912 19.3445 2.1364
-11.7779 18.9330 2.1364
-12.4494 18.4972 2.1364
-13.1046 18.0375 2.1364
-13.7429 17.5545 2.1364
-14.3634 17.0489 2.1364
-14.7253 16.2565 2.1021
-14.8936 15.3007 2.0465
-15.0535 14.3931 1.9963
-15.2059 13.5280 1.9509
-11.3119 9.3583 1.4074
-11.4150 8.7729 1.3802
-11.6131 8.2795 1.3674
-12.1173 7.9989 1.3922
-11.1460 6.7962 1.2518
-11.9121 6.6889 1.3101
-12.3330 6.3541 1.3305
-12.4244 5.8468 1.3170
-11.5298 4.9284 1.2027
-12.5993 4.8584 1.2954
-12.6825 4.3743 1.2870
-11.7869 3.5975 1.1824
-13.6879 3.6460 1.3592
-13.7767 3.1448 1.3560
-13.0698 2.4935 1.2769
-12.6462 1.9451 1.2280
-12.5453 1.4708 1.2124
-12.7780 1.0348 1.2306
-12.9603 0.5823 1.2454
-13.7577 0.1238 1.3209
-14.4704 -0.3894 1.3899
-13.7723 -0.8662 1.3251
-13.3968 -1.3268 1.2928
-13.3912 -1.8137 1.2978
-13.4806 -2.3213 1.3138
-13.7093 -2.8709 1.3454
-15.0991 -3.7323 1.4941
-14.4267 -4.1209 1.4414
-13.2998 -4.3211 1.3436
-14.1264 -5.1572 1.4450
-14.0845 -5.7229 1.4609
-13.2874 -5.9633 1.3997
-14.4489 -7.1183 1.5481
-13.9380 -7.5000 1.5213
-13.1571 -7.7012 1.4655
-14.6720 -9.3108 1.6705
-14.7883 -10.1471 1.7242
-16.1008 -11.9198 1.9261
-15.5094 -12.3679 1.9074
-15.5065 -13.3036 1.9646
-16.3309 -15.0617 2.1364
-15.6589 -15.5185 2.1202
-14.7352 -15.6909 2.0702
-14.6145 -16.7271 2.1364
-14.0038 -17.2401 2.1364
-13.3753 -17.7307 2.1364
-6.5860 -9.4155 1.1053
-7.2041 -11.1294 1.2754
-7.9597 -13.3219 1.4930
-7.8583 -14.2939 1.5693
-7.2026 -14.2938 1.5400
-9.2594 -20.1442 2.1331
-8.5301 -20.4630 2.1331
-7.0036 -18.6607 1.9179
-6.5741 -19.6312 1.9921
-6.2802 -21.2597 2.1331
-5.7798 -22.5102 2.2364
-4.9679 -22.7028 2.2364
-4.1497 -22.8661 2.2364
-3.3261 -23.0001 2.2364
-2.4983 -23.1044 2.2364
-1.6673 -23.1791 2.2364
-0.8342 -23.2240 2.2364
0.0000 -18.7906 2.2364
0.6745 -18.7785 2.2364
1.3482 -18.7423 2.2364
1.9270 -17.8208 2.1333
2.0939 -14.4792 1.7411
3.2007 -17.6370 2.1333
3.8319 -17.5110 2.1333
4.4581 -17.3624 2.1333
5.0785 -17.1916 2.1333
2.1134 -6.3107 0.7920
2.3305 -6.2094 0.7893
2.5465 -6.1087 0.7875
2.7618 -6.0083 0.7869
2.9770 -5.9079 0.7872
2.0593 -3.7458 0.5086
2.1991 -3.6805 0.5101
2.3399 -3.6149 0.5123
2.4821 -3.5485 0.5152
2.6262 -3.4813 0.5188
2.7724 -3.4131 0.5231
2.9213 -3.3436 0.5282
7.7166 -8.2170 1.3408
6.3602 -6.3031 1.0651
6.3467 -5.8534 1.0269
6.4598 -5.5421 1.0123
6.6013 -5.2641 1.0041
6.7568 -5.0022 0.9997
6.9657 -4.7795 1.0045
7.2796 -4.6195 1.0252
7.7819 -4.5549 1.0721
8.4406 -4.5418 1.1396
9.3853 -4.6237 1.2438
6.9211 -3.1061 0.9018
6.5798 -2.6735 0.8442
6.4484 -2.3541 0.8159
6.4051 -2.0809 0.8004
6.4131 -1.8318 0.7926
6.4506 -1.5945 0.7896
6.5392 -1.3693 0.7939
6.6532 -1.1456 0.8022
6.8504 -0.9278 0.8213
7.1355 -0.7066 0.8519
7.8469 -0.4935 0.9340
7.8674 -0.2117 0.9349
7.8669 0.0708 0.9345
6.3424 0.2850 0.7541
7.9243 0.6418 0.9442
7.9243 0.9291 0.9475
7.9242 1.2189 0.9520
7.9242 1.5118 0.9579
7.5345 1.7199 0.9176
6.3185 1.6831 0.7763
6.3102 1.9260 0.7832
6.3021 2.1737 0.7914
7.8476 3.0261 0.9984
7.7384 3.3078 0.9989
7.3208 3.4451 0.9603
6.6849 3.4442 0.8924
6.2390 3.5034 0.8491
7.2825 4.4405 1.0121
7.0185 4.6331 0.9979
6.7979 4.8465 0.9906
6.6156 5.0844 0.9899
6.4762 5.3578 0.9972
6.3651 5.6628 1.0107
6.3745 6.0949 1.0462
8.4803 8.7121 1.4421
7.8921 8.7128 1.3944
7.3771 8.7565 1.3580
7.1141 9.0872 1.3687
6.7086 9.2338 1.3536
6.5113 9.6744 1.3830
6.5317 10.4998 1.4664
7.1027 12.3880 1.6933
2.3109 4.3885 0.5881
5.9662 12.3893 1.6305
5.4276 12.3900 1.6039
5.5047 13.9038 1.7731
5.5476 15.6293 1.9664
5.4061 17.1613 2.1333
4.7867 17.3446 2.1333
4.1611 17.5055 2.1333
3.5301 17.6439 2.1333
2.8945 17.7594 2.1333
2.2552 17.8520 2.1333
1.6909 18.7876 2.2364
1.0154 18.8363 2.2364
0.3386 18.8606 2.2364
-0.3386 18.8606 2.2364
-1.0154 18.8362 2.2364
-1.6909 18.7875 2.2364
-2.3641 18.7145 2.2364
-3.0343 18.6174 2.2364
-3.7006 18.4962 2.2364
-4.3621 18.3512 2.2364
-5.0179 18.1824 2.2364
-5.6672 17.9902 2.2364
-6.1792 17.4087 2.1903
-6.6224 16.7267 2.1331
-7.2183 16.4778 2.1331
-7.8049 16.2076 2.1331
-8.3814 15.9164 2.1331
-8.9470 15.6048 2.1331
-9.5010 15.2730 2.1331
-10.0427 14.9215 2.1331
-10.5876 14.5730 2.1364
-11.1034 14.1830 2.1364
-11.6048 13.7746 2.1364
-12.0912 13.3486 2.1364
-12.5619 12.9053 2.1364
-13.0164 12.4455 2.1364
-13.4541 11.9696 2.1364
-11.3119 9.3584 1.7418
-11.4150 8.7730 1.7082
-11.6130 8.2795 1.6923
-12.1173 7.9989 1.7229
-10.5952 6.4604 1.4726
-11.9049 6.6850 1.6204
-11.9959 6.1806 1.6016
-11.1806 5.2615 1.4666
-11.2715 4.8180 1.4550
-12.2544 4.7254 1.5591
-12.3353 4.2546 1.5490
-11.5270 3.5182 1.4308
-13.6881 3.6462 1.6819
-13.7767 3.1448 1.6779
-13.0698 2.4936 1.5800
-12.6462 1.9452 1.5195
-12.6714 1.4857 1.5152
-12.7780 1.0348 1.5226
-12.9602 0.5824 1.5410
-13.7578 0.1239 1.6343
-14.4706 -0.3894 1.7197
-13.7723 -0.8661 1.6395
-13.3968 -1.3267 1.5995
-13.3911 -1.8136 1.6057
-13.4806 -2.3212 1.6255
-13.7092 -2.8708 1.6645
-15.0994 -3.7323 1.8485
-14.4270 -4.1209 1.7833
-13.2999 -4.3210 1.6622
-12.6581 -4.6211 1.6018
-13.8033 -5.6086 1.7712
-13.1243 -5.8901 1.7102
-14.0096 -6.9018 1.8568
-13.9383 -7.5001 1.8820
-13.2166 -7.7360 1.8210
-14.6720 -9.3107 2.0664
-14.7108 -10.0938 2.1216
-14.4379 -10.6886 2.1364
-14.0442 -11.1993 2.1364
-13.6324 -11.6957 2.1364
-13.2031 -12.1769 2.1364
-12.7568 -12.6423 2.1364
-12.2942 -13.0915 2.1364
-11.8158 -13.5238 2.1364
-11.3222 -13.9386 2.1364
-10.8141 -14.3354 2.1364
-6.5852 -9.4143 1.3669
-7.2041 -11.1294 1.5774
-9.1952 -15.3898 2.1331
-8.6366 -15.7094 2.1331
-7.2026 -14.2938 1.9046
-7.4867 -16.2876 2.1331
-6.8971 -16.5454 2.1331
-6.2985 -16.7819 2.1331
-5.9674 -17.8195 2.2364
-5.3238 -18.0219 2.2364
-4.6734 -18.2011 2.2364
-4.0169 -18.3569 2.2364
-3.3553 -18.4890 2.2364
-2.6894 -18.5973 2.2364
-2.0201 -18.6818 2.2364
-1.3482 -18.7422 2.2364
-0.6745 -18.7784 2.2364
0.0000 -15.7579 2.2364
0.5657 -15.7478 2.2364
1.1306 -15.7174 2.2364
1.6941 -15.6668 2.2364
2.0939 -14.4792 2.0762
2.6842 -14.7904 2.1333
3.2134 -14.6847 2.1333
3.7386 -14.5602 2.1333
4.2589 -14.4168 2.1333
2.1134 -6.3107 0.9444
2.3305 -6.2094 0.9412
2.5465 -6.1087 0.9391
2.7618 -6.0083 0.9383
2.9770 -5.9079 0.9387
2.0593 -3.7458 0.6065
2.1991 -3.6805 0.6083
2.3399 -3.6148 0.6110
2.4822 -3.5485 0.6144
2.6262 -3.4813 0.6187
2.7724 -3.4131 0.6238
2.9214 -3.3436 0.6299
7.7167 -8.2171 1.5991
6.4410 -6.3832 1.2863
6.4995 -5.9942 1.2541
6.4598 -5.5420 1.2072
6.6013 -5.2641 1.1975
6.8600 -5.0785 1.2105
7.1230 -4.8874 1.2251
7.2796 -4.6195 1.2226
7.7820 -4.5549 1.2786
8.4407 -4.5418 1.3591
9.3853 -4.6236 1.4834
6.7881 -3.0464 1.0549
6.5798 -2.6734 1.0069
6.4484 -2.3541 0.9732
6.4051 -2.0809 0.9547
6.4131 -1.8318 0.9454
6.4506 -1.5945 0.9418
6.5393 -1.3693 0.9469
6.6532 -1.1456 0.9568
6.8504 -0.9277 0.9797
7.0401 -0.6972 1.0025
7.8470 -0.4934 1.1141
7.8674 -0.2117 1.1151
7.8671 0.0709 1.1147
6.2056 0.2789 0.8801
7.1720 0.5809 1.0194
7.1730 0.8411 1.0231
7.1740 1.1035 1.0281
7.1751 1.3690 1.0346
7.1761 1.6381 1.0425
6.4513 1.7185 0.9455
6.0187 1.8370 0.8912
6.1595 2.1245 0.9227
7.1737 2.7663 1.0887
7.1725 3.0659 1.1045
7.1673 3.3729 1.1215
6.6849 3.4442 1.0647
6.0880 3.4187 0.9885
6.0679 3.6999 1.0061
7.1313 4.7076 1.2096
6.8696 4.8977 1.1942
6.6156 5.0844 1.1810
6.4762 5.3579 1.1897
6.5172 5.7982 1.2346
6.4772 6.1931 1.2683
8.4802 8.7121 1.7206
7.8920 8.7128 1.6636
7.3770 8.7565 1.6202
7.1142 9.0874 1.6331
6.7085 9.2339 1.6150
6.5112 9.6745 1.6500
6.5048 10.4566 1.7424
7.1026 12.3879 2.0204
2.3106 4.3879 0.7016
5.7459 11.9319 1.8736
5.4278 12.3904 1.9137
5.5047 13.9037 2.1155
5.0442 14.2109 2.1333
4.5309 14.3831 2.1333
4.0117 14.5367 2.1333
3.4874 14.6715 2.1333
2.9586 14.7874 2.1333
2.4259 14.8842 2.1333
1.8901 14.9618 2.1333
1.4171 15.7459 2.2364
0.8510 15.7867 2.2364
0.2838 15.8071 2.2364
-0.2838 15.8070 2.2364
-0.8510 15.7866 2.2364
-1.4171 15.7458 2.2364
-1.9814 15.6847 2.2364
-2.5431 15.6033 2.2364
-3.1015 15.5018 2.2364
-3.6559 15.3803 2.2364
-4.2055 15.2389 2.2364
-4.7497 15.0778 2.2364
-5.2878 14.8973 2.2364
-5.8190 14.6976 2.2364
-6.1798 14.1071 2.1790
-6.5415 13.5840 2.1331
-7.0247 13.3401 2.1331
-7.4988 13.0789 2.1331
-7.9632 12.8010 2.1331
-8.4173 12.5065 2.1331
-8.8604 12.1958 2.1331
-9.2922 11.8695 2.1331
-9.7119 11.5279 2.1331
-10.1190 11.1714 2.1331
-10.5291 10.8170 2.1364
-10.9101 10.4316 2.1364
-11.2770 10.0328 2.1364
-11.3119 9.3585 2.0781
-11.4150 8.7731 2.0379
-11.6130 8.2796 2.0189
-12.1172 7.9990 2.0554
-10.5994 6.4630 1.7575
-11.5568 6.4896 1.8765
-11.6451 5.9999 1.8548
-10.8363 5.0996 1.6958
-11.2898 4.8259 1.7386
-11.8953 4.5870 1.8054
-11.9739 4.1300 1.7938
-11.1338 3.3983 1.6487
-13.6884 3.6463 2.0064
-13.7767 3.1449 2.0016
-13.0697 2.4936 1.8847
-12.6462 1.9452 1.8125
-12.6714 1.4857 1.8074
-12.7516 1.0328 1.8125
-12.9602 0.5825 1.8381
-13.7578 0.1239 1.9494
-14.4708 -0.3893 2.0513
-13.7724 -0.8660 1.9555
-13.3968 -1.3266 1.9078
-13.3911 -1.8135 1.9152
-13.4806 -2.3211 1.9388
-13.7092 -2.8707 1.9853
-14.6312 -3.6165 2.1364
-14.4270 -4.1208 2.1269
-13.2995 -4.3208 1.9824
-12.6735 -4.6267 1.9128
-13.4009 -5.4450 2.0508
-13.1243 -5.8900 2.0397
-13.5140 -6.6576 2.1361
-13.2671 -7.1388 2.1364
-13.0016 -7.6101 2.1364
-12.7194 -8.0715 2.1364
-12.4209 -8.5225 2.1364
-12.1064 -8.9625 2.1364
-11.7763 -9.3908 2.1364
-11.4311 -9.8071 2.1364
-11.0713 -10.2107 2.1364
-10.6971 -10.6010 2.1364
-10.3093 -10.9778 2.1364
-9.8931 -11.3231 2.1331
-9.4799 -11.6705 2.1331
-9.0545 -12.0028 2.1331
-6.5213 -9.3230 1.6142
-8.1695 -12.6207 2.1331
-7.7109 -12.9055 2.1331
-7.2425 -13.1736 2.1331
-6.7647 -13.4247 2.1331
-6.2783 -13.6586 2.1331
-6.0638 -14.5464 2.2364
-5.5376 -14.7544 2.2364
-5.0043 -14.9434 2.2364
-4.4646 -15.1132 2.2364
-3.9191 -15.2635 2.2364
-3.3686 -15.3942 2.2364
-2.8138 -15.5050 2.2364
-2.2554 -15.5959 2.2364
-1.6941 -15.6667 2.2364
-1.1306 -15.7173 2.2364
-0.5657 -15.7478 2.2364
0.0000 -13.5561 2.2364
0.4866 -13.5474 2.2364
0.9727 -13.5212 2.2364
1.4574 -13.4777 2.2364
1.8765 -12.9754 2.1628
2.3091 -12.7237 2.1333
2.7644 -12.6328 2.1333
3.2162 -12.5256 2.1333
3.6638 -12.4022 2.1333
2.1134 -6.3107 1.0978
2.3305 -6.2094 1.0940
2.5465 -6.1087 1.0917
2.7618 -6.0082 1.0907
2.9770 -5.9078 1.0912
2.0593 -3.7457 0.7050
2.1991 -3.6805 0.7072
2.3399 -3.6148 0.7102
2.4822 -3.5485 0.7142
2.6262 -3.4813 0.7192
2.7724 -3.4131 0.7252
2.9214 -3.3436 0.7322
7.7169 -8.2173 1.8589
6.4411 -6.3831 1.4953
6.4995 -5.9942 1.4579
6.4598 -5.5420 1.4034
6.6014 -5.2641 1.3921
6.8274 -5.0543 1.4006
7.0865 -4.8623 1.4169
7.2797 -4.6195 1.4214
7.7820 -4.5549 1.4865
8.4408 -4.5418 1.5801
9.3853 -4.6236 1.7246
7.3479 -3.2976 1.3275
6.5797 -2.6734 1.1706
6.4041 -2.3379 1.1236
6.3498 -2.0629 1.1003
6.3629 -1.8174 1.0905
6.4002 -1.5819 1.0864
6.5393 -1.3693 1.1009
6.6532 -1.1455 1.1124
6.9867 -0.9461 1.1617
7.2946 -0.7223 1.2077
7.8472 -0.4934 1.2954
7.8674 -0.2116 1.2966
7.8672 0.0709 1.2960
6.0738 0.2730 1.0015
7.0015 0.5671 1.1570
7.0025 0.8211 1.1613
7.0035 1.0773 1.1670
7.0045 1.3364 1.1744
7.0055 1.5992 1.1834
6.4513 1.7185 1.0994
5.9132 1.8048 1.0180
5.8754 2.0266 1.0234
7.0036 2.7007 1.2359
6.9909 2.9883 1.2517
6.8811 3.2383 1.2521
6.6849 3.4443 1.2380
6.1318 3.4433 1.1577
5.7958 3.5341 1.1175
7.0953 4.6839 1.3995
6.8375 4.8749 1.3822
6.6156 5.0845 1.3733
6.4762 5.3579 1.3834
6.5172 5.7982 1.4357
6.4772 6.1931 1.4748
8.4802 8.7121 2.0008
7.8920 8.7128 1.9345
7.3770 8.7565 1.8841
7.0898 9.0563 1.8926
6.7085 9.2339 1.8781
6.5112 9.6745 1.9188
6.4524 10.3724 2.0099
6.4702 11.2850 2.1403
2.3102 4.3873 0.8158
5.6257 11.6823 2.1333
5.2028 11.8769 2.1333
4.7732 12.0563 2.1333
4.3375 12.2200 2.1333
3.8961 12.3680 2.1333
3.4497 12.5001 2.1333
2.9988 12.6160 2.1333
2.5440 12.7156 2.1333
2.0860 12.7989 2.1333
1.7038 13.4873 2.2364
1.2186 13.5398 2.2364
0.7318 13.5749 2.2364
0.2440 13.5924 2.2364
-0.2440 13.5924 2.2364
-0.7317 13.5748 2.2364
-1.2185 13.5397 2.2364
-1.7038 13.4872 2.2364
-2.1868 13.4172 2.2364
-2.6669 13.3299 2.2364
-3.1437 13.2255 2.2364
-3.6163 13.1039 2.2364
-4.0843 12.9655 2.2364
-4.5470 12.8103 2.2364
-5.0038 12.6386 2.2364
-5.4541 12.4506 2.2364
-5.8973 12.2465 2.2364
-6.1786 11.7335 2.1819
-6.4483 11.2469 2.1331
-6.8477 11.0079 2.1331
-7.2382 10.7547 2.1331
-7.6193 10.4876 2.1331
-7.9906 10.2070 2.1331
-8.3516 9.9133 2.1331
-8.7017 9.6068 2.1331
-9.0406 9.2879 2.1331
-9.3679 8.9571 2.1331
-9.6830 8.6147 2.1331
-9.9856 8.2613 2.1331
-10.2909 7.9092 2.1364
-10.5678 7.5344 2.1364
-10.8310 7.1499 2.1364
-10.6114 6.4704 2.0460
-11.2182 6.2995 2.1181
-11.3039 5.8241 2.0935
-10.8482 5.1052 1.9740
-11.2899 4.8260 2.0216
-11.6006 4.4734 2.0473
-11.7526 4.0538 2.0472
-11.1456 3.4019 1.9190
-12.5355 3.3393 2.1364
-12.6467 2.8870 2.1364
-12.7415 2.4311 2.1364
-12.6463 1.9453 2.1074
-12.6980 1.4889 2.1059
-12.7669 1.0341 2.1099
-12.9556 0.5823 2.1364
-12.9675 0.1169 2.1364
-12.9627 -0.3487 2.1364
-12.9412 -0.8137 2.1364
-12.9030 -1.2777 2.1364
-10.0280 -1.3580 1.6674
-10.0243 -1.7260 1.6761
-12.6890 -2.6570 2.1364
-12.5848 -3.1106 2.1364
-12.4644 -3.5602 2.1364
-12.3280 -4.0051 2.1364
-12.1757 -4.4449 2.1364
-12.0077 -4.8788 2.1364
-11.8243 -5.3065 2.1364
-11.6257 -5.7272 2.1364
-11.4121 -6.1406 2.1364
-11.1838 -6.5460 2.1364
-10.9411 -6.9430 2.1364
-10.6844 -7.3309 2.1364
-10.4139 -7.7094 2.1364
-10.1147 -8.0657 2.1331
-9.8182 -8.4232 2.1331
-9.5092 -8.7699 2.1331
-9.1879 -9.1053 2.1331
-8.8548 -9.4289 2.1331
-8.5103 -9.7404 2.1331
-8.1549 -10.0393 2.1331
-7.7891 -10.3252 2.1331
-6.5136 -9.3119 1.8743
-7.0278 -10.8569 2.1331
-6.6333 -11.1019 2.1331
-6.2304 -11.3326 2.1331
-6.1011 -12.1076 2.2364
-5.6624 -12.3186 2.2364
-5.2165 -12.5137 2.2364
-4.7638 -12.6926 2.2364
-4.3050 -12.8553 2.2364
-3.8407 -13.0013 2.2364
-3.3715 -13.1307 2.2364
-2.8979 -13.2431 2.2364
-2.4207 -13.3384 2.2364
-1.9403 -13.4167 2.2364
-1.4574 -13.4776 2.2364
-0.9726 -13.5212 2.2364
-0.4866 -13.5474 2.2364
0.0000 -11.8833 2.2364
0.4266 -11.8756 2.2364
0.8526 -11.8527 2.2364
1.2776 -11.8145 2.2364
1.7009 -11.7611 2.2364
2.0242 -11.1536 2.1333
2.4233 -11.0738 2.1333
2.8193 -10.9798 2.1333
3.2117 -10.8717 2.1333
2.1134 -6.3107 1.2524
2.3305 -6.2094 1.2481
2.5465 -6.1087 1.2454
2.7618 -6.0082 1.2443
2.9770 -5.9078 1.2448
2.0593 -3.7457 0.8043
2.1991 -3.6805 0.8067
2.3399 -3.6148 0.8102
2.4822 -3.5485 0.8148
2.6262 -3.4813 0.8205
2.7725 -3.4131 0.8273
2.9214 -3.3436 0.8353
7.7169 -8.2172 2.1207
6.4411 -6.3831 1.7059
6.4995 -5.9941 1.6632
6.4598 -5.5420 1.6011
6.6014 -5.2640 1.5882
6.8601 -5.0785 1.6055
7.1231 -4.8873 1.6248
7.2797 -4.6195 1.6216
7.7821 -4.5549 1.6959
8.4409 -4.5418 1.8027
9.3853 -4.6235 1.9675
7.3479 -3.2975 1.5146
6.5797 -2.6733 1.3355
6.4041 -2.3379 1.2819
6.5185 -2.1177 1.2887
6.5185 -1.8618 1.2746
6.4002 -1.5819 1.2395
6.5393 -1.3692 1.2561
6.6532 -1.1455 1.2692
6.9867 -0.9461 1.3254
7.2459 -0.7175 1.3687
7.8474 -0.4934 1.4780
7.8674 -0.2116 1.4793
7.8674 0.0710 1.4788
5.9465 0.2673 1.1187
6.8228 0.5527 1.2865
6.8238 0.8002 1.2912
6.8248 1.0499 1.2976
6.8258 1.3024 1.3058
6.8268 1.5585 1.3158
6.4512 1.7186 1.2544
5.9023 1.8016 1.1595
5.8901 2.0317 1.1706
6.8253 2.6320 1.3743
6.8241 2.9171 1.3942
6.7213 3.1631 1.3955
6.6380 3.4202 1.4027
6.1320 3.4434 1.3210
5.7803 3.5246 1.2717
7.1313 4.7077 1.6050
6.8695 4.8978 1.5846
6.6156 5.0845 1.5671
6.4762 5.3579 1.5786
6.5172 5.7983 1.6382
6.4771 6.1931 1.6829
7.9498 8.1672 2.1403
7.6517 8.4476 2.1403
7.3437 8.7170 2.1403
7.0263 8.9753 2.1403
6.6998 9.2219 2.1403
6.3646 9.4567 2.1403
6.0212 9.6793 2.1403
5.6514 9.8570 2.1333
2.3099 4.3867 0.9308
4.9299 10.2375 2.1333
4.5593 10.4080 2.1333
4.1829 10.5651 2.1333
3.8010 10.7086 2.1333
3.4142 10.8383 2.1333
3.0230 10.9540 2.1333
2.6279 11.0556 2.1333
2.2294 11.1429 2.1333
1.8683 11.4635 2.1804
1.4930 11.8190 2.2364
1.0679 11.8651 2.2364
0.6413 11.8958 2.2364
0.2139 11.9111 2.2364
-0.2138 11.9111 2.2364
-0.6412 11.8958 2.2364
-1.0678 11.8650 2.2364
-1.4930 11.8190 2.2364
-1.9163 11.7577 2.2364
-2.3371 11.6812 2.2364
-2.7548 11.5897 2.2364
-3.1690 11.4832 2.2364
-3.5791 11.3619 2.2364
-3.9846 11.2259 2.2364
-4.3849 11.0755 2.2364
-4.7795 10.9107 2.2364
-5.1680 10.7319 2.2364
-5.5497 10.5393 2.2364
-5.9244 10.3331 2.2364
-6.1780 9.9314 2.1961
-6.3431 9.4247 2.1331
-6.6771 9.1907 2.1331
-7.0025 8.9449 2.1331
-7.3188 8.6875 2.1331
-7.6258 8.4189 2.1331
-7.9228 8.1395 2.1331
-8.2096 7.8496 2.1331
-8.4858 7.5497 2.1331
-8.7510 7.2399 2.1331
-9.0049 6.9209 2.1331
-9.2472 6.5930 2.1331
-9.4775 6.2566 2.1331
-9.6956 5.9121 2.1331
-9.9012 5.5600 2.1331
-10.0940 5.2008 2.1331
-10.2894 4.8423 2.1364
-10.4562 4.4697 2.1364
-10.6094 4.0913 2.1364
-10.7490 3.7077 2.1364
-10.8747 3.3193 2.1364
-10.9864 2.9267 2.1364
-11.0839 2.5303 2.1364
-11.1670 2.1307 2.1364
-11.2358 1.7284 2.1364
-11.2901 1.3239 2.1364
-11.3299 0.9178 2.1364
-11.3550 0.5104 2.1364
-11.3655 0.1025 2.1364
-11.3613 -0.3055 2.1364
-11.3425 -0.7131 2.1364
-11.3091 -1.1198 2.1364
-11.2611 -1.5249 2.1364
-11.1986 -1.9281 2.1364
-11.1217 -2.3288 2.1364
-11.0305 -2.7264 2.1364
-10.9250 -3.1204 2.1364
-10.8055 -3.5104 2.1364
-10.6721 -3.8959 2.1364
-10.5249 -4.2763 2.1364
-10.3642 -4.6512 2.1364
-10.1747 -5.0124 2.1331
-9.9878 -5.3742 2.1331
-9.7880 -5.7290 2.1331
-9.5757 -6.0765 2.1331
-9.3511 -6.4160 2.1331
-9.1144 -6.7473 2.1331
-8.8660 -7.0699 2.1331
-8.6062 -7.3834 2.1331
-8.3353 -7.6873 2.1331
-8.0538 -7.9813 2.1331
-7.7618 -8.2650 2.1331
-7.4599 -8.5381 2.1331
-7.1484 -8.8001 2.1331
-6.8277 -9.0508 2.1331
-6.4982 -9.2898 2.1331
-6.1853 -9.5554 2.1418
-6.0961 -10.2027 2.2364
-5.7258 -10.4148 2.2364
-5.3482 -10.6134 2.2364
-4.9636 -10.7983 2.2364
-4.5727 -10.9693 2.2364
-4.1759 -11.1263 2.2364
-3.7738 -11.2688 2.2364
-3.3668 -11.3969 2.2364
-2.9555 -11.5103 2.2364
-2.5403 -11.6088 2.2364
-2.1220 -11.6925 2.2364
-1.7008 -11.7610 2.2364
-1.2775 -11.8145 2.2364
-0.8526 -11.8527 2.2364
-0.4266 -11.8756 2.2364
0.0000 -10.5681 2.2364
0.3794 -10.5613 2.2364
0.7583 -10.5409 2.2364
1.1362 -10.5069 2.2364
1.5126 -10.4594 2.2364
1.8713 -10.3111 2.2176
2.1551 -9.8482 2.1333
2.5072 -9.7646 2.1333
2.8562 -9.6684 2.1333
2.1134 -6.3107 1.4083
2.3306 -6.2094 1.4034
2.5465 -6.1087 1.4004
2.7618 -6.0082 1.3992
2.9770 -5.9078 1.3998
2.0594 -3.7457 0.9044
2.1991 -3.6805 0.9071
2.3400 -3.6148 0.9111
2.4822 -3.5485 0.9162
2.6262 -3.4813 0.9226
2.7725 -3.4131 0.9303
2.9214 -3.3436 0.9393
6.9260 -7.3750 2.1403
6.4411 -6.3831 1.9183
6.4995 -5.9941 1.8703
6.4598 -5.5419 1.8004
6.6014 -5.2640 1.7860
6.8601 -5.0784 1.8054
7.1231 -4.8873 1.8271
7.2797 -4.6194 1.8235
7.7822 -4.5549 1.9071
8.4410 -4.5418 2.0272
9.0788 -4.4725 2.1403
7.3406 -3.2942 1.7015
6.5797 -2.6733 1.5018
6.4042 -2.3378 1.4416
6.5185 -2.1177 1.4492
6.5185 -1.8618 1.4334
6.4002 -1.5819 1.3939
6.5393 -1.3692 1.4125
6.6532 -1.1455 1.4273
6.9867 -0.9461 1.4905
7.2947 -0.7222 1.5496
7.8476 -0.4934 1.6622
7.8676 -0.2115 1.6637
7.8675 0.0710 1.6631
5.8234 0.2618 1.2321
6.6389 0.5378 1.4078
6.6398 0.7786 1.4129
6.6407 1.0216 1.4200
6.6417 1.2673 1.4289
6.6427 1.5165 1.4399
6.4512 1.7186 1.4108
5.7760 1.7630 1.2761
5.7625 1.9877 1.2880
6.6416 2.5612 1.5040
6.6405 2.8386 1.5258
6.5632 3.0888 1.5325
6.4490 3.3228 1.5327
6.1321 3.4435 1.4857
5.5820 3.4038 1.3812
5.4227 3.5798 1.3726
6.8695 4.8978 1.7822
6.6155 5.0845 1.7625
6.4762 5.3580 1.7754
6.5172 5.7983 1.8425
6.4771 6.1931 1.8928
7.0683 7.2617 2.1403
6.8033 7.5109 2.1403
6.5295 7.7505 2.1403
6.2472 7.9801 2.1403
5.9569 8.1994 2.1403
5.6403 8.3805 2.1333
5.3359 8.5778 2.1333
5.0247 8.7639 2.1333
2.3096 4.3860 1.0468
4.3832 9.1022 2.1333
4.0537 9.2538 2.1333
3.7189 9.3935 2.1333
3.3794 9.5210 2.1333
3.0355 9.6363 2.1333
2.6877 9.7392 2.1333
2.3364 9.8295 2.1333
1.9821 9.9071 2.1333
1.7038 10.4538 2.2364
1.3275 10.5083 2.2364
0.9494 10.5492 2.2364
0.5701 10.5765 2.2364
0.1901 10.5901 2.2364
-0.1901 10.5901 2.2364
-0.5701 10.5764 2.2364
-0.9494 10.5491 2.2364
-1.3274 10.5082 2.2364
-1.7037 10.4537 2.2364
-2.0779 10.3857 2.2364
-2.4493 10.3044 2.2364
-2.8176 10.2097 2.2364
-3.1822 10.1019 2.2364
-3.5427 9.9810 2.2364
-3.8986 9.8472 2.2364
-4.2495 9.7008 2.2364
-4.5948 9.5419 2.2364
-4.9343 9.3706 2.2364
-5.2674 9.1872 2.2364
-5.5936 8.9921 2.2364
-5.9127 8.7853 2.2364
-6.1778 8.5035 2.2197
-6.2260 7.9531 2.1331
-6.5073 7.7243 2.1331
-6.7802 7.4855 2.1331
-7.0443 7.2371 2.1331
-7.2994 6.9794 2.1331
-7.5449 6.7127 2.1331
-7.7808 6.4373 2.1331
-8.0066 6.1537 2.1331
-8.2220 5.8621 2.1331
-8.4269 5.5630 2.1331
-8.6209 5.2568 2.1331
-8.8037 4.9438 2.1331
-8.9751 4.6244 2.1331
-9.1350 4.2991 2.1331
-9.2831 3.9683 2.1331
-9.4192 3.6324 2.1331
-9.5432 3.2918 2.1331
-9.6548 2.9470 2.1331
-9.7540 2.5984 2.1331
-9.8406 2.2465 2.1331
-9.9145 1.8918 2.1331
-9.9756 1.5346 2.1331
-10.0239 1.1755 2.1331
-10.0592 0.8149 2.1331
-10.0816 0.4532 2.1331
-10.0909 0.0911 2.1331
-10.0873 -0.2712 2.1331
-10.0706 -0.6331 2.1331
-10.0410 -0.9942 2.1331
-9.9985 -1.3539 2.1331
-9.9430 -1.7119 2.1331
-9.8748 -2.0676 2.1331
-9.7938 -2.4207 2.1331
-9.7002 -2.7705 2.1331
-9.5942 -3.1169 2.1331
-9.4757 -3.4591 2.1331
-9.3451 -3.7969 2.1331
-9.2024 -4.1297 2.1331
-9.0479 -4.4573 2.1331
-8.8818 -4.7790 2.1331
-8.7042 -5.0946 2.1331
-8.5154 -5.4036 2.1331
-8.3157 -5.7056 2.1331
-8.1053 -6.0002 2.1331
-7.8844 -6.2871 2.1331
-7.6534 -6.5659 2.1331
-7.4125 -6.8362 2.1331
-7.1622 -7.0977 2.1331
-6.9025 -7.3500 2.1331
-6.6341 -7.5928 2.1331
-6.3571 -7.8259 2.1331
-6.1782 -8.1898 2.1705
-6.0586 -8.6613 2.2364
-5.7437 -8.8731 2.2364
-5.4214 -9.0733 2.2364
-5.0921 -9.2619 2.2364
-4.7562 -9.4386 2.2364
-4.4142 -9.6031 2.2364
-4.0666 -9.7552 2.2364
-3.7137 -9.8947 2.2364
-3.3561 -10.0216 2.2364
-2.9942 -10.1355 2.2364
-2.6284 -10.2363 2.2364
-2.2592 -10.3240 2.2364
-1.8871 -10.3984 2.2364
-1.5126 -10.4593 2.2364
-1.1361 -10.5068 2.2364
-0.7582 -10.5408 2.2364
-0.3794 -10.5612 2.2364
-0.0000 -9.5059 2.2364
0.3413 -9.4998 2.2364
0.6821 -9.4814 2.2364
1.0220 -9.4509 2.2364
1.3606 -9.4082 2.2364
1.6975 -9.3533 2.2364
1.9385 -8.8583 2.1333
2.2552 -8.7831 2.1333
2.5691 -8.6966 2.1333
2.1134 -6.3107 1.5656
2.3306 -6.2094 1.5602
2.5465 -6.1087 1.5569
2.7618 -6.0082 1.5555
2.9771 -5.9078 1.5562
2.0594 -3.7457 1.0055
2.1991 -3.6805 1.0085
2.3400 -3.6148 1.0129
2.4822 -3.5485 1.0186
2.6262 -3.4813 1.0257
2.7725 -3.4130 1.0343
2.9214 -3.3436 1.0443
6.2298 -6.6336 2.1403
6.3601 -6.3028 2.1059
6.3468 -5.8532 2.0305
6.4599 -5.5419 2.0017
6.6014 -5.2640 1.9856
6.8601 -5.0784 2.0072
7.0478 -4.8356 2.0099
7.2798 -4.6194 2.0274
7.7822 -4.5549 2.1203
8.0159 -4.3131 2.1403
8.1658 -4.0227 2.1403
7.3480 -3.2975 1.8936
6.5797 -2.6733 1.6697
6.4043 -2.3378 1.6028
6.5185 -2.1176 1.6113
6.5185 -1.8617 1.5937
6.4002 -1.5818 1.5498
6.5393 -1.3692 1.5705
6.6533 -1.1454 1.5869
6.9868 -0.9460 1.6572
7.2319 -0.7160 1.7081
7.8478 -0.4933 1.8481
7.8678 -0.2115 1.8498
7.8677 0.0710 1.8491
5.7042 0.2565 1.3419
5.7023 0.4620 1.3444
6.4773 0.7596 1.5325
6.4494 0.9922 1.5333
6.4503 1.2308 1.5430
6.4513 1.4728 1.5548
6.4512 1.7186 1.5686
5.5880 1.7057 1.3727
5.5232 1.9052 1.3726
5.4515 2.1023 1.3727
6.4496 2.7570 1.6478
6.4431 3.0323 1.6728
6.3306 3.2619 1.6729
6.1321 3.4436 1.6520
5.6451 3.4423 1.5531
5.3059 3.5027 1.4934
6.8695 4.8978 1.9816
6.6155 5.0846 1.9597
6.4762 5.3580 1.9741
6.3937 5.6885 2.0099
6.3746 6.0952 2.0713
6.3567 6.5307 2.1403
6.1184 6.7548 2.1403
5.8528 6.9474 2.1333
5.5998 7.1532 2.1333
5.3396 7.3497 2.1333
5.0724 7.5368 2.1333
4.7987 7.7142 2.1333
4.5188 7.8816 2.1333
2.3093 4.3854 1.1638
3.9418 8.1858 2.1333
3.6455 8.3221 2.1333
3.3445 8.4477 2.1333
3.0392 8.5624 2.1333
2.7299 8.6661 2.1333
2.4171 8.7585 2.1333
2.1012 8.8397 2.1333
1.8680 9.3369 2.2356
1.5322 9.4012 2.2364
1.1938 9.4502 2.2364
0.8538 9.4870 2.2364
0.5127 9.5115 2.2364
0.1710 9.5238 2.2364
-0.1710 9.5238 2.2364
-0.5127 9.5115 2.2364
-0.8538 9.4869 2.2364
-1.1938 9.4501 2.2364
-1.5322 9.4011 2.2364
-1.8686 9.3400 2.2364
-2.2027 9.2668 2.2364
-2.5338 9.1817 2.2364
-2.8617 9.0847 2.2364
-3.1860 8.9761 2.2364
-3.5060 8.8558 2.2364
-3.8216 8.7241 2.2364
-4.1322 8.5812 2.2364
-4.4375 8.4272 2.2364
-4.7370 8.2623 2.2364
-5.0305 8.0868 2.2364
-5.3174 7.9008 2.2364
-5.5974 7.7047 2.2364
-5.8703 7.4987 2.2364
-6.1355 7.2830 2.2364
-6.1827 6.8259 2.1629
-6.3352 6.5086 2.1331
-6.5646 6.2769 2.1331
-6.7855 6.0370 2.1331
-6.9976 5.7894 2.1331
-7.2007 5.5343 2.1331
-7.3945 5.2721 2.1331
-7.5787 5.0032 2.1331
-7.7532 4.7277 2.1331
-7.9176 4.4463 2.1331
-8.0719 4.1590 2.1331
-8.2157 3.8665 2.1331
-8.3489 3.5690 2.1331
-8.4713 3.2669 2.1331
-8.5829 2.9606 2.1331
-8.6833 2.6505 2.1331
-8.7725 2.3370 2.1331
-8.8504 2.0205 2.1331
-8.9169 1.7015 2.1331
-8.9719 1.3803 2.1331
-9.0154 1.0573 2.1331
-9.0472 0.7329 2.1331
-9.0673 0.4077 2.1331
-9.0758 0.0819 2.1331
-9.0726 -0.2439 2.1331
-9.0576 -0.5694 2.1331
-9.0310 -0.8941 2.1331
-8.9928 -1.2177 2.1331
-8.9429 -1.5397 2.1331
-8.8816 -1.8596 2.1331
-8.8088 -2.1772 2.1331
-8.7247 -2.4919 2.1331
-8.6293 -2.8033 2.1331
-8.5228 -3.1112 2.1331
-8.4054 -3.4150 2.1331
-8.2771 -3.7144 2.1331
-8.1381 -4.0090 2.1331
-7.9887 -4.2984 2.1331
-7.8290 -4.5823 2.1331
-7.6592 -4.8602 2.1331
-7.4796 -5.1319 2.1331
-7.2904 -5.3969 2.1331
-7.0917 -5.6550 2.1331
-6.8840 -5.9057 2.1331
-6.6673 -6.1489 2.1331
-6.4421 -6.3841 2.1331
-6.2087 -6.6111 2.1331
-6.1752 -7.0676 2.2075
-5.9948 -7.3799 2.2364
-5.7259 -7.5902 2.2364
-5.4496 -7.7907 2.2364
-5.1664 -7.9811 2.2364
-4.8764 -8.1613 2.2364
-4.5802 -8.3309 2.2364
-4.2781 -8.4898 2.2364
-3.9706 -8.6378 2.2364
-3.6579 -8.7747 2.2364
-3.3405 -8.9002 2.2364
-3.0188 -9.0143 2.2364
-2.6932 -9.1167 2.2364
-2.3642 -9.2075 2.2364
-2.0321 -9.2863 2.2364
-1.6974 -9.3532 2.2364
-1.3606 -9.4081 2.2364
-1.0220 -9.4508 2.2364
-0.6820 -9.4814 2.2364
-0.3412 -9.4998 2.2364
0.0000 -8.6293 2.2364
0.3098 -8.6238 2.2364
0.6192 -8.6071 2.2364
0.9278 -8.5794 2.2364
1.2351 -8.5406 2.2364
1.5410 -8.4908 2.2364
1.8448 -8.4301 2.2364
2.0606 -8.0249 2.1471
2.3322 -7.8946 2.1333
2.6141 -7.8059 2.1333
2.8927 -7.7071 2.1333
2.5597 -6.1401 1.7239
3.4384 -7.4799 2.1333
3.7047 -7.3518 2.1333
2.0594 -3.7457 1.1076
2.1992 -3.6805 1.1110
2.3400 -3.6148 1.1158
2.4822 -3.5485 1.1221
2.6262 -3.4813 1.1299
2.7725 -3.4130 1.1393
2.9214 -3.3436 1.1504
5.6366 -6.0019 2.1333
5.8486 -5.7959 2.1333
6.0730 -5.6007 2.1403
6.2702 -5.3793 2.1403
6.4595 -5.1508 2.1403
6.6404 -4.9158 2.1403
6.8128 -4.6744 2.1403
6.9764 -4.4269 2.1403
7.1310 -4.1738 2.1403
7.2765 -3.9152 2.1403
7.4125 -3.6516 2.1403
7.0797 -3.1771 2.0099
6.5796 -2.6732 1.8394
6.4044 -2.3378 1.7658
6.5185 -2.1176 1.7751
6.4917 -1.8541 1.7484
6.4002 -1.5818 1.7073
6.5393 -1.3691 1.7302
6.6533 -1.1454 1.7482
6.9868 -0.9460 1.8257
7.2948 -0.7222 1.8981
7.8480 -0.4933 2.0361
7.8679 -0.2115 2.0379
7.8679 0.0711 2.0372
5.2960 0.2382 1.3725
5.2846 0.4282 1.3726
6.4178 0.7527 1.6729
6.3866 0.9826 1.6728
6.3471 1.2112 1.6727
6.2994 1.4382 1.6726
6.2660 1.6693 1.6785
5.6246 1.7169 1.5222
5.2658 1.8164 1.4418
5.3049 2.0458 1.4716
6.2638 2.6777 1.7631
6.2627 2.9474 1.7914
6.2061 3.1977 1.8068
6.0875 3.4186 1.8068
5.6451 3.4423 1.7111
5.3129 3.5074 1.6474
5.4306 3.8719 1.7259
6.5580 5.0404 2.1403
6.3730 5.2727 2.1403
6.1798 5.4982 2.1403
5.9786 5.7166 2.1403
5.7508 5.9082 2.1333
5.5351 6.1110 2.1333
5.3123 6.3059 2.1333
5.0827 6.4926 2.1333
4.8464 6.6710 2.1333
4.6039 6.8408 2.1333
4.3555 7.0018 2.1333
4.1014 7.1537 2.1333
2.3089 4.3848 1.2820
3.5777 7.4298 2.1333
3.3088 7.5535 2.1333
3.0356 7.6675 2.1333
2.7585 7.7716 2.1333
2.4777 7.8657 2.1333
2.1938 7.9496 2.1333
1.9071 8.0233 2.1333
1.6961 8.4774 2.2364
1.3907 8.5329 2.2364
1.0835 8.5773 2.2364
0.7749 8.6107 2.2364
0.4654 8.6330 2.2364
0.1552 8.6441 2.2364
-0.1552 8.6441 2.2364
-0.4653 8.6330 2.2364
-0.7749 8.6107 2.2364
-1.0835 8.5773 2.2364
-1.3907 8.5328 2.2364
-1.6960 8.4773 2.2364
-1.9992 8.4109 2.2364
-2.2998 8.3337 2.2364
-2.5974 8.2457 2.2364
-2.8917 8.1470 2.2364
-3.1822 8.0379 2.2364
-3.4686 7.9184 2.2364
-3.7506 7.7887 2.2364
-4.0277 7.6489 2.2364
-4.2995 7.4993 2.2364
-4.5659 7.3400 2.2364
-4.8263 7.1712 2.2364
-5.0805 6.9932 2.2364
-5.3281 6.8062 2.2364
-5.5689 6.6104 2.2364
-5.8025 6.4061 2.2364
-6.0285 6.1936 2.2364
-6.1773 5.9066 2.2115
-6.1875 5.5051 2.1431
-6.3514 5.2549 2.1331
-6.5358 5.0234 2.1331
-6.7117 4.7854 2.1331
-6.8790 4.5413 2.1331
-7.0373 4.2913 2.1331
-7.1866 4.0358 2.1331
-7.3266 3.7751 2.1331
-7.4572 3.5096 2.1331
-7.5781 3.2395 2.1331
-7.6893 2.9653 2.1331
-7.7905 2.6873 2.1331
-7.8817 2.4059 2.1331
-7.9628 2.1213 2.1331
-8.0335 1.8341 2.1331
-8.0939 1.5445 2.1331
-8.1438 1.2529 2.1331
-8.1833 0.9597 2.1331
-8.2122 0.6653 2.1331
-8.2305 0.3701 2.1331
-8.2382 0.0744 2.1331
-8.2353 -0.2213 2.1331
-8.2218 -0.5168 2.1331
-8.1977 -0.8116 2.1331
-8.1630 -1.1053 2.1331
-8.1178 -1.3975 2.1331
-8.0621 -1.6880 2.1331
-7.9961 -1.9762 2.1331
-7.9197 -2.2619 2.1331
-7.8332 -2.5447 2.1331
-7.7365 -2.8241 2.1331
-7.6299 -3.0999 2.1331
-7.5135 -3.3717 2.1331
-7.3874 -3.6391 2.1331
-7.2518 -3.9019 2.1331
-7.1068 -4.1596 2.1331
-6.9527 -4.4119 2.1331
-6.7897 -4.6585 2.1331
-6.6179 -4.8991 2.1331
-6.4376 -5.1333 2.1331
-6.2490 -5.3610 2.1331
-6.1770 -5.6966 2.1770
-6.1311 -6.0758 2.2364
-5.9089 -6.2918 2.2364
-5.6791 -6.4997 2.2364
-5.4420 -6.6993 2.2364
-5.1979 -6.8902 2.2364
-4.9471 -7.0722 2.2364
-4.6899 -7.2451 2.2364
-4.4267 -7.4086 2.2364
-4.1579 -7.5626 2.2364
-3.8836 -7.7069 2.2364
-3.6044 -7.8413 2.2364
-3.3206 -7.9655 2.2364
-3.0324 -8.0795 2.2364
-2.7404 -8.1830 2.2364
-2.4449 -8.2761 2.2364
-2.1462 -8.3584 2.2364
-1.8448 -8.4300 2.2364
-1.5409 -8.4908 2.2364
-1.2351 -8.5406 2.2364
-0.9277 -8.5794 2.2364
-0.6191 -8.6071 2.2364
-0.3098 -8.6238 2.2364
0.0000 -7.8930 2.2364
0.2834 -7.8879 2.2364
0.5663 -7.8727 2.2364
0.8486 -7.8473 2.2364
1.1298 -7.8118 2.2364
1.4095 -7.7663 2.2364
1.6874 -7.7107 2.2364
1.8803 -7.3229 2.1421
2.1332 -7.2209 2.1333
2.3911 -7.1398 2.1333
2.6459 -7.0494 2.1333
2.5583 -6.1369 1.8837
3.1449 -6.8416 2.1333
3.3886 -6.7244 2.1333
2.0594 -3.7457 1.2110
2.1992 -3.6805 1.2146
2.3400 -3.6148 1.2199
2.4822 -3.5485 1.2268
2.6263 -3.4813 1.2353
2.7725 -3.4130 1.2456
2.9214 -3.3436 1.2578
5.1556 -5.4896 2.1333
5.3494 -5.3011 2.1333
5.5364 -5.1058 2.1333
5.7163 -4.9039 2.1333
5.8888 -4.6956 2.1333
6.0736 -4.4961 2.1403
6.2312 -4.2753 2.1403
6.3809 -4.0490 2.1403
6.5223 -3.8174 2.1403
6.6553 -3.5809 2.1403
6.7797 -3.3398 2.1403
6.7877 -3.0459 2.1069
6.5796 -2.6732 2.0111
6.4044 -2.3378 1.9306
6.5185 -2.1176 1.9408
6.5185 -1.8617 1.9195
6.4002 -1.5818 1.8667
6.5393 -1.3691 1.8917
6.6533 -1.1454 1.9115
6.9869 -0.9460 1.9962
7.0648 -0.6994 2.0099
7.5453 -0.4743 2.1403
6.4388 -0.1730 1.8234
6.4387 0.0582 1.8228
5.3063 0.2386 1.5036
6.2614 0.5073 1.7782
6.2623 0.7345 1.7848
6.2632 0.9636 1.7937
6.2641 1.1953 1.8050
6.2234 1.4209 1.8068
6.1685 1.6434 1.8067
5.6241 1.7168 1.6642
5.3103 1.8318 1.5898
5.3113 2.0483 1.6110
6.0832 2.6005 1.8722
6.0821 2.8625 1.9022
6.0810 3.1333 1.9358
5.9996 3.3692 1.9471
5.6451 3.4423 1.8709
5.3200 3.5121 1.8037
5.4306 3.8720 1.8871
5.9977 4.6098 2.1403
5.8094 4.8064 2.1333
5.6332 5.0120 2.1333
5.4498 5.2111 2.1333
5.2594 5.4034 2.1333
5.0622 5.5889 2.1333
4.8584 5.7671 2.1333
4.6483 5.9379 2.1333
4.4323 6.1010 2.1333
4.2105 6.2563 2.1333
3.9833 6.4035 2.1333
3.7509 6.5424 2.1333
2.3086 4.3842 1.4016
3.2720 6.7949 2.1333
3.0260 6.9080 2.1333
2.7762 7.0123 2.1333
2.5227 7.1075 2.1333
2.2660 7.1935 2.1333
2.0063 7.2702 2.1333
1.8284 7.6922 2.2364
1.5511 7.7529 2.2364
1.2718 7.8037 2.2364
0.9909 7.8443 2.2364
0.7087 7.8748 2.2364
0.4256 7.8952 2.2364
0.1419 7.9054 2.2364
-0.1419 7.9054 2.2364
-0.4256 7.8952 2.2364
-0.7087 7.8748 2.2364
-0.9909 7.8443 2.2364
-1.2718 7.8036 2.2364
-1.5511 7.7529 2.2364
-1.8283 7.6922 2.2364
-2.1033 7.6215 2.2364
-2.3755 7.5410 2.2364
-2.6446 7.4508 2.2364
-2.9103 7.3510 2.2364
-3.1722 7.2417 2.2364
-3.4301 7.1231 2.2364
-3.6835 6.9953 2.2364
-3.9321 6.8585 2.2364
-4.1757 6.7128 2.2364
-4.4139 6.5585 2.2364
-4.6464 6.3957 2.2364
-4.8729 6.2247 2.2364
-5.0930 6.0456 2.2364
-5.3066 5.8588 2.2364
-5.5134 5.6644 2.2364
-5.7130 5.4627 2.2364
-5.9053 5.2540 2.2364
-6.0899 5.0386 2.2364
-6.1771 4.7477 2.2044
-6.1857 4.4104 2.1496
-6.2913 4.1533 2.1331
-6.4361 3.9247 2.1331
-6.5727 3.6911 2.1331
-6.7007 3.4527 2.1331
-6.8202 3.2098 2.1331
-6.9308 2.9629 2.1331
-7.0325 2.7121 2.1331
-7.1251 2.4578 2.1331
-7.2085 2.2004 2.1331
-7.2826 1.9402 2.1331
-7.3474 1.6775 2.1331
-7.4026 1.4126 2.1331
-7.4483 1.1459 2.1331
-7.4844 0.8778 2.1331
-7.5109 0.6086 2.1331
-7.5277 0.3386 2.1331
-7.5347 0.0681 2.1331
-7.5321 -0.2024 2.1331
-7.5197 -0.4726 2.1331
-7.4977 -0.7422 2.1331
-7.4660 -1.0109 2.1331
-7.4247 -1.2782 2.1331
-7.3737 -1.5438 2.1331
-7.3134 -1.8075 2.1331
-7.2435 -2.0688 2.1331
-7.1644 -2.3274 2.1331
-7.0760 -2.5830 2.1331
-6.9786 -2.8352 2.1331
-6.8721 -3.0838 2.1331
-6.7568 -3.3284 2.1331
-6.6327 -3.5687 2.1331
-6.5002 -3.8044 2.1331
-6.3593 -4.0352 2.1331
-6.2102 -4.2608 2.1331
-6.1772 -4.5728 2.1769
-6.1731 -4.9224 2.2364
-5.9923 -5.1407 2.2364
-5.8038 -5.3524 2.2364
-5.6078 -5.5572 2.2364
-5.4046 -5.7548 2.2364
-5.1944 -5.9450 2.2364
-4.9775 -6.1275 2.2364
-4.7543 -6.3021 2.2364
-4.5249 -6.4686 2.2364
-4.2897 -6.6267 2.2364
-4.0490 -6.7764 2.2364
-3.8030 -6.9172 2.2364
-3.5522 -7.0492 2.2364
-3.2969 -7.1721 2.2364
-3.0372 -7.2857 2.2364
-2.7737 -7.3900 2.2364
-2.5066 -7.4847 2.2364
-2.2363 -7.5698 2.2364
-1.9631 -7.6452 2.2364
-1.6873 -7.7106 2.2364
-1.4095 -7.7662 2.2364
-1.1297 -7.8118 2.2364
-0.8486 -7.8472 2.2364
-0.5663 -7.8726 2.2364
-0.2833 -7.8879 2.2364
0.0000 -7.2651 2.2364
0.2608 -7.2604 2.2364
0.5213 -7.2464 2.2364
0.7811 -7.2230 2.2364
1.0399 -7.1903 2.2364
1.2974 -7.1484 2.2364
1.5531 -7.0973 2.2364
1.8069 -7.0370 2.2364
1.9635 -6.6465 2.1333
2.2009 -6.5718 2.1333
2.4354 -6.4886 2.1333
2.5570 -6.1336 2.0455
2.8947 -6.2973 2.1333
3.1190 -6.1894 2.1333
2.0594 -3.7457 1.3157
2.1992 -3.6805 1.3196
2.3400 -3.6148 1.3253
2.4822 -3.5485 1.3328
2.6263 -3.4813 1.3421
2.7725 -3.4130 1.3533
2.9215 -3.3436 1.3665
4.7454 -5.0528 2.1333
4.9238 -4.8793 2.1333
5.0959 -4.6995 2.1333
5.2614 -4.5136 2.1333
5.4202 -4.3220 2.1333
5.5720 -4.1247 2.1333
5.7166 -3.9221 2.1333
5.8538 -3.7145 2.1333
6.0032 -3.5136 2.1403
6.1257 -3.2959 2.1403
6.2402 -3.0740 2.1403
6.3467 -2.8481 2.1403
6.4450 -2.6185 2.1403
6.3927 -2.3335 2.0937
6.3497 -2.0627 2.0540
6.3629 -1.8172 2.0358
6.4002 -1.5817 2.0282
6.5394 -1.3691 2.0553
6.6533 -1.1453 2.0768
6.7862 -0.9188 2.1065
6.9243 -0.6855 2.1403
6.9447 -0.4365 2.1403
6.4388 -0.1730 1.9811
6.4387 0.0582 1.9804
5.3123 0.2389 1.6355
6.0804 0.4927 1.8762
6.0813 0.7133 1.8831
6.0822 0.9358 1.8925
6.0830 1.1608 1.9045
6.0839 1.3891 1.9191
6.0848 1.6211 1.9364
5.6241 1.7168 1.8082
5.3166 1.8340 1.7294
5.3177 2.0508 1.7525
5.8975 2.5212 1.9721
5.8964 2.7751 2.0037
5.8953 3.0377 2.0390
5.8942 3.3100 2.0784
5.6451 3.4424 2.0328
5.3272 3.5169 1.9625
5.4306 3.8720 2.0504
5.5019 4.2288 2.1333
5.3467 4.4237 2.1333
5.1846 4.6128 2.1333
5.0158 4.7960 2.1333
4.8405 4.9731 2.1333
4.6589 5.1437 2.1333
4.4714 5.3077 2.1333
4.2781 5.4649 2.1333
4.0792 5.6151 2.1333
3.8751 5.7579 2.1333
3.6660 5.8934 2.1333
2.4640 4.2977 1.5226
2.2637 4.2989 1.4933
3.0114 6.2536 2.1333
2.7850 6.3577 2.1333
2.5550 6.4537 2.1333
2.3217 6.5413 2.1333
2.0855 6.6205 2.1333
1.8730 6.7869 2.1638
1.6827 7.0795 2.2364
1.4275 7.1353 2.2364
1.1705 7.1820 2.2364
0.9120 7.2194 2.2364
0.6523 7.2475 2.2364
0.3917 7.2663 2.2364
0.1306 7.2757 2.2364
-0.1306 7.2757 2.2364
-0.3917 7.2663 2.2364
-0.6522 7.2475 2.2364
-0.9119 7.2194 2.2364
-1.1705 7.1820 2.2364
-1.4275 7.1353 2.2364
-1.6827 7.0794 2.2364
-1.9357 7.0144 2.2364
-2.1862 6.9403 2.2364
-2.4339 6.8573 2.2364
-2.6784 6.7655 2.2364
-2.9195 6.6649 2.2364
-3.1568 6.5557 2.2364
-3.3900 6.4381 2.2364
-3.6189 6.3122 2.2364
-3.8431 6.1781 2.2364
-4.0623 6.0361 2.2364
-4.2763 5.8863 2.2364
-4.4847 5.7289 2.2364
-4.6874 5.5641 2.2364
-4.8840 5.3922 2.2364
-5.0743 5.2133 2.2364
-5.2580 5.0277 2.2364
-5.4350 4.8356 2.2364
-5.6049 4.6373 2.2364
-5.7676 4.4330 2.2364
-5.9229 4.2230 2.2364
-6.0705 4.0076 2.2364
-6.1770 3.7667 2.2244
-6.1781 3.4695 2.1786
-6.1878 3.1884 2.1403
-6.2771 2.9543 2.1331
-6.3894 2.7315 2.1367
-6.4725 2.4962 2.1331
-6.5578 2.2622 2.1331
-6.6345 2.0253 2.1331
-6.7028 1.7858 2.1331
-6.7624 1.5440 2.1331
-6.8132 1.3002 2.1331
-6.8553 1.0547 2.1331
-6.8886 0.8080 2.1331
-6.9129 0.5602 2.1331
-6.9284 0.3116 2.1331
-6.9349 0.0627 2.1331
-6.9325 -0.1862 2.1331
-6.9211 -0.4349 2.1331
-6.9009 -0.6831 2.1331
-6.8717 -0.9304 2.1331
-6.8337 -1.1764 2.1331
-6.7868 -1.4209 2.1331
-6.7313 -1.6636 2.1331
-6.6670 -1.9041 2.1331
-6.5942 -2.1421 2.1331
-6.5129 -2.3774 2.1331
-6.4232 -2.6096 2.1331
-6.3252 -2.8384 2.1331
-6.2191 -3.0635 2.1331
-6.1817 -3.3260 2.1600
-6.1757 -3.6145 2.2019
-6.1365 -3.8939 2.2364
-5.9927 -4.1115 2.2364
-5.8411 -4.3239 2.2364
-5.6820 -4.5307 2.2364
-5.5155 -4.7316 2.2364
-5.3420 -4.9265 2.2364
-5.1616 -5.1150 2.2364
-4.9745 -5.2969 2.2364
-4.7811 -5.4719 2.2364
-4.5815 -5.6399 2.2364
-4.3760 -5.8007 2.2364
-4.1649 -5.9539 2.2364
-3.9484 -6.0995 2.2364
-3.7269 -6.2372 2.2364
-3.5005 -6.3669 2.2364
-3.2696 -6.4884 2.2364
-3.0346 -6.6015 2.2364
-2.7956 -6.7061 2.2364
-2.5530 -6.8021 2.2364
-2.3072 -6.8893 2.2364
-2.0584 -6.9676 2.2364
-1.8069 -7.0369 2.2364
-1.5531 -7.0972 2.2364
-1.2973 -7.1484 2.2364
-1.0399 -7.1903 2.2364
-0.7811 -7.2230 2.2364
-0.5213 -7.2463 2.2364
-0.2608 -7.2604 2.2364
0.0000 -6.7228 2.2364
0.2414 -6.7184 2.2364
0.4824 -6.7055 2.2364
0.7228 -6.6838 2.2364
0.9623 -6.6536 2.2364
1.2005 -6.6148 2.2364
1.4372 -6.5675 2.2364
1.6721 -6.5117 2.2364
1.8706 -6.3320 2.1963
2.0366 -6.0812 2.1333
2.2536 -6.0042 2.1333
2.4677 -5.9195 2.1333
2.6787 -5.8272 2.1333
2.8862 -5.7273 2.1333
2.0594 -3.7457 1.4218
2.1992 -3.6805 1.4261
2.3400 -3.6148 1.4323
2.4822 -3.5484 1.4404
2.6263 -3.4813 1.4504
2.7725 -3.4130 1.4625
2.9215 -3.3435 1.4767
4.3911 -4.6756 2.1333
4.5562 -4.5150 2.1333
4.7154 -4.3486 2.1333
4.8686 -4.1766 2.1333
5.0155 -3.9993 2.1333
5.1560 -3.8167 2.1333
5.2898 -3.6292 2.1333
5.4168 -3.4371 2.1333
5.5368 -3.2405 2.1333
5.6497 -3.0397 2.1333
5.7553 -2.8350 2.1333
5.8535 -2.6267 2.1333
5.9637 -2.4229 2.1403
6.0470 -2.2073 2.1403
6.1225 -1.9889 2.1403
6.1901 -1.7679 2.1403
6.2498 -1.5446 2.1403
6.3014 -1.3193 2.1403
6.3448 -1.0922 2.1403
6.3801 -0.8638 2.1403
6.4072 -0.6342 2.1403
6.4260 -0.4039 2.1403
5.4312 -0.1459 1.8060
5.4312 0.0492 1.8054
5.3184 0.2393 1.7696
5.8943 0.4776 1.9656
5.8951 0.6915 1.9728
5.8960 0.9072 1.9827
5.8968 1.1253 1.9952
5.8977 1.3466 2.0105
5.8986 1.5715 2.0287
5.6242 1.7169 1.9542
5.3231 1.8363 1.8712
5.3243 2.0534 1.8963
5.7726 2.4678 2.0862
5.7262 2.6950 2.1030
5.7070 2.9407 2.1333
5.5979 3.1437 2.1333
5.4816 3.3427 2.1333
5.3345 3.5217 2.1239
5.2279 3.7275 2.1333
5.0908 3.9128 2.1333
4.9472 4.0931 2.1333
4.7972 4.2682 2.1333
4.6410 4.4377 2.1333
4.4788 4.6015 2.1333
4.3108 4.7594 2.1333
4.1373 4.9111 2.1333
3.9584 5.0566 2.1333
3.7744 5.1955 2.1333
3.5855 5.3277 2.1333
3.3920 5.4530 2.1333
2.4610 4.2926 1.6436
2.2610 4.2939 1.6120
2.7863 5.7863 2.1333
2.5768 5.8826 2.1333
2.3640 5.9714 2.1333
2.1482 6.0524 2.1333
1.9296 6.1257 2.1333
1.7911 6.4902 2.2364
1.5570 6.5504 2.2364
1.3208 6.6021 2.2364
1.0830 6.6453 2.2364
0.8438 6.6799 2.2364
0.6035 6.7059 2.2364
0.3624 6.7232 2.2364
0.1209 6.7319 2.2364
-0.1208 6.7319 2.2364
