ply
format ascii 1.0
element vertex 2076
property float32 x
property float32 y
property float32 z
end_header
-13.2589 14.6411 -1.6404
-6.5979 6.7799 -0.7862
-13.8185 13.2156 -1.5902
-14.4892 12.8938 -1.6143
-15.0678 12.4690 -1.6291
-15.2048 11.6889 -1.5987
-15.3367 10.9375 -1.5715
-15.4642 10.2115 -1.5473
-15.6213 9.5281 -1.5291
-15.7420 8.8427 -1.5102
-6.5326 3.3670 -0.6152
-6.5324 3.0753 -0.6050
-6.5322 2.7934 -0.5958
-6.5320 2.5200 -0.5877
-6.5318 2.2541 -0.5805
-6.5316 1.9947 -0.5743
-7.0910 1.8901 -0.6177
-15.4468 3.5287 -1.3350
-15.4054 2.9417 -1.3227
-15.6020 2.4024 -1.3326
-16.1172 1.8924 -1.3712
-17.1588 1.3925 -1.4561
-17.0165 0.7675 -1.4421
-17.3735 0.1593 -1.4723
-17.4833 -0.4676 -1.4835
-17.5947 -1.1036 -1.4968
-17.7080 -1.7507 -1.5123
-17.8236 -2.4110 -1.5300
-17.8203 -3.0655 -1.5396
-17.0969 -3.5773 -1.4887
-16.7982 -4.1494 -1.4760
-16.7469 -4.7807 -1.4870
-17.1212 -5.5596 -1.5384
-24.0758 -8.7852 -2.1921
-21.6263 -8.7834 -1.9983
-19.5757 -8.7819 -1.8383
-17.8296 -8.7806 -1.7043
-16.3214 -8.7795 -1.5906
-16.2433 -9.5046 -1.6165
-16.3007 -10.3411 -1.6594
-16.3587 -11.2213 -1.7065
-16.2414 -12.0205 -1.7395
-16.2428 -12.9494 -1.7896
-16.3566 -14.0295 -1.8578
-16.2392 -14.9736 -1.9056
-16.3550 -16.2046 -1.9875
-16.2375 -17.2868 -2.0487
-15.9438 -18.2447 -2.0942
-16.4020 -20.1883 -2.2495
-16.2843 -21.5828 -2.3395
-16.3194 -23.3262 -2.4646
-16.2817 -25.1485 -2.5949
-16.2801 -27.2426 -2.7501
-22.9346 -41.7095 -4.1265
-23.1621 -45.9581 -4.4634
-30.5368 -66.4229 -6.3426
-24.5853 -58.9686 -5.5447
-17.1527 -45.6949 -4.2372
-15.3042 -45.6935 -4.1846
-13.4997 -45.6921 -4.1383
-11.7333 -45.6908 -4.0982
-6.5448 -29.9050 -2.6601
-8.7085 -47.9810 -4.2378
-9.0555 -62.6113 -5.4983
2.5425 -70.7596 -4.5502
5.0909 -70.7577 -4.5583
5.9585 -55.0940 -3.5601
5.9944 -41.4439 -2.6897
6.0808 -33.5015 -2.1864
5.7305 -26.1836 -1.7206
5.6379 -21.9543 -1.4545
6.2466 -21.1427 -1.4142
6.9165 -20.6507 -1.3964
7.4148 -19.7534 -1.3522
6.0611 -14.5379 -1.0089
6.1716 -13.4245 -0.9459
6.5931 -13.0822 -0.9373
7.0286 -12.7828 -0.9327
7.6010 -12.7197 -0.9467
6.5570 -10.1282 -0.7703
6.5129 -9.3096 -0.7249
6.6898 -8.8668 -0.7081
7.0824 -8.7177 -0.7154
7.3505 -8.4117 -0.7109
7.8128 -8.3181 -0.7256
7.9052 -7.8329 -0.7069
7.8624 -7.2500 -0.6787
7.9625 -6.8300 -0.6651
7.9605 -6.3468 -0.6448
7.9037 -5.8500 -0.6221
7.9598 -5.4604 -0.6100
7.9595 -5.0499 -0.5951
7.9592 -4.6576 -0.5815
7.9025 -4.2512 -0.5652
7.9022 -3.8920 -0.5541
7.3683 -3.3059 -0.5074
6.6315 -2.6937 -0.4492
6.4300 -2.3466 -0.4290
6.5511 -2.1276 -0.4312
6.5509 -1.8704 -0.4260
6.4288 -1.5883 -0.4135
6.5609 -1.3731 -0.4180
6.6751 -1.1486 -0.4219
6.9947 -0.9465 -0.4391
7.3028 -0.7224 -0.4559
7.7948 -0.4893 -0.4846
10.5287 0.8539 -0.6520
7.7912 0.9144 -0.4835
7.2916 1.1224 -0.4541
6.9973 1.3358 -0.4379
6.6498 1.5187 -0.4188
6.5359 1.7417 -0.4148
6.3827 1.9488 -0.4087
6.4931 2.2403 -0.4202
6.4929 2.5045 -0.4252
6.4216 2.7457 -0.4262
6.5514 3.0838 -0.4413
7.2971 3.7605 -0.4997
7.8414 4.4042 -0.5469
7.8411 4.7821 -0.5579
7.8972 5.2142 -0.5742
7.8969 5.6311 -0.5878
7.7999 5.9956 -0.5956
7.8399 6.4870 -0.6155
7.8962 7.0260 -0.6387
7.8954 7.5502 -0.6595
7.8387 8.0541 -0.6779
7.8382 8.6546 -0.7036
7.4156 8.8034 -0.6931
7.1087 9.0815 -0.6939
6.7578 9.3027 -0.6913
6.4920 9.6471 -0.6986
6.4871 10.4292 -0.7373
7.3553 12.8301 -0.8873
6.9552 13.2095 -0.8951
6.5543 13.6120 -0.9054
6.4100 14.6341 -0.9569
7.8497 19.8286 -1.2768
7.3354 20.6681 -1.3125
6.6805 21.2088 -1.3302
6.9727 25.2678 -1.5676
6.3691 26.7969 -1.6467
6.6576 33.2785 -2.0286
6.8030 41.7432 -2.5276
6.4239 50.8543 -3.0630
6.7455 74.9532 -4.4966
-6.6788 33.3863 -2.0366
-10.4284 43.8780 -2.6987
-12.1072 43.8768 -2.7247
-13.8196 43.8755 -2.7549
-15.5710 43.8742 -2.7895
-17.3676 43.8729 -2.8288
-10.9799 25.0681 -1.6417
-11.7255 24.3523 -1.6223
-12.6276 23.9835 -1.6280
-13.1259 22.8965 -1.5863
-13.3714 21.4977 -1.5228
-13.6277 20.2510 -1.4694
-12.6596 17.4276 -1.2978
-13.0828 16.7139 -1.2799
-13.7822 16.3617 -1.2912
-13.3578 14.7493 -1.2021
-6.5973 6.7787 -0.5720
-13.8272 13.2229 -1.1581
-14.4997 12.9021 -1.1760
-15.1153 12.5073 -1.1900
-15.2149 11.6957 -1.1653
-7.1635 5.1082 -0.5348
-7.6488 5.0503 -0.5578
-7.9328 4.8381 -0.5661
-7.7419 4.3484 -0.5417
-7.9322 4.0879 -0.5450
-7.9320 3.7337 -0.5361
-7.9317 3.3914 -0.5281
-7.9315 3.0594 -0.5211
-7.7483 2.6734 -0.5031
-7.9310 2.4216 -0.5096
-7.9308 2.1135 -0.5051
-7.9507 1.8159 -0.5025
-15.5265 2.9641 -0.9752
-15.6025 2.4017 -0.9752
-16.2464 1.9067 -1.0118
-17.1729 1.3927 -1.0671
-17.2450 0.7769 -1.0706
-17.4467 0.1590 -1.0835
-17.4626 -0.4679 -1.0862
-17.6694 -1.1092 -1.1023
-17.7835 -1.7591 -1.1141
-17.8412 -2.4143 -1.1239
-17.9486 -3.0885 -1.1383
-17.2154 -3.6030 -1.1007
-16.8103 -4.1533 -1.0850
-16.8655 -4.8155 -1.1004
-17.1517 -5.5704 -1.1328
-24.0722 -8.7852 -1.6115
-21.6234 -8.7834 -1.4695
-19.5733 -8.7819 -1.3523
-17.8276 -8.7806 -1.2541
-16.3197 -8.7795 -1.1708
-16.2433 -9.5055 -1.1903
-16.3012 -10.3424 -1.2223
-16.3587 -11.2223 -1.2573
-16.2414 -12.0215 -1.2820
-16.2434 -12.9508 -1.3193
-16.3566 -14.0305 -1.3698
-16.2392 -14.9746 -1.4054
-16.3550 -16.2057 -1.4662
-16.2375 -17.2880 -1.5116
-15.9438 -18.2459 -1.5455
-16.4020 -20.1896 -1.6605
-16.2843 -21.5840 -1.7272
-16.3996 -23.4422 -1.8288
-16.2817 -25.1499 -1.9165
-16.2801 -27.2441 -2.0314
-23.2758 -42.3323 -3.0939
-30.5764 -60.6726 -4.3535
-30.5368 -66.4262 -4.6870
-24.5841 -58.9686 -4.0977
-17.1519 -45.6949 -3.1317
-15.3035 -45.6935 -3.0931
-13.4991 -45.6921 -3.0592
-11.7328 -45.6908 -3.0297
-6.5423 -29.8948 -1.9659
-8.7084 -47.9821 -3.1334
-6.5118 -60.2171 -3.8925
2.5443 -70.8194 -2.9536
5.0949 -70.8193 -2.9588
4.5235 -41.8284 -1.7527
5.9940 -41.4439 -1.7439
6.0837 -33.5199 -1.4182
7.1560 -32.6989 -1.3928
6.4964 -25.2991 -1.0862
6.2296 -21.0864 -0.9138
6.8995 -20.6012 -0.9023
7.4148 -19.7546 -0.8757
6.0611 -14.5388 -0.6532
6.1714 -13.4249 -0.6122
6.5928 -13.0824 -0.6064
7.0282 -12.7829 -0.6032
7.6005 -12.7197 -0.6121
6.5570 -10.1289 -0.4979
6.5128 -9.3100 -0.4683
6.6896 -8.8671 -0.4572
7.0821 -8.7179 -0.4618
7.3513 -8.4131 -0.4587
7.8123 -8.3182 -0.4679
7.9052 -7.8335 -0.4556
7.8624 -7.2506 -0.4372
7.9652 -6.8329 -0.4283
7.9605 -6.3473 -0.4149
7.9037 -5.8506 -0.4001
7.9598 -5.4610 -0.3921
7.9595 -5.0504 -0.3822
7.9592 -4.6581 -0.3733
7.9025 -4.2517 -0.3626
7.9022 -3.8925 -0.3552
7.3681 -3.3062 -0.3251
6.6317 -2.6941 -0.2876
6.4301 -2.3470 -0.2745
6.5511 -2.1279 -0.2757
6.5509 -1.8707 -0.2721
6.4287 -1.5886 -0.2640
6.5607 -1.3734 -0.2667
6.6749 -1.1489 -0.2689
6.9943 -0.9468 -0.2797
7.3023 -0.7227 -0.2902
7.7930 -0.4896 -0.3081
10.5355 0.8539 -0.4137
7.7927 0.9142 -0.3065
7.2920 1.1221 -0.2876
6.9977 1.3355 -0.2771
6.6495 1.5183 -0.2648
6.5361 1.7414 -0.2621
6.3827 1.9485 -0.2580
6.4931 2.2400 -0.2651
6.4929 2.5042 -0.2680
6.4222 2.7456 -0.2685
6.5512 3.0834 -0.2778
7.2973 3.7602 -0.3144
7.8414 4.4037 -0.3438
7.8411 4.7817 -0.3505
7.8972 5.2137 -0.3605
7.8969 5.6306 -0.3689
7.7999 5.9951 -0.3735
7.8399 6.4865 -0.3857
7.8958 7.0252 -0.4000
7.8954 7.5497 -0.4129
7.8387 8.0536 -0.4241
7.8383 8.6540 -0.4400
7.4160 8.8033 -0.4332
7.1090 9.0813 -0.4335
6.7592 9.3042 -0.4318
6.4922 9.6467 -0.4360
6.4871 10.4287 -0.4601
7.3556 12.8300 -0.5534
6.9555 13.2094 -0.5581
6.5545 13.6117 -0.5643
6.4103 14.6341 -0.5963
7.8497 19.8276 -0.7953
7.3357 20.6679 -0.8174
6.6632 21.1528 -0.8261
7.0122 25.4099 -0.9813
6.4018 26.9335 -1.0301
6.6701 33.3396 -1.2648
6.7772 41.5831 -1.5668
6.3436 50.2174 -1.8820
6.8331 75.9254 -2.8341
-6.6788 33.3843 -1.2680
-10.4581 44.0004 -1.6853
-12.1430 44.0037 -1.7021
-13.8204 43.8755 -1.7165
-15.5720 43.8742 -1.7386
-13.9389 35.2093 -1.4154
-11.2219 25.6190 -1.0463
-11.7309 24.3620 -1.0126
-12.6619 24.0471 -1.0188
-13.1886 23.0044 -0.9952
-13.4139 21.5647 -0.9543
-13.6107 20.2244 -0.9172
-12.7484 17.5487 -0.8171
-13.0514 16.6727 -0.7988
-13.7616 16.3361 -0.8070
-13.3573 14.7477 -0.7528
-6.5967 6.7776 -0.3584
-13.9251 13.3155 -0.7312
-14.5006 12.9019 -0.7379
-15.1155 12.5064 -0.7471
-15.3033 11.7626 -0.7363
-15.4360 11.0063 -0.7244
-15.4757 10.2171 -0.7099
-7.9896 4.8723 -0.3589
-8.0185 4.5032 -0.3534
-8.0182 4.1317 -0.3472
-7.9883 3.7598 -0.3405
-8.0177 3.4277 -0.3370
-8.0175 3.0921 -0.3328
-8.0172 2.7658 -0.3291
-8.0170 2.4474 -0.3259
-7.2770 1.9389 -0.2934
-15.4463 3.5269 -0.6185
-15.5266 2.9633 -0.6183
-15.6031 2.4010 -0.6188
-16.2477 1.9060 -0.6426
-17.1730 1.3919 -0.6781
-17.2450 0.7760 -0.6808
-17.4469 0.1582 -0.6895
-17.4628 -0.4688 -0.6918
-17.6695 -1.1101 -0.7026
-17.7836 -1.7600 -0.7106
-17.8414 -2.4152 -0.7173
-17.9469 -3.0891 -0.7270
-17.2166 -3.6041 -0.7036
-16.8101 -4.1541 -0.6940
-16.8939 -4.8245 -0.7055
-17.1526 -5.5716 -0.7256
-24.0687 -8.7852 -1.0328
-21.6205 -8.7834 -0.9424
-19.5709 -8.7819 -0.8678
-17.8256 -8.7806 -0.8053
-16.3180 -8.7795 -0.7522
-16.2433 -9.5065 -0.7653
-16.2427 -10.3063 -0.7835
-16.2421 -11.1433 -0.8036
-16.2414 -12.0225 -0.8257
-16.2407 -12.9497 -0.8500
-16.2371 -13.9291 -0.8767
-16.2392 -14.9757 -0.9066
-16.1718 -16.0253 -0.9356
-16.2083 -17.2580 -0.9743
-15.9438 -18.2470 -0.9984
-16.3122 -20.0802 -1.0672
-16.2843 -21.5853 -1.1166
-16.3870 -23.4256 -1.1819
-16.2817 -25.1513 -1.2399
-16.2801 -27.2456 -1.3147
-22.9321 -41.7095 -1.9734
-23.1621 -45.9628 -2.1356
-30.5368 -66.4295 -3.0360
-24.5829 -58.9686 -2.6548
-17.1510 -45.6949 -2.0294
-15.3027 -45.6935 -2.0048
-13.4985 -45.6921 -1.9831
-11.7323 -45.6908 -1.9644
-6.5396 -29.8838 -1.2742
-10.8658 -59.8714 -2.5355
-9.0555 -62.6155 -2.6368
-6.5104 -60.2053 -2.5242
2.5419 -70.7596 -1.3550
5.0900 -70.7577 -1.3570
5.9599 -55.1149 -1.0598
5.9966 -41.4649 -0.8004
6.0834 -33.5204 -0.6503
7.1555 -32.6990 -0.6382
6.4961 -25.2993 -0.4974
6.2293 -21.0868 -0.4182
6.8992 -20.6014 -0.4126
7.4148 -19.7558 -0.4001
6.0611 -14.5397 -0.2981
6.1712 -13.4253 -0.2791
6.5925 -13.0826 -0.2762
7.0278 -12.7829 -0.2744
7.6000 -12.7197 -0.2781
6.5306 -10.0887 -0.2250
6.5126 -9.3103 -0.2122
6.6893 -8.8674 -0.2068
7.0569 -8.6875 -0.2078
7.3520 -8.4146 -0.2068
7.8118 -8.3183 -0.2106
7.9052 -7.8341 -0.2048
7.8624 -7.2512 -0.1962
7.9650 -6.8333 -0.1918
7.9605 -6.3478 -0.1854
7.9037 -5.8511 -0.1784
7.9598 -5.4615 -0.1745
7.9595 -5.0509 -0.1697
7.9592 -4.6586 -0.1654
7.9025 -4.2522 -0.1603
7.9022 -3.8929 -0.1567
7.3679 -3.3065 -0.1430
6.6319 -2.6946 -0.1263
6.4301 -2.3474 -0.1202
6.5511 -2.1283 -0.1204
6.5509 -1.8711 -0.1186
6.4286 -1.5890 -0.1147
6.5606 -1.3737 -0.1156
6.6747 -1.1492 -0.1163
6.9939 -0.9471 -0.1206
7.3019 -0.7230 -0.1248
7.7912 -0.4899 -0.1321
10.5421 0.8539 -0.1756
7.7941 0.9139 -0.1296
7.2924 1.1217 -0.1213
6.9981 1.3352 -0.1166
6.6491 1.5179 -0.1111
6.5362 1.7411 -0.1096
6.3828 1.9482 -0.1076
6.4931 2.2396 -0.1103
6.4929 2.5038 -0.1112
6.4228 2.7455 -0.1111
6.5509 3.0829 -0.1146
7.2975 3.7599 -0.1294
7.8414 4.4033 -0.1411
7.8411 4.7812 -0.1435
7.8972 5.2132 -0.1472
7.8969 5.6301 -0.1503
7.7998 5.9946 -0.1518
7.8399 6.4860 -0.1564
7.8958 7.0247 -0.1618
7.8954 7.5492 -0.1667
7.8387 8.0531 -0.1708
7.8383 8.6534 -0.1769
7.4165 8.8033 -0.1738
7.1092 9.0811 -0.1736
6.7607 9.3057 -0.1726
6.4924 9.6464 -0.1740
6.4871 10.4281 -0.1833
7.3560 12.8298 -0.2201
6.9557 13.2092 -0.2217
6.5547 13.6114 -0.2238
6.4106 14.6341 -0.2362
7.8497 19.8267 -0.3147
7.3360 20.6678 -0.3231
6.6634 21.1526 -0.3263
7.0124 25.4097 -0.3873
6.4013 26.9302 -0.4064
6.6703 33.3394 -0.4985
6.8053 41.7545 -0.6199
6.4241 50.8525 -0.7507
6.8332 75.9236 -1.1160
-6.6784 33.3802 -0.5006
-10.4586 43.9999 -0.6661
-12.1437 44.0037 -0.6734
-13.8213 43.8755 -0.6798
-12.6260 35.5718 -0.5589
-17.3697 43.8729 -0.7002
-11.2226 25.6190 -0.4160
-11.7314 24.3616 -0.4032
-12.6627 24.0471 -0.4064
-13.1903 23.0059 -0.3976
-13.4141 21.5636 -0.3819
-13.6109 20.2233 -0.3678
-12.7486 17.5477 -0.3283
-13.0520 16.6723 -0.3216
-13.7610 16.3343 -0.3255
-13.3568 14.7461 -0.3044
-6.5960 6.7764 -0.1452
-13.9258 13.3151 -0.2970
-14.5014 12.9016 -0.3004
-15.1156 12.5055 -0.3049
-15.3034 11.7617 -0.3012
-7.0619 5.0349 -0.1360
-7.6264 5.0345 -0.1439
-8.0188 4.8896 -0.1485
-8.0185 4.5028 -0.1461
-8.0182 4.1313 -0.1439
-8.0180 3.7733 -0.1421
-8.0177 3.4273 -0.1405
-8.0175 3.0917 -0.1391
-8.0172 2.7653 -0.1379
-8.0170 2.4470 -0.1370
-7.2785 1.9389 -0.1237
-15.4460 3.5261 -0.2614
-15.5268 2.9625 -0.2621
-15.6036 2.4002 -0.2630
-16.2490 1.9053 -0.2739
-17.1732 1.3910 -0.2898
-17.2451 0.7751 -0.2918
-17.4470 0.1573 -0.2963
-17.4630 -0.4697 -0.2981
-17.6697 -1.1110 -0.3035
-17.7838 -1.7609 -0.3078
-17.8416 -2.4161 -0.3115
-17.9451 -3.0897 -0.3165
-17.2179 -3.6053 -0.3072
-16.8098 -4.1549 -0.3037
-16.8940 -4.8254 -0.3095
-17.1535 -5.5728 -0.3191
-24.0652 -8.7852 -0.4552
-21.6177 -8.7834 -0.4163
-19.5685 -8.7819 -0.3842
-17.8236 -8.7806 -0.3574
-16.3163 -8.7795 -0.3345
-15.9504 -9.3360 -0.3350
-15.9498 -10.1214 -0.3436
-15.9492 -10.9433 -0.3531
-15.9486 -11.8067 -0.3635
-15.9479 -12.7172 -0.3749
-15.9472 -13.6814 -0.3875
-15.9464 -14.7068 -0.4013
-15.9456 -15.8023 -0.4165
-15.9448 -16.9785 -0.4334
-15.9438 -18.2482 -0.4522
-15.9928 -19.6882 -0.4745
-15.9916 -21.1986 -0.4980
-16.2830 -23.2782 -0.5341
-16.2817 -25.1527 -0.5645
-16.2801 -27.2471 -0.5993
-23.2081 -42.2136 -0.9113
-23.2052 -46.0508 -0.9773
-30.5368 -66.4328 -1.3880
-24.5817 -58.9686 -1.2146
-17.1502 -45.6949 -0.9292
-15.3021 -45.6935 -0.9185
-13.4979 -45.6921 -0.9091
-11.7318 -45.6908 -0.9010
-6.5362 -29.8693 -0.5844
-9.0427 -49.8280 -0.9686
-9.0555 -62.6177 -1.2107
-6.5097 -60.2005 -1.1591
5.1434 -71.5052 0.2433
5.9595 -55.1149 0.1888
5.9962 -41.4649 0.1432
6.0831 -33.5210 0.1171
6.6351 -30.3228 0.1073
6.4957 -25.2996 0.0908
6.2290 -21.0870 0.0770
6.8988 -20.6016 0.0767
7.4148 -19.7570 0.0752
6.0611 -14.5406 0.0566
6.1710 -13.4257 0.0537
6.5922 -13.0828 0.0538
7.0274 -12.7830 0.0541
7.5996 -12.7197 0.0556
6.5570 -10.1302 0.0459
6.5124 -9.3107 0.0437
6.6891 -8.8676 0.0433
7.0815 -8.7184 0.0444
7.3527 -8.4160 0.0448
7.8113 -8.3184 0.0464
7.9052 -7.8347 0.0459
7.8624 -7.2517 0.0447
6.9541 -5.9665 0.0389
7.2119 -5.7514 0.0398
7.7678 -5.7510 0.0423
7.9598 -5.4620 0.0429
7.9595 -5.0514 0.0426
7.2382 -4.2370 0.0385
7.9025 -4.2526 0.0418
7.9022 -3.8934 0.0417
7.3678 -3.3069 0.0388
6.6322 -2.6951 0.0350
6.4302 -2.3477 0.0340
6.5511 -2.1287 0.0347
6.5509 -1.8714 0.0349
6.4286 -1.5893 0.0344
6.5604 -1.3740 0.0354
6.6746 -1.1496 0.0363
6.9935 -0.9474 0.0384
7.3014 -0.7234 0.0405
7.7895 -0.4902 0.0437
10.5487 0.8539 0.0627
7.7956 0.9137 0.0471
7.2928 1.1214 0.0449
6.9985 1.3349 0.0439
6.6486 1.5174 0.0425
6.5364 1.7408 0.0427
6.3828 1.9479 0.0427
6.4931 2.2393 0.0444
6.4929 2.5035 0.0455
6.4234 2.7454 0.0462
6.5507 3.0824 0.0484
7.2976 3.7596 0.0555
7.8414 4.4028 0.0614
7.6893 4.6882 0.0621
7.0748 4.6699 0.0590
7.8969 5.6297 0.0681
7.7998 5.9941 0.0697
7.8399 6.4856 0.0727
7.8958 7.0242 0.0762
7.8954 7.5487 0.0794
7.7034 7.9135 0.0808
7.8383 8.6529 0.0861
7.4169 8.8032 0.0854
7.1095 9.0809 0.0862
6.7621 9.3071 0.0864
6.4925 9.6461 0.0879
6.4871 10.4275 0.0933
7.3562 12.8297 0.1129
6.9749 13.2449 0.1149
6.5548 13.6110 0.1164
6.4091 14.6299 0.1236
7.1049 17.9446 0.1498
6.9820 19.6696 0.1625
6.6636 21.1524 0.1732
2.7977 10.1372 0.0823
2.3612 9.9333 0.0801
2.5208 12.5987 0.1010
2.0371 12.4983 0.0996
6.3488 50.2553 0.3990
6.8333 75.9236 0.6008
-10.1670 80.4779 0.6367
-6.8319 41.9158 0.3327
-6.6780 33.3762 0.2660
-10.4303 43.8780 0.3515
-12.1094 43.8768 0.3537
-13.8221 43.8755 0.3562
-15.5739 43.8742 0.3591
-14.4348 36.4576 0.3012
-11.2233 25.6190 0.2139
-11.7320 24.3613 0.2058
-12.1496 23.0713 0.1974
-12.3771 21.5862 0.1873
-13.4143 21.5625 0.1900
-13.6110 20.2223 0.1812
-12.7487 17.5468 0.1602
-13.0525 16.6719 0.1553
-13.7605 16.3325 0.1555
-13.3564 14.7445 0.1437
-6.5954 6.7753 0.0678
-13.9265 13.3148 0.1369
-14.5023 12.9013 0.1367
-15.1158 12.5046 0.1369
-15.3036 11.7608 0.1334
-7.1283 5.0817 0.0599
-7.6981 5.0813 0.0625
-8.0188 4.8891 0.0630
-8.0185 4.5023 0.0610
-8.0182 4.1308 0.0592
-8.0180 3.7728 0.0575
-8.0177 3.4268 0.0559
-8.0175 3.0913 0.0544
-8.0172 2.7649 0.0531
-8.0170 2.4466 0.0518
-7.2799 1.9389 0.0460
-15.4457 3.5252 0.0954
-15.5269 2.9617 0.0939
-15.6042 2.3995 0.0926
-16.2504 1.9047 0.0946
-17.1733 1.3901 0.0982
-16.2562 0.7299 0.0915
-17.4472 0.1564 0.0967
-17.4632 -0.4706 0.0954
-17.6698 -1.1119 0.0952
-17.7840 -1.7619 0.0947
-17.8417 -2.4170 0.0940
-17.9433 -3.0904 0.0936
-17.2191 -3.6064 0.0890
-16.8096 -4.1557 0.0863
-16.8942 -4.8263 0.0862
-17.1544 -5.5740 0.0871
-24.0617 -8.7852 0.1218
-21.6148 -8.7834 0.1092
-19.5662 -8.7819 0.0988
-17.8216 -8.7806 0.0901
-16.3146 -8.7795 0.0828
-16.2433 -9.5083 0.0828
-16.2427 -10.3081 0.0833
-16.2421 -11.1452 0.0840
-16.2414 -12.0245 0.0849
-16.2407 -12.9517 0.0860
-16.2400 -13.9336 0.0873
-16.2392 -14.9779 0.0889
-16.2384 -16.0935 0.0907
-16.2375 -17.2914 0.0928
-16.2865 -18.6417 0.0956
-16.2855 -20.0498 0.0985
-16.2843 -21.5879 0.1019
-16.2830 -23.2796 0.1058
-16.2817 -25.1541 0.1103
-16.2801 -27.2486 0.1156
-26.8690 -48.8750 0.2011
-23.7053 -47.0455 0.1881
-26.5175 -57.6917 0.2247
-24.5805 -58.9686 0.2243
-17.1494 -45.6949 0.1701
-15.3014 -45.6935 0.1668
-13.4974 -45.6921 0.1639
-11.7313 -45.6908 0.1615
-6.5351 -29.8653 0.1042
-6.8383 -37.6822 0.1301
-6.5087 -60.1932 0.2047
-2.9549 -82.2642 0.2780
-0.0003 -82.4912 2.1370
2.9601 -82.4210 2.1370
5.1430 -71.5057 1.8582
5.9591 -55.1149 1.4375
5.9958 -41.4649 1.0870
5.7806 -31.8561 0.8406
6.2368 -28.5042 0.7581
6.4499 -25.1226 0.6745
6.2287 -21.0873 0.5723
6.0278 -18.0015 0.4947
6.7232 -17.9153 0.4992
5.8918 -14.1353 0.4000
6.1708 -13.4261 0.3865
6.5283 -12.9570 0.3801
7.0270 -12.7831 0.3827
7.5991 -12.7197 0.3894
6.3865 -9.8674 0.3094
6.4471 -9.2180 0.2967
6.6594 -8.8288 0.2922
6.9414 -8.5464 0.2915
7.2920 -8.3471 0.2941
6.9706 -7.4236 0.2708
7.4576 -7.3917 0.2798
7.8624 -7.2523 0.2857
6.9692 -5.9799 0.2459
7.1037 -5.6656 0.2439
7.6532 -5.6666 0.2562
7.9598 -5.4625 0.2604
7.9595 -5.0519 0.2550
7.0186 -4.1089 0.2205
7.7019 -4.1451 0.2378
7.8330 -3.8597 0.2381
6.8801 -3.0884 0.2062
6.6324 -2.6955 0.1963
6.4303 -2.3481 0.1882
6.3869 -2.0757 0.1851
6.3913 -1.8262 0.1838
6.4285 -1.5896 0.1836
6.5603 -1.3744 0.1864
6.6744 -1.1499 0.1889
6.7986 -0.9214 0.1919
7.0376 -0.6976 0.1983
7.7877 -0.4905 0.2195
87.0067 -2.3490 2.4551
86.7861 0.7735 2.4551
86.4563 3.8772 2.4551
9.9519 0.8051 0.2841
7.7970 0.9135 0.2240
7.0669 1.0863 0.2046
6.7989 1.2965 0.1986
6.6482 1.5170 0.1962
6.5365 1.7406 0.1951
6.3829 1.9475 0.1930
6.3446 2.1877 0.1946
6.3176 2.4355 0.1968
6.3622 2.7189 0.2016
6.5504 3.0819 0.2115
6.8063 3.5060 0.2242
7.7723 4.3636 0.2617
7.5101 4.5785 0.2588
6.9061 4.5582 0.2440
7.8969 5.6292 0.2866
7.7998 5.9936 0.2913
7.3731 6.0990 0.2840
6.9058 6.1430 0.2749
7.8954 7.5481 0.3254
7.6179 7.8252 0.3260
7.0873 7.8234 0.3156
7.4173 8.8032 0.3448
7.0043 8.9460 0.3408
6.6997 9.2206 0.3424
6.4927 9.6458 0.3498
6.3173 10.1540 0.3603
7.3565 12.8295 0.4461
6.9752 13.2447 0.4521
6.5550 13.6107 0.4568
6.4112 14.6340 0.4835
6.5579 16.5625 0.5396
6.5028 18.3187 0.5893
6.6639 21.1522 0.6728
2.7979 10.1373 0.3193
2.3613 9.9333 0.3101
2.5209 12.5988 0.3904
2.0372 12.4982 0.3849
5.6922 45.0568 1.3809
5.3879 59.8621 1.8278
3.7738 70.0027 2.1321
1.3192 73.4848 2.2351
-1.3199 73.4946 2.2351
-3.9582 73.4162 2.2351
-6.5933 73.2501 2.2351
-7.8822 62.3881 1.9103
-11.8431 72.6556 2.2351
-6.6776 33.3721 1.0327
-10.4310 43.8780 1.3676
-12.1102 43.8768 1.3791
-13.8230 43.8755 1.3926
-13.0786 36.8423 1.1824
-14.1838 35.8214 1.1640
-11.2055 25.5769 0.8426
-11.7325 24.3609 0.8149
-12.0975 22.9709 0.7814
-12.1500 21.1889 0.7341
-12.3370 19.8297 0.7009
-13.3982 19.9047 0.7190
-12.7489 17.5459 0.6488
-13.0531 16.6715 0.6323
-13.7597 16.3305 0.6366
-13.3559 14.7428 0.5919
-6.5948 6.7742 0.2807
-13.9272 13.3144 0.5710
-14.5031 12.9011 0.5740
-14.3184 11.8439 0.5483
-15.3038 11.7599 0.5682
-7.1289 5.0817 0.2572
-7.6988 5.0813 0.2703
-8.0188 4.8886 0.2746
-8.0185 4.5018 0.2682
-8.0182 4.1303 0.2624
-8.0180 3.7724 0.2571
-8.0177 3.4263 0.2523
-8.0175 3.0908 0.2480
-8.0172 2.7645 0.2441
-8.0170 2.4461 0.2406
-7.2814 1.9389 0.2157
-15.4454 3.5243 0.4523
-15.3538 2.9279 0.4450
-15.6047 2.3988 0.4482
-16.0450 1.8798 0.4573
-17.1728 1.3892 0.4864
-16.2147 0.7272 0.4569
-17.4473 0.1555 0.4897
-17.4634 -0.4715 0.4889
-16.2539 -1.0236 0.4545
-17.7841 -1.7628 0.4973
-16.9462 -2.2966 0.4745
-17.9415 -3.0910 0.5037
-17.2203 -3.6076 0.4854
-16.8093 -4.1565 0.4764
-16.8944 -4.8272 0.4820
-17.1553 -5.5752 0.4935
-24.0582 -8.7852 0.6987
-21.6120 -8.7834 0.6347
-19.5638 -8.7819 0.5819
-17.8196 -8.7806 0.5376
-16.3129 -8.7795 0.5001
-16.2433 -9.5092 0.5068
-16.2427 -10.3091 0.5167
-16.2421 -11.1462 0.5278
-16.2414 -12.0255 0.5402
-16.2407 -12.9528 0.5540
-16.2400 -13.9347 0.5694
-16.2392 -14.9789 0.5866
-16.2384 -16.0946 0.6057
-16.2117 -17.2651 0.6262
-16.2865 -18.6428 0.6533
-16.2855 -20.0510 0.6804
-16.2843 -21.5892 0.7110
-16.2830 -23.2809 0.7457
-16.2817 -25.1555 0.7853
-16.2801 -27.2500 0.8306
-17.6119 -32.0379 0.9553
-17.4848 -34.7022 1.0141
-17.7523 -38.6239 1.1080
-22.3206 -53.5497 1.5105
-17.1486 -45.6949 1.2695
-15.3007 -45.6935 1.2523
-13.4968 -45.6921 1.2372
-11.7309 -45.6908 1.2241
-6.5339 -29.8613 0.7928
-9.5704 -52.7392 1.3895
-11.7751 -81.4292 2.1321
-6.4994 -60.1091 1.5663
-5.9050 -82.0943 2.1321
-2.9559 -82.2893 2.1330
-0.0003 -46.1249 2.2351
1.6551 -46.0901 2.2351
2.3899 -33.2306 1.6149
4.7267 -43.7202 2.1321
5.9954 -41.4649 2.0319
5.1655 -28.4681 1.4037
6.2364 -28.5042 1.4162
6.4951 -25.3001 1.2683
5.8009 -19.6402 0.9949
5.9984 -17.9151 0.9184
6.1532 -16.3975 0.8519
5.8917 -14.1359 0.7454
6.1706 -13.4265 0.7198
6.5280 -12.9571 0.7073
7.0266 -12.7832 0.7117
7.5986 -12.7197 0.7236
6.5570 -10.1315 0.5899
6.5120 -9.3114 0.5560
6.6886 -8.8681 0.5441
7.0809 -8.7188 0.5507
6.5351 -7.4812 0.4876
6.9703 -7.4238 0.5005
7.4569 -7.3915 0.5166
7.8624 -7.2529 0.5270
6.9689 -5.9801 0.4530
7.1031 -5.6656 0.4488
7.6523 -5.6665 0.4710
7.9598 -5.4630 0.4782
6.6757 -4.2374 0.3922
7.0179 -4.1089 0.4039
7.7012 -4.1452 0.4350
7.9012 -3.8938 0.4388
6.8808 -3.0891 0.3763
6.6326 -2.6960 0.3577
6.4303 -2.3485 0.3426
6.3870 -2.0760 0.3366
6.3912 -1.8265 0.3337
6.4285 -1.5900 0.3330
6.5601 -1.3747 0.3375
6.6743 -1.1502 0.3416
6.7983 -0.9217 0.3466
7.0370 -0.6979 0.3578
7.7860 -0.4907 0.3954
48.3463 -1.3077 2.4551
48.2851 0.4279 2.4551
48.1621 2.1574 2.4551
11.2091 0.9062 0.5736
7.7986 0.9133 0.4011
7.0675 1.0861 0.3659
6.7992 1.2962 0.3547
6.6477 1.5165 0.3500
6.5367 1.7403 0.3477
6.3829 1.9472 0.3435
6.3447 2.1874 0.3460
6.3175 2.4351 0.3496
6.3622 2.7185 0.3577
6.5502 3.0815 0.3748
6.8055 3.5053 0.3969
7.8402 4.4013 0.4668
7.5109 4.5786 0.4573
6.9058 4.5576 0.4307
6.5504 4.6690 0.4192
7.7997 5.9931 0.5132
7.3736 6.0989 0.4999
6.9055 6.1423 0.4833
6.4683 6.1833 0.4685
7.6182 7.8249 0.5723
7.0878 7.8234 0.5538
6.5590 7.7840 0.5345
7.1101 9.0805 0.6062
6.7650 9.3100 0.6054
6.4928 9.6455 0.6121
6.4871 10.4264 0.6470
7.3827 12.8744 0.7825
6.9219 13.1428 0.7837
6.5552 13.6104 0.7976
6.4409 14.7011 0.8479
6.5195 16.4645 0.9359
6.3835 17.9817 1.0090
6.2087 19.7066 1.0930
2.7980 10.1373 0.5565
2.3615 9.9334 0.5405
2.5210 12.5988 0.6803
2.0372 12.4981 0.6706
5.0454 39.9355 2.1321
3.6081 40.0873 2.1321
2.1666 40.1895 2.1321
0.7573 42.1880 2.2351
-0.7578 42.1911 2.2351
-2.2723 42.1423 2.2351
-3.7845 42.0413 2.2351
-5.2926 41.8883 2.2351
-6.4811 39.7579 2.1319
-6.6617 33.2903 1.7961
-9.3242 39.2198 2.1319
-10.7474 38.9367 2.1351
-12.1444 38.5453 2.1351
-13.5279 38.1057 2.1351
-13.6729 34.5289 1.9598
-11.2247 25.6191 1.4750
-11.0726 22.9892 1.3447
-11.2590 21.3774 1.2723
-12.1759 21.2327 1.2878
-12.2616 19.7072 1.2202
-13.3994 19.9052 1.2603
-12.6237 17.3724 1.1269
-13.0537 16.6711 1.1100
-13.7497 16.3174 1.1174
-13.3554 14.7412 1.0406
-6.5942 6.7730 0.4939
-13.8685 13.2573 1.0014
-14.5493 12.9411 1.0151
-14.3806 11.8944 0.9717
-15.3039 11.7590 1.0036
-7.1296 5.0817 0.4547
-7.6995 5.0813 0.4785
-8.0188 4.8881 0.4864
-8.0185 4.5013 0.4756
-8.0182 4.1299 0.4658
-8.0180 3.7719 0.4570
-8.0177 3.4259 0.4490
-8.0175 3.0904 0.4418
-8.0172 2.7640 0.4354
-8.0170 2.4457 0.4297
-7.2828 1.9389 0.3858
-15.4452 3.5234 0.8097
-15.3539 2.9271 0.7976
-15.6053 2.3981 0.8044
-16.0460 1.8791 0.8218
-17.1729 1.3883 0.8750
-15.7483 0.7054 0.7993
-17.4475 0.1546 0.8833
-17.4636 -0.4724 0.8830
-16.0369 -1.0108 0.8109
-17.7843 -1.7637 0.9004
-17.0705 -2.3143 0.8665
-17.9398 -3.0916 0.9143
-17.1073 -3.5848 0.8764
-16.8091 -4.1573 0.8669
-16.7230 -4.7791 0.8694
-17.1562 -5.5764 0.9004
-24.0547 -8.7852 1.2763
-21.6091 -8.7834 1.1608
-19.5614 -8.7819 1.0655
-17.8176 -8.7806 0.9856
-16.3112 -8.7795 0.9178
-16.2433 -9.5102 0.9313
-16.2427 -10.3100 0.9506
-16.2421 -11.1471 0.9721
-16.2414 -12.0265 0.9960
-16.2407 -12.9538 1.0225
-16.2400 -13.9357 1.0520
-16.2392 -14.9800 1.0849
-16.2384 -16.0957 1.1214
-16.2117 -17.2662 1.1604
-16.2865 -18.6440 1.2116
-16.2855 -20.0522 1.2630
-16.2843 -21.5904 1.3210
-16.2830 -23.2823 1.3865
-16.2817 -25.1569 1.4611
-16.2801 -27.2515 1.5466
-13.1195 -23.8670 1.3259
-17.4298 -34.5948 1.8846
-18.3396 -39.9038 2.1351
-16.9055 -40.5603 2.1351
-15.7366 -41.9342 2.1751
-14.2281 -42.4925 2.1751
-12.6992 -42.9941 2.1751
-11.1520 -43.4380 2.1751
-6.5165 -29.7829 1.4782
-7.8522 -43.2727 2.1319
-6.2951 -43.5347 2.1319
-4.9582 -45.8565 2.2351
-3.3093 -46.0081 2.2351
-1.6559 -46.0977 2.2351
-0.0003 -31.4543 2.2351
1.1286 -31.4316 2.2351
2.1516 -29.9204 2.1321
2.4453 -22.6194 1.6173
4.2909 -29.6784 2.1321
5.0883 -28.0450 2.0270
6.2360 -28.5041 2.0756
5.0317 -19.6011 1.4400
5.2795 -17.8759 1.3268
5.4776 -16.3605 1.2286
6.1529 -16.3975 1.2477
5.8916 -14.1366 1.0916
6.1704 -13.4269 1.0538
6.5277 -12.9573 1.0352
7.0262 -12.7832 1.0414
7.5981 -12.7197 1.0584
6.4563 -9.9766 0.8495
6.5119 -9.3117 0.8128
6.7198 -8.9102 0.7989
7.0043 -8.6252 0.7960
6.4356 -7.3678 0.7013
6.9391 -7.3911 0.7274
7.4561 -7.3913 0.7539
6.5051 -6.0012 0.6361
6.5568 -5.6270 0.6215
7.1025 -5.6656 0.6541
7.6513 -5.6662 0.6861
7.9598 -5.4635 0.6964
6.5828 -4.1789 0.5630
7.0172 -4.1089 0.5877
7.7005 -4.1453 0.6327
7.9012 -3.8942 0.6379
7.3671 -3.3079 0.5855
6.6329 -2.6965 0.5196
6.4304 -2.3489 0.4974
6.5511 -2.1297 0.5010
6.5509 -1.8725 0.4961
6.4284 -1.5903 0.4827
6.5599 -1.3750 0.4891
6.6741 -1.1505 0.4947
6.9922 -0.9483 0.5160
7.3000 -0.7243 0.5371
7.7843 -0.4910 0.5716
29.1436 -0.7899 2.1391
29.1209 0.2565 2.1391
29.0609 1.3003 2.1391
11.2163 0.9062 0.8284
7.8000 0.9130 0.5788
7.2941 1.1205 0.5444
6.9997 1.3341 0.5263
6.6473 1.5161 0.5041
6.5368 1.7399 0.5006
6.3830 1.9469 0.4944
6.4931 2.2383 0.5094
6.4929 2.5024 0.5166
6.4252 2.7451 0.5192
6.5500 3.0810 0.5384
7.2980 3.7585 0.6112
7.8402 4.4008 0.6701
7.5118 4.5787 0.6562
6.9397 4.5795 0.6208
6.4866 4.6231 0.5952
7.7997 5.9926 0.7356
7.3738 6.0986 0.7162
6.8558 6.0976 0.6873
6.4104 6.1276 0.6648
6.2294 6.3980 0.6699
7.0884 7.8235 0.7926
6.5919 7.8226 0.7685
6.2966 8.0412 0.7677
6.7309 9.2626 0.8612
6.4930 9.6452 0.8751
6.3384 10.1868 0.9035
7.3572 12.8292 1.1142
6.9757 13.2443 1.1283
6.5553 13.6100 1.1392
6.4118 14.6339 1.2053
6.5198 16.4645 1.3364
5.8317 16.4265 1.3159
5.6528 17.9414 1.4205
2.7981 10.1374 0.7943
2.3616 9.9334 0.7714
2.5211 12.5989 0.9709
2.0373 12.4980 0.9570
3.5359 27.9865 2.1321
2.5287 28.0936 2.1321
1.5918 29.5275 2.2351
0.5307 29.5659 2.2351
-0.5312 29.5675 2.2351
-1.5925 29.5321 2.2351
-2.6521 29.4597 2.2351
-3.7087 29.3504 2.2351
-4.7610 29.2044 2.2351
-5.8079 29.0217 2.2351
-6.5317 27.4720 2.1319
-7.5161 27.2285 2.1319
-8.4919 26.9507 2.1319
-9.4577 26.6389 2.1319
-10.4283 26.3335 2.1351
-11.2254 25.6191 2.1076
-10.9681 22.7709 1.9035
-11.0811 21.0383 1.7898
-11.1955 19.5217 1.6930
-12.2626 19.7074 1.7451
-13.4005 19.9055 1.8030
-12.7492 17.5440 1.6284
-13.0543 16.6707 1.5888
-13.7586 16.3268 1.6009
-13.3549 14.7396 1.4902
-6.5936 6.7719 0.7076
-13.9002 13.2866 1.4384
-13.1458 11.6918 1.3149
-14.1897 11.7355 1.3751
-13.4406 10.3263 1.2646
-7.1302 5.0817 0.6527
-7.7003 5.0813 0.6871
-8.0188 4.8876 0.6987
-8.0185 4.5008 0.6835
-8.0182 4.1294 0.6698
-8.0180 3.7715 0.6573
-8.0177 3.4254 0.6461
-8.0175 3.0899 0.6361
-8.0172 2.7636 0.6271
-8.0170 2.4453 0.6192
-7.2843 1.9389 0.5563
-15.4449 3.5226 1.1678
-15.3539 2.9263 1.1510
-15.6058 2.3973 1.1614
-16.2543 1.9026 1.2024
-17.1731 1.3875 1.2645
-15.3875 0.6885 1.1292
-16.5136 0.1455 1.2094
-16.6207 -0.4504 1.2163
-15.6627 -0.9880 1.1467
-16.8331 -1.6702 1.2347
-16.9406 -2.2975 1.2464
-15.9372 -2.7473 1.1778
-17.2228 -3.6098 1.2802
-16.8088 -4.1581 1.2583
-16.8947 -4.8291 1.2756
-17.1571 -5.5776 1.3083
-24.0512 -8.7852 1.8549
-21.6062 -8.7834 1.6879
-19.5590 -8.7819 1.5500
-17.8156 -8.7806 1.4345
-16.3095 -8.7795 1.3364
-16.2433 -9.5111 1.3568
-16.2427 -10.3110 1.3855
-16.2421 -11.1481 1.4174
-16.2414 -12.0275 1.4528
-16.2407 -12.9548 1.4921
-16.2400 -13.9367 1.5358
-13.1224 -12.1057 1.2802
-16.2384 -16.0968 1.6383
-16.2117 -17.2674 1.6958
-16.2865 -18.6452 1.7712
-16.2855 -20.0535 1.8470
-13.0957 -17.3638 1.5539
-13.0533 -18.6654 1.6264
-16.2558 -25.1183 2.1351
-15.3522 -25.6997 2.1351
-14.4274 -26.2479 2.1351
-13.4826 -26.7616 2.1351
-12.5190 -27.2404 2.1351
-10.0165 -24.0331 1.8536
-10.5407 -28.0899 2.1351
-7.7876 -23.2587 1.7450
-8.4909 -28.7477 2.1319
-7.4555 -29.0412 2.1319
-6.4097 -29.2962 2.1319
-5.6144 -30.9417 2.2351
-4.5009 -31.1273 2.2351
-3.3811 -31.2715 2.2351
-2.2567 -31.3741 2.2351
-1.1292 -31.4351 2.2351
-0.0003 -23.8455 2.2351
0.8555 -23.8288 2.2351
1.7099 -23.7806 2.2351
2.3421 -21.6673 2.0434
3.2531 -22.5022 2.1321
4.0579 -22.3669 2.1321
4.8570 -22.2022 2.1321
5.0411 -19.6390 1.9025
4.8556 -16.4415 1.6091
5.4901 -16.3989 1.6236
6.1525 -16.3976 1.6449
6.0611 -14.5442 1.4804
6.1702 -13.4273 1.3889
6.5905 -13.0827 1.3774
7.0258 -12.7833 1.3722
7.5976 -12.7197 1.3944
6.3869 -9.8700 1.1070
6.5117 -9.3121 1.0705
6.6880 -8.8687 1.0470
6.0752 -7.4815 0.9089
6.4553 -7.3909 0.9260
6.9386 -7.3911 0.9573
7.4557 -7.3914 0.9920
6.3136 -5.8250 0.8122
6.6012 -5.6656 0.8230
7.1022 -5.6658 0.8602
7.6503 -5.6660 0.9020
6.3962 -4.3907 0.7356
6.4733 -4.1098 0.7275
7.0818 -4.1472 0.7793
7.6999 -4.1454 0.8310
7.9012 -3.8947 0.8377
6.8822 -3.0905 0.7180
6.6331 -2.6969 0.6821
6.4304 -2.3493 0.6526
6.5511 -2.1301 0.6572
6.5509 -1.8729 0.6506
6.4284 -1.5906 0.6329
6.5598 -1.3753 0.6411
6.6739 -1.1508 0.6483
6.8637 -0.9313 0.6636
7.0359 -0.6985 0.6780
7.7825 -0.4913 0.7484
22.2614 -0.6045 2.1391
22.2499 0.1948 2.1391
22.2098 0.9926 2.1391
10.5760 0.8539 1.0218
7.8015 0.9128 0.7570
7.0686 1.0855 0.6898
6.7998 1.2957 0.6683
6.6468 1.5156 0.6587
6.5370 1.7397 0.6541
6.3830 1.9466 0.6458
6.4782 2.2328 0.6636
6.3890 2.4620 0.6636
6.3621 2.7178 0.6711
6.5497 3.0805 0.7026
6.8039 3.5037 0.7434
7.8402 4.4004 0.8740
7.5127 4.5788 0.8559
6.9401 4.5794 0.8094
6.3721 4.5411 0.7622
6.2934 4.8349 0.7736
7.3745 6.0987 0.9334
6.8564 6.0977 0.8955
6.3785 6.0967 0.8617
6.0388 6.2019 0.8458
7.0888 7.8236 1.0321
6.5923 7.8226 1.0006
6.0947 7.7829 0.9674
6.7680 9.3130 1.1272
6.4932 9.6449 1.1389
6.4871 10.4252 1.2032
7.3575 12.8290 1.4498
6.9760 13.2441 1.4680
6.5555 13.6097 1.4819
6.4121 14.6338 1.5678
6.4257 16.2261 1.7131
5.8456 16.4649 1.7154
5.6652 17.9800 1.8513
2.7983 10.1375 1.0330
2.3617 9.9335 1.0031
2.5212 12.5989 1.2624
2.0373 12.4979 1.2443
2.7195 21.5242 2.1321
1.9449 21.6070 2.1321
1.2243 22.7099 2.2351
0.4081 22.7395 2.2351
-0.4086 22.7404 2.2351
-1.2249 22.7127 2.2351
-2.0398 22.6563 2.2351
-2.8523 22.5714 2.2351
-3.6614 22.4580 2.2351
-4.4663 22.3162 2.2351
-5.2658 22.1463 2.2351
-6.0590 21.9483 2.2351
-6.5288 20.7192 2.1319
-7.2707 20.4776 2.1319
-8.0038 20.2101 2.1319
-8.7274 19.9168 2.1319
-9.4405 19.5981 2.1319
-10.1422 19.2545 2.1319
-10.8482 18.9150 2.1351
-11.5256 18.5219 2.1351
-12.1891 18.1049 2.1351
-12.6787 17.4457 2.1087
-13.0549 16.6703 2.0692
-13.7581 16.3250 2.0852
-13.3544 14.7380 1.9414
-6.5930 6.7708 0.9219
-13.9293 13.3134 1.8786
-13.1248 11.6722 1.7113
-13.6934 11.3241 1.7301
-12.9641 9.9594 1.5907
-7.1309 5.0817 0.8514
-7.7010 5.0813 0.8965
-8.0188 4.8871 0.9118
-8.0185 4.5003 0.8921
-8.0182 4.1289 0.8743
-8.0180 3.7710 0.8583
-8.0177 3.4250 0.8439
-8.0174 3.0895 0.8310
-8.0172 2.7632 0.8195
-8.0170 2.4448 0.8093
-7.2857 1.9389 0.7274
-15.4446 3.5217 1.5271
-15.5275 2.9586 1.5225
-15.6064 2.3966 1.5196
-16.2557 1.9019 1.5738
-17.1734 1.3866 1.6553
-15.1312 0.6763 1.4540
-16.1460 0.1414 1.5487
-16.2507 -0.4412 1.5579
-14.9417 -0.9433 1.4335
-16.4448 -1.6325 1.5810
-16.3934 -2.2242 1.5814
-15.2375 -2.6275 1.4768
-17.2240 -3.6110 1.6794
-16.8086 -4.1589 1.6511
-16.8948 -4.8300 1.6741
-17.1580 -5.5788 1.7176
-21.0837 -7.7024 2.1351
-20.8100 -8.4608 2.1351
-19.5566 -8.7819 2.0360
-17.8136 -8.7806 1.8848
-16.3078 -8.7795 1.7563
-16.2433 -9.5120 1.7837
-16.2427 -10.3119 1.8219
-16.2421 -11.1491 1.8642
-16.2414 -12.0284 1.9112
-16.2407 -12.9558 1.9633
-13.0437 -11.1946 1.6234
-13.0682 -12.0566 1.6782
-16.0751 -15.9360 2.1351
-15.5016 -16.5121 2.1351
-14.9072 -17.0672 2.1351
-14.2926 -17.6005 2.1351
-13.1383 -17.4214 2.0538
-13.0059 -18.5985 2.1351
-12.3355 -19.0619 2.1351
-11.6484 -19.5005 2.1351
-10.0208 -18.2318 1.9548
-10.2273 -20.3013 2.1351
-9.4809 -20.6308 2.1319
-7.3333 -17.5959 1.7894
-7.9813 -21.2703 2.1319
-7.2146 -21.5484 2.1319
-6.4380 -21.7982 2.1319
-5.9264 -23.0859 2.2351
-5.0949 -23.2874 2.2351
-4.2564 -23.4583 2.2351
-3.4121 -23.5982 2.2351
-2.5632 -23.7071 2.2351
-1.7107 -23.7846 2.2351
-0.8561 -23.8308 2.2351
-0.0003 -19.1850 2.2351
0.6882 -19.1718 2.2351
1.3757 -19.1334 2.2351
1.9662 -18.1903 2.1321
2.6174 -18.1058 2.1321
3.2650 -17.9976 2.1321
3.9081 -17.8657 2.1321
4.5458 -17.7105 2.1321
4.8740 -16.5050 2.0071
5.3344 -15.9348 1.9603
5.9783 -15.9344 1.9859
6.0611 -14.5451 1.8393
6.1700 -13.4277 1.7254
6.5902 -13.0830 1.7110
7.0254 -12.7833 1.7043
7.5971 -12.7197 1.7317
6.5306 -10.0926 1.4057
6.5115 -9.3125 1.3293
6.6878 -8.8689 1.3000
5.9894 -7.3764 1.1125
6.4549 -7.3909 1.1495
6.9381 -7.3912 1.1881
6.1021 -6.0500 1.0076
6.1330 -5.6588 0.9790
6.6007 -5.6656 1.0211
7.1016 -5.6658 1.0670
7.2107 -5.3409 1.0545
6.2298 -4.2768 0.8886
6.5331 -4.1482 0.9105
7.0809 -4.1471 0.9661
7.6992 -4.1455 1.0301
7.9012 -3.8952 1.0384
7.0162 -3.1511 0.9072
6.6333 -2.6974 0.8452
6.4862 -2.3700 0.8156
6.4424 -2.0951 0.8007
6.4412 -1.8419 0.7923
6.4788 -1.6034 0.7899
6.5596 -1.3756 0.7937
6.6738 -1.1512 0.8026
6.8618 -0.9314 0.8212
7.1306 -0.7083 0.8504
7.7807 -0.4916 0.9258
17.9936 -0.4895 2.1391
17.9872 0.1566 2.1391
17.9576 0.8016 2.1391
10.5827 0.8539 1.2643
7.8029 0.9126 0.9362
7.1569 1.0987 0.8634
6.8617 1.3071 0.8335
6.6520 1.5165 0.8146
6.5371 1.7394 0.8082
6.4331 1.9615 0.8041
6.3946 2.2036 0.8092
6.3732 2.4556 0.8176
6.4182 2.7415 0.8360
6.5495 3.0801 0.8675
6.9538 3.5805 0.9380
7.8404 4.4001 1.0789
7.5136 4.5789 1.0565
6.9406 4.5793 0.9990
6.4266 4.5796 0.9486
6.1247 4.7049 0.9288
7.1482 5.9111 1.1161
6.8569 6.0977 1.1047
6.3791 6.0968 1.0628
6.0059 6.1677 1.0374
5.8224 6.4255 1.0453
6.5928 7.8226 1.2338
6.1254 7.8216 1.1986
5.8307 8.0227 1.1971
6.4933 9.6446 1.4038
6.4871 10.4246 1.4830
7.3578 12.8289 1.7868
6.9762 13.2439 1.8091
6.5557 13.6093 1.8262
6.4124 14.6338 1.9320
6.3227 15.9652 2.0769
5.6682 15.9647 2.0494
5.2956 16.8062 2.1321
2.7984 10.1375 1.2727
2.3618 9.9335 1.2358
2.5213 12.5990 1.5553
2.0374 12.4977 1.5329
2.2076 17.4720 2.1321
1.6551 18.3873 2.2351
0.9938 18.4346 2.2351
0.3312 18.4586 2.2351
-0.3318 18.4592 2.2351
-0.9944 18.4365 2.2351
-1.6559 18.3904 2.2351
-2.3153 18.3210 2.2351
-2.9721 18.2284 2.2351
-3.6252 18.1127 2.2351
-4.2740 17.9741 2.2351
-4.9176 17.8126 2.2351
-5.5552 17.6285 2.2351
-6.1861 17.4219 2.2351
-6.4949 16.3990 2.1319
-7.0816 16.1600 2.1319
-7.6597 15.9003 2.1319
-8.2284 15.6202 2.1319
-8.7871 15.3202 2.1319
-9.3350 15.0005 2.1319
-9.8714 14.6614 2.1319
-10.4117 14.3253 2.1351
-10.9240 13.9484 2.1351
-11.4230 13.5533 2.1351
-11.9079 13.1407 2.1351
-6.5923 6.7696 1.1371
-12.8329 12.2645 2.1351
-13.1264 11.6727 2.1117
-13.3689 11.0549 2.0844
-12.9794 9.9703 1.9655
-7.1315 5.0817 1.0510
-7.7017 5.0813 1.1068
-8.0188 4.8866 1.1257
-8.0185 4.4999 1.1016
-8.0182 4.1284 1.0798
-8.0180 3.7705 1.0602
-8.0177 3.4245 1.0425
-8.0174 3.0890 1.0268
-8.0172 2.7627 1.0127
-8.0170 2.4444 1.0003
-7.2872 1.9389 0.8993
-15.4444 3.5208 1.8880
-15.5276 2.9578 1.8826
-15.6069 2.3959 1.8793
-16.2570 1.9012 1.9468
-17.1739 1.3858 2.0479
-15.4193 0.6883 1.8333
-15.6326 0.1361 1.8556
-15.6809 -0.4265 1.8606
-14.9942 -0.9473 1.7808
-15.8831 -1.5776 1.8906
-15.9845 -2.1695 1.9094
-15.2936 -2.6379 1.8358
-17.0505 -3.5755 2.0594
-16.8083 -4.1598 2.0455
-16.7669 -4.7943 2.0587
-17.1589 -5.5800 2.1287
-17.0102 -6.2152 2.1351
-16.7869 -6.8260 2.1351
-16.5414 -7.4288 2.1351
-16.2741 -8.0226 2.1351
-15.9853 -8.6068 2.1351
-15.6754 -9.1804 2.1351
-15.3446 -9.7427 2.1351
-14.9935 -10.2929 2.1351
-14.6225 -10.8303 2.1351
-14.2319 -11.3542 2.1351
-13.8224 -11.8638 2.1351
-13.3944 -12.3584 2.1351
-12.5684 -12.4605 2.0725
-12.4852 -13.2999 2.1351
-10.0258 -11.4793 1.7831
-11.5090 -14.1736 2.1351
-10.9973 -14.5834 2.1351
-10.4709 -14.9744 2.1351
-7.5461 -11.6615 1.6225
-7.3343 -12.2789 1.6701
-8.7964 -16.0050 2.1319
-8.2188 -16.3153 2.1319
-7.6301 -16.6042 2.1319
-7.0310 -16.8716 2.1319
-6.4225 -17.1169 2.1319
-6.0864 -18.1797 2.2351
-5.4311 -18.3896 2.2351
-4.7683 -18.5756 2.2351
-4.0992 -18.7371 2.2351
-3.4245 -18.8741 2.2351
-2.7452 -18.9864 2.2351
-2.0622 -19.0737 2.2351
-1.3764 -19.1360 2.2351
-0.6888 -19.1731 2.2351
-0.0003 -16.0347 2.2351
0.5751 -16.0237 2.2351
1.1497 -15.9918 2.2351
1.7227 -15.9389 2.2351
2.1875 -15.1335 2.1321
2.2253 -12.2674 1.7386
3.2665 -14.9336 2.1321
3.7996 -14.8043 2.1321
4.3277 -14.6557 2.1321
4.8498 -14.4880 2.1321
5.3654 -14.3014 2.1321
5.8737 -14.0963 2.1321
6.1698 -13.4281 2.0637
6.5267 -12.9578 2.0267
7.0250 -12.7834 2.0382
7.5966 -12.7197 2.0709
6.5568 -10.1338 1.6877
6.5113 -9.3128 1.5894
5.7465 -7.6212 1.3356
6.0004 -7.3905 1.3326
6.4544 -7.3910 1.3741
6.8117 -7.2570 1.3944
5.8016 -5.7525 1.1451
6.1394 -5.6652 1.1713
6.6002 -5.6656 1.2202
6.9596 -5.5530 1.2496
7.0396 -5.2146 1.2301
6.0708 -4.1681 1.0345
6.5325 -4.1482 1.0877
7.0800 -4.1470 1.1539
7.6985 -4.1456 1.2303
7.9014 -3.8957 1.2402
6.8837 -3.0920 1.0629
6.6336 -2.6979 1.0092
6.4863 -2.3704 0.9738
6.4425 -2.0955 0.9558
6.4412 -1.8422 0.9457
6.4787 -1.6038 0.9427
6.5595 -1.3759 0.9472
6.6736 -1.1515 0.9577
6.8615 -0.9317 0.9798
7.0346 -0.6991 1.0008
7.7788 -0.4919 1.1041
15.0860 -0.4112 2.1391
15.0823 0.1305 2.1391
15.0591 0.6715 2.1391
10.5895 0.8539 1.5085
7.8044 0.9123 1.1163
7.0696 1.0850 1.0167
6.8620 1.3068 0.9935
6.6523 1.5162 0.9710
6.5373 1.7390 0.9632
6.4331 1.9612 0.9582
6.3946 2.2033 0.9641
6.3731 2.4552 0.9741
6.4182 2.7411 0.9959
6.5492 3.0796 1.0332
6.8024 3.5021 1.0929
7.8406 4.3997 1.2849
7.5144 4.5790 1.2582
6.9412 4.5793 1.1895
6.4272 4.5796 1.1294
5.9638 4.5809 1.0767
6.7982 5.6212 1.2635
6.7996 6.0463 1.3039
6.3796 6.0968 1.2650
5.8986 6.0570 1.2125
5.7890 6.3882 1.2368
6.5932 7.8227 1.4683
6.1259 7.8217 1.4263
5.6559 7.7819 1.3816
5.3315 7.9185 1.3714
6.4871 10.4241 1.7643
7.3839 12.8737 2.1332
6.9228 13.1418 2.1356
6.4555 13.4008 2.1391
5.9689 13.6211 2.1391
5.4569 13.7785 2.1321
4.9578 13.9631 2.1321
4.4526 14.1300 2.1321
2.7986 10.1376 1.5137
2.3619 9.9336 1.4698
2.5290 12.6370 1.8553
2.3827 14.6157 2.1321
1.8644 14.7552 2.1414
1.3917 15.4608 2.2351
0.8356 15.5006 2.2351
0.2785 15.5207 2.2351
-0.2790 15.5212 2.2351
-0.8362 15.5019 2.2351
-1.3924 15.4630 2.2351
-1.9469 15.4044 2.2351
-2.4990 15.3262 2.2351
-3.0482 15.2286 2.2351
-3.5936 15.1116 2.2351
-4.1345 14.9753 2.2351
-4.6705 14.8200 2.2351
-5.2007 14.6458 2.2351
-5.7245 14.4529 2.2351
-6.1905 14.1255 2.2169
-6.4386 13.3647 2.1319
-6.9163 13.1286 2.1319
-7.3855 12.8757 2.1319
-7.8455 12.6062 2.1319
-8.2959 12.3205 2.1319
-8.7360 12.0190 2.1319
-9.1653 11.7019 2.1319
-9.5832 11.3696 2.1319
-9.9892 11.0226 2.1319
-6.5917 6.7685 1.3535
-10.7800 10.3017 2.1351
-11.1478 9.9124 2.1351
-11.5018 9.5101 2.1351
-11.8413 9.0953 2.1351
-7.1322 5.0817 1.2517
-7.7025 5.0813 1.3182
-7.9903 4.8687 1.3360
-8.0185 4.4994 1.3122
-8.0182 4.1280 1.2864
-8.0180 3.7700 1.2631
-8.0177 3.4241 1.2422
-8.0174 3.0886 1.2236
-8.0172 2.7623 1.2069
-8.0170 2.4439 1.1922
-7.2887 1.9389 1.0723
-14.6510 3.3392 2.1351
-14.7699 2.8127 2.1351
-14.8699 2.2820 2.1351
-14.9509 1.7477 2.1351
-15.0128 1.2106 2.1351
-15.0553 0.6713 2.1351
-15.0785 0.1305 2.1351
-15.0822 -0.4110 2.1351
-15.0105 -0.9491 2.1272
-15.0313 -1.4937 2.1351
-14.9766 -2.0335 2.1351
-14.9025 -2.5712 2.1351
-14.8090 -3.1062 2.1351
-14.6962 -3.6378 2.1351
-14.5643 -4.1653 2.1351
-14.4133 -4.6879 2.1351
-14.2435 -5.2050 2.1351
-14.0551 -5.7160 2.1351
-13.8482 -6.2200 2.1351
-13.6231 -6.7165 2.1351
-13.3800 -7.2048 2.1351
-13.1193 -7.6842 2.1351
-12.8413 -8.1540 2.1351
-12.5464 -8.6137 2.1351
-12.2348 -9.0626 2.1351
-11.9070 -9.5002 2.1351
-11.5634 -9.9257 2.1351
-11.2044 -10.3386 2.1351
-10.8306 -10.7384 2.1351
-10.4423 -11.1245 2.1351
-10.0248 -11.4789 2.1319
-9.6098 -11.8355 2.1319
-9.1820 -12.1769 2.1319
-8.7420 -12.5026 2.1319
-8.2902 -12.8121 2.1319
-7.8273 -13.1052 2.1319
-7.3540 -13.3812 2.1319
-6.8707 -13.6399 2.1319
-6.3829 -13.8908 2.1334
-6.1619 -14.7868 2.2351
-5.6284 -15.0013 2.2351
-5.0873 -15.1962 2.2351
-4.5394 -15.3713 2.2351
-3.9854 -15.5263 2.2351
-3.4261 -15.6610 2.2351
-2.8621 -15.7752 2.2351
-2.2943 -15.8688 2.2351
-1.7235 -15.9416 2.2351
-1.1503 -15.9936 2.2351
-0.5757 -16.0246 2.2351
-0.0003 -13.7608 2.2351
0.4935 -13.7515 2.2351
0.9866 -13.7242 2.2351
1.4783 -13.6790 2.2351
1.8851 -13.0422 2.1410
2.2252 -12.2674 2.0258
2.1170 -9.6792 1.6101
3.2609 -12.7062 2.1321
3.7142 -12.5790 2.1321
4.1624 -12.4354 2.1321
4.6051 -12.2757 2.1321
5.0416 -12.1000 2.1321
5.4713 -11.9085 2.1321
5.8936 -11.7017 2.1321
6.3289 -11.5175 2.1391
6.7363 -11.2799 2.1391
6.5564 -10.1339 1.9657
6.5111 -9.3132 1.8512
5.5718 -7.3900 1.5082
6.0001 -7.3906 1.5519
6.4540 -7.3910 1.6001
5.7169 -6.0911 1.3628
5.7589 -5.7106 1.3235
6.1390 -5.6653 1.3638
6.5997 -5.6657 1.4206
6.6776 -5.3285 1.3958
5.7502 -4.2599 1.1697
5.9870 -4.1109 1.1876
6.5319 -4.1482 1.2659
7.0793 -4.1471 1.3428
7.6979 -4.1457 1.4316
7.9016 -3.8963 1.4432
7.3664 -3.3092 1.3236
6.6338 -2.6984 1.1743
6.4306 -2.3504 1.1232
6.3872 -2.0779 1.1024
6.3909 -1.8282 1.0916
6.4282 -1.5916 1.0880
6.5593 -1.3762 1.1017
6.6734 -1.1518 1.1137
6.9905 -0.9496 1.1608
7.2982 -0.7257 1.2074
7.7770 -0.4922 1.2835
12.9758 -0.3544 2.1391
12.9736 0.1116 2.1391
12.9548 0.5770 2.1391
10.5964 0.8540 1.7545
7.8059 0.9121 1.2977
7.2958 1.1193 1.2194
7.0012 1.3329 1.1780
6.6455 1.5143 1.1271
6.5374 1.7387 1.1192
6.3832 1.9456 1.1045
6.3449 2.1858 1.1113
6.4930 2.5010 1.1528
6.4276 2.7447 1.1585
6.5490 3.0791 1.2000
7.2987 3.7572 1.3619
7.8408 4.3994 1.4922
7.5153 4.5791 1.4612
6.9419 4.5793 1.3814
6.4278 4.5797 1.3115
5.9630 4.5800 1.2499
5.6462 4.6683 1.2183
6.6151 5.8819 1.4726
6.3801 6.0969 1.4686
5.9367 6.0957 1.4165
5.5303 6.1023 1.3714
5.3054 6.2943 1.3713
6.1263 7.8218 1.6555
5.6844 7.8205 1.6114
5.2813 7.8435 1.5765
6.3644 10.2264 2.0087
6.3807 11.1240 2.1391
5.9758 11.3435 2.1391
5.5453 11.5106 2.1321
5.1274 11.7001 2.1321
4.7032 11.8746 2.1321
4.2731 12.0340 2.1321
3.8377 12.1781 2.1321
3.3975 12.3066 2.1321
2.9531 12.4194 2.1321
2.5050 12.5164 2.1321
2.0538 12.5975 2.1321
1.6774 13.2748 2.2351
1.1996 13.3260 2.2351
0.7203 13.3604 2.2351
0.2400 13.3777 2.2351
-0.2405 13.3780 2.2351
-0.7208 13.3613 2.2351
-1.2002 13.3276 2.2351
-1.6782 13.2770 2.2351
-2.1540 13.2094 2.2351
-2.6273 13.1250 2.2351
-3.0973 13.0239 2.2351
-3.5635 12.9062 2.2351
-4.0253 12.7720 2.2351
-4.4822 12.6215 2.2351
-4.9335 12.4549 2.2351
-5.3787 12.2723 2.2351
-5.8172 12.0740 2.2351
-6.1887 11.7467 2.2137
-6.3639 11.0940 2.1319
-6.7601 10.8614 2.1319
-7.1478 10.6147 2.1319
-7.5266 10.3544 2.1319
-7.8961 10.0807 2.1319
-8.2557 9.7939 2.1319
-8.6050 9.4945 2.1319
-6.5147 6.6889 1.5529
-9.2709 8.8589 2.1319
-9.5867 8.5236 2.1319
-9.8905 8.1771 2.1319
-10.1818 7.8199 2.1319
-7.1328 5.0817 1.4537
-7.7032 5.0813 1.5311
-7.9717 4.8569 1.5481
-7.9596 4.4658 1.5130
-7.9729 4.1041 1.4858
-8.0180 3.7696 1.4674
-8.0177 3.4236 1.4432
-8.0174 3.0881 1.4216
-8.0172 2.7618 1.4024
-8.0170 2.4435 1.3854
-7.2902 1.9389 1.2464
-12.6060 2.8724 2.1351
-12.7073 2.4192 2.1351
-12.7924 1.9625 2.1351
-12.8610 1.5027 2.1351
-12.9132 1.0406 2.1351
-12.9487 0.5767 2.1351
-12.9676 0.1116 2.1351
-12.9698 -0.3541 2.1351
-12.9552 -0.8199 2.1351
-12.9239 -1.2850 2.1351
-12.8759 -1.7489 2.1351
-12.8112 -2.2111 2.1351
-12.7298 -2.6708 2.1351
-12.6319 -3.1275 2.1351
-12.5175 -3.5806 2.1351
-12.3869 -4.0295 2.1351
-12.2400 -4.4736 2.1351
-12.0772 -4.9123 2.1351
-11.8985 -5.3450 2.1351
-11.7043 -5.7712 2.1351
-11.4946 -6.1902 2.1351
-11.2699 -6.6016 2.1351
-11.0304 -7.0048 2.1351
-10.7763 -7.3991 2.1351
-10.5080 -7.7842 2.1351
-10.2258 -8.1595 2.1351
-9.9150 -8.5114 2.1319
-9.6067 -8.8650 2.1319
-9.2856 -9.2072 2.1319
-8.9523 -9.5377 2.1319
-8.6070 -9.8560 2.1319
-8.2503 -10.1617 2.1319
-7.8827 -10.4543 2.1319
-7.5045 -10.7334 2.1319
-7.1164 -10.9987 2.1319
-6.7188 -11.2498 2.1319
-6.3122 -11.4863 2.1319
-6.1709 -12.2512 2.2308
-5.7396 -12.4914 2.2351
-5.2886 -12.6916 2.2351
-4.8305 -12.8753 2.2351
-4.3661 -13.0423 2.2351
-3.8958 -13.1923 2.2351
-3.4203 -13.3251 2.2351
-2.9402 -13.4405 2.2351
-2.4562 -13.5383 2.2351
-1.9689 -13.6186 2.2351
-1.4790 -13.6810 2.2351
-0.9872 -13.7255 2.2351
-0.4940 -13.7521 2.2351
-0.0002 -12.0407 2.2351
0.4318 -12.0326 2.2351
0.8632 -12.0088 2.2351
1.2934 -11.9694 2.2351
1.7220 -11.9143 2.2351
2.0637 -11.3781 2.1473
2.1167 -9.6784 1.8399
2.8533 -11.1188 2.1321
3.2500 -11.0077 2.1321
3.6423 -10.8823 2.1321
4.0298 -10.7428 2.1321
4.4118 -10.5893 2.1321
4.7880 -10.4221 2.1321
5.1578 -10.2414 2.1321
5.5207 -10.0474 2.1321
5.8763 -9.8404 2.1321
6.2445 -9.6525 2.1391
5.4333 -7.7721 1.7650
5.5712 -7.3897 1.7229
5.9998 -7.3908 1.7728
6.2985 -7.2135 1.7839
5.3022 -5.6497 1.4438
5.7122 -5.6647 1.4996
6.1387 -5.6654 1.5576
6.4876 -5.5699 1.5949
6.4857 -5.1758 1.5483
5.7454 -4.2567 1.3348
6.0423 -4.1493 1.3687
6.5313 -4.1483 1.4454
7.0786 -4.1471 1.5332
7.6972 -4.1458 1.6345
7.9017 -3.8968 1.6478
7.3662 -3.3096 1.5110
6.6341 -2.6988 1.3407
6.4307 -2.3508 1.2822
6.5511 -2.1315 1.2907
6.5509 -1.8743 1.2771
6.4282 -1.5919 1.2418
6.5591 -1.3766 1.2573
6.6733 -1.1521 1.2710
6.9901 -0.9499 1.3245
7.2442 -0.7207 1.3675
7.7752 -0.4925 1.4641
11.3731 -0.3112 2.1391
11.3719 0.0972 2.1391
11.3560 0.5052 2.1391
11.2525 0.9062 2.1253
7.8074 0.9119 1.4805
7.2349 1.1096 1.3792
7.0016 1.3326 1.3436
6.6450 1.5138 1.2853
6.5376 1.7384 1.2763
6.3832 1.9453 1.2595
6.4931 2.2365 1.2968
6.4930 2.5007 1.3144
6.4282 2.7446 1.3209
6.5488 3.0786 1.3681
7.2988 3.7569 1.5526
7.8410 4.3990 1.7010
7.5160 4.5790 1.6658
6.9426 4.5793 1.5747
6.4284 4.5797 1.4950
5.9635 4.5800 1.4247
5.5768 4.6106 1.3714
5.4058 4.8062 1.3714
6.3712 6.0880 1.6713
5.9372 6.0959 1.6143
5.5237 6.0945 1.5609
5.2808 6.2647 1.5553
6.0515 7.7258 1.8633
5.6848 7.8206 1.8362
5.2914 7.8579 1.7995
5.9489 9.5582 2.1391
5.5823 9.7316 2.1321
5.2282 9.9239 2.1321
4.8676 10.1034 2.1321
4.5009 10.2700 2.1321
4.1286 10.4235 2.1321
3.7511 10.5636 2.1321
3.3689 10.6902 2.1321
2.9826 10.8032 2.1321
2.3903 10.0520 1.9658
2.1991 10.9876 2.1321
1.8575 11.3929 2.1965
1.4726 11.6535 2.2351
1.0531 11.6985 2.2351
0.6323 11.7287 2.2351
0.2107 11.7439 2.2351
-0.2112 11.7442 2.2351
-0.6328 11.7294 2.2351
-1.0537 11.6998 2.2351
-1.4733 11.6552 2.2351
-1.8910 11.5957 2.2351
-2.3065 11.5215 2.2351
-2.7190 11.4326 2.2351
-3.1282 11.3290 2.2351
-3.5336 11.2110 2.2351
-3.9345 11.0787 2.2351
-4.3306 10.9321 2.2351
-4.7212 10.7716 2.2351
-5.1060 10.5973 2.2351
-5.4845 10.4094 2.2351
-5.8561 10.2081 2.2351
-6.1874 9.9406 2.2233
-6.2731 9.3152 2.1319
-6.6054 9.0864 2.1319
-6.9293 8.8458 2.1319
-7.2446 8.5939 2.1319
-7.5508 8.3307 2.1319
-6.5056 6.6790 1.7673
-8.1345 7.7724 2.1319
-8.4112 7.4778 2.1319
-8.6773 7.1735 2.1319
-8.9325 6.8598 2.1319
-7.0677 5.0349 1.6420
-9.4087 6.2057 2.1319
-9.6292 5.8662 2.1319
-9.8375 5.5188 2.1319
-7.9849 4.1098 1.6966
-10.2319 4.8099 2.1351
-10.4023 4.4413 2.1351
-10.5595 4.0666 2.1351
-10.7032 3.6865 2.1351
-10.8333 3.3013 2.1351
-7.2917 1.9389 1.4219
-11.0519 2.5177 2.1351
-11.1400 2.1202 2.1351
-11.2139 1.7197 2.1351
-11.2734 1.3166 2.1351
-11.3184 0.9115 2.1351
-11.3489 0.5049 2.1351
-11.3648 0.0972 2.1351
-11.3660 -0.3109 2.1351
-11.3526 -0.7190 2.1351
-11.3244 -1.1266 2.1351
-11.2817 -1.5330 2.1351
-11.2243 -1.9378 2.1351
-11.1523 -2.3404 2.1351
-11.0659 -2.7404 2.1351
