ply
format ascii 1.0
element vertex 2150
property float32 x
property float32 y
property float32 z
end_header
6.0567 0.4857 0.5886
7.4051 0.8624 0.7243
7.4053 1.1331 0.7299
7.1692 1.3621 0.7131
6.6238 1.5067 0.6657
6.4989 1.7259 0.6608
6.1896 1.8840 0.6375
6.1232 2.1069 0.6398
6.0166 2.3150 0.6387
6.0531 2.5822 0.6537
6.0052 2.8208 0.6608
5.9062 3.0377 0.6631
6.0566 3.3955 0.6950
6.2408 3.7996 0.7331
8.7133 5.7437 1.0496
8.0654 5.7424 0.9980
7.5539 5.7981 0.9620
7.1937 5.9441 0.9448
6.9140 6.1439 0.9384
6.6861 6.3855 0.9399
6.5264 6.6975 0.9525
6.4361 7.0979 0.9778
6.4217 7.6146 1.0183
7.3796 9.4171 1.2252
6.8479 9.4166 1.1942
6.3435 9.4164 1.1663
5.9258 9.5171 1.1533
6.2741 10.9331 1.2985
5.7860 10.9781 1.2800
6.1007 12.6579 1.4510
5.5318 12.6173 1.4242
7.1555 18.0584 2.0100
6.6032 18.5884 2.0431
6.1964 19.6549 2.1362
5.4645 19.7855 2.1292
4.7473 19.9569 2.1292
4.0252 20.1043 2.1292
3.2990 20.2276 2.1292
2.2432 17.7459 1.8589
1.8447 20.4855 2.1380
1.1564 21.4420 2.2323
0.3853 21.4692 2.2323
-0.3862 21.4709 2.2323
-1.1575 21.4470 2.2323
-1.9278 21.3974 2.2323
-2.6962 21.3223 2.2323
-3.4621 21.2217 2.2323
-4.2246 21.0956 2.2323
-4.9831 20.9442 2.2323
-5.7366 20.7675 2.2323
-6.2191 19.7239 2.1409
-6.8917 19.3981 2.1290
-7.5920 19.1580 2.1290
-8.2848 18.8945 2.1290
-8.9691 18.6075 2.1290
-9.6445 18.2974 2.1290
-10.3257 17.9919 2.1323
-10.9817 17.6358 2.1323
-11.6265 17.2572 2.1323
-12.2592 16.8565 2.1323
-12.8793 16.4340 2.1323
-13.4858 15.9900 2.1323
-14.0782 15.5249 2.1323
-14.6558 15.0391 2.1323
-15.2177 14.5329 2.1323
-15.7633 14.0067 2.1323
-16.2920 13.4612 2.1323
-16.8029 12.8966 2.1323
-16.8030 11.9629 2.0716
-17.1883 11.3297 2.0626
-17.9679 10.9389 2.1024
-18.6562 10.4588 2.1323
-19.0685 9.8072 2.1323
-16.2570 7.6360 1.7814
-16.2557 6.9343 1.7481
-13.1297 5.0517 1.3878
-16.2532 5.5922 1.6910
-16.2520 4.9468 1.6666
-16.2508 4.3154 1.6449
-16.2496 3.6961 1.6256
-16.2485 3.0869 1.6087
-16.2473 2.4861 1.5941
-16.2462 1.8920 1.5816
-16.2451 1.3029 1.5713
-16.2182 0.7161 1.5606
-16.2172 0.1333 1.5544
-16.1897 -0.4482 1.5477
-16.2407 -1.0340 1.5505
-16.2897 -1.6259 1.5551
-16.2886 -2.2187 1.5569
-16.2874 -2.8173 1.5609
-16.2863 -3.4232 1.5669
-16.2852 -4.0383 1.5751
-16.2840 -4.6643 1.5855
-16.2828 -5.3032 1.5983
-16.2815 -5.9571 1.6135
-16.2803 -6.6283 1.6313
-16.2790 -7.3194 1.6518
-13.0822 -6.4560 1.3464
-13.1130 -7.0673 1.3710
-13.0643 -7.6583 1.3901
-16.2733 -10.3413 1.7653
-19.2443 -13.2219 2.1323
-18.8043 -13.9386 2.1323
-18.2441 -14.5659 2.1215
-17.8416 -15.3244 2.1323
-17.3199 -15.9912 2.1323
-16.7722 -16.6391 2.1323
-16.1990 -17.2670 2.1323
-15.6012 -17.8738 2.1323
-14.9795 -18.4584 2.1323
-14.3347 -19.0198 2.1323
-13.6677 -19.5569 2.1323
-12.9794 -20.0688 2.1323
-12.2709 -20.5545 2.1323
-11.5431 -21.0132 2.1323
-6.4644 -12.8389 1.2766
-10.0187 -21.8128 2.1290
-9.2409 -22.1849 2.1290
-8.4484 -22.5268 2.1290
-7.6425 -22.8380 2.1290
-6.8244 -23.1178 2.1290
-6.1283 -23.8839 2.1762
-5.4068 -24.7247 2.2323
-4.5189 -24.9163 2.2323
-3.6237 -25.0731 2.2323
-2.7229 -25.1948 2.2323
-1.8178 -25.2812 2.2323
-0.9098 -25.3323 2.2323
-0.0005 -20.1450 2.2323
0.7219 -20.1297 2.2323
1.4430 -20.0866 2.2323
2.0620 -19.0914 2.1292
2.2033 -15.2530 1.7095
3.4222 -18.8778 2.1292
4.0946 -18.7321 2.1292
4.7607 -18.5608 2.1292
5.4192 -18.3643 2.1292
4.9237 -14.7186 1.7273
4.8714 -12.9934 1.5458
4.8047 -11.5386 1.3938
5.2528 -11.4400 1.4053
5.7767 -11.4768 1.4360
6.3016 -11.4751 1.4650
6.8473 -11.4733 1.4972
6.0530 -9.3620 1.2510
6.0692 -8.6869 1.1909
6.2545 -8.3013 1.1699
6.6067 -8.1436 1.1822
6.8589 -7.8605 1.1781
7.3253 -7.8108 1.2114
7.8553 -7.7956 1.2542
6.0844 -5.6195 0.9404
5.8759 -5.0486 0.8813
5.9763 -4.7731 0.8718
6.0467 -4.4837 0.8598
6.1699 -4.2407 0.8569
6.3334 -4.0263 0.8608
6.5297 -3.8293 0.8701
6.8130 -3.6735 0.8917
7.2033 -3.5565 0.9275
5.8903 -2.6497 0.7474
6.4107 -2.6115 0.8029
7.1319 -2.6109 0.8830
7.4688 -2.4341 0.9154
7.4682 -2.1407 0.9075
7.4677 -1.8533 0.9009
5.7721 -1.2144 0.6923
5.7747 -1.0000 0.6895
6.4954 -0.8860 0.7731
7.3666 -0.7366 0.8752
7.4651 -0.4767 0.8865
7.4646 -0.2080 0.8871
7.4641 0.0600 0.8889
7.3674 0.3240 0.8803
5.9238 0.4740 0.7111
7.4051 0.8610 0.8941
7.4053 1.1318 0.9006
7.1730 1.3615 0.8798
6.7045 1.5238 0.8304
6.4389 1.7087 0.8065
6.2467 1.9003 0.7922
6.1237 2.1059 0.7875
6.0171 2.3141 0.7857
5.9668 2.5442 0.7922
5.9130 2.7763 0.7995
5.9630 3.0658 0.8223
6.0557 3.3938 0.8531
6.4233 3.9094 0.9259
8.7161 5.7437 1.2878
8.0679 5.7424 1.2241
7.5557 5.7978 1.1794
7.2751 6.0097 1.1706
6.9939 6.2132 1.1625
6.6866 6.3845 1.1507
6.5270 6.6964 1.1658
6.5383 7.2089 1.2152
6.4214 7.6125 1.2453
7.3811 9.4169 1.4982
6.8494 9.4167 1.4600
6.3449 9.4164 1.4255
5.8642 9.4162 1.3943
5.4138 9.4321 1.3684
5.7624 10.9312 1.5565
5.3271 11.0506 1.5467
5.5495 12.6554 1.7439
6.2316 15.7240 2.1362
5.6398 15.8737 2.1292
5.0625 16.0555 2.1292
4.4798 16.2176 2.1292
3.8923 16.3598 2.1292
3.3006 16.4822 2.1292
2.3059 14.1360 1.8148
2.1071 16.6666 2.1292
1.5796 17.5385 2.2323
0.9483 17.5822 2.2323
0.3159 17.6046 2.2323
-0.3169 17.6058 2.2323
-0.9494 17.5856 2.2323
-1.5810 17.5441 2.2323
-2.2110 17.4813 2.2323
-2.8388 17.3974 2.2323
-3.4637 17.2923 2.2323
-4.0850 17.1661 2.2323
-4.7021 17.0189 2.2323
-5.3143 16.8509 2.2323
-5.9209 16.6621 2.2323
-6.2197 15.6918 2.1290
-6.5072 14.8375 2.0416
-6.6779 13.8510 1.9357
-7.8959 14.9769 2.1290
-8.4386 14.7006 2.1290
-8.9723 14.4056 2.1290
-9.4964 14.0923 2.1290
-10.0102 13.7609 2.1290
-10.5292 13.4322 2.1323
-11.0215 13.0649 2.1323
-11.5016 12.6804 2.1323
-11.9692 12.2790 2.1323
-12.4235 11.8612 2.1323
-12.8639 11.4273 2.1323
-13.2900 10.9776 2.1323
-13.7011 10.5127 2.1323
-14.0968 10.0330 2.1323
-14.4763 9.5390 2.1323
-14.8393 9.0310 2.1323
-15.1852 8.5098 2.1323
-15.5135 7.9757 2.1323
-12.7012 5.9633 1.7115
-12.9353 5.5153 1.7115
-13.0811 5.0304 1.7020
-16.2532 5.5891 2.0826
-16.2520 4.9437 2.0537
-16.2508 4.3124 2.0280
-16.2496 3.6931 2.0053
-16.2485 3.0839 1.9855
-16.2473 2.4831 1.9685
-16.2462 1.8890 1.9543
-16.2451 1.2999 1.9426
-16.2182 0.7132 1.9304
-16.2171 0.1304 1.9238
-13.0724 -0.3643 1.5476
-13.0830 -0.8353 1.5476
-16.2897 -1.6288 1.9280
-16.2886 -2.2216 1.9314
-16.2874 -2.8202 1.9373
-16.2863 -3.4262 1.9459
-16.2852 -4.0413 1.9572
-16.2840 -4.6673 1.9713
-16.2828 -5.3063 1.9883
-16.2815 -5.9602 2.0083
-16.2803 -6.6315 2.0316
-16.2790 -7.3225 2.0582
-12.6335 -6.2371 1.6210
-13.0630 -7.0429 1.7037
-12.8880 -7.5575 1.7115
-15.7413 -10.0065 2.1323
-15.4037 -10.5865 2.1323
-15.0441 -11.1546 2.1323
-14.6628 -11.7099 2.1323
-14.2603 -12.2516 2.1323
-13.8370 -12.7788 2.1323
-13.3935 -13.2905 2.1323
-12.9303 -13.7860 2.1323
-12.4480 -14.2645 2.1323
-11.9472 -14.7251 2.1323
-11.4286 -15.1671 2.1323
-10.8928 -15.5897 2.1323
-10.3408 -15.9921 2.1323
-9.7582 -16.3489 2.1290
-9.1766 -16.7086 2.1290
-6.4250 -12.7631 1.5941
-7.9725 -17.3611 2.1290
-7.3518 -17.6529 2.1290
-6.7199 -17.9209 2.1290
-6.1447 -18.3654 2.1525
-5.6892 -19.2755 2.2323
-4.9973 -19.4791 2.2323
-4.2977 -19.6561 2.2323
-3.5915 -19.8062 2.2323
-2.8799 -19.9290 2.2323
-2.1638 -20.0245 2.2323
-1.4445 -20.0924 2.2323
-0.7230 -20.1326 2.2323
-0.0005 -16.7001 2.2323
0.5982 -16.6877 2.2323
1.1960 -16.6526 2.2323
1.7919 -16.5948 2.2323
2.2029 -15.2530 2.0618
2.8371 -15.6537 2.1292
3.3950 -15.5344 2.1292
3.9476 -15.3942 2.1292
4.4943 -15.2331 2.1292
4.9225 -14.7181 2.0820
4.8703 -12.9930 1.8629
4.8552 -11.6622 1.6975
5.2692 -11.4783 1.6987
5.7403 -11.4067 1.7191
6.3002 -11.4751 1.7642
6.8459 -11.4733 1.8026
6.0530 -9.3641 1.5061
6.0686 -8.6881 1.4333
6.2505 -8.2978 1.4068
6.6057 -8.1443 1.4220
6.8577 -7.8611 1.4166
7.3237 -7.8110 1.4562
7.8533 -7.7956 1.5071
6.0859 -5.6224 1.1303
5.8935 -5.0651 1.0618
5.9296 -4.7372 1.0387
6.0462 -4.4847 1.0320
6.1694 -4.2417 1.0282
6.2878 -3.9987 1.0252
6.4827 -3.8031 1.0359
6.7563 -3.6443 1.0600
5.7399 -2.8351 0.8857
5.7526 -2.5889 0.8744
6.4077 -2.6115 0.9609
6.7164 -2.4602 0.9953
6.7800 -2.2109 0.9943
6.8382 -1.9614 0.9938
6.8871 -1.7105 0.9934
5.6454 -1.1888 0.8092
5.6487 -0.9792 0.8058
6.4869 -0.8860 0.9221
7.0012 -0.7014 0.9930
7.0108 -0.4489 0.9934
7.0114 -0.1967 0.9939
7.0029 0.0550 0.9944
6.9855 0.3059 0.9948
5.7960 0.4627 0.8289
7.4052 0.8597 1.0649
7.4053 1.1305 1.0722
7.1768 1.3609 1.0476
6.7062 1.5230 0.9882
6.4399 1.7078 0.9592
6.2476 1.8994 0.9419
6.1242 2.1049 0.9359
6.0176 2.3131 0.9334
5.9669 2.5431 0.9409
5.9130 2.7752 0.9492
5.9628 3.0645 0.9759
6.0549 3.3921 1.0120
6.2343 3.7930 1.0659
8.7189 5.7437 1.5275
8.0703 5.7425 1.4514
7.5575 5.7975 1.3980
7.2419 5.9805 1.3805
6.9644 6.1854 1.3711
6.6872 6.3834 1.3627
6.5275 6.6954 1.3802
6.5398 7.2089 1.4386
6.4210 7.6104 1.4735
7.3828 9.4169 1.7729
6.8509 9.4167 1.7273
6.3462 9.4164 1.6861
5.8653 9.4161 1.6489
5.4056 9.4160 1.6153
5.7636 10.9314 1.8402
5.3399 11.0751 1.8324
5.5506 12.6554 2.0610
5.2569 13.2622 2.1292
4.7739 13.4341 2.1292
4.2857 13.5893 2.1292
3.7927 13.7278 2.1292
3.2955 13.8493 2.1292
2.7947 13.9537 2.1292
2.2907 14.0411 2.1292
1.8462 14.6012 2.2031
1.3376 14.8498 2.2323
0.8030 14.8871 2.2323
0.2675 14.9061 2.2323
-0.2684 14.9069 2.2323
-0.8041 14.8895 2.2323
-1.3389 14.8538 2.2323
-1.8723 14.8000 2.2323
-2.4038 14.7280 2.2323
-2.9327 14.6380 2.2323
-3.4584 14.5300 2.2323
-3.9805 14.4040 2.2323
-4.4982 14.2602 2.2323
-5.0111 14.0988 2.2323
-5.5185 13.9198 2.2323
-6.0199 13.7235 2.2323
-6.2134 12.8851 2.1290
-6.6786 12.6652 2.1290
-7.1364 12.4293 2.1290
-7.5863 12.1776 2.1290
-8.0278 11.9103 2.1290
-8.4604 11.6277 2.1290
-8.8835 11.3301 2.1290
-9.2967 11.0177 2.1290
-9.6994 10.6908 2.1290
-10.0912 10.3497 2.1290
-10.4875 10.0101 2.1323
-10.8564 9.6412 2.1323
-11.2128 9.2592 2.1323
-11.5564 8.8644 2.1323
-11.8866 8.4573 2.1323
-12.2030 8.0383 2.1323
-12.5051 7.6077 2.1323
-10.0372 5.6227 1.6730
-10.4273 5.3586 1.7018
-10.4265 4.8931 1.6689
-13.5625 5.7801 2.1323
-13.7870 5.2992 2.1323
-13.1662 4.5250 2.0060
-14.1859 4.3126 2.1323
-14.3596 3.8078 2.1323
-14.5156 3.2963 2.1323
-14.6536 2.7785 2.1323
-14.7734 2.2552 2.1323
-14.8748 1.7268 2.1323
-14.9574 1.1942 2.1323
-15.0211 0.6578 2.1323
-15.0657 0.1185 2.1323
-13.0792 -0.3668 1.8480
-15.0968 -0.9666 2.1323
-15.0830 -1.5109 2.1323
-15.0496 -2.0554 2.1323
-14.9964 -2.5994 2.1323
-14.9235 -3.1422 2.1323
-14.8307 -3.6831 2.1323
-14.7181 -4.2212 2.1323
-14.5857 -4.7560 2.1323
-14.4337 -5.2865 2.1323
-14.2620 -5.8121 2.1323
-14.0709 -6.3320 2.1323
-12.5625 -6.2045 1.9326
-13.6309 -7.3518 2.1323
-13.3823 -7.8502 2.1323
-10.1331 -6.4436 1.6474
-10.0138 -6.8843 1.6643
-10.0128 -7.4263 1.7045
-12.2045 -9.7494 2.1323
-11.8657 -10.1971 2.1323
-11.5100 -10.6325 2.1323
-11.1378 -11.0549 2.1323
-10.7496 -11.4637 2.1323
-10.3457 -11.8582 2.1323
-9.9118 -12.2192 2.1290
-9.4791 -12.5827 2.1290
-9.0326 -12.9301 2.1290
-8.5729 -13.2608 2.1290
-8.1005 -13.5743 2.1290
-7.6162 -13.8700 2.1290
-6.4168 -12.7493 1.9186
-6.6144 -14.4064 2.1290
-6.1526 -14.7762 2.1479
-5.8437 -15.5872 2.2323
-5.2845 -15.7971 2.2323
-4.7174 -15.9858 2.2323
-4.1433 -16.1530 2.2323
-3.5629 -16.2983 2.2323
-2.9773 -16.4215 2.2323
-2.3872 -16.5224 2.2323
-1.7936 -16.6008 2.2323
-1.1974 -16.6566 2.2323
-0.5994 -16.6898 2.2323
-0.0005 -14.2488 2.2323
0.5103 -14.2384 2.2323
1.0202 -14.2088 2.2323
1.5287 -14.1600 2.2323
1.9408 -13.4413 2.1292
2.4206 -13.3585 2.1292
2.8968 -13.2576 2.1292
3.3686 -13.1390 2.1292
3.8354 -13.0027 2.1292
4.2966 -12.8491 2.1292
4.7513 -12.6783 2.1292
4.8689 -11.6976 1.9940
5.0566 -11.0174 1.9092
5.5427 -11.0165 1.9439
6.2988 -11.4749 2.0652
6.8443 -11.4732 2.1098
6.0530 -9.3662 1.7629
6.0680 -8.6892 1.6772
6.2496 -8.2986 1.6459
6.6047 -8.1450 1.6633
6.8566 -7.8617 1.6566
7.3221 -7.8113 1.7024
7.8512 -7.7956 1.7615
6.0874 -5.6254 1.3214
6.0677 -5.2164 1.2775
6.0671 -4.8485 1.2417
6.0457 -4.4857 1.2053
6.1689 -4.2427 1.2006
6.4046 -4.0744 1.2191
6.6068 -3.8774 1.2322
6.8919 -3.7189 1.2617
5.4702 -2.7030 0.9846
5.7152 -2.5732 1.0131
6.4046 -2.6115 1.1198
6.5461 -2.3991 1.1307
6.5467 -2.1361 1.1187
6.5941 -1.8926 1.1164
6.6440 -1.6514 1.1161
5.6712 -1.1953 0.9465
5.6754 -0.9849 0.9423
6.4784 -0.8861 1.0716
6.7169 -0.6741 1.1082
6.7155 -0.4312 1.1067
6.7140 -0.1896 1.1066
6.7126 0.0515 1.1079
6.7112 0.2927 1.1106
5.6728 0.4519 0.9425
5.6673 0.6569 0.9465
7.4053 1.1291 1.2449
7.1806 1.3603 1.2167
6.8377 1.5516 1.1692
6.3829 1.6915 1.1030
6.1922 1.8814 1.0828
6.1247 2.1039 1.0853
6.0181 2.3121 1.0822
5.9180 2.5211 1.0815
5.8800 2.7585 1.0937
6.0522 3.1092 1.1475
6.0540 3.3904 1.1719
6.2310 3.7897 1.2336
8.7217 5.7437 1.7689
8.0728 5.7425 1.6804
7.5594 5.7972 1.6181
7.2773 6.0081 1.6050
6.9959 6.2117 1.5932
6.6878 6.3823 1.5761
6.5281 6.6943 1.5961
6.5414 7.2089 1.6635
6.4207 7.6082 1.7031
7.3844 9.4169 2.0494
6.8523 9.4166 1.9964
5.9951 8.8937 1.8403
5.5405 8.8928 1.7993
5.4069 9.4163 1.8663
5.7473 10.8984 2.1193
5.3528 11.0999 2.1212
4.9658 11.3199 2.1292
4.5529 11.4841 2.1292
4.1350 11.6340 2.1292
3.7123 11.7693 2.1292
3.2855 11.8900 2.1292
2.8550 11.9959 2.1292
2.4212 12.0870 2.1292
1.9847 12.1631 2.1292
1.6207 12.8161 2.2323
1.1589 12.8644 2.2323
0.6957 12.8968 2.2323
0.2317 12.9133 2.2323
-0.2326 12.9139 2.2323
-0.6967 12.8986 2.2323
-1.1601 12.8674 2.2323
-1.6222 12.8203 2.2323
-2.0826 12.7574 2.2323
-2.5407 12.6787 2.2323
-2.9959 12.5843 2.2323
-3.4479 12.4744 2.2323
-3.8961 12.3489 2.2323
-4.3399 12.2080 2.2323
-4.7789 12.0518 2.2323
-5.2126 11.8805 2.2323
-5.6404 11.6943 2.2323
-6.0620 11.4933 2.2323
-6.2031 10.8014 2.1380
-6.5656 10.5368 2.1290
-6.9467 10.3040 2.1290
-7.3199 10.0579 2.1290
-7.6847 9.7988 2.1290
-8.0408 9.5269 2.1290
-8.3876 9.2426 2.1290
-8.7248 8.9460 2.1290
-9.0519 8.6375 2.1290
-9.3684 8.3175 2.1290
-9.6741 7.9862 2.1290
-7.5833 5.8151 1.6196
-7.7983 5.5467 1.6196
-10.5376 6.9389 2.1323
-10.7960 6.5656 2.1323
-10.0372 5.6206 1.9383
-10.0363 5.1556 1.8982
-10.0679 4.7228 1.8679
-11.6976 4.9830 2.1323
-11.8883 4.5671 2.1323
-12.0645 4.1441 2.1323
-12.2259 3.7144 2.1323
-12.3723 3.2785 2.1323
-12.5034 2.8370 2.1323
-12.6189 2.3904 2.1323
-12.7186 1.9392 2.1323
-12.8023 1.4839 2.1323
-12.8699 1.0252 2.1323
-12.9211 0.5635 2.1323
-12.9558 0.0995 2.1323
-12.9739 -0.3662 2.1323
-10.0357 -0.6444 1.6492
-10.0335 -1.0069 1.6508
-10.0293 -1.3716 1.6542
-12.8782 -2.2346 2.1323
-12.8120 -2.7000 2.1323
-12.7288 -3.1635 2.1323
-12.6287 -3.6244 2.1323
-12.5117 -4.0821 2.1323
-12.3779 -4.5359 2.1323
-12.2274 -4.9853 2.1323
-12.0604 -5.4296 2.1323
-11.8769 -5.8682 2.1323
-11.6771 -6.3004 2.1323
-11.4613 -6.7257 2.1323
-10.1022 -6.4261 1.9182
-10.0138 -6.8865 1.9442
-10.0128 -7.4285 1.9916
-10.4426 -8.3443 2.1323
-7.7100 -6.6276 1.6196
-7.4773 -6.9090 1.6196
-7.3263 -7.2736 1.6403
-7.3299 -7.8187 1.7007
-8.8294 -10.1225 2.1290
-8.4703 -10.4445 2.1290
-8.0991 -10.7532 2.1290
-7.7163 -11.0481 2.1290
-7.3223 -11.3288 2.1290
-6.9178 -11.5947 2.1290
-6.5033 -11.8456 2.1290
-6.1554 -12.2322 2.1557
-5.9203 -12.8969 2.2323
-5.4578 -13.1099 2.2323
-4.9874 -13.3055 2.2323
-4.5097 -13.4834 2.2323
-4.0254 -13.6433 2.2323
-3.5353 -13.7849 2.2323
-3.0399 -13.9080 2.2323
-2.5401 -14.0124 2.2323
-2.0366 -14.0979 2.2323
-1.5302 -14.1644 2.2323
-1.0215 -14.2118 2.2323
-0.5114 -14.2399 2.2323
-0.0005 -12.4138 2.2323
0.4444 -12.4049 2.2323
0.8886 -12.3793 2.2323
1.3316 -12.3371 2.2323
1.7725 -12.2784 2.2323
2.1087 -11.6397 2.1292
2.5236 -11.5524 2.1292
2.9349 -11.4497 2.1292
3.3419 -11.3318 2.1292
3.7439 -11.1988 2.1292
4.1406 -11.0509 2.1292
4.5312 -10.8885 2.1292
4.9152 -10.7116 2.1292
5.2921 -10.5207 2.1292
5.6614 -10.3161 2.1292
6.0424 -10.1313 2.1362
6.0056 -9.2950 2.0058
6.0674 -8.6904 1.9229
6.2488 -8.2995 1.8866
6.6037 -8.1457 1.9063
6.8554 -7.8623 1.8983
7.3204 -7.8115 1.9504
7.8491 -7.7956 2.0177
6.0889 -5.6283 1.5141
6.0677 -5.2179 1.4632
6.0671 -4.8499 1.4219
6.0451 -4.4867 1.3799
6.1684 -4.2438 1.3742
6.3699 -4.0537 1.3877
6.6058 -3.8782 1.4098
6.8908 -3.7198 1.4432
5.4774 -2.7077 1.1277
5.7983 -2.6119 1.1754
6.3671 -2.5975 1.2729
6.3677 -2.3349 1.2573
6.3877 -2.0855 1.2475
6.4471 -1.8517 1.2472
6.4978 -1.6163 1.2469
5.5501 -1.1708 1.0579
5.5551 -0.9650 1.0532
6.4699 -0.8861 1.2218
6.5464 -0.6582 1.2329
6.5449 -0.4215 1.2309
6.5435 -0.1859 1.2305
6.5421 0.0490 1.2317
6.5407 0.2840 1.2344
5.5539 0.4414 1.0521
5.5481 0.6421 1.0563
7.4053 1.1277 1.4189
7.1844 1.3597 1.3872
6.8391 1.5506 1.3324
6.5756 1.7413 1.2943
6.1931 1.8805 1.2334
6.1252 2.1029 1.2359
6.0186 2.3111 1.2321
6.0531 2.5775 1.2591
6.0263 2.8260 1.2756
6.0522 3.1080 1.3056
6.0531 3.3886 1.3330
6.2277 3.7864 1.4023
8.7246 5.7437 2.0123
8.0753 5.7425 1.9113
7.5612 5.7969 1.8399
7.2783 6.0073 1.8246
6.9969 6.2110 1.8109
6.6883 6.3812 1.7912
6.5286 6.6932 1.8136
6.5429 7.2089 1.8902
6.4203 7.6061 1.9345
6.7772 8.6407 2.1362
6.4567 8.8709 2.1362
5.9964 8.8937 2.0901
5.5416 8.8928 2.0434
5.4082 9.4167 2.1192
5.0865 9.6435 2.1292
4.7335 9.8138 2.1292
4.3752 9.9717 2.1292
4.0117 10.1171 2.1292
3.6436 10.2498 2.1292
3.2714 10.3696 2.1292
2.8954 10.4765 2.1292
2.5161 10.5703 2.1292
2.1339 10.6509 2.1292
1.8339 11.2373 2.2323
1.4285 11.2940 2.2323
1.0214 11.3367 2.2323
0.6131 11.3654 2.2323
0.2041 11.3800 2.2323
-0.2051 11.3804 2.2323
-0.6142 11.3668 2.2323
-1.0226 11.3391 2.2323
-1.4298 11.2973 2.2323
-1.8355 11.2415 2.2323
-2.2392 11.1717 2.2323
-2.6403 11.0880 2.2323
-3.0384 10.9905 2.2323
-3.4331 10.8792 2.2323
-3.8240 10.7543 2.2323
-4.2105 10.6160 2.2323
-4.5922 10.4642 2.2323
-4.9687 10.2993 2.2323
-5.3395 10.1213 2.2323
-5.7042 9.9304 2.2323
-6.0623 9.7268 2.2323
-6.1954 9.1874 2.1564
-6.4447 8.8532 2.1290
-6.7650 8.6240 2.1290
-7.0776 8.3836 2.1290
-7.3819 8.1322 2.1290
-7.6775 7.8701 2.1290
-7.9642 7.5976 2.1290
-8.2414 7.3149 2.1290
-8.5090 7.0223 2.1290
-7.3485 5.6332 1.7846
-7.3455 5.2230 1.7350
-7.3448 4.8348 1.6906
-7.3732 4.4824 1.6568
-9.6887 5.4234 2.1290
-9.8908 5.0788 2.1290
-10.0809 4.7269 2.1290
-10.2743 4.3746 2.1323
-10.4398 4.0086 2.1323
-10.5925 3.6364 2.1323
-10.7321 3.2585 2.1323
-10.8584 2.8753 2.1323
-10.9712 2.4873 2.1323
-11.0703 2.0950 2.1323
-11.1554 1.6988 2.1323
-11.2265 1.2992 2.1323
-11.2834 0.8967 2.1323
-11.3259 0.4919 2.1323
-11.3539 0.0851 2.1323
-11.3674 -0.3229 2.1323
-10.0255 -0.6455 1.8808
-10.0248 -1.0079 1.8833
-10.0241 -1.3727 1.8883
-11.2739 -1.9583 2.1323
-11.2136 -2.3652 2.1323
-11.1384 -2.7703 2.1323
-11.0485 -3.1729 2.1323
-10.9439 -3.5726 2.1323
-10.8247 -3.9688 2.1323
-10.6909 -4.3609 2.1323
-10.5427 -4.7485 2.1323
-10.3803 -5.1309 2.1323
-10.2037 -5.5076 2.1323
-9.9980 -5.8691 2.1290
-9.7941 -6.2322 2.1290
-9.5768 -6.5880 2.1290
-9.3462 -6.9361 2.1290
-9.1028 -7.2758 2.1290
-7.3239 -6.2974 1.7626
-8.5781 -7.9283 2.1290
-7.5163 -7.4641 1.9285
-8.0055 -8.5415 2.1290
-7.7021 -8.8323 2.1290
-7.3879 -9.1119 2.1290
-7.0632 -9.3798 2.1290
-6.7285 -9.6358 2.1290
-6.3842 -9.8793 2.1290
-6.1546 -10.3177 2.1727
-5.9437 -10.8285 2.2323
-5.5556 -11.0424 2.2323
-5.1596 -11.2419 2.2323
-4.7562 -11.4266 2.2323
-4.3459 -11.5961 2.2323
-3.9294 -11.7503 2.2323
-3.5072 -11.8888 2.2323
-3.0800 -12.0116 2.2323
-2.6483 -12.1182 2.2323
-2.2128 -12.2087 2.2323
-1.7742 -12.2828 2.2323
-1.3330 -12.3404 2.2323
-0.8899 -12.3815 2.2323
-0.4455 -12.4060 2.2323
-0.0005 -10.9872 2.2323
0.3932 -10.9795 2.2323
0.7864 -10.9570 2.2323
1.1783 -10.9199 2.2323
1.5686 -10.8683 2.2323
1.8967 -10.4719 2.1640
2.2335 -10.2264 2.1292
2.0476 -7.9898 1.6783
2.4111 -8.1774 1.7355
3.3141 -9.9150 2.1292
3.6654 -9.7848 2.1292
4.0115 -9.6416 2.1292
4.3518 -9.4858 2.1292
4.6859 -9.3175 2.1292
5.0133 -9.1371 2.1292
5.3336 -8.9448 2.1292
5.6463 -8.7409 2.1292
5.9707 -8.5540 2.1362
6.2680 -8.3271 2.1362
6.5473 -8.0782 2.1332
6.8358 -7.8419 2.1362
7.1055 -7.5842 2.1362
7.3653 -7.3170 2.1362
6.0905 -5.6313 1.7086
6.0677 -5.2194 1.6504
6.0671 -4.8514 1.6036
6.0446 -4.4878 1.5559
6.1678 -4.2448 1.5493
6.4025 -4.0759 1.5724
6.6047 -3.8790 1.5888
6.8896 -3.7206 1.6262
5.3536 -2.6476 1.2420
5.7959 -2.6120 1.3237
6.1834 -2.5238 1.3925
6.2564 -2.2953 1.3913
6.3252 -2.0663 1.3911
6.3688 -1.8304 1.3872
5.4270 -1.3509 1.1724
5.4331 -1.1471 1.1656
5.4388 -0.9459 1.1604
6.3691 -0.8735 1.3533
6.3677 -0.6414 1.3491
6.3663 -0.4112 1.3467
6.3649 -0.1820 1.3460
6.3636 0.0465 1.3471
6.3622 0.2751 1.3499
5.4389 0.4312 1.1581
5.4329 0.6277 1.1625
7.4053 1.1264 1.5944
7.1883 1.3591 1.5593
6.8404 1.5496 1.4970
6.5768 1.7404 1.4540
6.1940 1.8796 1.3852
6.1257 2.1019 1.3877
6.0191 2.3102 1.3833
6.0263 2.5649 1.4070
6.0263 2.8247 1.4315
6.0522 3.1067 1.4650
6.0522 3.3868 1.4953
6.2243 3.7830 1.5723
8.2572 5.4342 2.1362
8.0477 5.7210 2.1362
7.5631 5.7966 2.0638
7.1563 5.9049 2.0115
6.9128 6.1346 2.0058
6.6889 6.3801 2.0081
6.5292 6.6921 2.0330
6.3927 7.0416 2.0699
6.3266 7.4932 2.1362
6.0482 7.7094 2.1362
5.7437 7.8896 2.1292
5.4523 8.0849 2.1292
5.1545 8.2699 2.1292
4.8507 8.4442 2.1292
4.5411 8.6078 2.1292
4.2263 8.7605 2.1292
3.9066 8.9020 2.1292
3.5822 9.0324 2.1292
3.2537 9.1513 2.1292
2.3014 7.2935 1.6773
2.0064 7.2584 1.6521
2.2471 9.4386 2.1292
1.9058 9.5109 2.1292
1.6379 10.0348 2.2323
1.2758 10.0856 2.2323
0.9122 10.1239 2.2323
0.5476 10.1495 2.2323
0.1823 10.1626 2.2323
-0.1833 10.1630 2.2323
-0.5486 10.1507 2.2323
-0.9134 10.1258 2.2323
-1.2771 10.0882 2.2323
-1.6394 10.0381 2.2323
-1.9998 9.9754 2.2323
-2.3580 9.9003 2.2323
-2.7134 9.8128 2.2323
-3.0658 9.7130 2.2323
-3.4146 9.6010 2.2323
-3.7595 9.4769 2.2323
-4.1000 9.3408 2.2323
-4.4359 9.1929 2.2323
-4.7665 9.0333 2.2323
-5.0917 8.8622 2.2323
-5.4109 8.6798 2.2323
-5.7239 8.4862 2.2323
-6.0301 8.2817 2.2323
-6.1871 7.8854 2.1822
-6.3147 7.4781 2.1290
-6.5855 7.2530 2.1290
-6.8485 7.0184 2.1290
-7.1033 6.7745 2.1290
-7.3498 6.5216 2.1290
-7.5874 6.2599 2.1290
-7.4434 5.7043 2.0275
-8.0352 5.7115 2.1290
-8.2447 5.4254 2.1290
-8.4443 5.1318 2.1290
-8.6336 4.8309 2.1290
-8.8124 4.5232 2.1290
-8.9804 4.2090 2.1290
-9.1375 3.8887 2.1290
-9.2832 3.5626 2.1290
-9.4175 3.2311 2.1290
-9.5401 2.8947 2.1290
-9.6509 2.5537 2.1290
-9.7496 2.2085 2.1290
-9.8360 1.8595 2.1290
-9.9101 1.5073 2.1290
-9.9716 1.1521 2.1290
-10.0205 0.7945 2.1290
-10.0566 0.4349 2.1290
-10.0797 0.0737 2.1290
-10.0900 -0.2885 2.1290
-7.6737 -0.4955 1.6196
-7.6617 -0.7717 1.6196
-7.6396 -1.0476 1.6196
-7.6076 -1.3229 1.6196
-7.5657 -1.5972 1.6196
-7.5137 -1.8702 1.6196
-9.7956 -2.8150 2.1290
-9.7013 -3.1688 2.1290
-9.5940 -3.5195 2.1290
-9.4740 -3.8664 2.1290
-9.3412 -4.2092 2.1290
-9.1959 -4.5473 2.1290
-9.0381 -4.8803 2.1290
-8.8681 -5.2076 2.1290
-8.6860 -5.5289 2.1290
-8.4920 -5.8437 2.1290
-8.2864 -6.1514 2.1290
-8.0694 -6.4517 2.1290
-7.5394 -6.4845 2.0470
-7.6024 -7.0283 2.1290
-7.3529 -7.3037 2.1290
-7.0932 -7.5700 2.1290
-6.8236 -7.8267 2.1290
-6.5445 -8.0735 2.1290
-6.2562 -8.3100 2.1290
-6.1558 -8.8176 2.1993
-5.9278 -9.1751 2.2323
-5.5992 -9.3885 2.2323
-5.2627 -9.5897 2.2323
-4.9187 -9.7783 2.2323
-4.5677 -9.9542 2.2323
-4.2103 -10.1170 2.2323
-3.8469 -10.2665 2.2323
-3.4780 -10.4023 2.2323
-3.1042 -10.5245 2.2323
-2.7259 -10.6326 2.2323
-2.3438 -10.7266 2.2323
-1.9584 -10.8064 2.2323
-1.5701 -10.8717 2.2323
-1.1796 -10.9225 2.2323
-0.7875 -10.9587 2.2323
-0.3943 -10.9803 2.2323
-0.0005 -9.8454 2.2323
0.3522 -9.8386 2.2323
0.7045 -9.8186 2.2323
1.0557 -9.7855 2.2323
1.4053 -9.7394 2.2323
1.7530 -9.6804 2.2323
2.0012 -9.1648 2.1292
2.0476 -7.9915 1.8731
2.1266 -7.2141 1.7083
2.4106 -7.2135 1.7283
3.2848 -8.7706 2.1292
3.5951 -8.6428 2.1292
3.9004 -8.5037 2.1292
4.2001 -8.3535 2.1292
4.4939 -8.1923 2.1292
4.7814 -8.0205 2.1292
5.0622 -7.8384 2.1292
5.3358 -7.6461 2.1292
5.6020 -7.4440 2.1292
5.8603 -7.2324 2.1292
6.1307 -7.0348 2.1362
6.3732 -6.8044 2.1362
6.6069 -6.5654 2.1362
6.0920 -5.6343 1.9050
6.0677 -5.2209 1.8395
6.0671 -4.8529 1.7871
6.0441 -4.4888 1.7336
6.1673 -4.2459 1.7260
6.3679 -4.0553 1.7422
6.6036 -3.8798 1.7695
5.0240 -2.7141 1.3207
5.2341 -2.5896 1.3522
5.7933 -2.6120 1.4733
6.0968 -2.4897 1.5286
6.1741 -2.2664 1.5284
6.1845 -2.0216 1.5139
6.1850 -1.7788 1.4993
5.3131 -1.3236 1.2772
5.3198 -1.1242 1.2698
5.3262 -0.9273 1.2642
6.1850 -0.8494 1.4617
6.1836 -0.6241 1.4570
6.1823 -0.4004 1.4542
6.1810 -0.1779 1.4533
6.1797 0.0440 1.4543
6.1784 0.2660 1.4571
5.3275 0.4214 1.2608
5.3214 0.6139 1.2653
7.4053 1.1250 1.7716
7.1922 1.3585 1.7333
6.8418 1.5486 1.6632
6.5781 1.7395 1.6152
6.1950 1.8787 1.5386
6.1262 2.1009 1.5411
6.0196 2.3092 1.5359
6.0532 2.5751 1.5689
6.0263 2.8235 1.5890
6.0522 3.1055 1.6260
6.0513 3.3851 1.6592
6.2210 3.7797 1.7437
7.4422 4.8962 2.1362
7.2541 5.1552 2.1362
7.0572 5.4073 2.1362
6.8518 5.6521 2.1362
6.6381 5.8893 2.1362
6.4165 6.1186 2.1362
6.1871 6.3398 2.1362
5.9503 6.5527 2.1362
5.6876 6.7349 2.1292
5.4377 6.9298 2.1292
5.1814 7.1156 2.1292
4.9188 7.2924 2.1292
4.6505 7.4597 2.1292
4.3766 7.6175 2.1292
4.0976 7.7655 2.1292
3.8137 7.9037 2.1292
2.4029 5.4747 1.4513
2.2035 5.5551 1.4513
2.4105 6.7784 1.7478
2.0038 6.3493 1.6181
2.0064 7.2572 1.8305
2.0460 8.5925 2.1479
1.8034 8.9987 2.2323
1.4784 9.0560 2.2323
1.1516 9.1021 2.2323
0.8234 9.1367 2.2323
0.4942 9.1599 2.2323
0.1645 9.1717 2.2323
-0.1655 9.1720 2.2323
-0.4953 9.1608 2.2323
-0.8245 9.1382 2.2323
-1.1528 9.1042 2.2323
-1.4798 9.0587 2.2323
-1.8051 9.0019 2.2323
-2.1282 8.9339 2.2323
-2.4490 8.8546 2.2323
-2.7669 8.7642 2.2323
-3.0815 8.6627 2.2323
-3.3926 8.5503 2.2323
-3.6998 8.4270 2.2323
-4.0026 8.2931 2.2323
-4.3007 8.1486 2.2323
-4.5938 7.9937 2.2323
-4.8814 7.8286 2.2323
-5.1634 7.6534 2.2323
-5.4392 7.4684 2.2323
-5.7086 7.2737 2.2323
-5.9712 7.0695 2.2323
-6.1851 6.8103 2.2174
-6.1953 6.3473 2.1359
-6.4045 6.1063 2.1290
-6.6260 5.8777 2.1290
-6.8396 5.6412 2.1290
-7.0449 5.3972 2.1290
-7.2417 5.1458 2.1290
-7.4298 4.8874 2.1290
-7.6087 4.6223 2.1290
-7.7784 4.3507 2.1290
-7.9386 4.0730 2.1290
-8.0890 3.7895 2.1290
-8.2294 3.5006 2.1290
-8.3597 3.2065 2.1290
-8.4796 2.9077 2.1290
-8.5889 2.6044 2.1290
-8.6875 2.2971 2.1290
-8.7752 1.9861 2.1290
-8.8518 1.6718 2.1290
-8.9173 1.3546 2.1290
-8.9715 1.0349 2.1290
-9.0142 0.7130 2.1290
-9.0455 0.3895 2.1290
-9.0651 0.0646 2.1290
-9.0731 -0.2611 2.1290
-7.3348 -0.4750 1.7218
-7.3343 -0.7401 1.7247
-7.3338 -1.0070 1.7297
-7.3333 -1.2766 1.7371
-7.3328 -1.5494 1.7469
-7.3323 -1.8264 1.7591
-8.8002 -2.5306 2.1290
-8.7143 -2.8481 2.1290
-8.6168 -3.1627 2.1290
-8.5079 -3.4738 2.1290
-8.3877 -3.7812 2.1290
-8.2561 -4.0843 2.1290
-8.1135 -4.3827 2.1290
-7.9599 -4.6760 2.1290
-7.7955 -4.9638 2.1290
-7.6206 -5.2457 2.1290
-7.4352 -5.5212 2.1290
-7.2398 -5.7900 2.1290
-7.0344 -6.0518 2.1290
-6.8193 -6.3060 2.1290
-6.5949 -6.5524 2.1290
-6.3722 -6.8022 2.1327
-6.1676 -7.0759 2.1459
-6.1528 -7.5920 2.2323
-5.8812 -7.8137 2.2323
-5.6015 -8.0253 2.2323
-5.3140 -8.2267 2.2323
-5.0190 -8.4174 2.2323
-4.7170 -8.5971 2.2323
-4.4084 -8.7657 2.2323
-4.0936 -8.9228 2.2323
-3.7731 -9.0682 2.2323
-3.4473 -9.2017 2.2323
-3.1166 -9.3230 2.2323
-2.7815 -9.4321 2.2323
-2.4425 -9.5287 2.2323
-2.1000 -9.6126 2.2323
-1.7546 -9.6838 2.2323
-1.4068 -9.7422 2.2323
-1.0569 -9.7876 2.2323
-0.7056 -9.8199 2.2323
-0.3533 -9.8393 2.2323
-0.0005 -8.9100 2.2323
0.3187 -8.9038 2.2323
0.6374 -8.8858 2.2323
0.9551 -8.8560 2.2323
1.2716 -8.8145 2.2323
1.5862 -8.7613 2.2323
1.8898 -8.6565 2.2220
2.0476 -7.9932 2.0699
2.1261 -7.2141 1.8873
2.4101 -7.2135 1.9093
2.9728 -7.9394 2.1292
3.2538 -7.8241 2.1292
3.5303 -7.6985 2.1292
3.8018 -7.5629 2.1292
4.0680 -7.4175 2.1292
4.3285 -7.2624 2.1292
4.5829 -7.0980 2.1292
4.8310 -6.9244 2.1292
5.0724 -6.7419 2.1292
5.3067 -6.5508 2.1292
5.5337 -6.3514 2.1292
5.7531 -6.1439 2.1292
5.9842 -5.9483 2.1362
6.0936 -5.6373 2.1036
5.9939 -5.1589 2.0058
6.0671 -4.8544 1.9726
6.0436 -4.4899 1.9132
6.1668 -4.2469 1.9046
6.4004 -4.0774 1.9323
4.8107 -2.8274 1.4222
4.8113 -2.6003 1.3954
5.2769 -2.6119 1.5039
5.7907 -2.6120 1.6243
5.9923 -2.4482 1.6569
5.9928 -2.2011 1.6360
5.9934 -1.9603 1.6177
5.9939 -1.7250 1.6019
5.1645 -1.2876 1.3686
5.2014 -1.1002 1.3686
5.2171 -0.9093 1.3648
5.9936 -0.8243 1.5610
5.9923 -0.6059 1.5558
5.9910 -0.3892 1.5527
5.9897 -0.1736 1.5515
5.9884 0.0415 1.5524
5.9872 0.2567 1.5553
5.2195 0.4119 1.3604
5.2132 0.6004 1.3651
7.4055 1.1236 1.9506
7.1962 1.3578 1.9093
6.8432 1.5476 1.8313
6.5794 1.7386 1.7782
6.1959 1.8777 1.6936
6.1268 2.0999 1.6961
6.0202 2.3082 1.6903
6.0263 2.5625 1.7185
6.0263 2.8223 1.7482
6.0522 3.1042 1.7887
6.0504 3.3833 1.8248
6.2176 3.7763 1.9168
6.7671 4.4505 2.1362
6.5967 4.6865 2.1362
6.4182 4.9162 2.1362
6.2319 5.1392 2.1362
6.0380 5.3553 2.1362
5.8176 5.5461 2.1292
5.6101 5.7471 2.1292
5.3957 5.9406 2.1292
5.1749 6.1263 2.1292
4.9478 6.3040 2.1292
4.7149 6.4735 2.1292
4.4762 6.6347 2.1292
4.2323 6.7874 2.1292
3.9832 6.9313 2.1292
3.7294 7.0664 2.1292
3.4712 7.1925 2.1292
2.3840 5.4306 1.5819
2.1575 5.4380 1.5611
2.2358 6.2859 1.7809
2.0080 6.3617 1.7813
2.0064 7.2559 2.0107
1.8654 7.8328 2.1511
1.6418 8.1908 2.2323
1.3459 8.2432 2.2323
1.0484 8.2852 2.2323
0.7496 8.3168 2.2323
0.4499 8.3379 2.2323
0.1497 8.3486 2.2323
-0.1507 8.3489 2.2323
-0.4509 8.3387 2.2323
-0.7507 8.3180 2.2323
-1.0496 8.2869 2.2323
-1.3472 8.2454 2.2323
-1.6433 8.1935 2.2323
-1.9375 8.1314 2.2323
-2.2294 8.0589 2.2323
-2.5187 7.9764 2.2323
-2.8050 7.8837 2.2323
-3.0881 7.7811 2.2323
-3.3675 7.6685 2.2323
-3.6429 7.5463 2.2323
-3.9141 7.4144 2.2323
-4.1806 7.2731 2.2323
-4.4421 7.1224 2.2323
-4.6984 6.9626 2.2323
-4.9491 6.7938 2.2323
-5.1938 6.6162 2.2323
-5.4324 6.4299 2.2323
-5.6644 6.2353 2.2323
-5.8897 6.0325 2.2323
-6.1078 5.8218 2.2323
-6.1826 5.4828 2.1842
-6.2200 5.1287 2.1290
-6.4062 4.9063 2.1290
-6.5846 4.6773 2.1290
-6.7549 4.4420 2.1290
-6.9170 4.2005 2.1290
-7.0706 3.9533 2.1290
-7.2155 3.7005 2.1290
-7.3515 3.4425 2.1290
-7.4784 3.1795 2.1290
-7.5960 2.9120 2.1290
-7.7041 2.6402 2.1290
-7.8026 2.3644 2.1290
-7.8914 2.0850 2.1290
-7.9701 1.8023 2.1290
-8.0389 1.5167 2.1290
-8.0975 1.2285 2.1290
-8.1458 0.9381 2.1290
-8.1837 0.6458 2.1290
-8.2111 0.3520 2.1290
-8.2281 0.0571 2.1290
-8.2344 -0.2385 2.1290
-8.2301 -0.5345 2.1290
-8.2152 -0.8305 2.1290
-8.1896 -1.1261 2.1290
-8.1532 -1.4209 2.1290
-7.4267 -1.5707 1.9505
-8.0487 -2.0064 2.1290
-7.9805 -2.2965 2.1290
-7.9018 -2.5841 2.1290
-7.8126 -2.8691 2.1290
-7.7131 -3.1508 2.1290
-7.6032 -3.4291 2.1290
-7.4832 -3.7035 2.1290
-7.3532 -3.9735 2.1290
-7.2133 -4.2390 2.1290
-7.0637 -4.4993 2.1290
-6.9045 -4.7543 2.1290
-6.7360 -5.0035 2.1290
-6.5583 -5.2466 2.1290
-6.3753 -5.4864 2.1302
-6.1764 -5.7130 2.1290
-6.1609 -6.1228 2.1961
-6.0400 -6.4492 2.2323
-5.8095 -6.6667 2.2323
-5.5709 -6.8757 2.2323
-5.3247 -7.0759 2.2323
-5.0711 -7.2671 2.2323
-4.8105 -7.4489 2.2323
-4.5432 -7.6210 2.2323
-4.2696 -7.7833 2.2323
-3.9901 -7.9355 2.2323
-3.7050 -8.0773 2.2323
-3.4148 -8.2085 2.2323
-3.1198 -8.3290 2.2323
-2.8204 -8.4385 2.2323
-2.5171 -8.5369 2.2323
-2.2102 -8.6241 2.2323
-1.9003 -8.6999 2.2323
-1.5877 -8.7641 2.2323
-1.2729 -8.8168 2.2323
-0.9564 -8.8577 2.2323
-0.6385 -8.8870 2.2323
-0.3197 -8.9044 2.2323
-0.0005 -8.1289 2.2323
0.2906 -8.1233 2.2323
0.5813 -8.1069 2.2323
0.8712 -8.0799 2.2323
1.1599 -8.0421 2.2323
1.4469 -7.9937 2.2323
1.7319 -7.9348 2.2323
1.9214 -7.5022 2.1292
2.1257 -7.2141 2.0684
2.4095 -7.2135 2.0924
2.0956 -5.5979 1.6452
2.3493 -5.6502 1.6849
3.2211 -7.0258 2.1292
3.4689 -6.9024 2.1292
3.7120 -6.7700 2.1292
3.9499 -6.6288 2.1292
4.1823 -6.4791 2.1292
4.4090 -6.3210 2.1292
4.6295 -6.1549 2.1292
4.8437 -5.9808 2.1292
5.0513 -5.7991 2.1292
5.2518 -5.6101 2.1292
5.4453 -5.4140 2.1292
5.6312 -5.2111 2.1292
5.8095 -5.0017 2.1292
5.9283 -4.7448 2.1108
6.0430 -4.4909 2.0948
6.1662 -4.2480 2.0852
5.1610 -3.2890 1.7059
5.5735 -3.2770 1.8039
4.8538 -2.6243 1.5410
5.2748 -2.6120 1.6455
5.7881 -2.6120 1.7769
5.8064 -2.3735 1.7571
5.8069 -2.1340 1.7347
5.8074 -1.9006 1.7152
5.8079 -1.6727 1.6983
4.8081 -1.1997 1.3939
4.8077 -1.0179 1.3837
4.8607 -0.8481 1.3908
5.8573 -0.8066 1.6684
5.8764 -0.5953 1.6685
5.8879 -0.3836 1.6686
5.8918 -0.1718 1.6687
5.8881 0.0397 1.6687
5.8768 0.2508 1.6688
4.8058 0.3783 1.3691
4.8047 0.5524 1.3750
5.9710 0.9048 1.7189
7.2002 1.3572 2.0876
6.8446 1.5466 2.0014
6.5807 1.7376 1.9432
6.1968 1.8768 1.8505
6.1273 2.0988 1.8529
6.0207 2.3072 1.8464
6.0532 2.5727 1.8854
6.0263 2.8210 1.9092
6.0522 3.1030 1.9533
6.0495 3.3815 1.9923
6.2141 3.7728 2.0917
6.1983 4.0750 2.1362
6.0426 4.2915 2.1362
5.8602 4.4874 2.1292
5.6905 4.6913 2.1292
5.5138 4.8891 2.1292
5.3304 5.0803 2.1292
5.1406 5.2648 2.1292
4.9445 5.4424 2.1292
4.7424 5.6129 2.1292
4.5345 5.7760 2.1292
4.3212 5.9317 2.1292
4.1027 6.0798 2.1292
3.8793 6.2200 2.1292
3.6512 6.3522 2.1292
3.4187 6.4763 2.1292
3.1821 6.5921 2.1292
2.3819 5.4246 1.7240
2.1528 5.4252 1.6991
2.2362 6.2859 1.9429
2.0080 6.3605 1.9429
1.9479 7.0430 2.1292
1.7748 7.4510 2.2323
1.5053 7.5086 2.2323
1.2340 7.5567 2.2323
0.9612 7.5952 2.2323
0.6873 7.6243 2.2323
0.4125 7.6437 2.2323
0.1372 7.6535 2.2323
-0.1382 7.6537 2.2323
-0.4135 7.6443 2.2323
-0.6884 7.6253 2.2323
-0.9624 7.5967 2.2323
-1.2353 7.5585 2.2323
-1.5067 7.5108 2.2323
-1.7764 7.4537 2.2323
-2.0440 7.3871 2.2323
-2.3092 7.3112 2.2323
-2.5716 7.2260 2.2323
-2.8310 7.1317 2.2323
-3.0870 7.0283 2.2323
-3.3394 6.9159 2.2323
-3.5878 6.7948 2.2323
-3.8319 6.6649 2.2323
-4.0714 6.5265 2.2323
-4.3061 6.3797 2.2323
-4.5356 6.2246 2.2323
-4.7596 6.0615 2.2323
-4.9780 5.8905 2.2323
-5.1903 5.7119 2.2323
-5.3963 5.5257 2.2323
-5.5958 5.3323 2.2323
-5.7885 5.1318 2.2323
-5.9742 4.9244 2.2323
-6.1525 4.7105 2.2323
-6.1806 4.3888 2.1819
-6.1923 4.0705 2.1310
-6.3344 3.8453 2.1290
-6.4746 3.6186 2.1290
-6.6067 3.3868 2.1290
-6.7307 3.1503 2.1290
-6.8462 2.9094 2.1290
-6.9533 2.6642 2.1290
-7.0517 2.4152 2.1290
-7.1412 2.1626 2.1290
-7.2218 1.9067 2.1290
-7.2932 1.6478 2.1290
-7.3555 1.3863 2.1290
-7.4084 1.1225 2.1290
-7.4519 0.8567 2.1290
-7.4859 0.5893 2.1290
-7.5103 0.3205 2.1290
-7.5251 0.0508 2.1290
-7.5302 -0.2196 2.1290
-7.5256 -0.4902 2.1290
-7.5112 -0.7608 2.1290
-7.4871 -1.0309 2.1290
-7.4532 -1.3003 2.1290
-7.4096 -1.5685 2.1290
-7.3563 -1.8353 2.1290
-7.2933 -2.1001 2.1290
-7.2207 -2.3628 2.1290
-7.1386 -2.6229 2.1290
-7.0470 -2.8802 2.1290
-6.9460 -3.1341 2.1290
-6.8358 -3.3845 2.1290
-6.7165 -3.6309 2.1290
-6.5881 -3.8730 2.1290
-6.4510 -4.1105 2.1290
-6.3051 -4.3430 2.1290
-6.1744 -4.5878 2.1372
-6.1631 -4.9319 2.1913
-6.0993 -5.2503 2.2323
-5.9119 -5.4699 2.2323
-5.7165 -5.6827 2.2323
-5.5133 -5.8883 2.2323
-5.3025 -6.0864 2.2323
-5.0845 -6.2768 2.2323
-4.8595 -6.4592 2.2323
-4.6278 -6.6333 2.2323
-4.3897 -6.7988 2.2323
-4.1456 -6.9556 2.2323
-3.8958 -7.1033 2.2323
-3.6406 -7.2418 2.2323
-3.3804 -7.3709 2.2323
-3.1154 -7.4904 2.2323
-2.8462 -7.6000 2.2323
-2.5730 -7.6997 2.2323
-2.2962 -7.7893 2.2323
-2.0163 -7.8686 2.2323
-1.7335 -7.9376 2.2323
-1.4484 -7.9961 2.2323
-1.1612 -8.0440 2.2323
-0.8724 -8.0813 2.2323
-0.5824 -8.1079 2.2323
-0.2917 -8.1238 2.2323
-0.0005 -7.4662 2.2323
0.2669 -7.4611 2.2323
0.5338 -7.4461 2.2323
0.8000 -7.4213 2.2323
1.0651 -7.3868 2.2323
1.3287 -7.3425 2.2323
1.5905 -7.2885 2.2323
1.8500 -7.2249 2.2323
2.0096 -6.8216 2.1292
2.2519 -6.7430 2.1292
2.0428 -5.4581 1.7461
2.3488 -5.6502 1.8341
2.4332 -5.3084 1.7510
3.1864 -6.3416 2.1292
3.4098 -6.2202 2.1292
3.6285 -6.0908 2.1292
3.8422 -5.9536 2.1292
4.0506 -5.8086 2.1292
4.2534 -5.6562 2.1292
4.4505 -5.4966 2.1292
4.6414 -5.3300 2.1292
4.8260 -5.1566 2.1292
5.0040 -4.9767 2.1292
5.1752 -4.7905 2.1292
5.3394 -4.5984 2.1292
5.4964 -4.4005 2.1292
5.6459 -4.1972 2.1292
5.7879 -3.9888 2.1292
4.9712 -3.1692 1.7873
4.9707 -2.9237 1.7499
4.8600 -2.6288 1.6781
5.2726 -2.6121 1.7887
5.6251 -2.5397 1.8779
5.6256 -2.3008 1.8511
5.6261 -2.0687 1.8274
5.6266 -1.8426 1.8066
5.6710 -1.6344 1.8026
4.8501 -1.2111 1.5284
4.8491 -1.0276 1.5170
5.0743 -0.8864 1.5781
5.8074 -0.8009 1.7977
5.8061 -0.5893 1.7914
5.8049 -0.3793 1.7875
5.8036 -0.1704 1.7859
5.8024 0.0380 1.7865
5.8011 0.2465 1.7895
5.1679 0.4058 1.5993
4.8456 0.5562 1.5062
5.9711 0.9037 1.8668
5.5948 1.0535 1.7616
6.6392 1.4989 2.1081
6.3887 1.6857 2.0485
6.1978 1.8759 2.0095
6.1278 2.0978 2.0118
6.0212 2.3061 2.0046
5.9326 2.5202 2.0058
5.8810 2.7518 2.0223
5.9043 3.0259 2.0682
5.9769 3.3396 2.1362
5.8288 3.5376 2.1292
5.6932 3.7417 2.1292
5.5506 3.9408 2.1292
5.4011 4.1345 2.1292
5.2450 4.3228 2.1292
5.0824 4.5052 2.1292
4.9136 4.6818 2.1292
4.7389 4.8521 2.1292
4.5583 5.0161 2.1292
4.3722 5.1735 2.1292
4.1808 5.3242 2.1292
3.9843 5.4680 2.1292
3.7830 5.6047 2.1292
3.5771 5.7342 2.1292
3.3669 5.8564 2.1292
2.4397 4.6207 1.6477
2.2762 4.7146 1.6516
2.0471 4.6613 1.6067
2.1509 5.4192 1.8406
2.2366 6.2859 2.1070
2.0080 6.3593 2.1066
1.8610 6.7277 2.2056
1.6369 6.8710 2.2323
1.3884 6.9242 2.2323
1.1381 6.9686 2.2323
0.8865 7.0043 2.2323
0.6339 7.0311 2.2323
0.3804 7.0490 2.2323
0.1265 7.0581 2.2323
-0.1275 7.0583 2.2323
-0.3815 7.0496 2.2323
-0.6349 7.0320 2.2323
-0.8877 7.0055 2.2323
-1.1394 6.9702 2.2323
-1.3897 6.9261 2.2323
-1.6384 6.8733 2.2323
-1.8852 6.8117 2.2323
-2.1297 6.7415 2.2323
-2.3717 6.6628 2.2323
-2.6108 6.5756 2.2323
-2.8469 6.4801 2.2323
-3.0795 6.3763 2.2323
-3.3084 6.2643 2.2323
-3.5334 6.1443 2.2323
-3.7541 6.0164 2.2323
-3.9703 5.8808 2.2323
-4.1817 5.7376 2.2323
-4.3881 5.5869 2.2323
-4.5891 5.4290 2.2323
-4.7846 5.2640 2.2323
-4.9743 5.0921 2.2323
-5.1579 4.9136 2.2323
-5.3352 4.7285 2.2323
-5.5060 4.5371 2.2323
-5.6701 4.3397 2.2323
-5.8271 4.1365 2.2323
-5.9770 3.9276 2.2323
-6.1196 3.7135 2.2323
-6.1788 3.4519 2.2052
-6.1825 3.1680 2.1626
-6.2003 2.9008 2.1290
-6.3063 2.6786 2.1290
-6.4045 2.4526 2.1290
-6.4946 2.2231 2.1290
-6.5766 1.9902 2.1290
-6.6503 1.7544 2.1290
-6.7156 1.5160 2.1290
-6.7723 1.2751 2.1290
-6.8205 1.0321 2.1290
-6.8600 0.7873 2.1290
-6.8908 0.5411 2.1290
-6.9127 0.2937 2.1290
-6.9258 0.0454 2.1290
-6.9299 -0.2034 2.1290
-6.9251 -0.4524 2.1290
-6.9113 -0.7014 2.1290
-6.8886 -0.9499 2.1290
-6.8569 -1.1976 2.1290
-6.8162 -1.4442 2.1290
-6.7667 -1.6895 2.1290
-6.7082 -1.9330 2.1290
-6.6409 -2.1744 2.1290
-6.5649 -2.4135 2.1290
-6.4802 -2.6499 2.1290
-6.3869 -2.8832 2.1290
-6.2851 -3.1131 2.1290
-6.1786 -3.3414 2.1303
-6.1683 -3.6275 2.1683
-6.1650 -3.9296 2.2134
-6.0766 -4.1870 2.2323
-5.9274 -4.4057 2.2323
-5.7703 -4.6189 2.2323
-5.6053 -4.8265 2.2323
-5.4328 -5.0280 2.2323
-5.2529 -5.2232 2.2323
-5.0659 -5.4118 2.2323
-4.8720 -5.5935 2.2323
-4.6714 -5.7682 2.2323
-4.4644 -5.9354 2.2323
-4.2514 -6.0951 2.2323
-4.0325 -6.2469 2.2323
-3.8081 -6.3906 2.2323
-3.5785 -6.5261 2.2323
-3.3439 -6.6531 2.2323
-3.1048 -6.7714 2.2323
-2.8614 -6.8809 2.2323
-2.6140 -6.9814 2.2323
-2.3630 -7.0728 2.2323
-2.1088 -7.1549 2.2323
-1.8517 -7.2276 2.2323
-1.5920 -7.2908 2.2323
-1.3301 -7.3444 2.2323
-1.0664 -7.3883 2.2323
-0.8012 -7.4225 2.2323
-0.5349 -7.4469 2.2323
-0.2679 -7.4615 2.2323
-0.0005 -6.8964 2.2323
0.2464 -6.8917 2.2323
0.4929 -6.8779 2.2323
0.7388 -6.8551 2.2323
0.9836 -6.8232 2.2323
1.2271 -6.7824 2.2323
1.4688 -6.7326 2.2323
1.7085 -6.6741 2.2323
1.8885 -6.4121 2.1665
2.0798 -6.2292 2.1292
2.0439 -5.4621 1.8915
2.0418 -4.9130 1.7262
2.1236 -4.6341 1.6546
2.3323 -4.6428 1.6872
3.1498 -5.7472 2.1292
3.3519 -5.6279 2.1292
3.5495 -5.5013 2.1292
3.7422 -5.3677 2.1292
3.9297 -5.2271 2.1292
4.1119 -5.0799 2.1292
4.2886 -4.9261 2.1292
4.4593 -4.7662 2.1292
4.6241 -4.6002 2.1292
4.7826 -4.4284 2.1292
4.9346 -4.2510 2.1292
5.0799 -4.0684 2.1292
5.2184 -3.8807 2.1292
5.3499 -3.6882 2.1292
4.9712 -3.1704 1.9335
4.9707 -2.9249 1.8929
4.8663 -2.6333 1.8175
5.2703 -2.6121 1.9338
5.4392 -2.4569 1.9639
5.4603 -2.2343 1.9430
5.5321 -2.0353 1.9431
5.5966 -1.8340 1.9431
5.6271 -1.6229 1.9340
4.8558 -1.2136 1.6544
4.8548 -1.0298 1.6419
5.0676 -0.8862 1.7036
5.6263 -0.7770 1.8827
5.6251 -0.5720 1.8759
5.6239 -0.3686 1.8717
5.6227 -0.1662 1.8698
5.6215 0.0357 1.8704
5.6203 0.2377 1.8734
5.1824 0.4060 1.7328
4.8512 0.5559 1.6292
5.9711 0.9025 2.0168
5.6007 1.0535 1.9050
6.2281 1.4048 2.1362
6.1681 1.6262 2.1362
6.1002 1.8450 2.1362
6.0246 2.0612 2.1362
5.9415 2.2743 2.1362
5.8317 2.4761 2.1292
5.7341 2.6818 2.1292
5.6294 2.8838 2.1292
5.5176 3.0817 2.1292
5.3990 3.2755 2.1292
5.2737 3.4648 2.1292
5.1418 3.6494 2.1292
5.0036 3.8290 2.1292
4.8592 4.0036 2.1292
4.7088 4.1729 2.1292
4.5527 4.3366 2.1292
4.3910 4.4947 2.1292
4.2238 4.6468 2.1292
4.0516 4.7929 2.1292
3.8744 4.9328 2.1292
3.6924 5.0662 2.1292
3.5060 5.1931 2.1292
3.3153 5.3133 2.1292
2.4180 4.2050 1.6498
2.4146 4.5723 1.7595
2.2762 4.7135 1.7818
2.0240 4.6076 1.7138
2.1489 5.4131 1.9839
2.0950 5.8869 2.1292
1.8813 5.9569 2.1292
1.7460 6.3107 2.2323
1.5174 6.3681 2.2323
1.2870 6.4175 2.2323
1.0550 6.4588 2.2323
0.8218 6.4919 2.2323
0.5876 6.5168 2.2323
0.3527 6.5335 2.2323
0.1173 6.5419 2.2323
-0.1183 6.5420 2.2323
-0.3536 6.5339 2.2323
-0.5886 6.5176 2.2323
-0.8229 6.4930 2.2323
-1.0562 6.4602 2.2323
-1.2883 6.4192 2.2323
-1.5188 6.3701 2.2323
-1.7476 6.3129 2.2323
-1.9742 6.2478 2.2323
-2.1984 6.1747 2.2323
-2.4200 6.0937 2.2323
-2.6387 6.0049 2.2323
-2.8543 5.9085 2.2323
-3.0664 5.8046 2.2323
-3.2748 5.6932 2.2323
-3.4792 5.5745 2.2323
-3.6794 5.4486 2.2323
-3.8752 5.3157 2.2323
-4.0662 5.1758 2.2323
-4.2524 5.0293 2.2323
-4.4333 4.8762 2.2323
-4.6088 4.7167 2.2323
-4.7787 4.5510 2.2323
-4.9427 4.3793 2.2323
-5.1007 4.2018 2.2323
-5.2524 4.0187 2.2323
-5.3976 3.8302 2.2323
-5.5362 3.6366 2.2323
-5.6678 3.4380 2.2323
-5.7925 3.2347 2.2323
-5.9100 3.0270 2.2323
-6.0201 2.8151 2.2323
-6.1226 2.5992 2.2323
-6.1768 2.3641 2.2176
-6.1763 2.1128 2.1868
-6.1804 1.8691 2.1612
-6.1856 1.6306 2.1392
-6.2163 1.4020 2.1290
-6.2685 1.1790 2.1290
-6.3126 0.9540 2.1290
-6.3488 0.7274 2.1290
-6.3860 0.5002 2.1321
-6.3967 0.2705 2.1290
-6.4083 0.0408 2.1290
-6.4117 -0.1894 2.1290
-6.4068 -0.4198 2.1290
-6.3936 -0.6501 2.1290
-6.3833 -0.8814 2.1327
-6.3424 -1.1090 2.1290
-6.3043 -1.3370 2.1290
-6.2581 -1.5637 2.1290
-6.2036 -1.7888 2.1290
-6.1781 -2.0241 2.1419
-6.1718 -2.2702 2.1646
-6.1676 -2.5233 2.1916
-6.1671 -2.7853 2.2236
-6.0922 -3.0189 2.2323
-5.9851 -3.2381 2.2323
-5.8699 -3.4534 2.2323
-5.7470 -3.6645 2.2323
-5.6163 -3.8712 2.2323
-5.4782 -4.0731 2.2323
-5.3326 -4.2699 2.2323
-5.1799 -4.4615 2.2323
-5.0202 -4.6475 2.2323
-4.8537 -4.8276 2.2323
-4.6807 -5.0016 2.2323
-4.5013 -5.1693 2.2323
-4.3158 -5.3304 2.2323
-4.1245 -5.4847 2.2323
-3.9275 -5.6320 2.2323
-3.7251 -5.7720 2.2323
-3.5177 -5.9046 2.2323
-3.3055 -6.0295 2.2323
-3.0888 -6.1466 2.2323
-2.8678 -6.2557 2.2323
-2.6429 -6.3567 2.2323
-2.4143 -6.4494 2.2323
-2.1825 -6.5336 2.2323
-1.9477 -6.6093 2.2323
-1.7102 -6.6764 2.2323
-1.4703 -6.7346 2.2323
-1.2284 -6.7841 2.2323
-0.9849 -6.8246 2.2323
-0.7399 -6.8561 2.2323
-0.4940 -6.8786 2.2323
-0.2474 -6.8920 2.2323
-0.0005 -6.4007 2.2323
0.2286 -6.3964 2.2323
0.4574 -6.3836 2.2323
0.6855 -6.3625 2.2323
0.9127 -6.3330 2.2323
1.1387 -6.2952 2.2323
1.3630 -6.2491 2.2323
1.5855 -6.1948 2.2323
1.8058 -6.1325 2.2323
1.9301 -5.7821 2.1292
2.0428 -5.4606 2.0371
2.0418 -4.9141 1.8600
2.1231 -4.6341 1.7823
2.3317 -4.6428 1.8174
2.9235 -5.3356 2.1292
3.1112 -5.2250 2.1292
3.2947 -5.1077 2.1292
3.4737 -4.9838 2.1292
3.6479 -4.8535 2.1292
3.8172 -4.7170 2.1292
3.9813 -4.5745 2.1292
4.1401 -4.4261 2.1292
4.2932 -4.2722 2.1292
4.4405 -4.1129 2.1292
4.5819 -3.9484 2.1292
4.7171 -3.7790 2.1292
4.8459 -3.6049 2.1292
4.9683 -3.4264 2.1292
4.9712 -3.1716 2.0819
4.9707 -2.9260 2.0380
4.8728 -2.6379 1.9594
5.2680 -2.6121 2.0810
5.3556 -2.4204 2.0817
5.4347 -2.2250 2.0818
5.4402 -2.0026 2.0568
5.4407 -1.7840 2.0332
5.4411 -1.5704 2.0127
4.8617 -1.2160 1.7826
4.8605 -1.0320 1.7690
5.0608 -0.8861 1.8308
5.4401 -0.7524 1.9587
5.4389 -0.5542 1.9516
5.4377 -0.3575 1.9470
5.4366 -0.1618 1.9450
5.4354 0.0335 1.9455
5.4342 0.2287 1.9485
5.1974 0.4061 1.8693
4.8569 0.5556 1.7544
4.9638 0.7493 1.8032
4.9635 0.9327 1.8156
5.7726 1.3009 2.1292
5.7172 1.5062 2.1292
5.6546 1.7092 2.1292
5.5849 1.9096 2.1292
5.5081 2.1073 2.1292
5.4244 2.3020 2.1292
5.3340 2.4935 2.1292
5.2368 2.6815 2.1292
5.1331 2.8658 2.1292
5.0230 3.0462 2.1292
4.9066 3.2225 2.1292
4.7842 3.3944 2.1292
4.6558 3.5617 2.1292
4.5216 3.7244 2.1292
4.3819 3.8820 2.1292
4.2368 4.0346 2.1292
4.0864 4.1818 2.1292
3.9310 4.3236 2.1292
3.7708 4.4597 2.1292
3.6060 4.5900 2.1292
3.4368 4.7144 2.1292
3.2634 4.8327 2.1292
2.3557 3.7746 1.6253
2.4153 4.1994 1.7704
2.4146 4.5714 1.8901
2.0247 4.1920 1.7026
0.8577 1.9521 0.7801
2.1468 5.4069 2.1291
1.9504 5.4794 2.1292
1.8362 5.8131 2.2323
1.6255 5.8741 2.2323
1.4127 5.9276 2.2323
1.1982 5.9737 2.2323
0.9823 6.0121 2.2323
0.7651 6.0430 2.2323
0.5470 6.0662 2.2323
0.3283 6.0817 2.2323
0.1092 6.0896 2.2323
-0.1101 6.0897 2.2323
-0.3293 6.0821 2.2323
-0.5481 6.0669 2.2323
-0.7662 6.0439 2.2323
-0.9834 6.0133 2.2323
-1.1995 5.9751 2.2323
-1.4141 5.9293 2.2323
-1.6270 5.8760 2.2323
-1.8379 5.8152 2.2323
-2.0466 5.7471 2.2323
-2.2529 5.6716 2.2323
-0.8580 1.9521 0.7797
-0.9278 1.9201 0.7794
-2.8544 5.4020 2.2323
-3.0483 5.2982 2.2323
-3.2385 5.1875 2.2323
-3.4247 5.0701 2.2323
-3.6068 4.9462 2.2323
-3.7845 4.8159 2.2323
-3.9576 4.6794 2.2323
-4.1258 4.5367 2.2323
-4.2890 4.3881 2.2323
-4.4469 4.2337 2.2323
-4.5993 4.0738 2.2323
-4.7461 3.9084 2.2323
-4.8870 3.7379 2.2323
-5.0219 3.5624 2.2323
-5.1505 3.3820 2.2323
-5.2728 3.1971 2.2323
-5.3885 3.0079 2.2323
-5.4974 2.8145 2.2323
-5.5995 2.6172 2.2323
-5.6946 2.4163 2.2323
-5.7826 2.2120 2.2323
-5.8632 2.0045 2.2323
-5.9365 1.7941 2.2323
-6.0023 1.5810 2.2323
-6.0605 1.3656 2.2323
-6.1109 1.1481 2.2323
-6.1536 0.9287 2.2323
-6.1737 0.7061 2.2269
-6.1733 0.4823 2.2171
-6.1728 0.2598 2.2102
-6.1724 0.0380 2.2062
-6.1720 -0.1836 2.2050
-6.1716 -0.4056 2.2067
-6.1712 -0.6287 2.2112
-6.1708 -0.8533 2.2186
-6.1703 -1.0801 2.2290
-6.1419 -1.3038 2.2323
-6.0965 -1.5246 2.2323
-6.0430 -1.7438 2.2323
-5.9817 -1.9610 2.2323
-5.9125 -2.1761 2.2323
-5.8355 -2.3887 2.2323
-5.7508 -2.5985 2.2323
-5.6584 -2.8052 2.2323
-5.5586 -3.0086 2.2323
-5.4514 -3.2084 2.2323
-5.3370 -3.4043 2.2323
-5.2154 -3.5960 2.2323
-5.0868 -3.7833 2.2323
-4.9514 -3.9659 2.2323
-4.8094 -4.1436 2.2323
-4.6609 -4.3161 2.2323
-4.5062 -4.4831 2.2323
-4.3453 -4.6445 2.2323
-4.1787 -4.8000 2.2323
-4.0063 -4.9494 2.2323
-3.8285 -5.0924 2.2323
-3.6455 -5.2289 2.2323
-3.4576 -5.3587 2.2323
-3.2650 -5.4816 2.2323
-3.0679 -5.5974 2.2323
-2.8667 -5.7059 2.2323
-2.6615 -5.8070 2.2323
-2.4527 -5.9006 2.2323
-2.2406 -5.9865 2.2323
-2.0254 -6.0645 2.2323
-1.8075 -6.1347 2.2323
-1.5870 -6.1968 2.2323
-1.3644 -6.2508 2.2323
-1.1399 -6.2966 2.2323
-0.9139 -6.3341 2.2323
-0.6867 -6.3633 2.2323
-0.4585 -6.3842 2.2323
-0.2296 -6.3967 2.2323
-0.0005 -5.9652 2.2323
0.2130 -5.9611 2.2323
0.4261 -5.9493 2.2323
0.6387 -5.9296 2.2323
0.8504 -5.9022 2.2323
1.0610 -5.8670 2.2323
1.2700 -5.8241 2.2323
1.4774 -5.7737 2.2323
1.6826 -5.7157 2.2323
1.8842 -5.6458 2.2305
1.9897 -5.3198 2.1292
2.0418 -4.9152 1.9959
2.1226 -4.6341 1.9121
2.3312 -4.6428 1.9497
2.7245 -4.9737 2.1292
2.8996 -4.8708 2.1292
3.0707 -4.7616 2.1292
3.2376 -4.6463 2.1292
3.4001 -4.5250 2.1292
3.5580 -4.3979 2.1292
3.7112 -4.2652 2.1292
3.8593 -4.1271 2.1292
4.0022 -3.9838 2.1292
4.1397 -3.8354 2.1292
4.2716 -3.6822 2.1292
4.3979 -3.5244 2.1292
4.5182 -3.3623 2.1292
4.6325 -3.1959 2.1292
4.7406 -3.0257 2.1292
4.8424 -2.8517 2.1292
4.8793 -2.6426 2.1040
5.0267 -2.4936 2.1292
5.1088 -2.3100 2.1292
5.1843 -2.1236 2.1292
5.2529 -1.9348 2.1292
5.2702 -1.7292 2.1114
5.2707 -1.5223 2.0901
4.8676 -1.2185 1.9133
4.8664 -1.0342 1.8985
5.0549 -0.8861 1.9601
5.3956 -0.7474 2.0822
5.4141 -0.5528 2.0821
5.4256 -0.3578 2.0820
5.4301 -0.1627 2.0819
5.4276 0.0323 2.0818
5.4181 0.2270 2.0816
5.2127 0.4063 2.0087
4.8627 0.5553 1.8819
4.9638 0.7483 1.9318
4.9635 0.9316 1.9451
5.3887 1.2133 2.1292
5.3373 1.4050 2.1292
5.2792 1.5946 2.1292
5.2143 1.7818 2.1292
5.1429 1.9665 2.1292
5.0650 2.1484 2.1292
4.9807 2.3273 2.1292
4.8902 2.5030 2.1292
4.7936 2.6752 2.1292
4.6910 2.8438 2.1292
4.5825 3.0085 2.1292
4.4683 3.1692 2.1292
4.3486 3.3257 2.1292
4.2235 3.4777 2.1292
4.0931 3.6251 2.1292
3.9577 3.7677 2.1292
3.8174 3.9054 2.1292
3.6723 4.0380 2.1292
3.5228 4.1653 2.1292
3.3689 4.2871 2.1292
3.2109 4.4035 2.1292
3.0490 4.5141 2.1292
2.3134 3.7060 1.7084
2.1318 3.7057 1.6724
2.0254 3.8337 1.6968
0.8654 1.7913 0.7788
0.8003 1.8212 0.7791
0.7342 1.8488 0.7793
0.6672 1.8740 0.7794
0.5993 1.8967 0.7796
0.5306 1.9170 0.7797
0.4612 1.9348 0.7799
0.3912 1.9501 0.7800
0.9179 5.6172 2.2323
0.7150 5.6461 2.2323
0.5112 5.6678 2.2323
0.3068 5.6823 2.2323
0.1020 5.6896 2.2323
-0.1030 5.6897 2.2323
-0.3078 5.6827 2.2323
-0.5122 5.6684 2.2323
-0.7161 5.6469 2.2323
-0.9190 5.6182 2.2323
-0.3916 1.9501 0.7798
-0.4615 1.9348 0.7797
-0.5309 1.9170 0.7795
