ply
format ascii 1.0
element vertex 2162
property float32 x
property float32 y
property float32 z
end_header
-5.8453 14.7658 2.2367
-6.1680 14.0820 2.1655
-6.5700 13.6450 2.1335
-7.0547 13.3988 2.1335
-7.5302 13.1353 2.1335
-7.9957 12.8549 2.1335
-8.4508 12.5579 2.1335
-7.3271 10.0865 1.7575
-7.3271 9.3606 1.6760
-7.4199 8.8085 1.6241
-7.7861 8.5970 1.6359
-10.5648 10.8552 2.1367
-10.0180 9.5801 1.9556
-10.0533 8.9455 1.8989
-11.6641 9.6514 2.1367
-12.0006 9.2247 2.1367
-12.3216 8.7863 2.1367
-12.6265 8.3367 2.1367
-12.9149 7.8765 2.1367
-13.1866 7.4063 2.1367
-13.4410 6.9267 2.1367
-13.6780 6.4384 2.1367
-13.8972 5.9419 2.1367
-14.0984 5.4381 2.1367
-14.2813 4.9274 2.1367
-14.4457 4.4106 2.1367
-14.5913 3.8883 2.1367
-14.7181 3.3613 2.1367
-14.8258 2.8301 2.1367
-14.9144 2.2956 2.1367
-14.9836 1.7583 2.1367
-15.0336 1.2191 2.1367
-15.0641 0.6785 2.1367
-15.0752 0.1373 2.1367
-15.0669 -0.4039 2.1367
-15.0391 -0.9443 2.1367
-14.9920 -1.4832 2.1367
-14.9257 -2.0199 2.1367
-14.8401 -2.5538 2.1367
-14.7356 -3.0842 2.1367
-14.6120 -3.6103 2.1367
-14.4698 -4.1316 2.1367
-14.3090 -4.6474 2.1367
-14.1299 -5.1569 2.1367
-13.9326 -5.6596 2.1367
-13.7176 -6.1548 2.1367
-13.4850 -6.6419 2.1367
-13.2352 -7.1203 2.1367
-13.2112 -7.7314 2.1767
-6.5286 -4.1422 1.0997
-12.6176 -8.6561 2.1767
-10.0043 -7.4051 1.7710
-11.9597 -9.5357 2.1767
-11.6077 -9.9572 2.1767
-11.2408 -10.3657 2.1767
-10.8598 -10.7608 2.1767
-10.4648 -11.1421 2.1767
-9.8568 -11.2802 2.1335
-9.4442 -11.6252 2.1335
-9.0195 -11.9551 2.1335
-8.5834 -12.2697 2.1335
-8.1365 -12.5684 2.1335
-7.6791 -12.8510 2.1335
-7.2121 -13.1170 2.1335
-6.7359 -13.3661 2.1335
-6.2511 -13.5981 2.1335
-6.0371 -14.4811 2.2367
-5.5129 -14.6874 2.2367
-4.9818 -14.8749 2.2367
-4.4443 -15.0433 2.2367
-3.9011 -15.1924 2.2367
-3.3531 -15.3220 2.2367
-2.8008 -15.4320 2.2367
-2.2449 -15.5222 2.2367
-1.6861 -15.5925 2.2367
-1.1252 -15.6429 2.2367
-0.5629 -15.6732 2.2367
0.0001 -13.5008 2.2367
0.4848 -13.4923 2.2367
0.9689 -13.4665 2.2367
1.4518 -13.4234 2.2367
1.8821 -13.0123 2.1780
2.3003 -12.6734 2.1336
2.0713 -9.4638 1.6047
2.4389 -9.4972 1.6241
3.6503 -12.3547 2.1336
4.0918 -12.2166 2.1336
4.5281 -12.0628 2.1336
4.9586 -11.8934 2.1336
5.3200 -11.5720 2.1087
5.2223 -10.3622 1.9210
5.6488 -10.2732 1.9407
6.0123 -10.0609 1.9399
5.2225 -8.0667 1.5904
5.6280 -8.0445 1.6246
6.0695 -8.0446 1.6673
6.5357 -8.0446 1.7147
6.8577 -7.8476 1.7238
6.8577 -7.3011 1.6566
6.8913 -6.8282 1.6042
7.4051 -6.8282 1.6654
7.9606 -6.8283 1.7337
8.4760 -6.7576 1.7917
9.0098 -6.6686 1.8524
9.7213 -6.6687 1.9478
9.9599 -6.3189 1.9485
9.9600 -5.8284 1.9060
6.8579 -3.6892 1.2860
6.8579 -3.3776 1.2622
6.8580 -3.0768 1.2408
6.8580 -2.7856 1.2217
7.3187 -2.6709 1.2856
8.2244 -2.6709 1.4266
6.3207 -1.8046 1.0842
6.1538 -1.5203 1.0454
6.0212 -1.2601 1.0143
5.9608 -1.0256 0.9971
5.9253 -0.8017 0.9855
5.9372 -0.5872 0.9831
5.9709 -0.3748 0.9856
6.0428 -0.1619 0.9957
6.1539 0.0562 1.0135
6.2626 0.2822 1.0322
6.5187 0.5287 1.0766
7.3932 0.8677 1.2251
7.3926 1.1380 1.2307
7.3926 1.4113 1.2381
6.3508 1.4505 1.0715
5.6440 1.5041 0.9605
6.5277 1.9932 1.1222
6.5288 2.2527 1.1353
6.5299 2.5188 1.1503
6.5310 2.7925 1.1672
6.3066 2.9687 1.1452
5.7589 2.9679 1.0642
5.4387 3.0547 1.0245
5.3876 3.2859 1.0363
6.3639 4.2019 1.2520
6.3487 4.5272 1.2800
6.1063 4.6939 1.2641
5.6718 4.6932 1.2081
5.3997 4.8048 1.1860
6.4144 6.1341 1.4561
6.1499 6.3190 1.4464
5.9962 6.6207 1.4650
6.0439 7.1751 1.5385
6.1185 7.8167 1.6277
7.2038 9.9169 2.0096
6.8189 10.1328 2.0022
6.4633 10.3912 2.0059
6.1262 10.6863 2.0189
5.9091 11.2229 2.0787
5.6484 11.7308 2.1336
5.2241 11.9269 2.1336
4.7930 12.1075 2.1336
4.3557 12.2725 2.1336
3.9126 12.4216 2.1336
3.4644 12.5546 2.1336
3.0117 12.6713 2.1336
2.1416 10.7047 1.7883
2.0951 12.8555 2.1336
1.7112 13.5470 2.2367
1.2239 13.5999 2.2367
0.7350 13.6351 2.2367
0.2452 13.6526 2.2367
-0.2450 13.6525 2.2367
-0.7348 13.6346 2.2367
-1.2236 13.5991 2.2367
-1.7109 13.5460 2.2367
-2.1959 13.4753 2.2367
-2.6780 13.3872 2.2367
-3.1566 13.2817 2.2367
-3.6310 13.1590 2.2367
-4.1007 13.0194 2.2367
-4.5650 12.8628 2.2367
-5.0233 12.6896 2.2367
-5.4750 12.5001 2.2367
-5.9195 12.2943 2.2367
-6.1670 11.7131 2.1701
-6.4716 11.2892 2.1335
-6.8719 11.0483 2.1335
-7.2631 10.7933 2.1335
-7.6449 10.5243 2.1335
-7.6772 9.8082 2.0431
-7.4365 8.8285 1.8937
-8.7282 9.6376 2.1335
-9.0672 9.3167 2.1335
-9.3943 8.9839 2.1335
-9.7092 8.6396 2.1335
-10.0114 8.2842 2.1335
-10.3163 7.9302 2.1367
-10.5924 7.5536 2.1367
-10.8549 7.1672 2.1367
-11.1031 6.7718 2.1367
-11.3370 6.3677 2.1367
-11.5561 5.9556 2.1367
-11.7602 5.5359 2.1367
-11.9491 5.1093 2.1367
-12.1224 4.6762 2.1367
-12.2801 4.2372 2.1367
-12.4218 3.7929 2.1367
-12.5474 3.3439 2.1367
-12.6568 2.8908 2.1367
-12.7499 2.4341 2.1367
-12.8264 1.9745 2.1367
-12.8864 1.5125 2.1367
-12.9298 1.0487 2.1367
-12.9564 0.5838 2.1367
-12.9664 0.1183 2.1367
-12.9597 -0.3471 2.1367
-12.9362 -0.8119 2.1367
-12.8962 -1.2755 2.1367
-12.8395 -1.7373 2.1367
-12.7663 -2.1967 2.1367
-12.6767 -2.6530 2.1367
-12.5708 -3.1057 2.1367
-12.4488 -3.5543 2.1367
-12.3109 -3.9982 2.1367
-12.1571 -4.4367 2.1367
-11.9878 -4.8693 2.1367
-11.8031 -5.2956 2.1367
-11.6033 -5.7148 2.1367
-11.3887 -6.1266 2.1367
-11.1595 -6.5304 2.1367
-6.5291 -4.1424 1.2780
-10.6586 -7.3119 2.1367
-10.0046 -7.4051 2.0579
-10.0880 -8.0430 2.1335
-9.7913 -8.3988 2.1335
-9.4821 -8.7436 2.1335
-9.1608 -9.0771 2.1335
-8.8278 -9.3989 2.1335
-8.4837 -9.7085 2.1335
-8.1286 -10.0056 2.1335
-7.7633 -10.2898 2.1335
-7.3881 -10.5607 2.1335
-7.0035 -10.8180 2.1335
-6.6099 -11.0614 2.1335
-6.2080 -11.2905 2.1335
-6.0787 -12.0619 2.2367
-5.6413 -12.2714 2.2367
-5.1968 -12.4652 2.2367
-4.7456 -12.6429 2.2367
-4.2884 -12.8044 2.2367
-3.8258 -12.9494 2.2367
-3.3582 -13.0779 2.2367
-2.8865 -13.1895 2.2367
-2.4110 -13.2843 2.2367
-1.9325 -13.3620 2.2367
-1.4515 -13.4225 2.2367
-0.9687 -13.4659 2.2367
-0.4846 -13.4920 2.2367
0.0001 -11.8406 2.2367
0.4252 -11.8332 2.2367
0.8498 -11.8105 2.2367
1.2733 -11.7727 2.2367
1.6952 -11.7198 2.2367
2.0175 -11.1147 2.1336
2.2865 -10.4469 2.0198
2.1499 -8.3716 1.6324
2.0813 -7.0441 1.3871
3.5885 -10.7138 2.1336
3.9711 -10.5788 2.1336
4.3487 -10.4302 2.1336
4.7207 -10.2682 2.1336
5.0868 -10.0929 2.1336
5.3840 -9.7914 2.1092
5.7357 -9.5979 2.1104
5.2225 -8.0665 1.8136
5.6281 -8.0445 1.8527
6.0697 -8.0446 1.9014
6.5359 -8.0446 1.9554
6.8577 -7.8473 1.9659
6.8577 -7.3009 1.8892
6.8915 -6.8282 1.8296
7.4053 -6.8282 1.8994
7.9608 -6.8283 1.9774
8.4760 -6.7574 2.0434
9.0102 -6.6686 2.1128
9.3672 -6.4256 2.1407
9.5933 -6.0862 2.1407
9.8072 -5.7388 2.1407
6.8579 -3.6890 1.4668
6.8579 -3.3774 1.4397
6.8580 -3.0767 1.4153
6.8580 -2.7854 1.3936
7.3192 -2.6709 1.4666
8.2250 -2.6709 1.6275
6.7187 -1.9181 1.3148
6.1537 -1.5202 1.1925
6.0211 -1.2599 1.1571
6.0434 -1.0397 1.1533
6.0434 -0.8176 1.1467
5.8856 -0.5820 1.1119
5.9190 -0.3714 1.1148
6.0428 -0.1617 1.1361
6.1539 0.0563 1.1564
6.4972 0.2929 1.2219
6.8602 0.5566 1.2928
7.3932 0.8679 1.3980
7.3927 1.1382 1.4045
7.3927 1.4115 1.4129
6.3503 1.4505 1.2227
5.5223 1.4718 1.0725
5.5132 1.6835 1.0816
6.3500 2.1911 1.2602
6.3510 2.4500 1.2769
6.3521 2.7162 1.2956
6.3064 2.9687 1.3070
5.7589 2.9680 1.2146
5.4218 3.0454 1.1657
5.4001 3.2936 1.1855
6.2142 4.1032 1.3955
6.1653 4.3966 1.4188
6.1061 4.6939 1.4429
5.6718 4.6933 1.3790
5.2570 4.6779 1.3180
5.0047 4.7861 1.2968
6.1498 6.3191 1.6511
5.9961 6.6208 1.6724
6.0173 7.1436 1.7486
6.1188 7.8173 1.8583
6.7216 9.2533 2.1407
6.3858 9.4895 2.1407
6.0416 9.7135 2.1407
5.6710 9.8924 2.1336
5.3127 10.0903 2.1336
4.9475 10.2752 2.1336
4.5758 10.4469 2.1336
4.1982 10.6050 2.1336
3.8150 10.7494 2.1336
3.4270 10.8800 2.1336
2.4318 8.8125 1.7099
2.0483 8.6181 1.6568
2.1415 10.7047 2.0417
1.8823 11.5501 2.1886
1.4988 11.8655 2.2367
1.0720 11.9117 2.2367
0.6438 11.9426 2.2367
0.2148 11.9580 2.2367
-0.2145 11.9578 2.2367
-0.6436 11.9422 2.2367
-1.0717 11.9112 2.2367
-1.4985 11.8647 2.2367
-1.9233 11.8028 2.2367
-2.3456 11.7257 2.2367
-2.7648 11.6334 2.2367
-3.1803 11.5261 2.2367
-3.5917 11.4038 2.2367
-3.9984 11.2668 2.2367
-4.3999 11.1152 2.2367
-4.7956 10.9493 2.2367
-5.1851 10.7692 2.2367
-5.5677 10.5752 2.2367
-5.9432 10.3676 2.2367
-6.1637 9.9101 2.1846
-6.3761 9.4754 2.1381
-6.6968 9.2194 2.1335
-7.0226 8.9721 2.1335
-7.3392 8.7132 2.1335
-7.6462 8.4431 2.1335
-7.9433 8.1622 2.1335
-8.2300 7.8707 2.1335
-8.5060 7.5692 2.1335
-8.7709 7.2580 2.1335
-9.0245 6.9375 2.1335
-9.2663 6.6081 2.1335
-9.4960 6.2703 2.1335
-9.7134 5.9245 2.1335
-9.9182 5.5711 2.1335
-10.1102 5.2107 2.1335
-10.3046 4.8510 2.1367
-10.4704 4.4772 2.1367
-10.6225 4.0978 2.1367
-10.7609 3.7133 2.1367
-10.8853 3.3240 2.1367
-10.9957 2.9306 2.1367
-11.0919 2.5336 2.1367
-11.1737 2.1334 2.1367
-11.2410 1.7307 2.1367
-11.2939 1.3258 2.1367
-11.3322 0.9194 2.1367
-11.3558 0.5119 2.1367
-11.3648 0.1040 2.1367
-11.3592 -0.3040 2.1367
-11.3389 -0.7115 2.1367
-11.3041 -1.1178 2.1367
-11.2547 -1.5226 2.1367
-11.1908 -1.9253 2.1367
-11.1125 -2.3254 2.1367
-11.0200 -2.7224 2.1367
-10.9133 -3.1156 2.1367
-10.7926 -3.5048 2.1367
-10.6580 -3.8893 2.1367
-10.5098 -4.2687 2.1367
-10.3481 -4.6425 2.1367
-10.1577 -5.0026 2.1335
-9.9700 -5.3632 2.1335
-9.7696 -5.7168 2.1335
-6.5295 -4.1425 1.4577
-9.3314 -6.4012 2.1335
-9.0944 -6.7311 2.1335
-8.8456 -7.0523 2.1335
-8.5856 -7.3644 2.1335
-8.3147 -7.6669 2.1335
-8.0331 -7.9595 2.1335
-7.7412 -8.2418 2.1335
-7.4395 -8.5134 2.1335
-7.1283 -8.7740 2.1335
-6.8080 -9.0234 2.1335
-6.4790 -9.2611 2.1335
-6.1748 -9.5377 2.1449
-6.0773 -10.1698 2.2367
-5.7078 -10.3806 2.2367
-5.3310 -10.5781 2.2367
-4.9475 -10.7619 2.2367
-4.5576 -10.9319 2.2367
-4.1620 -11.0879 2.2367
-3.7610 -11.2296 2.2367
-3.3553 -11.3569 2.2367
-2.9453 -11.4696 2.2367
-2.5315 -11.5675 2.2367
-2.1145 -11.6507 2.2367
-1.6949 -11.7189 2.2367
-1.2730 -11.7720 2.2367
-0.8496 -11.8100 2.2367
-0.4250 -11.8329 2.2367
0.0001 -10.5342 2.2367
0.3783 -10.5275 2.2367
0.7561 -10.5073 2.2367
1.1329 -10.4737 2.2367
1.5082 -10.4265 2.2367
1.8810 -10.3624 2.2359
2.1489 -9.8178 2.1336
2.0670 -8.0483 1.7640
2.0813 -7.0441 1.5592
2.4396 -7.2834 1.6304
3.5329 -9.4111 2.1336
3.8688 -9.2789 2.1336
4.1997 -9.1347 2.1336
4.5253 -8.9787 2.1336
4.8451 -8.8111 2.1336
5.1588 -8.6323 2.1336
5.2225 -8.0662 2.0386
5.6283 -8.0445 2.0827
6.0699 -8.0446 2.1375
6.3647 -7.8338 2.1407
6.6426 -7.6011 2.1407
6.8577 -7.3007 2.1238
6.8917 -6.8282 2.0568
7.4056 -6.8282 2.1353
7.6659 -6.5752 2.1407
7.8980 -6.2965 2.1407
8.1201 -6.0097 2.1407
8.3317 -5.7151 2.1407
8.5327 -5.4131 2.1407
8.7228 -5.1040 2.1407
6.8579 -3.6889 1.6492
6.8579 -3.3773 1.6187
6.8580 -3.0765 1.5914
6.8580 -2.7853 1.5669
7.3197 -2.6709 1.6492
8.2255 -2.6709 1.8302
6.7183 -1.9178 1.4783
6.1536 -1.5200 1.3410
6.0211 -1.2598 1.3012
6.0434 -1.0396 1.2969
6.0434 -0.8175 1.2896
6.0435 -0.5975 1.2839
5.9190 -0.3713 1.2537
6.0429 -0.1616 1.2776
6.1540 0.0564 1.3005
6.4732 0.2920 1.3691
6.8604 0.5567 1.4540
7.3932 0.8681 1.5723
7.3929 1.1384 1.5797
7.3929 1.4117 1.5892
6.3498 1.4505 1.3751
5.4048 1.4406 1.1807
5.3950 1.6475 1.1905
6.2518 2.1574 1.3956
6.1703 2.3804 1.3954
6.1679 2.6375 1.4151
6.1690 2.9042 1.4382
5.7588 2.9681 1.3663
5.2969 2.9753 1.2811
5.0083 3.0548 1.2369
4.9516 3.2696 1.2509
5.9746 4.2607 1.5468
5.9732 4.5919 1.5879
5.6718 4.6934 1.5514
5.2733 4.6926 1.4874
4.8659 4.6534 1.4185
4.7911 4.9231 1.4472
5.9960 6.6210 1.8816
6.0439 7.1754 1.9760
6.1191 7.8178 2.0908
5.9743 8.2246 2.1407
5.6571 8.4068 2.1336
5.3522 8.6051 2.1336
5.0402 8.7924 2.1336
4.7218 8.9682 2.1336
4.3971 9.1325 2.1336
4.0668 9.2850 2.1336
3.7311 9.4255 2.1336
3.3906 9.5538 2.1336
3.0457 9.6697 2.1336
2.2419 8.1247 1.7738
2.0412 8.5882 1.8577
1.9889 9.9420 2.1336
1.7096 10.4907 2.2367
1.3321 10.5455 2.2367
0.9527 10.5866 2.2367
0.5722 10.6139 2.2367
0.1909 10.6276 2.2367
-0.1907 10.6275 2.2367
-0.5719 10.6137 2.2367
-0.9525 10.5861 2.2367
-1.3318 10.5448 2.2367
-1.7093 10.4899 2.2367
-2.0846 10.4214 2.2367
-2.4572 10.3394 2.2367
-2.8265 10.2441 2.2367
-3.1922 10.1355 2.2367
-3.5537 10.0138 2.2367
-3.9105 9.8791 2.2367
-4.2623 9.7317 2.2367
-4.6084 9.5718 2.2367
-4.9486 9.3995 2.2367
-5.2823 9.2150 2.2367
-5.6091 9.0187 2.2367
-5.9286 8.8107 2.2367
-6.1638 8.4859 2.2093
-6.2420 7.9750 2.1335
-6.5235 7.7450 2.1335
-6.7965 7.5050 2.1335
-7.0606 7.2554 2.1335
-7.3156 6.9965 2.1335
-7.5611 6.7286 2.1335
-7.7967 6.4520 2.1335
-8.0222 6.1672 2.1335
-8.2373 5.8745 2.1335
-8.4416 5.5743 2.1335
-8.6351 5.2670 2.1335
-6.3745 3.5807 1.5424
-6.5787 3.3907 1.5616
-9.1472 4.3063 2.1335
-9.2944 3.9746 2.1335
-9.4297 3.6379 2.1335
-9.5527 3.2966 2.1335
-9.6634 2.9511 2.1335
-9.7615 2.6019 2.1335
-9.8471 2.2495 2.1335
-9.9199 1.8943 2.1335
-9.9799 1.5367 2.1335
-10.0270 1.1773 2.1335
-10.0612 0.8165 2.1335
-10.0824 0.4547 2.1335
-10.0906 0.0925 2.1335
-10.0858 -0.2697 2.1335
-10.0679 -0.6315 2.1335
-10.0372 -0.9923 2.1335
-9.9935 -1.3518 2.1335
-9.9370 -1.7094 2.1335
-9.8676 -2.0647 2.1335
-9.7857 -2.4172 2.1335
-9.6911 -2.7665 2.1335
-9.5841 -3.1122 2.1335
-9.4648 -3.4537 2.1335
-9.3333 -3.7907 2.1335
-9.1899 -4.1227 2.1335
-9.0347 -4.4493 2.1335
-8.8679 -4.7701 2.1335
-8.6897 -5.0847 2.1335
-6.5300 -4.1426 1.6389
-8.3003 -5.6937 2.1335
-8.0895 -5.9872 2.1335
-7.8684 -6.2730 2.1335
-7.6372 -6.5507 2.1335
-7.3963 -6.8199 2.1335
-7.1459 -7.0802 2.1335
-6.8864 -7.3314 2.1335
-6.6181 -7.5732 2.1335
-6.3413 -7.8051 2.1335
-6.1676 -8.1743 2.1726
-6.0428 -8.6373 2.2367
-5.7283 -8.8479 2.2367
-5.4065 -9.0472 2.2367
-5.0779 -9.2348 2.2367
-4.7427 -9.4105 2.2367
-4.4015 -9.5741 2.2367
-4.0547 -9.7254 2.2367
-3.7028 -9.8642 2.2367
-3.3461 -9.9904 2.2367
-2.9851 -10.1036 2.2367
-2.6203 -10.2039 2.2367
-2.2522 -10.2912 2.2367
-1.8813 -10.3651 2.2367
-1.5079 -10.4258 2.2367
-1.1326 -10.4731 2.2367
-0.7558 -10.5070 2.2367
-0.3781 -10.5273 2.2367
0.0001 -9.4783 2.2367
0.3404 -9.4723 2.2367
0.6803 -9.4541 2.2367
1.0193 -9.4238 2.2367
1.3571 -9.3814 2.2367
1.6931 -9.3269 2.2367
1.9335 -8.8336 2.1336
2.2495 -8.7589 2.1336
2.0814 -7.0441 1.7329
2.1865 -6.5276 1.6241
2.0692 -5.5119 1.3889
2.0891 -5.0105 1.2805
3.7787 -8.2186 2.1336
4.0716 -8.0783 2.1336
4.3593 -7.9275 2.1336
4.6415 -7.7665 2.1336
4.9178 -7.5954 2.1336
5.1877 -7.4146 2.1336
5.4511 -7.2243 2.1336
5.7075 -7.0246 2.1336
5.9762 -6.8384 2.1407
6.2185 -6.6200 2.1407
6.4529 -6.3932 2.1407
6.6790 -6.1581 2.1407
6.8965 -5.9151 2.1407
7.1053 -5.6643 2.1407
7.3049 -5.4062 2.1407
7.4952 -5.1412 2.1407
7.6760 -4.8693 2.1407
7.8468 -4.5912 2.1407
6.8579 -3.6887 1.8333
6.8579 -3.3771 1.7995
6.8580 -3.0763 1.7691
6.8580 -2.7851 1.7419
7.3201 -2.6709 1.8335
8.2261 -2.6709 2.0348
6.7180 -1.9176 1.6434
6.1535 -1.5198 1.4908
6.0210 -1.2597 1.4466
6.0434 -1.0395 1.4419
6.0434 -0.8173 1.4337
6.0435 -0.5973 1.4275
5.9190 -0.3711 1.3939
6.0430 -0.1615 1.4206
6.1541 0.0566 1.4460
6.4976 0.2932 1.5280
6.8607 0.5569 1.6168
7.3932 0.8682 1.7483
7.3930 1.1385 1.7565
7.3931 1.4119 1.7672
6.3493 1.4505 1.5289
5.3031 1.4136 1.2882
5.0437 1.5404 1.2377
6.1658 2.1279 1.5306
6.0944 2.3512 1.5327
6.0063 2.5686 1.5325
5.9774 2.8141 1.5497
5.7586 2.9681 1.5194
5.2133 2.9285 1.4022
4.9989 3.0491 1.3730
4.8865 3.2268 1.3729
4.7922 3.4177 1.3798
5.7877 4.4494 1.7112
5.6716 4.6935 1.7254
5.2733 4.6927 1.6542
4.9058 4.6918 1.5906
5.1926 5.3359 1.7445
5.9960 6.6211 2.0927
5.8676 6.9663 2.1336
5.6143 7.1730 2.1336
5.3537 7.3705 2.1336
5.0861 7.5585 2.1336
4.8119 7.7367 2.1336
4.5315 7.9050 2.1336
4.2451 8.0630 2.1336
3.9532 8.2107 2.1336
3.6562 8.3477 2.1336
3.3544 8.4740 2.1336
3.0483 8.5893 2.1336
2.7382 8.6935 2.1336
2.2419 8.1247 1.9729
2.0412 8.5883 2.0663
1.8745 9.3701 2.2367
1.5370 9.4315 2.2367
1.1975 9.4807 2.2367
0.8565 9.5176 2.2367
0.5144 9.5423 2.2367
0.1716 9.5545 2.2367
-0.1714 9.5545 2.2367
-0.5142 9.5420 2.2367
-0.8563 9.5172 2.2367
-1.1973 9.4802 2.2367
-1.5367 9.4308 2.2367
-1.8741 9.3693 2.2367
-2.2090 9.2956 2.2367
-2.5411 9.2099 2.2367
-2.8699 9.1124 2.2367
-3.1949 9.0030 2.2367
-3.5157 8.8820 2.2367
-3.8320 8.7496 2.2367
-4.1432 8.6058 2.2367
-4.4491 8.4509 2.2367
-4.7492 8.2852 2.2367
-5.0430 8.1087 2.2367
-5.3304 7.9218 2.2367
-5.6107 7.7247 2.2367
-5.8838 7.5176 2.2367
-6.1492 7.3009 2.2367
-6.1713 6.8149 2.1546
-6.3485 6.5238 2.1335
-6.5778 6.2911 2.1335
-6.7986 6.0502 2.1335
-7.0105 5.8017 2.1335
-7.2134 5.5456 2.1335
-7.4069 5.2825 2.1335
-7.5907 5.0126 2.1335
-7.7648 4.7363 2.1335
-6.3672 3.5768 1.7133
-6.5643 3.3835 1.7327
-8.2256 3.8727 2.1335
-8.3582 3.5744 2.1335
-8.4799 3.2717 2.1335
-8.5907 2.9648 2.1335
-8.6903 2.6541 2.1335
-8.7787 2.3402 2.1335
-8.8558 2.0232 2.1335
-8.9214 1.7038 2.1335
-8.9755 1.3823 2.1335
-9.0180 1.0590 2.1335
-9.0489 0.7345 2.1335
-9.0681 0.4092 2.1335
-9.0756 0.0834 2.1335
-9.0714 -0.2424 2.1335
-9.0556 -0.5678 2.1335
-9.0280 -0.8924 2.1335
-8.9889 -1.2157 2.1335
-8.9382 -1.5374 2.1335
-8.8760 -1.8570 2.1335
-8.8023 -2.1741 2.1335
-8.7174 -2.4884 2.1335
-8.6213 -2.7993 2.1335
-8.5141 -3.1066 2.1335
-8.3959 -3.4098 2.1335
-8.2670 -3.7085 2.1335
-8.1275 -4.0024 2.1335
-7.9776 -4.2910 2.1335
-7.8174 -4.5741 2.1335
-6.5304 -4.1427 1.8219
-7.4673 -5.1220 2.1335
-7.2777 -5.3862 2.1335
-7.0789 -5.6434 2.1335
-6.8710 -5.8932 2.1335
-6.6543 -6.1355 2.1335
-6.4291 -6.3698 2.1335
-6.1956 -6.5959 2.1335
-6.1647 -7.0542 2.2089
-5.9814 -7.3620 2.2367
-5.7128 -7.5714 2.2367
-5.4369 -7.7710 2.2367
-5.1540 -7.9606 2.2367
-4.8645 -8.1399 2.2367
-4.5688 -8.3088 2.2367
-4.2673 -8.4670 2.2367
-3.9603 -8.6142 2.2367
-3.6483 -8.7504 2.2367
-3.3316 -8.8753 2.2367
-3.0107 -8.9889 2.2367
-2.6859 -9.0908 2.2367
-2.3577 -9.1811 2.2367
-2.0265 -9.2596 2.2367
-1.6927 -9.3262 2.2367
-1.3567 -9.3808 2.2367
-1.0191 -9.4234 2.2367
-0.6801 -9.4539 2.2367
-0.3402 -9.4722 2.2367
0.0001 -8.6065 2.2367
0.3091 -8.6010 2.2367
0.6178 -8.5845 2.2367
0.9256 -8.5569 2.2367
1.2323 -8.5184 2.2367
1.5374 -8.4689 2.2367
1.8405 -8.4085 2.2367
2.0426 -7.9531 2.1336
2.0814 -7.0441 1.9085
2.0671 -6.1709 1.6909
2.1970 -5.8522 1.6241
2.4059 -5.7699 1.6241
2.0600 -4.4803 1.2810
3.6970 -7.3348 2.1336
3.9263 -7.1398 2.1164
4.1804 -6.9948 2.1164
4.4288 -6.8401 2.1162
4.7103 -6.7321 2.1336
4.9494 -6.5592 2.1336
5.1821 -6.3778 2.1336
5.4083 -6.1882 2.1336
5.6275 -5.9906 2.1336
5.8395 -5.7853 2.1336
6.0640 -5.5909 2.1407
6.2614 -5.3702 2.1407
6.4509 -5.1425 2.1407
6.6321 -4.9081 2.1407
6.8048 -4.6674 2.1407
6.9688 -4.4206 2.1407
7.1238 -4.1680 2.1407
6.8579 -3.6885 2.0194
6.8579 -3.3769 1.9821
6.8580 -3.0762 1.9487
6.8580 -2.7849 1.9188
7.3206 -2.6709 2.0198
7.8561 -2.5507 2.1407
6.7176 -1.9173 1.8103
6.1534 -1.5197 1.6423
6.0209 -1.2595 1.5936
6.0434 -1.0393 1.5884
6.0434 -0.8172 1.5795
6.0435 -0.5972 1.5726
5.9191 -0.3710 1.5356
6.0430 -0.1613 1.5650
6.1541 0.0567 1.5931
6.4978 0.2934 1.6835
6.8609 0.5571 1.7813
7.3932 0.8684 1.9261
7.3932 1.1387 1.9353
7.3932 1.4121 1.9471
6.3487 1.4506 1.6844
5.4462 1.4519 1.4577
5.0781 1.5510 1.3730
5.9742 2.0619 1.6341
5.9753 2.3054 1.6557
5.9509 2.5450 1.6730
5.8562 2.7572 1.6729
5.7584 2.9681 1.6742
5.2820 2.9672 1.5655
4.8000 2.9280 1.4527
4.8313 3.1905 1.4957
5.6958 4.0622 1.8071
5.6074 4.3109 1.8268
5.6060 4.6394 1.8793
5.2732 4.6928 1.8229
4.9055 4.6916 1.7527
4.9736 5.1109 1.8412
5.5476 6.1261 2.1336
5.3246 6.3218 2.1336
5.0947 6.5093 2.1336
4.8581 6.6885 2.1336
4.6153 6.8590 2.1336
4.3665 7.0207 2.1336
4.1119 7.1733 2.1336
3.8521 7.3167 2.1336
3.5872 7.4506 2.1336
3.3177 7.5750 2.1336
3.0438 7.6895 2.1336
2.7660 7.7941 2.1336
2.4846 7.8886 2.1336
2.2000 7.9730 2.1336
1.9125 8.0470 2.1336
1.7009 8.5025 2.2367
1.3947 8.5582 2.2367
1.0866 8.6028 2.2367
0.7772 8.6363 2.2367
0.4668 8.6587 2.2367
0.1557 8.6699 2.2367
-0.1555 8.6698 2.2367
-0.4665 8.6585 2.2367
-0.7770 8.6360 2.2367
-1.0864 8.6024 2.2367
-1.3944 8.5577 2.2367
-1.7005 8.5018 2.2367
-2.0045 8.4350 2.2367
-2.3058 8.3573 2.2367
-2.6041 8.2688 2.2367
-2.8990 8.1696 2.2367
-3.1902 8.0599 2.2367
-3.4772 7.9397 2.2367
-3.7597 7.8093 2.2367
-4.0372 7.6688 2.2367
-4.3096 7.5185 2.2367
-4.5763 7.3584 2.2367
-4.8370 7.1889 2.2367
-5.0915 7.0100 2.2367
-5.3393 6.8222 2.2367
-5.5803 6.6256 2.2367
-5.8139 6.4204 2.2367
-6.0400 6.2070 2.2367
-6.1640 5.8954 2.2030
-6.1762 5.4966 2.1357
-6.3763 5.2770 2.1382
-6.5464 5.0330 2.1335
-6.7220 4.7942 2.1335
-6.8890 4.5494 2.1335
-7.0470 4.2987 2.1335
-6.3599 3.5729 1.8856
-6.5498 3.3762 1.9050
-7.4655 3.5150 2.1335
-7.5859 3.2444 2.1335
-7.6965 2.9696 2.1335
-7.7971 2.6911 2.1335
-7.8876 2.4092 2.1335
-7.9680 2.1242 2.1335
-8.0380 1.8366 2.1335
-8.0977 1.5467 2.1335
-8.1469 1.2548 2.1335
-8.1856 0.9615 2.1335
-8.2137 0.6669 2.1335
-8.2313 0.3716 2.1335
-8.2382 0.0759 2.1335
-8.2345 -0.2199 2.1335
-8.2202 -0.5152 2.1335
-8.1953 -0.8099 2.1335
-8.1599 -1.1034 2.1335
-8.1139 -1.3954 2.1335
-8.0576 -1.6856 2.1335
-7.9908 -1.9735 2.1335
-7.9138 -2.2588 2.1335
-7.8266 -2.5411 2.1335
-7.7294 -2.8201 2.1335
-7.6222 -3.0954 2.1335
-7.5053 -3.3666 2.1335
-7.3787 -3.6335 2.1335
-7.2427 -3.8956 2.1335
-7.0973 -4.1526 2.1335
-6.5309 -4.1429 2.0069
-6.7796 -4.6502 2.1335
-6.6076 -4.8901 2.1335
-6.4271 -5.1236 2.1335
-6.2384 -5.3505 2.1335
-6.1662 -5.6853 2.1774
-6.1198 -6.0632 2.2367
-5.8976 -6.2784 2.2367
-5.6679 -6.4856 2.2367
-5.4310 -6.6844 2.2367
-5.1871 -6.8745 2.2367
-4.9366 -7.0558 2.2367
-4.6798 -7.2280 2.2367
-4.4169 -7.3909 2.2367
-4.1485 -7.5442 2.2367
-3.8747 -7.6879 2.2367
-3.5960 -7.8216 2.2367
-3.3127 -7.9453 2.2367
-3.0252 -8.0588 2.2367
-2.7338 -8.1619 2.2367
-2.4389 -8.2545 2.2367
-2.1409 -8.3365 2.2367
-1.8401 -8.4078 2.2367
-1.5370 -8.4683 2.2367
-1.2320 -8.5179 2.2367
-0.9253 -8.5566 2.2367
-0.6175 -8.5843 2.2367
-0.3089 -8.6009 2.2367
0.0001 -7.8737 2.2367
0.2828 -7.8687 2.2367
0.5652 -7.8536 2.2367
0.8468 -7.8284 2.2367
1.1274 -7.7931 2.2367
1.4065 -7.7478 2.2367
1.6838 -7.6925 2.2367
1.8877 -7.3498 2.1553
2.0815 -7.0441 2.0862
2.3862 -7.1236 2.1336
2.1393 -5.6984 1.7286
2.2130 -5.3073 1.6329
2.4360 -5.2980 1.6558
2.0600 -4.0869 1.2995
3.6211 -6.5847 2.1336
3.8555 -6.4509 2.1336
4.0849 -6.3087 2.1336
4.3091 -6.1585 2.1336
4.5278 -6.0003 2.1336
4.7407 -5.8343 2.1336
4.9475 -5.6608 2.1336
5.1480 -5.4800 2.1336
5.3419 -5.2922 2.1336
5.5290 -5.0974 2.1336
5.7090 -4.8961 2.1336
5.8817 -4.6885 2.1336
6.0668 -4.4895 2.1407
6.2247 -4.2693 2.1407
6.3746 -4.0435 2.1407
6.5164 -3.8125 2.1407
6.6498 -3.5765 2.1407
6.7747 -3.3358 2.1407
6.8580 -3.0760 2.1304
6.8580 -2.7848 2.0978
7.0965 -2.5890 2.1407
7.1858 -2.3329 2.1407
6.7173 -1.9171 1.9791
6.1534 -1.5195 1.7955
6.0208 -1.2594 1.7423
6.0170 -1.0346 1.7291
6.0168 -0.8135 1.7193
6.0166 -0.5944 1.7118
5.9191 -0.3709 1.6790
6.0431 -0.1612 1.7112
6.1542 0.0568 1.7419
6.4981 0.2935 1.8408
6.8611 0.5572 1.9478
7.3933 0.8686 2.1061
7.3934 1.1389 2.1162
5.9808 1.1425 1.7223
5.9335 1.3558 1.7214
5.4456 1.4518 1.5937
4.7910 1.4634 1.4165
4.7919 1.6539 1.4332
5.7889 2.2336 1.7540
5.7899 2.4763 1.7800
5.7848 2.7237 1.8071
5.6839 2.9299 1.8071
5.2819 2.9673 1.7119
4.8628 2.9663 1.6094
4.8378 3.1949 1.6379
5.6086 4.0002 1.9460
5.4662 4.2026 1.9475
5.4206 4.4860 1.9872
5.2731 4.6928 1.9934
4.9051 4.6914 1.9166
4.9736 5.1111 2.0136
5.0727 5.6018 2.1336
4.8687 5.7807 2.1336
4.6585 5.9521 2.1336
4.4422 6.1159 2.1336
4.2201 6.2718 2.1336
3.9925 6.4196 2.1336
3.7598 6.5592 2.1336
3.5222 6.6902 2.1336
3.2800 6.8127 2.1336
3.0335 6.9263 2.1336
2.7831 7.0310 2.1336
2.5291 7.1266 2.1336
2.2718 7.2130 2.1336
2.0115 7.2901 2.1336
1.8331 7.7133 2.2367
1.5552 7.7743 2.2367
1.2752 7.8252 2.2367
0.9936 7.8660 2.2367
0.7106 7.8966 2.2367
0.4268 7.9171 2.2367
0.1424 7.9273 2.2367
-0.1422 7.9272 2.2367
-0.4266 7.9169 2.2367
-0.7104 7.8964 2.2367
-0.9933 7.8656 2.2367
-1.2749 7.8247 2.2367
-1.5549 7.7737 2.2367
-1.8327 7.7127 2.2367
-2.1083 7.6416 2.2367
-2.3811 7.5607 2.2367
-2.6507 7.4701 2.2367
-2.9170 7.3697 2.2367
-3.1794 7.2599 2.2367
-3.4377 7.1407 2.2367
-3.6915 7.0123 2.2367
-3.9405 6.8749 2.2367
-4.1845 6.7285 2.2367
-4.4229 6.5735 2.2367
-4.6556 6.4101 2.2367
-4.8823 6.2384 2.2367
-5.1026 6.0586 2.2367
-5.3163 5.8711 2.2367
-5.5231 5.6760 2.2367
-5.7227 5.4736 2.2367
-5.9149 5.2642 2.2367
-6.0994 5.0480 2.2367
-6.1640 4.7392 2.1968
-6.1744 4.4039 2.1430
-6.2997 4.1604 2.1335
-6.4443 3.9312 2.1335
-6.3525 3.5689 2.0596
-6.5351 3.3688 2.0784
-6.8272 3.2146 2.1335
-6.9374 2.9672 2.1335
-7.0386 2.7159 2.1335
-7.1306 2.4612 2.1335
-7.2135 2.2034 2.1335
-7.2871 1.9429 2.1335
-7.3512 1.6798 2.1335
-7.4059 1.4147 2.1335
-7.4510 1.1478 2.1335
-7.4864 0.8795 2.1335
-7.5122 0.6101 2.1335
-7.5284 0.3400 2.1335
-7.5348 0.0696 2.1335
-7.5315 -0.2009 2.1335
-7.5185 -0.4711 2.1335
-7.4958 -0.7406 2.1335
-7.4635 -1.0091 2.1335
-7.4215 -1.2762 2.1335
-7.3700 -1.5416 2.1335
-7.3091 -1.8050 2.1335
-7.2387 -2.0659 2.1335
-7.1590 -2.3242 2.1335
-7.0702 -2.5794 2.1335
-6.9722 -2.8313 2.1335
-6.8653 -3.0794 2.1335
-6.7496 -3.3235 2.1335
-6.6252 -3.5633 2.1335
-6.4923 -3.7985 2.1335
-6.3511 -4.0287 2.1335
-6.2018 -4.2537 2.1335
-6.1664 -4.5634 2.1765
-6.1640 -4.9137 2.2367
-5.9830 -5.1313 2.2367
-5.7944 -5.3423 2.2367
-5.5984 -5.5465 2.2367
-5.3952 -5.7434 2.2367
-5.1851 -5.9330 2.2367
-4.9684 -6.1148 2.2367
-4.7453 -6.2888 2.2367
-4.5162 -6.4547 2.2367
-4.2812 -6.6123 2.2367
-4.0408 -6.7613 2.2367
-3.7952 -6.9017 2.2367
-3.5448 -7.0331 2.2367
-3.2898 -7.1555 2.2367
-3.0307 -7.2687 2.2367
-2.7676 -7.3725 2.2367
-2.5010 -7.4669 2.2367
-2.2312 -7.5517 2.2367
-1.9586 -7.6267 2.2367
-1.6835 -7.6919 2.2367
-1.4062 -7.7473 2.2367
-1.1271 -7.7927 2.2367
-0.8466 -7.8281 2.2367
-0.5649 -7.8534 2.2367
-0.2826 -7.8686 2.2367
0.0001 -7.2486 2.2367
0.2604 -7.2440 2.2367
0.5203 -7.2300 2.2367
0.7796 -7.2068 2.2367
1.0379 -7.1743 2.2367
1.2949 -7.1326 2.2367
1.5502 -7.0817 2.2367
1.8035 -7.0217 2.2367
1.9598 -6.6322 2.1336
2.0667 -6.1693 2.0072
2.4310 -6.4751 2.1336
2.2092 -5.2979 1.7707
2.1996 -4.7836 1.6241
2.3700 -4.7018 1.6241
2.0600 -3.7458 1.3185
3.5493 -5.9384 2.1336
3.7605 -5.8076 2.1336
3.9669 -5.6692 2.1336
4.1682 -5.5235 2.1336
4.3641 -5.3707 2.1336
4.5545 -5.2110 2.1336
4.7390 -5.0445 2.1336
4.9175 -4.8715 2.1336
5.0897 -4.6923 2.1336
5.2554 -4.5069 2.1336
5.4143 -4.3157 2.1336
5.5663 -4.1190 2.1336
5.7111 -3.9168 2.1336
5.8486 -3.7097 2.1336
5.9983 -3.5092 2.1407
6.1211 -3.2920 2.1407
6.2360 -3.0704 2.1407
6.3429 -2.8449 2.1407
6.4416 -2.6156 2.1407
6.5321 -2.3829 2.1407
6.6141 -2.1472 2.1407
6.3195 -1.8034 2.0228
6.1533 -1.5194 1.9506
6.0207 -1.2592 1.8928
6.0434 -1.0391 1.8868
6.0434 -0.8169 1.8762
6.0435 -0.5969 1.8681
5.9191 -0.3707 1.8242
6.0432 -0.1611 1.8592
6.1543 0.0570 1.8926
6.4983 0.2937 2.0001
6.5206 0.5297 2.0113
6.9160 0.8126 2.1407
6.8831 1.0604 2.1407
5.9808 1.1426 1.8714
5.9329 1.3558 1.8702
5.4447 1.4517 1.7314
4.8339 1.4766 1.5529
4.8357 1.6692 1.5715
5.6077 2.1639 1.8463
5.6087 2.3989 1.8736
5.6097 2.6414 1.9042
5.6107 2.8923 1.9383
5.2819 2.9674 1.8602
4.8623 2.9661 1.7486
4.8444 3.1993 1.7822
5.4231 3.8680 2.0447
5.3887 4.1431 2.0863
5.2506 4.3455 2.0917
5.1937 4.6223 2.1336
4.9047 4.6912 2.0826
4.8496 4.9838 2.1336
4.6679 5.1550 2.1336
4.4802 5.3196 2.1336
4.2867 5.4773 2.1336
4.0877 5.6280 2.1336
3.8833 5.7714 2.1336
3.6739 5.9074 2.1336
3.4597 6.0358 2.1336
3.2410 6.1564 2.1336
3.0182 6.2690 2.1336
2.7913 6.3735 2.1336
2.5609 6.4699 2.1336
2.3272 6.5578 2.1336
2.0904 6.6373 2.1336
1.8846 6.8303 2.1725
1.6868 7.0976 2.2367
1.4310 7.1537 2.2367
1.1734 7.2006 2.2367
0.9142 7.2381 2.2367
0.6539 7.2663 2.2367
0.3927 7.2851 2.2367
0.1310 7.2945 2.2367
-0.1308 7.2944 2.2367
-0.3925 7.2850 2.2367
-0.6537 7.2661 2.2367
-0.9140 7.2378 2.2367
-1.1731 7.2002 2.2367
-1.4307 7.1533 2.2367
-1.6864 7.0971 2.2367
-1.9400 7.0317 2.2367
-2.1910 6.9573 2.2367
-2.4391 6.8739 2.2367
-2.6841 6.7816 2.2367
-2.9256 6.6806 2.2367
-3.1633 6.5710 2.2367
-3.3969 6.4528 2.2367
-3.6261 6.3264 2.2367
-3.8505 6.1918 2.2367
-4.0700 6.0492 2.2367
-4.2841 5.8988 2.2367
-4.4927 5.7408 2.2367
-4.6955 5.5754 2.2367
-4.8922 5.4029 2.2367
-5.0825 5.2234 2.2367
-5.2662 5.0372 2.2367
-5.4431 4.8445 2.2367
-5.6130 4.6456 2.2367
-5.7755 4.4407 2.2367
-5.9306 4.2301 2.2367
-6.0780 4.0142 2.2367
-6.1641 3.7604 2.2175
-6.1669 3.4648 2.1726
-6.1766 3.1841 2.1346
-6.2831 2.9586 2.1335
-6.3845 2.7309 2.1335
-6.4777 2.4997 2.1335
-6.5625 2.2653 2.1335
-6.6389 2.0281 2.1335
-6.7066 1.7883 2.1335
-6.7657 1.5462 2.1335
-6.8161 1.3022 2.1335
-6.8576 1.0566 2.1335
-6.8903 0.8096 2.1335
-6.9142 0.5617 2.1335
-6.9291 0.3131 2.1335
-6.9350 0.0642 2.1335
-6.9320 -0.1848 2.1335
-6.9202 -0.4334 2.1335
-6.8993 -0.6815 2.1335
-6.8696 -0.9286 2.1335
-6.8311 -1.1745 2.1335
-6.7838 -1.4188 2.1335
-6.7277 -1.6612 2.1335
-6.6630 -1.9015 2.1335
-6.5897 -2.1392 2.1335
-6.5080 -2.3742 2.1335
-6.4179 -2.6060 2.1335
-6.3195 -2.8344 2.1335
-6.2130 -3.0592 2.1335
-6.1708 -3.3188 2.1587
-6.1645 -3.6065 2.2007
-6.1293 -3.8878 2.2367
-5.9852 -4.1050 2.2367
-5.8335 -4.3168 2.2367
-5.6742 -4.5231 2.2367
-5.5077 -4.7235 2.2367
-5.3341 -4.9178 2.2367
-5.1537 -5.1057 2.2367
-4.9667 -5.2871 2.2367
-4.7733 -5.4616 2.2367
-4.5738 -5.6291 2.2367
-4.3685 -5.7893 2.2367
-4.1575 -5.9420 2.2367
-3.9413 -6.0871 2.2367
-3.7200 -6.2243 2.2367
-3.4939 -6.3535 2.2367
-3.2634 -6.4746 2.2367
-3.0286 -6.5873 2.2367
-2.7901 -6.6915 2.2367
-2.5479 -6.7871 2.2367
-2.3025 -6.8740 2.2367
-2.0541 -6.9521 2.2367
-1.8031 -7.0212 2.2367
-1.5498 -7.0812 2.2367
-1.2946 -7.1322 2.2367
-1.0376 -7.1740 2.2367
-0.7793 -7.2066 2.2367
-0.5201 -7.2299 2.2367
-0.2602 -7.2439 2.2367
0.0001 -6.7085 2.2367
0.2410 -6.7042 2.2367
0.4816 -6.6913 2.2367
0.7215 -6.6698 2.2367
0.9606 -6.6398 2.2367
1.1984 -6.6011 2.2367
1.4347 -6.5540 2.2367
1.6692 -6.4985 2.2367
1.8812 -6.3660 2.2129
2.0332 -6.0692 2.1336
2.2499 -5.9925 2.1336
2.3091 -5.5373 1.9997
2.1394 -4.6527 1.7068
2.0672 -4.1010 1.5306
2.3484 -4.2701 1.6241
2.5003 -4.1832 1.6241
3.4803 -5.3746 2.1336
3.6712 -5.2465 2.1336
3.8575 -5.1117 2.1336
4.0388 -4.9702 2.1336
4.2150 -4.8224 2.1336
4.3858 -4.6683 2.1336
4.5509 -4.5082 2.1336
4.7102 -4.3423 2.1336
4.8635 -4.1707 2.1336
5.0106 -3.9938 2.1336
5.1512 -3.8116 2.1336
5.2852 -3.6246 2.1336
5.4124 -3.4328 2.1336
5.5327 -3.2366 2.1336
5.6459 -3.0362 2.1336
5.7518 -2.8318 2.1336
5.8504 -2.6238 2.1336
5.9609 -2.4203 2.1407
6.0446 -2.2050 2.1407
6.1205 -1.9868 2.1407
6.1885 -1.7659 2.1407
6.1532 -1.5192 2.1080
6.0207 -1.2590 2.0455
5.9581 -1.0242 2.0103
5.9917 -0.8098 2.0103
6.0175 -0.5942 2.0103
5.9191 -0.3706 1.9714
6.0432 -0.1609 2.0093
6.1543 0.0571 2.0454
6.2636 0.2832 2.0835
6.4214 0.5218 2.1407
6.3992 0.7520 2.1407
6.3688 0.9813 2.1407
5.0813 0.9709 1.7183
5.9323 1.3558 2.0211
4.9842 1.3291 1.7131
4.8397 1.4785 1.6804
4.8416 1.6713 1.7006
5.4728 2.1119 1.9475
5.4223 2.3193 1.9577
5.4232 2.5537 1.9897
5.4242 2.7963 2.0254
5.2817 2.9675 2.0105
4.8617 2.9660 1.8898
4.8511 3.2039 1.9290
5.2356 3.7344 2.1336
5.0986 3.9202 2.1336
4.9551 4.1010 2.1336
4.8051 4.2766 2.1336
4.6488 4.4466 2.1336
4.4866 4.6109 2.1336
4.3186 4.7693 2.1336
4.1449 4.9215 2.1336
3.9658 5.0674 2.1336
3.7817 5.2068 2.1336
3.5926 5.3395 2.1336
3.3988 5.4653 2.1336
3.2007 5.5840 2.1336
2.9984 5.6955 2.1336
2.7922 5.7997 2.1336
2.5823 5.8964 2.1336
2.3692 5.9855 2.1336
2.1529 6.0669 2.1336
1.9339 6.1404 2.1336
1.7950 6.5059 2.2367
1.5605 6.5662 2.2367
1.3238 6.6181 2.2367
1.0855 6.6614 2.2367
0.8458 6.6962 2.2367
0.6049 6.7222 2.2367
0.3633 6.7396 2.2367
0.1212 6.7483 2.2367
-0.1210 6.7483 2.2367
-0.3631 6.7395 2.2367
-0.6047 6.7221 2.2367
-0.8455 6.6959 2.2367
-1.0852 6.6611 2.2367
-1.3236 6.6177 2.2367
-1.5601 6.5658 2.2367
-1.7947 6.5053 2.2367
-2.0269 6.4365 2.2367
-2.2565 6.3594 2.2367
-2.4831 6.2740 2.2367
-2.7066 6.1806 2.2367
-2.9265 6.0792 2.2367
-3.1426 5.9699 2.2367
-3.3546 5.8529 2.2367
-3.5623 5.7284 2.2367
-3.7653 5.5965 2.2367
-3.9635 5.4574 2.2367
-4.1565 5.3113 2.2367
-4.3441 5.1583 2.2367
-4.5261 4.9987 2.2367
-4.7022 4.8327 2.2367
-4.8722 4.6604 2.2367
-5.0359 4.4822 2.2367
-5.1931 4.2982 2.2367
-5.3435 4.1087 2.2367
-5.4870 3.9139 2.2367
-5.6234 3.7141 2.2367
-5.7526 3.5095 2.2367
-5.8742 3.3005 2.2367
-5.9883 3.0872 2.2367
-6.0946 2.8700 2.2367
-6.1642 2.6367 2.2263
-6.1642 2.3788 2.1942
-6.1683 2.1294 2.1673
-6.1742 1.8863 2.1444
-6.2054 1.6548 2.1335
-6.2601 1.4308 2.1335
-6.3068 1.2050 2.1335
-6.3453 0.9778 2.1335
-6.3777 0.7495 2.1342
-6.3977 0.5199 2.1335
-6.4115 0.2899 2.1335
-6.4171 0.0595 2.1335
-6.4144 -0.1708 2.1335
-6.4034 -0.4009 2.1335
-6.3842 -0.6305 2.1335
-6.3762 -0.8618 2.1400
-6.3212 -1.0867 2.1335
-6.2774 -1.3128 2.1335
-6.2256 -1.5371 2.1335
-6.1763 -1.7624 2.1371
-6.1707 -2.0031 2.1589
-6.1645 -2.2487 2.1838
-6.1645 -2.5030 2.2144
-6.1311 -2.7498 2.2367
-6.0279 -2.9678 2.2367
-5.9169 -3.1820 2.2367
-5.7983 -3.3921 2.2367
-5.6723 -3.5978 2.2367
-5.5389 -3.7988 2.2367
-5.3985 -3.9948 2.2367
-5.2512 -4.1857 2.2367
-5.0971 -4.3712 2.2367
-4.9365 -4.5511 2.2367
-4.7695 -4.7250 2.2367
-4.5965 -4.8929 2.2367
-4.4176 -5.0544 2.2367
-4.2330 -5.2094 2.2367
-4.0429 -5.3577 2.2367
-3.8477 -5.4991 2.2367
-3.6476 -5.6334 2.2367
-3.4428 -5.7604 2.2367
-3.2336 -5.8800 2.2367
-3.0202 -5.9921 2.2367
-2.8030 -6.0964 2.2367
-2.5822 -6.1929 2.2367
-2.3581 -6.2814 2.2367
-2.1310 -6.3618 2.2367
-1.9011 -6.4340 2.2367
-1.6688 -6.4980 2.2367
-1.4344 -6.5536 2.2367
-1.1981 -6.6008 2.2367
-0.9603 -6.6395 2.2367
-0.7213 -6.6696 2.2367
-0.4813 -6.6912 2.2367
-0.2408 -6.7042 2.2367
0.0001 -6.2368 2.2367
0.2241 -6.2328 2.2367
0.4477 -6.2208 2.2367
0.6708 -6.2008 2.2367
0.8931 -6.1729 2.2367
1.1142 -6.1369 2.2367
1.3338 -6.0931 2.2367
1.5518 -6.0415 2.2367
1.7678 -5.9821 2.2367
1.8923 -5.6485 2.1360
2.0917 -5.5710 2.1336
2.0672 -4.9571 1.9256
2.4863 -5.4070 2.1336
2.1394 -4.2441 1.7039
2.1833 -3.9697 1.6241
2.3245 -3.8890 1.6241
2.4628 -3.8032 1.6241
2.5979 -3.7126 1.6241
3.5862 -4.7520 2.1336
3.7548 -4.6205 2.1336
3.9185 -4.4830 2.1336
4.0772 -4.3398 2.1336
4.2307 -4.1909 2.1336
4.3788 -4.0366 2.1336
4.5213 -3.8771 2.1336
4.6580 -3.7126 2.1336
4.7887 -3.5433 2.1336
4.9132 -3.3693 2.1336
5.0315 -3.1911 2.1336
5.1433 -3.0086 2.1336
5.2484 -2.8223 2.1336
5.3469 -2.6323 2.1336
5.4384 -2.4389 2.1336
5.5230 -2.2423 2.1336
5.6005 -2.0428 2.1336
5.6708 -1.8406 2.1336
5.7338 -1.6360 2.1336
5.7894 -1.4292 2.1336
5.8376 -1.2206 2.1336
5.8782 -1.0104 2.1336
5.8716 -0.7934 2.1193
5.8858 -0.5811 2.1153
5.9191 -0.3705 2.1209
5.9844 -0.1593 2.1407
5.9869 0.0556 2.1407
5.9816 0.2705 2.1407
5.9687 0.4851 2.1407
5.9480 0.6991 2.1407
5.9003 0.9093 2.1336
5.0515 0.9653 1.8379
4.9733 1.1368 1.8229
4.9733 1.3263 1.8390
4.8456 1.4804 1.8101
4.8476 1.6735 1.8319
5.4213 2.0922 2.0756
5.3708 2.2975 2.0863
5.2857 2.4891 2.0864
5.2533 2.7083 2.1105
5.2096 2.9271 2.1336
4.8612 2.9658 2.0331
4.8579 3.2085 2.0784
4.8661 3.4710 2.1336
4.7387 3.6437 2.1336
4.6053 3.8117 2.1336
4.4658 3.9748 2.1336
4.3206 4.1328 2.1336
4.1698 4.2855 2.1336
4.0136 4.4327 2.1336
3.8522 4.5741 2.1336
3.6858 4.7097 2.1336
3.5146 4.8392 2.1336
3.3389 4.9625 2.1336
3.1588 5.0794 2.1336
2.9746 5.1897 2.1336
2.7866 5.2934 2.1336
2.5949 5.3902 2.1336
0.8579 1.9589 0.7627
2.2018 5.5628 2.1336
2.0008 5.6384 2.1336
1.8820 5.9757 2.2342
1.6682 6.0464 2.2367
1.4502 6.1025 2.2367
1.2303 6.1507 2.2367
1.0088 6.1909 2.2367
0.7860 6.2232 2.2367
0.5622 6.2474 2.2367
0.3377 6.2636 2.2367
0.1127 6.2717 2.2367
-0.1124 6.2716 2.2367
-0.3374 6.2635 2.2367
-0.5620 6.2473 2.2367
-0.7858 6.2230 2.2367
-1.0086 6.1907 2.2367
-1.2300 6.1503 2.2367
-1.4499 6.1021 2.2367
-1.6679 6.0459 2.2367
-1.8837 5.9820 2.2367
-2.0971 5.9103 2.2367
-2.3077 5.8310 2.2367
-0.8578 1.9589 0.7628
-0.9275 1.9268 0.7628
-2.9206 5.5484 2.2367
-3.1177 5.4397 2.2367
-3.3107 5.3240 2.2367
-3.4994 5.2015 2.2367
-3.6836 5.0722 2.2367
-3.8630 4.9364 2.2367
-4.0374 4.7943 2.2367
-4.2065 4.6460 2.2367
-4.3702 4.4917 2.2367
-4.5282 4.3316 2.2367
-4.6804 4.1660 2.2367
-4.8265 3.9950 2.2367
-4.9664 3.8188 2.2367
-5.0998 3.6378 2.2367
-5.2266 3.4522 2.2367
-5.3467 3.2621 2.2367
-5.4598 3.0678 2.2367
-5.5659 2.8696 2.2367
-5.6647 2.6677 2.2367
-5.7563 2.4624 2.2367
-5.8404 2.2540 2.2367
-5.9169 2.0427 2.2367
-5.9858 1.8289 2.2367
-6.0470 1.6127 2.2367
-6.1004 1.3944 2.2367
-6.1459 1.1744 2.2367
-6.1643 0.9500 2.2298
-6.1643 0.7246 2.2192
-6.1643 0.5011 2.2115
-6.1643 0.2788 2.2067
-6.1643 0.0573 2.2048
-6.1643 -0.1640 2.2057
-6.1643 -0.3858 2.2095
-6.1644 -0.6086 2.2161
-6.1644 -0.8330 2.2257
-6.1603 -1.0589 2.2367
-6.1177 -1.2792 2.2367
-6.0673 -1.4979 2.2367
-6.0090 -1.7146 2.2367
-5.9430 -1.9290 2.2367
-5.8693 -2.1409 2.2367
-5.7882 -2.3500 2.2367
-5.6995 -2.5561 2.2367
-5.6036 -2.7588 2.2367
-5.5004 -2.9579 2.2367
-5.3902 -3.1532 2.2367
-5.2731 -3.3445 2.2367
-5.1492 -3.5313 2.2367
-5.0187 -3.7136 2.2367
-4.8817 -3.8911 2.2367
-4.7385 -4.0636 2.2367
-4.5892 -4.2308 2.2367
-4.4341 -4.3925 2.2367
-4.2732 -4.5486 2.2367
-4.1069 -4.6988 2.2367
-3.9352 -4.8429 2.2367
-3.7586 -4.9808 2.2367
-3.5771 -5.1122 2.2367
-3.3911 -5.2371 2.2367
-3.2007 -5.3552 2.2367
-3.0062 -5.4664 2.2367
-2.8079 -5.5706 2.2367
-2.6059 -5.6676 2.2367
-2.4006 -5.7573 2.2367
-2.1923 -5.8396 2.2367
-1.9811 -5.9144 2.2367
-1.7675 -5.9816 2.2367
-1.5515 -6.0411 2.2367
-1.3336 -6.0928 2.2367
-1.1139 -6.1366 2.2367
-0.8928 -6.1726 2.2367
-0.6706 -6.2006 2.2367
-0.4475 -6.2207 2.2367
-0.2238 -6.2328 2.2367
0.0001 -5.8208 2.2367
0.2091 -5.8171 2.2367
0.4179 -5.8059 2.2367
0.6261 -5.7873 2.2367
0.8335 -5.7611 2.2367
1.0399 -5.7276 2.2367
1.2449 -5.6867 2.2367
1.4484 -5.6385 2.2367
1.6500 -5.5830 2.2367
1.8494 -5.5204 2.2367
1.9522 -5.1994 2.1336
2.1377 -5.1262 2.1336
2.3205 -5.0463 2.1336
2.0672 -4.1008 1.7640
2.1394 -3.8899 1.7052
2.1697 -3.6299 1.6243
2.2985 -3.5494 1.6241
2.4246 -3.4648 1.6241
2.5696 -3.4049 1.6381
3.5043 -4.3121 2.1336
3.6571 -4.1838 2.1336
3.8052 -4.0501 2.1336
3.9485 -3.9111 2.1336
4.0866 -3.7671 2.1336
4.2196 -3.6182 2.1336
4.3471 -3.4647 2.1336
4.4691 -3.3066 2.1336
4.5853 -3.1443 2.1336
4.6956 -2.9779 2.1336
4.7999 -2.8077 2.1336
4.8980 -2.6337 2.1336
4.9899 -2.4564 2.1336
5.0753 -2.2759 2.1336
5.1542 -2.0924 2.1336
5.2265 -1.9062 2.1336
5.2921 -1.7175 2.1336
5.3508 -1.5266 2.1336
5.4027 -1.3336 2.1336
5.4476 -1.1389 2.1336
5.4855 -0.9427 2.1336
5.5164 -0.7453 2.1336
5.5401 -0.5468 2.1336
5.5567 -0.3476 2.1336
5.5661 -0.1480 2.1336
5.5684 0.0519 2.1336
5.5635 0.2518 2.1336
5.5514 0.4514 2.1336
5.5322 0.6504 2.1336
5.5058 0.8486 2.1336
5.0509 0.9653 1.9693
4.9733 1.1369 1.9536
4.9733 1.3264 1.9708
4.8517 1.4824 1.9423
5.2496 1.8124 2.1261
5.2001 2.0069 2.1336
5.1251 2.1925 2.1336
5.0436 2.3752 2.1336
4.9555 2.5549 2.1336
4.8610 2.7314 2.1336
4.7603 2.9043 2.1336
4.6533 3.0735 2.1336
4.5404 3.2388 2.1336
4.4216 3.3999 2.1336
4.2970 3.5566 2.1336
4.1669 3.7088 2.1336
4.0314 3.8562 2.1336
3.8907 3.9987 2.1336
3.7449 4.1360 2.1336
3.5943 4.2680 2.1336
3.4390 4.3945 2.1336
3.2792 4.5153 2.1336
3.1153 4.6303 2.1336
2.9472 4.7393 2.1336
2.7754 4.8423 2.1336
2.6000 4.9390 2.1336
0.8656 1.7981 0.7628
0.8005 1.8280 0.7628
0.7344 1.8556 0.7628
0.6674 1.8807 0.7628
0.5995 1.9035 0.7628
0.5308 1.9238 0.7627
0.4614 1.9416 0.7627
0.3914 1.9569 0.7627
0.9413 5.7763 2.2367
0.7334 5.8065 2.2367
0.5246 5.8291 2.2367
0.3150 5.8441 2.2367
0.1051 5.8517 2.2367
-0.1049 5.8516 2.2367
-0.3148 5.8441 2.2367
-0.5243 5.8289 2.2367
-0.7331 5.8063 2.2367
-0.9410 5.7761 2.2367
-0.3914 1.9569 0.7628
-0.4613 1.9416 0.7628
-0.5307 1.9238 0.7628
-0.5994 1.9035 0.7628
-0.6673 1.8807 0.7628
-0.7344 1.8556 0.7629
-0.8005 1.8280 0.7629
-0.8656 1.7981 0.7629
-0.9295 1.7659 0.7630
-2.9089 5.0756 2.2367
-3.0890 4.9676 2.2367
-3.2651 4.8533 2.2367
-3.4369 4.7327 2.2367
-3.6043 4.6061 2.2367
-3.7671 4.4734 2.2367
-3.9249 4.3351 2.2367
-4.0777 4.1911 2.2367
-4.2251 4.0418 2.2367
-4.3671 3.8873 2.2367
-4.5035 3.7277 2.2367
-4.6340 3.5634 2.2367
-4.7585 3.3945 2.2367
-4.8769 3.2213 2.2367
-4.9889 3.0439 2.2367
-5.0945 2.8627 2.2367
-5.1935 2.6777 2.2367
-5.2858 2.4894 2.2367
-5.3712 2.2979 2.2367
-5.4498 2.1034 2.2367
-5.5212 1.9063 2.2367
-5.5856 1.7067 2.2367
-5.6427 1.5050 2.2367
-5.6925 1.3013 2.2367
-5.7350 1.0961 2.2367
-5.7701 0.8894 2.2367
-5.7977 0.6817 2.2367
-5.8179 0.4731 2.2367
-5.8305 0.2639 2.2367
-5.8357 0.0544 2.2367
-5.8333 -0.1551 2.2367
-5.8234 -0.3643 2.2367
-5.8060 -0.5731 2.2367
-5.7812 -0.7811 2.2367
-5.7488 -0.9880 2.2367
-5.7091 -1.1937 2.2367
-5.6621 -1.3977 2.2367
-5.6077 -1.5999 2.2367
-5.5461 -1.8001 2.2367
-5.4775 -1.9978 2.2367
-5.4017 -2.1930 2.2367
-5.3190 -2.3853 2.2367
-5.2295 -2.5745 2.2367
-5.1333 -2.7604 2.2367
-5.0305 -2.9427 2.2367
-4.9212 -3.1211 2.2367
-4.8056 -3.2955 2.2367
-4.6838 -3.4657 2.2367
-4.5560 -3.6313 2.2367
-4.4223 -3.7923 2.2367
-4.2830 -3.9484 2.2367
-4.1382 -4.0993 2.2367
-3.9881 -4.2450 2.2367
-3.8329 -4.3852 2.2367
-3.6727 -4.5197 2.2367
-3.5079 -4.6484 2.2367
-3.3386 -4.7711 2.2367
-3.1649 -4.8877 2.2367
-2.9872 -4.9980 2.2367
-2.8057 -5.1018 2.2367
-2.6206 -5.1990 2.2367
-2.4321 -5.2896 2.2367
-2.2406 -5.3733 2.2367
-2.0461 -5.4501 2.2367
-1.8490 -5.5199 2.2367
-1.6496 -5.5826 2.2367
-1.4480 -5.6381 2.2367
-1.2446 -5.6864 2.2367
-1.0396 -5.7273 2.2367
-0.8333 -5.7609 2.2367
-0.6259 -5.7871 2.2367
-0.4177 -5.8058 2.2367
-0.2089 -5.8171 2.2367
0.0001 -5.4509 2.2367
0.1959 -5.4475 2.2367
0.3913 -5.4370 2.2367
0.5863 -5.4195 2.2367
0.7806 -5.3950 2.2367
0.9738 -5.3636 2.2367
1.1658 -5.3253 2.2367
1.3564 -5.2802 2.2367
1.5451 -5.2282 2.2367
1.7319 -5.1695 2.2367
1.8813 -5.0104 2.1956
2.0019 -4.8003 2.1336
2.1731 -4.7255 2.1336
2.3275 -4.6169 2.1209
2.5068 -4.5578 2.1336
2.1394 -3.5791 1.7103
2.2005 -3.3979 1.6603
2.3779 -3.3979 1.7009
2.5645 -3.3980 1.7458
3.2815 -4.0379 2.1336
3.4246 -3.9177 2.1336
3.5633 -3.7925 2.1336
3.6975 -3.6624 2.1336
3.8268 -3.5275 2.1336
3.9513 -3.3881 2.1336
4.0707 -3.2443 2.1336
4.1849 -3.0962 2.1336
4.2937 -2.9442 2.1336
4.3970 -2.7884 2.1336
4.4946 -2.6290 2.1336
4.5865 -2.4661 2.1336
4.6725 -2.3000 2.1336
4.7524 -2.1310 2.1336
4.8263 -1.9592 2.1336
4.8940 -1.7848 2.1336
4.9553 -1.6081 2.1336
5.0103 -1.4293 2.1336
5.0589 -1.2486 2.1336
5.1009 -1.0663 2.1336
5.1364 -0.8826 2.1336
5.1652 -0.6977 2.1336
5.1874 -0.5119 2.1336
5.2029 -0.3254 2.1336
5.2117 -0.1384 2.1336
5.2139 0.0487 2.1336
5.2092 0.2359 2.1336
5.1979 0.4227 2.1336
5.1798 0.6091 2.1336
5.1551 0.7947 2.1336
5.0503 0.9653 2.1030
4.9733 1.1370 2.0865
4.9733 1.3265 2.1049
4.8578 1.4844 2.0771
4.9326 1.7031 2.1336
4.8687 1.8792 2.1336
4.7985 2.0529 2.1336
4.7221 2.2240 2.1336
4.6397 2.3922 2.1336
4.5512 2.5574 2.1336
4.4568 2.7193 2.1336
4.3567 2.8777 2.1336
4.2509 3.0324 2.1336
4.1396 3.1832 2.1336
4.0230 3.3300 2.1336
3.9012 3.4725 2.1336
3.7743 3.6105 2.1336
3.6425 3.7438 2.1336
3.5061 3.8723 2.1336
3.3650 3.9959 2.1336
3.2196 4.1143 2.1336
3.0701 4.2274 2.1336
2.9166 4.3351 2.1336
2.7592 4.4371 2.1336
2.5984 4.5335 2.1336
0.8704 1.6535 0.7630
0.8105 1.6837 0.7629
0.7496 1.7117 0.7629
0.6877 1.7375 0.7629
0.6249 1.7611 0.7629
0.5613 1.7823 0.7629
0.4970 1.8013 0.7628
0.4320 1.8180 0.7628
0.3665 1.8324 0.7628
0.3005 1.8443 0.7628
0.2342 1.8539 0.7628
0.1675 1.8611 0.7628
0.1006 1.8660 0.7628
0.0336 1.8684 0.7628
-0.0335 1.8684 0.7628
-0.1005 1.8660 0.7628
-0.1674 1.8611 0.7628
-0.2341 1.8539 0.7628
-0.3005 1.8443 0.7629
-0.3664 1.8324 0.7629
-0.4320 1.8180 0.7629
-0.4969 1.8013 0.7629
-0.5612 1.7823 0.7629
-0.6248 1.7611 0.7629
-0.6876 1.7375 0.7630
-0.7495 1.7117 0.7630
-0.8104 1.6837 0.7630
-0.8703 1.6535 0.7631
-0.9291 1.6212 0.7631
-2.8920 4.6509 2.2367
-3.0568 4.5439 2.2367
-3.2177 4.4310 2.2367
-3.3745 4.3124 2.2367
-3.5268 4.1883 2.2367
-3.6746 4.0588 2.2367
-3.8177 3.9240 2.2367
-3.9557 3.7842 2.2367
-4.0887 3.6396 2.2367
-4.2164 3.4902 2.2367
-4.3386 3.3364 2.2367
-4.4552 3.1783 2.2367
-4.5660 3.0161 2.2367
-4.6710 2.8501 2.2367
-4.7698 2.6804 2.2367
-4.8626 2.5072 2.2367
-4.9490 2.3309 2.2367
-5.0290 2.1516 2.2367
-5.1026 1.9695 2.2367
-5.1695 1.7850 2.2367
-5.2297 1.5981 2.2367
-5.2833 1.4092 2.2367
-5.3300 1.2186 2.2367
-5.3698 1.0264 2.2367
-5.4026 0.8329 2.2367
-5.4286 0.6384 2.2367
-5.4475 0.4431 2.2367
-5.4594 0.2472 2.2367
-5.4642 0.0511 2.2367
-5.4620 -0.1451 2.2367
-5.4528 -0.3410 2.2367
-5.4365 -0.5365 2.2367
-5.4132 -0.7313 2.2367
-5.3830 -0.9250 2.2367
-5.3458 -1.1176 2.2367
-5.3018 -1.3087 2.2367
-5.2510 -1.4980 2.2367
-5.1933 -1.6854 2.2367
-5.1290 -1.8706 2.2367
-5.0581 -2.0534 2.2367
-4.9807 -2.2335 2.2367
-4.8969 -2.4106 2.2367
-4.8068 -2.5847 2.2367
-4.7106 -2.7554 2.2367
-4.6082 -2.9225 2.2367
-4.5000 -3.0859 2.2367
-4.3860 -3.2452 2.2367
-4.2664 -3.4004 2.2367
-4.1412 -3.5511 2.2367
-4.0108 -3.6973 2.2367
-3.8752 -3.8386 2.2367
-3.7346 -3.9751 2.2367
-3.5893 -4.1064 2.2367
-3.4393 -4.2324 2.2367
-3.2850 -4.3529 2.2367
-3.1264 -4.4678 2.2367
-2.9638 -4.5770 2.2367
-2.7974 -4.6802 2.2367
-2.6274 -4.7775 2.2367
-2.4541 -4.8686 2.2367
-2.2776 -4.9534 2.2367
-2.0982 -5.0318 2.2367
-1.9161 -5.1037 2.2367
-1.7316 -5.1691 2.2367
-1.5448 -5.2278 2.2367
-1.3560 -5.2798 2.2367
-1.1656 -5.3250 2.2367
-0.9736 -5.3634 2.2367
-0.7803 -5.3948 2.2367
-0.5861 -5.4193 2.2367
-0.3911 -5.4369 2.2367
-0.1956 -5.4474 2.2367
0.0001 -5.1195 2.2367
0.1840 -5.1163 2.2367
0.3676 -5.1064 2.2367
0.5507 -5.0900 2.2367
0.7331 -5.0670 2.2367
0.9147 -5.0375 2.2367
1.0950 -5.0015 2.2367
1.2739 -4.9591 2.2367
1.4512 -4.9103 2.2367
1.6267 -4.8552 2.2367
1.8000 -4.7938 2.2367
1.8903 -4.5325 2.1450
2.0410 -4.4382 2.1336
2.0668 -4.0997 2.0052
2.3545 -4.2806 2.1336
2.2245 -3.7213 1.8934
2.2006 -3.3979 1.7678
2.5455 -3.6373 1.9386
2.9437 -3.9003 2.1336
3.0820 -3.7923 2.1336
3.2164 -3.6794 2.1336
3.3466 -3.5617 2.1336
3.4726 -3.4395 2.1336
3.5941 -3.3128 2.1336
3.7110 -3.1819 2.1336
3.8231 -3.0468 2.1336
3.9303 -2.9078 2.1336
4.0325 -2.7650 2.1336
4.1295 -2.6186 2.1336
4.2212 -2.4689 2.1336
4.3074 -2.3159 2.1336
4.3881 -2.1600 2.1336
4.4632 -2.0012 2.1336
4.5326 -1.8398 2.1336
4.5961 -1.6761 2.1336
4.6537 -1.5101 2.1336
4.7053 -1.3422 2.1336
4.7509 -1.1725 2.1336
4.7903 -1.0013 2.1336
4.8236 -0.8288 2.1336
4.8507 -0.6551 2.1336
4.8715 -0.4806 2.1336
4.8861 -0.3055 2.1336
4.8943 -0.1299 2.1336
4.8963 0.0459 2.1336
4.8919 0.2216 2.1336
4.8812 0.3971 2.1336
4.8643 0.5721 2.1336
4.8410 0.7464 2.1336
4.8115 0.9198 2.1336
4.7758 1.0920 2.1336
4.7340 1.2628 2.1336
4.6860 1.4320 2.1336
4.6320 1.5994 2.1336
4.5719 1.7647 2.1336
4.5060 1.9279 2.1336
4.4343 2.0885 2.1336
4.3568 2.2465 2.1336
4.2737 2.4016 2.1336
4.1851 2.5536 2.1336
4.0910 2.7023 2.1336
3.9917 2.8476 2.1336
3.8872 2.9892 2.1336
3.7777 3.1270 2.1336
3.6633 3.2608 2.1336
3.5441 3.3903 2.1336
3.4204 3.5156 2.1336
3.2922 3.6362 2.1336
3.1598 3.7523 2.1336
3.0232 3.8634 2.1336
2.8828 3.9696 2.1336
2.7386 4.0707 2.1336
2.5909 4.1665 2.1336
0.8726 1.5225 0.7631
0.8174 1.5528 0.7631
0.7612 1.5812 0.7630
0.7039 1.6075 0.7630
0.6458 1.6317 0.7630
0.5868 1.6538 0.7630
0.5271 1.6738 0.7630
0.4667 1.6917 0.7630
0.4057 1.7073 0.7629
0.3442 1.7208 0.7629
0.2822 1.7321 0.7629
0.2199 1.7411 0.7629
0.1573 1.7478 0.7629
0.0945 1.7524 0.7629
0.0315 1.7546 0.7629
-0.0315 1.7546 0.7629
-0.0944 1.7524 0.7629
-0.1572 1.7478 0.7629
-0.2198 1.7411 0.7629
-0.2822 1.7321 0.7630
-0.3441 1.7208 0.7630
-0.4056 1.7073 0.7630
-0.4667 1.6917 0.7630
-0.5270 1.6738 0.7630
-0.5868 1.6538 0.7630
-0.6457 1.6317 0.7631
-0.7039 1.6075 0.7631
-0.7611 1.5812 0.7631
-0.8173 1.5528 0.7631
-0.8725 1.5225 0.7632
-0.9266 1.4902 0.7632
-0.9794 1.4560 0.7632
-3.0214 4.1609 2.2367
-3.1686 4.0495 2.2367
-3.3117 3.9330 2.2367
-3.4505 3.8113 2.2367
-3.5848 3.6848 2.2367
-3.7145 3.5536 2.2367
-3.8394 3.4177 2.2367
-3.9593 3.2775 2.2367
-4.0740 3.1331 2.2367
-4.1836 2.9846 2.2367
-4.2877 2.8324 2.2367
-4.3862 2.6765 2.2367
-4.4791 2.5171 2.2367
-4.5662 2.3545 2.2367
-4.6473 2.1890 2.2367
-4.7225 2.0206 2.2367
-4.7916 1.8496 2.2367
-4.8545 1.6763 2.2367
-4.9111 1.5009 2.2367
-4.9614 1.3235 2.2367
-5.0052 1.1445 2.2367
-5.0426 0.9640 2.2367
-5.0735 0.7823 2.2367
-5.0979 0.5996 2.2367
-5.1157 0.4162 2.2367
-5.1269 0.2323 2.2367
-5.1314 0.0481 2.2367
-5.1294 -0.1361 2.2367
-5.1208 -0.3201 2.2367
-5.1055 -0.5037 2.2367
-5.0837 -0.6866 2.2367
-5.0553 -0.8686 2.2367
-5.0205 -1.0494 2.2367
-4.9791 -1.2289 2.2367
-4.9314 -1.4067 2.2367
-4.8773 -1.5827 2.2367
-4.8169 -1.7567 2.2367
-4.7504 -1.9283 2.2367
-4.6777 -2.0974 2.2367
-4.5990 -2.2639 2.2367
-4.5144 -2.4273 2.2367
-4.4240 -2.5877 2.2367
-4.3279 -2.7446 2.2367
-4.2263 -2.8981 2.2367
-4.1192 -3.0477 2.2367
-4.0069 -3.1934 2.2367
-3.8894 -3.3350 2.2367
-3.7669 -3.4723 2.2367
-3.6396 -3.6051 2.2367
-3.5076 -3.7333 2.2367
-3.3711 -3.8566 2.2367
-3.2302 -3.9749 2.2367
-3.0853 -4.0881 2.2367
-2.9363 -4.1961 2.2367
-2.7836 -4.2986 2.2367
