ply
format ascii 1.0
element vertex 2074
property float32 x
property float32 y
property float32 z
end_header
7.0641 17.8223 -1.8386
6.4486 18.1474 -1.8498
5.9616 18.9043 -1.9064
6.2572 22.6488 -2.2626
7.1334 29.9789 -2.9703
6.1648 30.7816 -3.0285
6.9465 42.5791 -4.1649
-17.3996 43.8930 -4.5193
-15.9871 36.4491 -3.8026
-16.1551 33.5048 -3.5467
-16.1618 30.6522 -3.2971
-15.8760 27.6538 -3.0271
-16.2229 26.0438 -2.9058
-16.2275 24.0782 -2.7428
-16.2317 22.3109 -2.5992
-16.2355 20.7092 -2.4720
-16.3428 19.3703 -2.3737
-15.9545 17.5873 -2.2171
-17.1485 17.5901 -2.2863
-18.4297 17.5932 -2.3632
-19.8115 17.5964 -2.4492
-21.3105 17.6000 -2.5454
-22.9464 17.6039 -2.6536
-24.7440 17.6081 -2.7758
-26.7337 17.6129 -2.9146
-24.9751 15.1969 -2.6508
-23.1499 12.9708 -2.3961
-23.1524 11.9006 -2.3406
-23.1549 10.8691 -2.2898
-23.1573 9.8716 -2.2436
-24.9909 9.6082 -2.3754
-24.9933 8.5924 -2.3340
-24.9956 7.6013 -2.2965
-24.9979 6.6315 -2.2625
-23.1676 5.2635 -2.0684
-23.2813 4.4169 -2.0531
-22.7530 3.4757 -1.9844
-23.1743 2.6928 -2.0014
-22.7569 1.8193 -1.9486
-23.2894 1.0224 -1.9798
-23.1803 0.1848 -1.9587
-9.0649 -0.2532 -0.7623
-9.0656 -0.5794 -0.7598
-9.0664 -0.9072 -0.7582
-9.0672 -1.2373 -0.7575
-9.0680 -1.5708 -0.7579
-9.0688 -1.9084 -0.7593
-9.0696 -2.2513 -0.7618
-9.0704 -2.6004 -0.7653
-9.0713 -2.9567 -0.7699
-9.0722 -3.3216 -0.7757
-9.0730 -3.6963 -0.7827
-9.0739 -4.0822 -0.7911
-9.0749 -4.4808 -0.8008
-9.0759 -4.8938 -0.8119
-9.0769 -5.3233 -0.8247
-9.0780 -5.7713 -0.8392
-9.0791 -6.2403 -0.8555
-9.0802 -6.7332 -0.8739
-9.0815 -7.2532 -0.8947
-9.0828 -7.8040 -0.9179
-11.6522 -10.7618 -1.2108
-11.6541 -11.5653 -1.2484
-11.6562 -12.4284 -1.2905
-11.2659 -12.9108 -1.2930
-11.1133 -13.6982 -1.3263
-10.6826 -14.1779 -1.3302
-9.8078 -14.0376 -1.2790
-9.1200 -14.1050 -1.2506
-9.8909 -16.5722 -1.4327
-9.8929 -18.0138 -1.5214
-9.7906 -19.4497 -1.6078
-18.9832 -41.3403 -3.3508
-18.7176 -44.9465 -3.5784
-18.6624 -49.7728 -3.8988
-19.0347 -56.8942 -4.3922
-17.1131 -57.9843 -4.4189
-15.5212 -60.5044 -4.5590
-15.0880 -69.0112 -5.1495
-15.2423 -84.0620 -6.2213
-9.3247 -64.5322 -4.7442
-7.1984 -66.6205 -4.8726
-0.0009 -58.5873 -2.9334
2.0509 -57.1618 -2.8648
1.8255 -25.4012 -1.2763
2.7125 -25.1064 -1.2668
3.6281 -25.1086 -1.2743
4.5535 -25.1108 -1.2838
5.4910 -25.1130 -1.2956
6.4436 -25.1153 -1.3096
7.1563 -24.2442 -1.2798
7.5196 -22.4722 -1.2030
5.0969 -13.5910 -0.7391
5.6421 -13.5456 -0.7496
5.1958 -11.3128 -0.6382
5.1982 -10.3244 -0.5948
5.2021 -9.4701 -0.5583
5.6541 -9.4712 -0.5724
6.1261 -9.4723 -0.5880
6.2051 -8.8789 -0.5673
6.2067 -8.2352 -0.5427
6.2080 -7.6498 -0.5212
6.2093 -7.1138 -0.5022
6.2105 -6.6199 -0.4854
6.2129 -6.1636 -0.4707
6.2146 -5.7377 -0.4576
6.2161 -5.3390 -0.4460
6.2175 -4.9639 -0.4357
6.2153 -4.6070 -0.4263
6.2161 -4.2707 -0.4183
6.2169 -3.9506 -0.4112
6.2176 -3.6447 -0.4050
6.2183 -3.3513 -0.3996
6.2190 -3.0689 -0.3950
6.2196 -2.7964 -0.3911
6.2202 -2.5324 -0.3878
6.2208 -2.2760 -0.3852
6.2214 -2.0262 -0.3832
2.2575 -0.6466 -0.1385
2.2873 -0.5672 -0.1400
5.0729 -1.0662 -0.3100
5.0734 -0.8775 -0.3101
5.0738 -0.6911 -0.3106
5.0742 -0.5064 -0.3115
5.0747 -0.3230 -0.3128
5.0751 -0.1404 -0.3145
5.1066 0.0420 -0.3185
6.7282 0.2972 -0.4229
6.7267 0.5396 -0.4267
6.7251 0.7833 -0.4310
6.7235 1.0289 -0.4358
6.7219 1.2771 -0.4413
6.7222 1.5291 -0.4475
6.7229 1.7854 -0.4544
6.0238 1.8336 -0.4140
5.3439 1.8387 -0.3738
5.2276 2.0114 -0.3727
5.2281 2.2303 -0.3805
5.2286 2.4560 -0.3890
5.2292 2.6895 -0.3982
5.2298 2.9319 -0.4082
5.2304 3.1843 -0.4192
5.2310 3.4481 -0.4311
5.2317 3.7248 -0.4441
5.2324 4.0160 -0.4584
8.4929 7.0174 -0.7693
8.3007 7.3759 -0.7789
7.9951 7.6356 -0.7789
7.6831 7.8844 -0.7789
7.4636 8.2308 -0.7894
7.2312 8.5742 -0.7999
7.0537 9.0010 -0.8186
7.2847 10.0169 -0.8897
6.8510 10.1694 -0.8838
6.4966 10.4334 -0.8886
6.1616 10.7367 -0.8976
6.0443 11.4679 -0.9426
7.4299 15.4152 -1.2474
7.4336 16.9544 -1.3526
7.0860 17.8826 -1.4085
6.4706 18.2144 -1.4181
6.0036 19.0426 -1.4674
6.2558 22.6499 -1.7296
5.6109 23.5864 -1.7869
6.1638 30.7838 -2.3166
6.9672 42.7157 -3.1965
6.9182 54.7253 -4.0768
-8.8748 98.5100 -7.3092
-11.3626 89.8589 -6.6883
-14.6693 89.9193 -6.7212
-18.0222 89.9937 -6.7630
-13.9540 58.6496 -4.4362
-14.5158 52.5498 -4.0054
-15.2961 48.5117 -3.7304
-16.8369 47.3905 -3.6811
-17.5222 44.2158 -3.4735
-15.9821 36.4491 -2.8997
-16.1551 33.5153 -2.7038
-16.1618 30.6619 -2.5118
-15.8760 27.6627 -2.3045
-16.2228 26.0523 -2.2105
-16.2275 24.0863 -2.0848
-16.3480 22.4784 -1.9882
-16.2355 20.7164 -1.8757
-16.3553 19.3922 -1.8008
-15.9500 17.5888 -1.6786
-17.1419 17.5901 -1.7290
-18.4223 17.5931 -1.7853
-19.8033 17.5964 -1.8481
-21.3013 17.6000 -1.9184
-22.9361 17.6038 -1.9975
-24.7323 17.6081 -2.0868
-23.1445 15.2558 -1.8954
-23.1472 14.0921 -1.8430
-23.1499 12.9780 -1.7950
-23.1524 11.9077 -1.7509
-23.1549 10.8761 -1.7105
-23.1573 9.8785 -1.6734
-24.9908 9.6155 -1.7690
-24.9932 8.5996 -1.7355
-24.9956 7.6084 -1.7048
-24.9979 6.6385 -1.6769
-23.1676 5.2699 -1.5304
-23.2812 4.4233 -1.5165
-22.8973 3.5040 -1.4725
-15.8295 1.8437 -1.0062
-23.1763 1.8591 -1.4581
-23.2893 1.0287 -1.4520
-23.1803 0.1910 -1.4339
-9.0649 -0.2508 -0.5570
-9.0656 -0.5770 -0.5541
-9.0664 -0.9047 -0.5519
-9.0672 -1.2349 -0.5504
-9.0680 -1.5683 -0.5496
-9.0688 -1.9059 -0.5496
-9.0696 -2.2488 -0.5503
-9.0704 -2.5978 -0.5517
-9.0713 -2.9542 -0.5540
-9.0721 -3.3190 -0.5571
-9.0730 -3.6937 -0.5610
-9.0739 -4.0795 -0.5659
-9.0749 -4.4781 -0.5717
-9.0759 -4.8911 -0.5786
-9.0769 -5.3205 -0.5866
-9.0779 -5.7684 -0.5957
-9.0791 -6.2374 -0.6062
-9.0802 -6.7302 -0.6182
-9.0815 -7.2501 -0.6317
-9.0828 -7.8008 -0.6469
-12.1583 -11.2249 -0.8889
-11.8145 -11.7200 -0.8889
-11.5216 -12.2805 -0.8946
-11.2699 -12.9108 -0.9056
-11.1133 -13.6935 -0.9272
-10.6861 -14.1779 -0.9289
-9.8110 -14.0376 -0.8918
-9.1200 -14.1006 -0.8706
-9.1228 -15.2806 -0.9187
-9.1260 -16.6123 -0.9746
-9.1296 -18.1315 -1.0399
-9.1338 -19.8853 -1.1171
-18.7228 -44.9465 -2.4777
-20.8729 -55.6529 -3.0158
-18.8862 -56.4351 -3.0115
-16.4389 -55.6853 -2.9312
-15.0331 -58.5868 -3.0472
-15.8038 -72.2673 -3.7201
-15.0827 -83.1616 -4.2440
-9.3426 -64.6412 -3.2757
-7.2434 -67.0229 -3.3781
-0.0008 -81.6127 -2.2454
2.0212 -56.3087 -1.5512
4.0075 -55.7420 -1.5404
3.1376 -29.0316 -0.8062
4.0116 -27.7534 -0.7760
4.7506 -26.1898 -0.7386
5.6219 -25.7037 -0.7326
6.5972 -25.7061 -0.7418
7.1585 -24.2442 -0.7097
7.4038 -22.1194 -0.6580
5.0982 -13.5904 -0.4117
5.6438 -13.5456 -0.4186
5.1959 -11.3093 -0.3573
5.1982 -10.3212 -0.3340
5.2037 -9.4701 -0.3146
5.6560 -9.4712 -0.3236
6.1282 -9.4723 -0.3335
6.2115 -8.8850 -0.3232
6.2823 -8.3327 -0.3138
6.2837 -7.7403 -0.3025
6.2093 -7.1112 -0.2891
6.2105 -6.6174 -0.2806
6.2116 -6.1599 -0.2731
6.2126 -5.7336 -0.2666
6.2136 -5.3346 -0.2609
6.2204 -4.9641 -0.2562
6.2153 -4.6049 -0.2517
6.2161 -4.2687 -0.2481
6.2169 -3.9486 -0.2450
6.2176 -3.6427 -0.2423
6.2183 -3.3493 -0.2402
6.2190 -3.0670 -0.2385
6.2196 -2.7945 -0.2372
6.2202 -2.5306 -0.2362
6.2209 -2.2742 -0.2357
6.2214 -2.0245 -0.2355
2.2568 -0.6458 -0.0855
2.2878 -0.5667 -0.0868
5.0729 -1.0648 -0.1930
5.0734 -0.8761 -0.1939
5.0738 -0.6897 -0.1950
5.0742 -0.5050 -0.1964
5.0747 -0.3217 -0.1980
5.0751 -0.1391 -0.1999
5.1071 0.0434 -0.2032
6.7281 0.2990 -0.2709
6.7266 0.5414 -0.2743
6.7250 0.7851 -0.2781
6.7234 1.0307 -0.2823
2.2291 0.4241 -0.0951
2.1749 0.4953 -0.0944
6.7210 1.7867 -0.2973
6.0184 1.8337 -0.2715
5.3396 1.8388 -0.2460
5.2276 2.0129 -0.2462
5.2281 2.2318 -0.2521
5.2286 2.4575 -0.2585
5.2292 2.6911 -0.2654
5.2298 2.9335 -0.2728
5.2304 3.1860 -0.2808
5.2310 3.4498 -0.2896
5.2317 3.7265 -0.2991
5.2324 4.0178 -0.3094
9.3335 7.7152 -0.5719
8.6815 7.7174 -0.5523
8.4952 8.1162 -0.5623
8.3498 8.5716 -0.5762
7.7711 8.5730 -0.5605
7.2287 8.5743 -0.5464
7.0537 9.0040 -0.5602
7.2826 10.0173 -0.6097
6.8743 10.2071 -0.6088
6.5163 10.4684 -0.6128
6.1607 10.7384 -0.6178
6.0443 11.4712 -0.6497
7.4299 15.4197 -0.8608
7.3963 16.8740 -0.9297
7.0842 17.8829 -0.9736
6.5064 18.3200 -0.9868
5.9681 18.9347 -1.0102
6.2580 22.6635 -1.1990
7.1295 29.9777 -1.5745
6.1462 30.7035 -1.6025
6.9705 42.7461 -2.2195
6.9399 54.9095 -2.8392
7.0985 78.8370 -4.0635
-11.3388 89.6998 -4.6322
-11.4475 70.1922 -3.6387
-12.5734 62.8043 -3.2716
-13.9997 58.8597 -3.0842
-14.4976 52.4996 -2.7701
-15.3679 48.7540 -2.5933
-16.8318 47.3904 -2.5440
-17.6058 44.4404 -2.4104
-15.9772 36.4490 -1.9999
-16.1550 33.5257 -1.8632
-16.1618 30.6716 -1.7288
-15.8760 27.6715 -1.5839
-16.2228 26.0608 -1.5171
-16.2275 24.0943 -1.4287
-16.3480 22.4860 -1.3602
-16.2355 20.7237 -1.2811
-16.3428 19.3843 -1.2268
-15.9499 17.5953 -1.1422
-17.1353 17.5901 -1.1737
-18.4150 17.5931 -1.2094
-19.7951 17.5964 -1.2492
-21.2921 17.5999 -1.2937
-22.9258 17.6038 -1.3438
-24.7206 17.6081 -1.4004
-23.1445 15.2633 -1.2693
-23.1472 14.0995 -1.2310
-23.1499 12.9852 -1.1956
-23.1956 11.9370 -1.1651
-23.1980 10.9033 -1.1348
-23.2004 9.9037 -1.1069
-25.0340 9.6393 -1.1663
-25.0364 8.6216 -1.1405
-25.0388 7.6286 -1.1167
-25.0411 6.6570 -1.0947
-23.2114 5.2863 -0.9958
-23.2135 4.4168 -0.9785
-23.2155 3.5590 -0.9626
-23.2175 2.7104 -0.9481
-23.2195 1.8688 -0.9349
-23.2215 1.0319 -0.9229
-23.2235 0.1976 -0.9122
-9.0649 -0.2484 -0.3523
-9.0656 -0.5746 -0.3490
-9.0664 -0.9023 -0.3462
-9.0672 -1.2324 -0.3438
-9.0680 -1.5658 -0.3419
-9.0688 -1.9035 -0.3404
-9.0696 -2.2463 -0.3393
-9.0704 -2.5953 -0.3388
-9.0713 -2.9516 -0.3386
-9.0721 -3.3165 -0.3390
-9.0730 -3.6911 -0.3399
-9.0739 -4.0769 -0.3413
-9.0749 -4.4754 -0.3433
-9.0758 -4.8883 -0.3459
-9.0769 -5.3177 -0.3491
-9.0779 -5.7656 -0.3530
-9.0791 -6.2345 -0.3576
-9.0802 -6.7272 -0.3631
-9.0814 -7.2470 -0.3694
-9.0828 -7.7976 -0.3768
-13.0607 -12.0533 -0.5538
-12.5538 -12.4488 -0.5455
-12.1154 -12.9088 -0.5411
-11.2738 -12.9108 -0.5191
-11.1133 -13.6889 -0.5293
-10.6895 -14.1778 -0.5284
-9.8141 -14.0376 -0.5056
-9.1200 -14.0963 -0.4917
-9.1228 -15.2760 -0.5172
-9.1260 -16.6074 -0.5469
-9.1296 -18.1262 -0.5819
-9.1338 -19.8797 -0.6234
-18.6505 -44.7606 -1.3738
-18.6624 -49.7457 -1.4974
-18.5322 -55.3626 -1.6375
-16.5659 -56.1009 -1.6337
-17.6204 -68.6525 -1.9721
-15.3658 -70.2468 -1.9943
-16.9488 -93.4283 -2.6263
-9.3448 -64.6415 -1.8026
-7.2442 -67.0155 -1.8573
-4.8139 -66.9406 -1.8473
2.1426 -59.6644 -0.2987
3.1377 -29.0224 -0.1484
4.0126 -27.7520 -0.1443
4.7518 -26.1884 -0.1390
5.0764 -23.2026 -0.1263
5.9570 -23.2047 -0.1299
7.1062 -24.0599 -0.1392
7.1129 -21.2439 -0.1273
5.1432 -13.7061 -0.0854
5.6455 -13.5456 -0.0881
5.2033 -11.3221 -0.0770
5.3908 -10.7002 -0.0764
5.2054 -9.4701 -0.0711
5.6578 -9.4712 -0.0751
6.1302 -9.4723 -0.0794
6.2117 -8.8823 -0.0789
6.2823 -8.3298 -0.0787
6.2837 -7.7375 -0.0779
6.2093 -7.1086 -0.0764
6.2105 -6.6149 -0.0761
6.2116 -6.1575 -0.0760
6.2126 -5.7313 -0.0761
6.2136 -5.3324 -0.0764
6.2203 -4.9618 -0.0769
6.2153 -4.6028 -0.0774
6.2161 -4.2666 -0.0782
6.2169 -3.9466 -0.0790
6.1679 -3.6117 -0.0793
6.1686 -3.3207 -0.0804
6.1693 -3.0407 -0.0816
6.2196 -2.7927 -0.0835
6.2202 -2.5288 -0.0849
6.2209 -2.2724 -0.0864
6.2214 -2.0227 -0.0880
2.2563 -0.6450 -0.0325
2.2884 -0.5662 -0.0337
5.0729 -1.0634 -0.0762
5.0734 -0.8747 -0.0779
5.0738 -0.6883 -0.0796
5.0742 -0.5036 -0.0815
5.0747 -0.3203 -0.0834
5.0751 -0.1377 -0.0854
5.2285 0.0459 -0.0902
6.7280 0.3008 -0.1191
6.7264 0.5432 -0.1222
6.7249 0.7869 -0.1255
6.7233 1.0325 -0.1289
2.2290 0.4247 -0.0440
2.0645 0.4707 -0.0419
6.7190 1.7881 -0.1405
6.0130 1.8337 -0.1296
5.3353 1.8388 -0.1186
5.2276 2.0144 -0.1200
5.2281 2.2333 -0.1240
5.2286 2.4591 -0.1282
5.2292 2.6927 -0.1328
5.2298 2.9351 -0.1376
5.2304 3.1876 -0.1428
5.2310 3.4515 -0.1483
5.2317 3.7282 -0.1543
5.2324 4.0195 -0.1607
9.3304 7.7158 -0.2988
8.6788 7.7180 -0.2903
8.4952 8.1193 -0.2974
8.3467 8.5716 -0.3063
7.7683 8.5730 -0.2995
7.2262 8.5743 -0.2934
7.0538 9.0070 -0.3023
7.2805 10.0176 -0.3304
6.8728 10.2082 -0.3312
6.5150 10.4694 -0.3347
6.1598 10.7401 -0.3386
6.0443 11.4746 -0.3573
7.4299 15.4240 -0.4748
7.3965 16.8792 -0.5142
7.0824 17.8832 -0.5397
6.4916 18.2834 -0.5472
5.9675 18.9380 -0.5625
6.2567 22.6647 -0.6687
7.1308 29.9904 -0.8798
6.1651 30.8054 -0.8992
6.9452 42.6012 -1.2383
6.9215 54.7762 -1.5868
7.1080 78.9592 -2.2814
-11.3194 89.5746 -2.5891
-11.4446 70.1961 -2.0345
-12.5587 62.7501 -1.8251
-13.9601 58.7108 -1.7151
-14.3544 51.9964 -1.5268
-15.2968 48.5430 -1.4340
-16.8306 47.4014 -1.4099
-17.5141 44.2225 -1.3257
-15.9723 36.4490 -1.1022
-16.1550 33.5361 -1.0241
-16.1618 30.6812 -0.9470
-15.8760 27.6804 -0.8646
-16.2228 26.0693 -0.8250
-16.2275 24.1023 -0.7737
-16.2317 22.3337 -0.7282
-16.2355 20.7309 -0.6875
-16.2389 19.2681 -0.6510
-15.9499 17.6018 -0.6068
-17.1287 17.5901 -0.6198
-18.4076 17.5931 -0.6349
-19.7869 17.5964 -0.6518
-21.2829 17.5999 -0.6707
-22.9154 17.6038 -0.6919
-24.7089 17.6080 -0.7159
-23.1876 15.2993 -0.6455
-25.4736 15.5246 -0.6823
-23.1930 13.0166 -0.5983
-34.2390 17.6307 -0.8517
-26.7407 12.5764 -0.6421
-23.2004 9.9105 -0.5382
-30.4106 11.7184 -0.6823
-26.1986 9.0293 -0.5689
-26.2011 7.9902 -0.5511
-26.2035 6.9733 -0.5344
-23.2114 5.2927 -0.4592
-30.1747 5.7496 -0.5796
-34.8167 5.3470 -0.6498
-41.9588 4.9096 -0.7613
-23.2195 1.8751 -0.4099
-30.4805 1.3627 -0.5238
-40.7808 0.3579 -0.6827
-9.0649 -0.2459 -0.1479
-9.0656 -0.5721 -0.1443
-10.0436 -0.9968 -0.1560
-10.0444 -1.3625 -0.1524
-10.0453 -1.7319 -0.1490
-10.0462 -2.1059 -0.1457
-10.0471 -2.4856 -0.1427
-10.0480 -2.8722 -0.1398
-10.0489 -3.2669 -0.1370
-10.0498 -3.6710 -0.1344
-10.0508 -4.0860 -0.1320
-10.0519 -4.5133 -0.1298
-10.0529 -4.9547 -0.1277
-10.0540 -5.4121 -0.1259
-10.0551 -5.8877 -0.1241
-10.0563 -6.3838 -0.1226
-10.0575 -6.9032 -0.1213
-9.5171 -7.0478 -0.1137
-9.0814 -7.2440 -0.1076
-9.0827 -7.7945 -0.1070
-13.0656 -12.0532 -0.1534
-12.5538 -12.4442 -0.1472
-11.8990 -12.6737 -0.1397
-11.0723 -12.6756 -0.1305
-10.9384 -13.4690 -0.1299
-10.6930 -14.1778 -0.1284
-9.9201 -14.1847 -0.1210
-9.8931 -15.2865 -0.1230
-9.8949 -16.5638 -0.1262
-9.8969 -18.0051 -0.1301
-9.8992 -19.6486 -0.1352
-19.0191 -41.3835 -0.2717
-18.7463 -44.9780 -0.2828
-18.6820 -49.7844 -0.3006
-19.8328 -59.2325 -0.3448
-18.4787 -84.4570 -0.4501
-12.1178 -66.7815 -0.3483
-9.3311 -64.5322 -0.3307
-7.2033 -66.6229 -0.3369
-4.8046 -66.7989 -0.3347
-2.3996 -66.8046 -0.3332
2.9716 -82.7138 1.4500
3.1377 -29.0132 0.5089
4.0136 -27.7505 0.4872
4.7530 -26.1871 0.4604
5.0968 -23.2889 0.4102
5.9959 -23.3490 0.4122
7.5954 -25.7084 0.4551
7.4038 -22.1062 0.3925
7.4095 -19.7396 0.3518
5.9124 -14.1817 0.2538
5.3783 -11.6992 0.2104
5.8965 -11.7004 0.2116
5.2070 -9.4701 0.1723
5.6596 -9.4712 0.1734
6.1322 -9.4723 0.1747
6.2119 -8.8796 0.1651
6.2823 -8.3269 0.1563
6.2837 -7.7348 0.1466
6.2093 -7.1060 0.1361
6.2105 -6.6125 0.1282
6.2116 -6.1551 0.1209
6.2126 -5.7290 0.1142
6.2136 -5.3301 0.1080
6.2202 -4.9596 0.1022
6.2153 -4.6007 0.0967
6.2161 -4.2646 0.0916
6.2169 -3.9446 0.0868
6.2176 -3.6388 0.0823
6.2197 -3.3463 0.0780
6.2203 -3.0639 0.0739
6.2208 -2.7914 0.0700
6.2213 -2.5274 0.0663
6.2209 -2.2706 0.0627
6.2215 -2.0209 0.0593
2.2557 -0.6442 0.0203
2.2890 -0.5657 0.0194
5.0729 -1.0620 0.0405
5.0734 -0.8733 0.0381
5.0738 -0.6869 0.0357
5.0742 -0.5023 0.0334
5.0747 -0.3189 0.0311
5.0751 -0.1364 0.0289
5.9834 0.0541 0.0315
7.4201 0.3337 0.0359
7.4184 0.6010 0.0328
7.4166 0.8698 0.0298
7.4149 1.1407 0.0268
2.2289 0.4253 0.0071
2.0169 0.4605 0.0056
6.8656 1.8290 0.0165
6.0078 1.8338 0.0120
5.3312 1.8389 0.0085
6.0182 2.3208 0.0071
6.0188 2.5728 0.0047
6.0195 2.8328 0.0022
6.0201 3.1017 -0.0003
6.0208 3.3809 -0.0029
6.0215 3.6716 -0.0056
6.0222 3.9754 -0.0082
5.8227 4.1513 -0.0107
5.3130 4.0833 -0.0123
9.3263 7.7156 -0.0261
8.6752 7.7179 -0.0287
8.4952 8.1224 -0.0327
8.1149 8.3365 -0.0358
7.5527 8.3379 -0.0379
7.0257 8.3391 -0.0397
6.8789 8.7866 -0.0435
6.8805 9.4703 -0.0486
6.8714 10.2092 -0.0540
6.5136 10.4704 -0.0569
6.1590 10.7418 -0.0597
6.0443 11.4779 -0.0652
7.4299 15.4285 -0.0892
7.3967 16.8844 -0.0991
7.0806 17.8835 -0.1064
6.5036 18.3220 -0.1103
5.9670 18.9413 -0.1152
6.2555 22.6660 -0.1391
7.1291 29.9907 -0.1853
6.1640 30.8075 -0.1914
6.9694 42.7599 -0.2669
6.9423 54.9536 -0.3441
7.1078 78.9724 -0.4955
-11.3317 89.6999 -0.5559
-7.8845 48.3745 -0.2979
-12.5656 62.8034 -0.3839
-14.0016 58.9028 -0.3567
-14.4884 52.4977 -0.3146
-15.3714 48.7944 -0.2889
-16.8255 47.4013 -0.2768
-17.5836 44.4113 -0.2552
-15.8557 36.1941 -0.2043
-15.8634 32.9410 -0.1822
-15.8701 30.1370 -0.1629
-15.8759 27.6892 -0.1458
-15.9309 25.6086 -0.1310
-15.9355 23.6765 -0.1171
-15.9396 21.9394 -0.1044
-15.9434 20.3651 -0.0927
-6.7357 7.9950 -0.0346
-15.9499 17.6083 -0.0718
-17.1221 17.5900 -0.0668
-18.4003 17.5931 -0.0614
-19.7788 17.5963 -0.0553
-21.2738 17.5999 -0.0486
-22.9052 17.6038 -0.0410
-24.6973 17.6080 -0.0325
-23.1876 15.3069 -0.0198
-26.1821 15.9648 -0.0107
-23.1930 13.0238 0.0007
-34.2186 17.6306 0.0157
-26.7236 12.5763 0.0234
-23.2004 9.9174 0.0300
-32.6490 12.5904 0.0555
-26.1986 9.0368 0.0552
-26.2011 7.9976 0.0658
-26.2035 6.9806 0.0763
-23.2114 5.2991 0.0769
-30.1308 5.7495 0.1120
-34.8167 5.3564 0.1435
-42.6214 4.9987 0.1931
-23.2195 1.8813 0.1147
-30.4805 1.3709 0.1633
-43.7024 0.3953 0.2526
-9.0649 -0.2435 0.0563
-9.0656 -0.5697 0.0603
-10.0433 -0.9941 0.0712
-10.0441 -1.3598 0.0758
-10.0450 -1.7291 0.0806
-10.0459 -2.1031 0.0854
-10.0467 -2.4828 0.0904
-10.0477 -2.8694 0.0956
-10.0486 -3.2640 0.1009
-10.0495 -3.6681 0.1065
-10.0505 -4.0830 0.1123
-10.0515 -4.5102 0.1183
-10.0525 -4.9516 0.1246
-10.0536 -5.4089 0.1313
-10.0547 -5.8844 0.1382
-10.0559 -6.3804 0.1456
-10.0571 -6.8997 0.1534
-9.5213 -7.0478 0.1531
-9.0814 -7.2409 0.1539
-9.0827 -7.7913 0.1625
-13.0704 -12.0529 0.2470
-12.5538 -12.4395 0.2508
-11.9033 -12.6737 0.2518
-11.0761 -12.6756 0.2485
-10.9384 -13.4645 0.2608
-10.6965 -14.1778 0.2715
-9.9232 -14.1847 0.2689
-9.8931 -15.2817 0.2870
-9.8949 -16.5588 0.3083
-9.8969 -17.9998 0.3325
-9.8992 -19.6430 0.3603
-18.2385 -39.6737 0.7229
-18.2389 -43.7485 0.7924
-18.2505 -48.6214 0.8760
-29.8814 -89.2199 1.5997
-12.1490 -66.9378 1.1831
-9.3493 -64.6429 1.1398
-7.2521 -67.0597 1.1800
-2.6326 -36.5943 0.6429
-2.4054 -66.9610 1.1751
0.0004 -53.9487 2.1621
1.9386 -53.9367 2.1621
3.8773 -53.8758 2.1621
3.1377 -29.0040 1.1663
4.0147 -27.7491 1.1192
4.7542 -26.1857 1.0603
5.0983 -23.2889 0.9476
5.9899 -23.3185 0.9543
7.5977 -25.7084 1.0593
7.4039 -22.0996 0.9177
7.4095 -19.7336 0.8268
7.4141 -17.7783 0.7524
5.3799 -11.6992 0.5006
5.8984 -11.7004 0.5069
5.2087 -9.4701 0.4159
5.6615 -9.4712 0.4221
6.1343 -9.4724 0.4291
6.2121 -8.8769 0.4093
6.2823 -8.3240 0.3912
6.2837 -7.7321 0.3711
6.2093 -7.1034 0.3487
6.2105 -6.6100 0.3326
6.2116 -6.1527 0.3179
6.2126 -5.7267 0.3046
6.2136 -5.3279 0.2924
6.2201 -4.9573 0.2815
6.2153 -4.5985 0.2709
6.2161 -4.2625 0.2614
6.2169 -3.9426 0.2527
6.2176 -3.6368 0.2446
6.2230 -3.3461 0.2372
6.2235 -3.0637 0.2302
6.2240 -2.7910 0.2237
6.2245 -2.5269 0.2177
6.2209 -2.2689 0.2119
6.2215 -2.0191 0.2066
2.2551 -0.6434 0.0731
2.2895 -0.5652 0.0726
6.2232 -1.3011 0.1929
6.2237 -1.0696 0.1890
6.6202 -0.8945 0.1971
5.9448 -0.5868 0.1737
5.9453 -0.3720 0.1706
5.9458 -0.1582 0.1678
6.1186 0.0570 0.1700
7.4201 0.3357 0.2033
7.4184 0.6030 0.2005
7.4167 0.8718 0.1980
7.4149 1.1427 0.1957
2.2288 0.4259 0.0582
1.9809 0.4528 0.0513
6.8609 1.8296 0.1764
6.0027 1.8339 0.1534
5.3271 1.8390 0.1354
6.0182 2.3225 0.1524
6.0188 2.5745 0.1521
6.0195 2.8345 0.1520
6.0201 3.1035 0.1522
6.0208 3.3827 0.1526
6.0215 3.6735 0.1533
6.0222 3.9773 0.1543
5.8195 4.1508 0.1503
5.3102 4.0829 0.1386
9.3223 7.7155 0.2464
8.6716 7.7177 0.2327
8.4953 8.1255 0.2321
8.1119 8.3366 0.2262
7.5500 8.3379 0.2155
7.0233 8.3391 0.2059
6.8789 8.7895 0.2078
6.8806 9.4734 0.2151
6.7951 10.0991 0.2207
6.4274 10.3349 0.2180
6.1581 10.7435 0.2191
5.9257 11.2560 0.2226
6.5636 13.6332 0.2620
6.6525 15.1899 0.2843
6.6954 16.9153 0.3091
6.4463 18.1654 0.3247
5.9665 18.9446 0.3321
6.2542 22.6672 0.3905
6.1479 25.8695 0.4390
6.1629 30.8097 0.5162
6.4582 39.6323 0.6570
6.5347 51.7381 0.8505
6.6853 74.2931 1.2138
3.0085 55.8153 0.9084
-11.3123 89.5745 1.4783
-7.8844 48.3892 0.8062
-12.5735 62.8616 1.0596
-13.6642 57.5008 0.9829
-15.0223 54.4485 0.9458
-15.2920 48.5569 0.8591
-15.8277 44.6037 0.8055
-17.0992 43.2009 0.7981
-16.1471 36.8705 0.6984
-16.1550 33.5568 0.6532
-16.1617 30.7005 0.6154
-16.1656 28.2034 0.5836
-16.2228 26.0863 0.5585
-16.2274 24.1183 0.5355
-16.2316 22.3489 0.5158
-6.2587 7.9973 0.1923
-6.7362 7.9985 0.2009
-16.2421 17.9375 0.4719
-17.1156 17.5900 0.4860
-18.3930 17.5931 0.5119
-19.7707 17.5963 0.5408
-21.2647 17.5999 0.5731
-17.8761 13.7448 0.4758
-17.8591 12.7386 0.4706
-19.0238 12.5644 0.4972
-26.1821 15.9731 0.6801
-23.1930 13.0311 0.5999
-34.1983 17.6306 0.8822
-26.7065 12.5763 0.6883
-23.2004 9.9242 0.5983
-32.6244 12.5903 0.8431
-26.1986 9.0443 0.6795
-26.2010 8.0049 0.6829
-26.2035 6.9879 0.6872
-23.2114 5.3055 0.6133
-30.0870 5.7494 0.8018
-34.8166 5.3659 0.9370
-43.0545 5.0612 1.1715
-23.2195 1.8876 0.6395
-30.4805 1.3791 0.8506
-43.0272 0.4007 1.2180
-9.0649 -0.2411 0.2606
-9.0656 -0.5672 0.2649
-10.0430 -0.9914 0.2986
-10.0438 -1.3570 0.3042
-10.0447 -1.7263 0.3102
-10.0456 -2.1002 0.3166
-10.0464 -2.4799 0.3235
-10.0473 -2.8665 0.3310
-10.0483 -3.2611 0.3389
-10.0492 -3.6651 0.3475
-10.0502 -4.0799 0.3566
-10.0512 -4.5071 0.3665
-10.0522 -4.9484 0.3771
-10.0533 -5.4057 0.3884
-10.0544 -5.8811 0.4007
-10.0555 -6.3770 0.4139
-10.0568 -6.8962 0.4281
-9.5255 -7.0478 0.4201
-9.0814 -7.2378 0.4156
-9.0827 -7.7882 0.4321
-13.0752 -12.0527 0.6477
-12.5537 -12.4348 0.6490
-11.9076 -12.6737 0.6438
-11.0800 -12.6756 0.6280
-10.9384 -13.4599 0.6516
-10.6999 -14.1777 0.6719
-9.9263 -14.1846 0.6591
-9.8931 -15.2770 0.6971
-9.8949 -16.5538 0.7429
-9.8969 -17.9945 0.7953
-9.8992 -19.6373 0.8558
-18.0117 -39.1695 1.6854
-16.9106 -40.5513 1.7248
-18.2504 -48.6082 2.0460
-17.3692 -51.8473 2.1621
-15.4493 -52.2790 2.1621
-13.5262 -52.6608 2.1621
-8.8799 -40.5655 1.6550
-9.6715 -53.2747 2.1621
-7.7405 -53.5075 2.1621
-5.8077 -53.6915 2.1621
-2.6331 -36.5943 1.4699
-1.9369 -53.9118 2.1621
0.0004 -34.3767 2.1539
1.2356 -34.3637 2.1539
2.4704 -34.3149 2.1539
3.1377 -28.9948 1.8245
4.0157 -27.7477 1.7522
4.7554 -26.1844 1.6611
5.0999 -23.2889 1.4859
5.9828 -23.2839 1.4957
7.5999 -25.7084 1.6646
7.4039 -22.0930 1.4436
7.4095 -19.7277 1.3024
7.4141 -17.7728 1.1870
5.3816 -11.6992 0.7914
5.9002 -11.7004 0.8028
5.2104 -9.4702 0.6599
5.6633 -9.4712 0.6713
6.1363 -9.4724 0.6839
6.2123 -8.8741 0.6537
6.2823 -8.3212 0.6265
6.2837 -7.7293 0.5959
6.2094 -7.1009 0.5616
6.2105 -6.6075 0.5372
6.2116 -6.1503 0.5152
6.2126 -5.7244 0.4952
6.2136 -5.3257 0.4770
6.2200 -4.9551 0.4609
6.2153 -4.5964 0.4453
6.2161 -4.2605 0.4315
6.2169 -3.9406 0.4187
6.2176 -3.6349 0.4071
6.2263 -3.3460 0.3968
6.2268 -3.0634 0.3869
6.2272 -2.7905 0.3778
6.2276 -2.5263 0.3694
6.2209 -2.2671 0.3613
6.2215 -2.0174 0.3542
2.2545 -0.6426 0.1260
2.2901 -0.5647 0.1258
6.2232 -1.2994 0.3363
6.2237 -1.0680 0.3314
6.6338 -0.8945 0.3485
5.9448 -0.5852 0.3084
5.9453 -0.3704 0.3050
5.9458 -0.1566 0.3020
6.2602 0.0599 0.3152
7.4202 0.3377 0.3708
7.4185 0.6050 0.3684
7.4167 0.8738 0.3664
7.4150 1.1447 0.3650
2.2287 0.4265 0.1094
1.9581 0.4481 0.0960
6.8561 1.8302 0.3363
5.9975 1.8340 0.2946
5.3230 1.8390 0.2623
6.0182 2.3242 0.2979
6.0188 2.5763 0.2998
6.0195 2.8363 0.3021
6.0201 3.1053 0.3049
6.0208 3.3845 0.3084
6.0215 3.6753 0.3124
6.0222 3.9792 0.3170
5.8162 4.1504 0.3114
5.3075 4.0825 0.2895
9.3183 7.7153 0.5191
8.6680 7.7176 0.4943
8.4953 8.1287 0.4971
8.1090 8.3366 0.4883
7.5473 8.3379 0.4690
7.0209 8.3392 0.4516
6.8789 8.7925 0.4595
6.8806 9.4764 0.4791
6.8685 10.2113 0.5005
6.5109 10.4724 0.4988
6.1572 10.7452 0.4983
6.0443 11.4847 0.5196
6.5802 13.6717 0.6047
6.0733 13.8713 0.6009
6.0261 15.2285 0.6474
5.9877 16.8777 0.7053
5.9660 18.9480 0.7799
6.2701 22.7305 0.9231
6.1251 25.7802 1.0347
5.4766 27.3855 1.0883
6.1956 38.0299 1.4989
6.2818 49.7473 1.9479
4.9383 54.8908 2.1390
2.3052 42.7737 1.6616
1.0379 57.8004 2.2421
-1.0362 57.7866 2.2421
-3.1068 57.6758 2.2421
-5.1687 57.4680 2.2421
-6.6069 52.3321 2.0525
-8.8207 54.1519 2.1388
-10.7506 53.7645 2.1421
-12.6401 53.2072 2.1421
-14.4763 52.4852 2.1388
-15.3680 48.8131 2.0170
-15.2096 42.8748 1.7996
-17.0935 43.1999 1.8452
-16.1470 36.8818 1.6060
-16.1549 33.5672 1.4930
-16.1617 30.7102 1.3978
-16.1624 28.2070 1.3164
-16.2227 26.0948 1.2512
-16.2274 24.1264 1.1910
-16.2316 22.3565 1.1386
-6.2637 8.0064 0.4216
-6.7337 7.9985 0.4366
-16.2421 17.9442 1.0176
-17.1090 17.5900 1.0390
-18.3857 17.5930 1.0854
-19.7625 17.5963 1.1372
-18.9939 15.7272 1.0679
-17.3747 13.3653 0.9568
-18.7661 13.3919 1.0143
-18.9225 12.5037 1.0060
-17.4121 10.6283 0.9123
-17.3688 9.7642 0.8985
-18.3096 9.4449 0.9369
-19.5852 9.2287 0.9930
-18.2453 7.8100 0.9181
-18.1080 6.9935 0.9057
-19.0567 6.5842 0.9489
-26.2010 8.0123 1.3007
-26.2035 6.9952 1.2988
-22.3327 5.1109 1.1067
-22.3347 4.2741 1.1081
-22.3367 3.4486 1.1109
-22.3386 2.6320 1.1152
-22.3405 1.8222 1.1208
-22.3424 1.0169 1.1280
-22.3444 0.2141 1.1365
-9.0649 -0.2386 0.4651
-9.0656 -0.5648 0.4698
-10.0427 -0.9886 0.5262
-10.0435 -1.3543 0.5328
-10.0444 -1.7235 0.5400
-10.0452 -2.0974 0.5481
-10.0461 -2.4771 0.5569
-10.0470 -2.8636 0.5666
-10.0480 -3.2582 0.5772
-10.0489 -3.6622 0.5888
-10.0499 -4.0769 0.6013
-10.0509 -4.5041 0.6150
-10.0519 -4.9453 0.6298
-10.0530 -5.4025 0.6459
-10.0540 -5.8778 0.6634
-10.0552 -6.3737 0.6825
-10.0564 -6.8927 0.7032
-9.5298 -7.0478 0.6877
-9.0814 -7.2348 0.6776
-9.0827 -7.7850 0.7020
-13.0800 -12.0524 1.0493
-12.5537 -12.4302 1.0476
-11.9119 -12.6736 1.0365
-11.0838 -12.6756 1.0082
-10.9384 -13.4554 1.0429
-10.7034 -14.1777 1.0730
-9.9295 -14.1846 1.0501
-9.8931 -15.2723 1.1078
-9.8949 -16.5488 1.1780
-9.8969 -17.9892 1.2587
-9.8992 -19.6317 1.3520
-15.1919 -33.0281 2.2421
-13.9588 -33.4636 2.2421
-12.7030 -33.8241 2.2396
-11.3324 -33.8185 2.2156
-9.9880 -33.7898 2.1930
-8.6663 -33.7314 2.1713
-7.3275 -33.4659 2.1390
-6.1134 -33.6670 2.1390
-4.8954 -33.8324 2.1390
-3.6744 -33.9622 2.1390
-2.4509 -34.0563 2.1390
-1.2260 -34.1205 2.1393
0.0005 -26.2896 2.2425
0.9380 -26.0757 2.2253
1.8023 -25.0251 2.1390
2.7018 -24.9582 2.1390
3.5994 -24.8635 2.1390
4.4840 -24.6827 2.1339
5.1014 -23.2889 2.0257
5.9848 -23.2848 2.0402
7.1412 -24.1494 2.1339
7.4039 -22.0864 1.9707
7.4095 -19.7217 1.7791
6.2718 -15.0300 1.3726
5.3833 -11.6992 1.0830
5.9021 -11.7004 1.0995
5.2120 -9.4702 0.9047
5.6652 -9.4712 0.9212
6.1383 -9.4724 0.9395
6.2125 -8.8714 0.8988
6.2823 -8.3183 0.8623
6.2837 -7.7266 0.8212
6.2094 -7.0983 0.7749
6.2105 -6.6050 0.7423
6.2116 -6.1479 0.7129
6.2126 -5.7221 0.6862
6.2136 -5.3234 0.6621
6.2199 -4.9528 0.6407
6.2153 -4.5943 0.6201
6.2161 -4.2584 0.6019
6.2169 -3.9386 0.5852
6.2176 -3.6329 0.5699
6.2297 -3.3459 0.5570
6.2300 -3.0631 0.5441
6.2304 -2.7901 0.5324
6.2308 -2.5258 0.5216
6.2209 -2.2653 0.5110
6.2215 -2.0156 0.5021
2.2539 -0.6418 0.1789
2.2906 -0.5642 0.1791
6.2232 -1.2977 0.4801
6.2237 -1.0662 0.4742
6.6475 -0.8945 0.5008
6.0835 -0.5972 0.4538
6.1062 -0.3788 0.4516
6.1067 -0.1592 0.4483
6.4088 0.0631 0.4676
7.4203 0.3397 0.5387
7.4185 0.6070 0.5366
7.4168 0.8758 0.5352
7.4150 1.1468 0.5345
2.2286 0.4271 0.1607
1.9404 0.4446 0.1401
1.9405 0.5185 0.1406
5.9924 1.8341 0.4360
5.3189 1.8391 0.3893
6.0183 2.3259 0.4437
6.0189 2.5780 0.4477
6.0195 2.8381 0.4525
6.0201 3.1071 0.4580
6.0208 3.3864 0.4644
6.0215 3.6772 0.4718
6.0222 3.9811 0.4802
5.8129 4.1500 0.4726
5.3047 4.0822 0.4406
9.3143 7.7152 0.7921
8.6644 7.7174 0.7562
8.4953 8.1318 0.7628
8.1060 8.3366 0.7508
7.5447 8.3379 0.7228
7.0185 8.3392 0.6976
6.8789 8.7954 0.7118
6.8806 9.4795 0.7437
6.7920 10.1007 0.7699
6.4249 10.3373 0.7671
6.1564 10.7469 0.7780
5.9654 11.3379 0.8022
6.5782 13.6715 0.9472
5.9851 13.6737 0.9294
6.0096 15.1909 1.0146
5.4952 15.4934 1.0186
5.3602 17.0285 1.1039
6.2517 22.6698 1.4515
6.1236 25.7802 1.6330
5.1551 25.7838 1.6183
5.5931 34.3399 2.1390
4.3615 34.5478 2.1390
3.1214 34.7029 2.1390
1.9658 36.4821 2.2421
0.6561 36.5328 2.2421
-0.6546 36.5273 2.2421
-1.9635 36.4657 2.2421
-3.2681 36.3481 2.2421
-4.5656 36.1750 2.2421
-5.8535 35.9466 2.2421
-6.8008 34.0216 2.1388
-8.0036 33.7007 2.1388
-7.3739 26.7428 1.7161
-10.3735 32.9592 2.1421
-9.9520 28.0625 1.8502
-12.6477 31.9738 2.1421
-13.7481 31.4120 2.1421
-14.8215 30.8063 2.1421
-15.8661 30.1579 2.1421
-16.1593 28.2105 2.0506
-16.2227 26.1033 1.9455
-16.2274 24.1344 1.8480
-16.2316 22.3642 1.7629
-16.2354 20.7599 1.6883
-16.2132 19.2652 1.6201
-16.2421 17.9508 1.5645
-17.1025 17.5900 1.5929
-18.3784 17.5930 1.6598
-19.1834 17.0878 1.6843
-18.7925 15.5671 1.6080
-17.3791 13.3747 1.4525
-17.7530 12.6749 1.4524
-18.8791 12.4812 1.5151
-17.3307 10.5841 1.3669
-17.2151 9.6831 1.3369
-17.9936 9.2874 1.3783
-19.2988 9.0995 1.4606
-17.7296 7.5945 1.3280
-17.6494 6.8215 1.3104
-18.6212 6.4391 1.3725
-20.1912 6.1803 1.4796
-26.2034 7.0026 1.9118
-22.3327 5.1171 1.6246
-22.3347 4.2802 1.6221
-22.3366 3.4547 1.6218
-22.3386 2.6381 1.6236
-22.3405 1.8282 1.6275
-22.3424 1.0229 1.6336
-22.3443 0.2201 1.6417
-9.0648 -0.2362 0.6701
-9.0656 -0.5624 0.6751
-10.0424 -0.9859 0.7543
-10.0432 -1.3515 0.7619
-10.0441 -1.7208 0.7704
-10.0449 -2.0946 0.7801
-10.0458 -2.4742 0.7909
-10.0467 -2.8607 0.8028
-10.0476 -3.2553 0.8160
-10.0486 -3.6592 0.8306
-10.0495 -4.0739 0.8465
-10.0505 -4.5010 0.8640
-10.0515 -4.9421 0.8831
-10.0526 -5.3993 0.9040
-10.0537 -5.8745 0.9268
-10.0548 -6.3703 0.9517
-10.0560 -6.8893 0.9789
-9.5340 -7.0477 0.9562
-9.0814 -7.2317 0.9402
-9.0827 -7.7818 0.9725
-13.0850 -12.0524 1.4522
-12.5539 -12.4257 1.4472
-11.9162 -12.6736 1.4304
-11.0877 -12.6756 1.3895
-10.9384 -13.4508 1.4352
-10.7069 -14.1777 1.4753
-9.9326 -14.1846 1.4422
-9.8931 -15.2675 1.5194
-9.8949 -16.5438 1.6142
-9.8969 -17.9838 1.7231
-9.8992 -19.6260 1.8494
-10.6039 -23.0469 2.1390
-9.7500 -23.3674 2.1390
-8.8884 -23.6606 2.1390
-8.0198 -23.9265 2.1390
-7.4920 -25.3389 2.2429
-6.5701 -25.5658 2.2434
-5.6426 -25.7642 2.2440
-4.7103 -25.9337 2.2445
-3.7737 -26.0742 2.2451
-2.8323 -26.1733 2.2446
-1.8889 -26.2414 2.2439
-0.9444 -26.2803 2.2432
0.0005 -20.7590 2.2427
0.7466 -20.7464 2.2424
1.4920 -20.7099 2.2421
2.1387 -19.7503 2.1442
2.8418 -19.6241 2.1390
3.5479 -19.5235 2.1390
4.2409 -19.3547 2.1339
4.9388 -19.2092 2.1339
5.6324 -19.0413 2.1339
6.3212 -18.8510 2.1339
7.0046 -18.6383 2.1339
6.2719 -15.0253 1.7422
5.3849 -11.6992 1.3758
5.9040 -11.7004 1.3974
5.2137 -9.4702 1.1504
5.6670 -9.4712 1.1721
6.1404 -9.4724 1.1961
6.2127 -8.8687 1.1446
6.2823 -8.3154 1.0989
6.2837 -7.7238 1.0472
6.2094 -7.0956 0.9890
6.2105 -6.6025 0.9480
6.2116 -6.1455 0.9112
6.2126 -5.7198 0.8779
6.2136 -5.3212 0.8478
6.2198 -4.9505 0.8211
6.2153 -4.5922 0.7955
6.2161 -4.2564 0.7729
6.2169 -3.9366 0.7522
6.2176 -3.6310 0.7333
6.2330 -3.3457 0.7178
6.2333 -3.0628 0.7020
6.2336 -2.7897 0.6876
6.2339 -2.5252 0.6745
6.2209 -2.2635 0.6612
6.2215 -2.0138 0.6504
2.2533 -0.6409 0.2320
2.2912 -0.5637 0.2327
6.2232 -1.2960 0.6243
6.2238 -1.0645 0.6174
6.6612 -0.8946 0.6543
6.0835 -0.5956 0.5925
6.3062 -0.3895 0.6097
6.3067 -0.1627 0.6060
6.5652 0.0664 0.6279
7.4203 0.3417 0.7072
7.4186 0.6090 0.7054
7.4169 0.8778 0.7046
7.4151 1.1488 0.7047
2.2285 0.4277 0.2122
2.2411 0.5141 0.2140
1.9334 0.5172 0.1854
5.9873 1.8342 0.5776
5.3148 1.8392 0.5165
6.0183 2.3277 0.5900
6.0189 2.5798 0.5962
6.0195 2.8399 0.6034
6.0201 3.1089 0.6116
6.0208 3.3882 0.6211
6.0215 3.6791 0.6318
6.0222 3.9831 0.6438
5.8097 4.1495 0.6341
5.3019 4.0818 0.5920
9.3104 7.7152 1.0659
8.6608 7.7173 1.0188
8.4953 8.1349 1.0294
8.1030 8.3366 1.0140
7.5420 8.3379 0.9774
7.0161 8.3392 0.9444
6.8789 8.7983 0.9648
6.8806 9.4826 1.0092
6.7904 10.1015 1.0456
6.4237 10.3386 1.0428
6.1555 10.7486 1.0586
5.9245 11.2636 1.0851
6.5763 13.6715 1.2907
5.9835 13.6737 1.2673
5.3936 13.6375 1.2429
5.3729 15.1528 1.3602
4.8974 15.5625 1.3783
6.2504 22.6710 1.9840
5.8645 24.6958 2.1390
4.9801 24.9147 2.1390
4.0868 25.0974 2.1390
3.1862 25.2435 2.1390
2.0960 23.3068 1.9664
1.4358 26.6501 2.2421
0.4793 26.6863 2.2421
-0.4779 26.6834 2.2421
-1.4340 26.6413 2.2421
-2.3872 26.5601 2.2421
-3.3359 26.4399 2.2421
-4.2782 26.2812 2.2421
-5.2126 26.0843 2.2421
-6.1033 25.7067 2.2297
-6.7258 24.3999 2.1388
-7.5847 24.1057 2.1388
-7.4743 21.0824 1.8964
-9.2596 23.4157 2.1388
-10.0726 23.0214 2.1388
-10.2008 21.2089 2.0076
-11.6612 22.1725 2.1421
-12.4176 21.6854 2.1421
-13.1522 21.1697 2.1421
-13.8640 20.6264 2.1421
-14.5519 20.0567 2.1421
-15.2150 19.4619 2.1421
-15.8523 18.8432 2.1421
-16.2420 17.9575 2.1133
-17.0464 17.5391 2.1421
-17.6018 16.8563 2.1421
-18.1285 16.1548 2.1421
-18.6260 15.4359 2.1421
-18.1868 14.0026 2.0403
-17.7918 12.7086 1.9512
-19.9392 13.1886 2.1421
-17.2149 10.5189 1.8151
-17.1672 9.6615 1.7798
-17.9546 9.2728 1.8335
-21.2602 10.0308 2.1421
-17.6770 7.5772 1.7601
-17.5988 6.8071 1.7345
-18.6028 6.4381 1.8175
-22.0839 6.7659 2.1421
-22.2126 5.9423 2.1421
-22.3108 5.1183 2.1421
-22.3347 4.2864 2.1378
-22.3366 3.4608 2.1344
-22.3386 2.6442 2.1338
-22.3405 1.8343 2.1359
-22.3424 1.0290 2.1408
-22.3443 0.2261 2.1485
-9.0648 -0.2338 0.8758
-9.0656 -0.5599 0.8811
-10.0421 -0.9831 0.9832
-10.0429 -1.3487 0.9917
-10.0438 -1.7180 1.0016
-10.0446 -2.0918 1.0128
-10.0455 -2.4714 1.0256
-10.0464 -2.8578 1.0398
-10.0473 -3.2523 1.0556
-10.0483 -3.6562 1.0732
-10.0492 -4.0709 1.0925
-10.0502 -4.4979 1.1138
-10.0512 -4.9390 1.1372
-10.0523 -5.3961 1.1629
-10.0533 -5.8712 1.1910
-10.0545 -6.3669 1.2218
-10.0557 -6.8858 1.2555
-9.5383 -7.0477 1.2258
-9.0814 -7.2286 1.2037
-9.0827 -7.7787 1.2440
-13.0901 -12.0524 1.8567
-12.5541 -12.4212 1.8482
-11.9205 -12.6736 1.8259
-11.0916 -12.6756 1.7724
-10.9384 -13.4463 1.8287
-10.7104 -14.1777 1.8792
-9.9358 -14.1846 1.8358
-9.8931 -15.2628 1.9324
-9.8949 -16.5388 2.0518
-9.6703 -17.5668 2.1390
-9.0164 -17.8706 2.1390
-6.6373 -14.4216 1.6993
-7.6848 -18.4127 2.1390
-7.0083 -18.6507 2.1390
-6.3255 -18.8667 2.1390
-5.9090 -19.9797 2.2421
-5.1826 -20.1617 2.2424
-4.4515 -20.3203 2.2427
-3.7160 -20.4544 2.2429
-2.9770 -20.5644 2.2430
-2.2351 -20.6504 2.2431
-1.4911 -20.7123 2.2432
-0.7456 -20.7479 2.2429
0.0005 -17.1311 2.2421
0.6165 -17.1223 2.2421
1.2319 -17.0934 2.2421
1.8300 -16.8938 2.2222
2.3459 -16.1947 2.1390
2.9284 -16.1097 2.1390
3.5082 -16.0056 2.1390
4.0751 -15.8451 2.1339
4.6465 -15.7034 2.1339
5.2135 -15.5429 2.1339
5.7757 -15.3637 2.1339
6.2718 -15.0207 2.1135
5.3866 -11.6992 1.6700
5.9058 -11.7004 1.6968
5.2154 -9.4702 1.3974
5.6689 -9.4712 1.4242
6.1424 -9.4724 1.4540
6.2052 -8.8549 1.3898
6.2103 -8.2173 1.3212
6.2158 -7.6375 1.2604
6.2094 -7.0931 1.2039
6.2105 -6.6000 1.1547
6.2116 -6.1431 1.1104
6.2127 -5.7174 1.0704
6.2136 -5.3189 1.0343
6.2197 -4.9483 1.0023
6.2153 -4.5901 0.9717
6.2161 -4.2543 0.9446
6.2169 -3.9345 0.9199
6.2176 -3.6290 0.8974
6.2364 -3.3456 0.8795
6.2366 -3.0625 0.8607
6.2369 -2.7893 0.8437
6.2371 -2.5247 0.8282
6.2209 -2.2617 0.8120
6.2215 -2.0120 0.7994
2.2527 -0.6401 0.2853
2.2918 -0.5632 0.2865
6.2232 -1.2942 0.7691
6.2238 -1.0628 0.7613
6.6751 -0.8946 0.8091
6.0835 -0.5939 0.7317
6.3062 -0.3878 0.7536
6.3067 -0.1609 0.7497
6.7302 0.0699 0.7970
7.4204 0.3437 0.8764
7.4186 0.6111 0.8750
7.4169 0.8799 0.8747
7.4153 1.1508 0.8756
2.2284 0.4283 0.2638
2.2385 0.5141 0.2661
1.9263 0.5158 0.2302
5.9821 1.8343 0.7196
5.3107 1.8393 0.6441
6.0183 2.3294 0.7369
6.0189 2.5816 0.7453
6.0195 2.8416 0.7549
6.0201 3.1107 0.7659
6.0208 3.3901 0.7783
6.0215 3.6810 0.7924
6.0222 3.9850 0.8082
5.8064 4.1491 0.7962
5.2991 4.0814 0.7439
9.3065 7.7152 1.3405
8.6572 7.7171 1.2823
8.4953 8.1380 1.2971
8.1000 8.3366 1.2781
7.5393 8.3379 1.2328
7.0136 8.3392 1.1920
6.8789 8.8013 1.2190
6.8806 9.4857 1.2758
6.8641 10.2145 1.3369
6.5068 10.4754 1.3369
6.1547 10.7503 1.3402
6.0440 11.4941 1.4025
6.5745 13.6715 1.6355
5.9818 13.6738 1.6065
5.4073 13.6759 1.5806
4.8667 13.7290 1.5635
4.8794 15.5092 1.7431
5.3072 19.2546 2.1390
4.6177 19.4504 2.1390
3.9205 19.6187 2.1390
3.2167 19.7592 2.1390
2.5076 19.8716 2.1390
1.8807 20.9174 2.2421
1.1299 20.9756 2.2421
0.3772 21.0039 2.2421
-0.3759 21.0021 2.2421
-1.1283 20.9702 2.2421
-1.8786 20.9084 2.2421
-2.6256 20.8168 2.2421
-3.3679 20.6955 2.2421
-4.1043 20.5449 2.2421
-4.8336 20.3653 2.2421
-5.5546 20.1570 2.2421
-6.1182 19.4507 2.1892
-6.6458 18.7511 2.1388
-7.3029 18.4732 2.1388
-7.9476 18.1701 2.1388
-8.5789 17.8422 2.1388
-9.1958 17.4903 2.1388
-9.7974 17.1152 2.1388
-10.3986 16.7429 2.1421
-10.9677 16.3229 2.1421
-11.5189 15.8819 2.1421
-12.0515 15.4209 2.1421
-12.5646 14.9406 2.1421
-13.0576 14.4421 2.1421
-13.5299 13.9263 2.1421
-13.9809 13.3941 2.1421
-14.4100 12.8464 2.1421
-14.8168 12.2844 2.1421
-15.2009 11.7089 2.1421
-15.5619 11.1210 2.1421
-15.8994 10.5217 2.1421
-16.2131 9.9120 2.1421
-16.5029 9.2929 2.1421
-16.7685 8.6654 2.1421
-17.0097 8.0305 2.1421
-17.2266 7.3893 2.1421
-17.4190 6.7426 2.1421
-17.5868 6.0916 2.1421
-17.7302 5.4371 2.1421
-17.8491 4.7800 2.1421
-18.2788 4.1984 2.1821
-18.3505 3.5269 2.1821
-18.3978 2.8556 2.1821
-15.9184 1.8886 1.8856
-18.4196 1.5174 2.1821
-18.3948 0.8521 2.1821
-18.3464 0.1906 2.1821
-9.0648 -0.2313 1.0824
-9.0656 -0.5575 1.0881
-10.0417 -0.9804 1.2130
-10.0426 -1.3460 1.2225
-10.0434 -1.7151 1.2337
-10.0443 -2.0890 1.2466
-10.0452 -2.4685 1.2612
-10.0461 -2.8549 1.2778
-10.0470 -3.2494 1.2963
-10.0479 -3.6532 1.3168
-10.0489 -4.0678 1.3396
-10.0499 -4.4948 1.3647
-10.0509 -4.9358 1.3924
-10.0519 -5.3928 1.4229
-10.0530 -5.8679 1.4563
-10.0541 -6.3635 1.4930
-10.0553 -6.8822 1.5333
-9.5425 -7.0477 1.4969
-9.0814 -7.2255 1.4683
-9.0827 -7.7755 1.5166
-11.9314 -10.9812 2.0621
-11.5013 -11.3753 2.0621
-11.1088 -11.8064 2.0713
-11.0955 -12.6756 2.1572
-10.7324 -13.1886 2.1821
-10.0287 -13.2709 2.1390
-9.5269 -13.5965 2.1390
-9.0156 -13.9047 2.1390
-8.4955 -14.1954 2.1390
-7.9669 -14.4683 2.1390
-7.4306 -14.7232 2.1390
-6.6321 -14.4063 2.0598
-6.3367 -15.1784 2.1390
-6.0589 -16.1197 2.2421
-5.4698 -16.3099 2.2421
-4.8754 -16.4806 2.2421
-4.2763 -16.6316 2.2421
-3.6731 -16.7628 2.2421
-3.0663 -16.8742 2.2421
-2.4566 -16.9656 2.2421
-1.8444 -17.0371 2.2421
-1.2305 -17.0885 2.2421
-0.6153 -17.1199 2.2421
0.0005 -14.5726 2.2421
0.5246 -14.5648 2.2421
1.0482 -14.5397 2.2421
1.5709 -14.4972 2.2421
1.9959 -13.7735 2.1390
2.4911 -13.7000 2.1390
2.9840 -13.6100 2.1390
3.4739 -13.5036 2.1390
3.9511 -13.3494 2.1339
4.4431 -13.2420 2.1390
4.9213 -13.0870 2.1390
5.2813 -12.6446 2.0940
5.3883 -11.6992 1.9659
5.9077 -11.7004 1.9979
5.2171 -9.4702 1.6458
5.6707 -9.4712 1.6778
6.1445 -9.4724 1.7134
6.2052 -8.8519 1.6377
6.2067 -8.2096 1.5565
6.2081 -7.6254 1.4844
6.2094 -7.0904 1.4200
6.2106 -6.5975 1.3624
6.2143 -6.1433 1.3112
6.2175 -5.7195 1.2650
6.2136 -5.3167 1.2218
6.2196 -4.9460 1.1845
6.2153 -4.5880 1.1488
6.2161 -4.2522 1.1172
6.2169 -3.9325 1.0885
6.2176 -3.6270 1.0624
6.2397 -3.3454 1.0422
6.2399 -3.0622 1.0205
6.2401 -2.7889 1.0008
6.2396 -2.5238 0.9828
6.2209 -2.2598 0.9637
6.2215 -2.0103 0.9492
2.2520 -0.6393 0.3389
2.2923 -0.5626 0.3407
6.2232 -1.2925 0.9147
6.2238 -1.0611 0.9059
6.6891 -0.8946 0.9654
6.0835 -0.5923 0.8717
6.5061 -0.3983 0.9268
6.5067 -0.1643 0.9226
6.9046 0.0736 0.9757
7.4204 0.3457 1.0465
7.4187 0.6131 1.0454
7.4170 0.8819 1.0457
7.4165 1.1531 1.0476
2.2284 0.4289 0.3158
1.9326 0.4444 0.2751
1.9331 0.5182 0.2768
5.9769 1.8344 0.8621
5.3066 1.8394 0.7721
6.0183 2.3311 0.8846
6.0189 2.5833 0.8952
6.0195 2.8434 0.9072
6.0201 3.1126 0.9210
6.0208 3.3919 0.9365
6.0215 3.6829 0.9539
6.0222 3.9869 0.9734
5.8031 4.1487 0.9589
5.2963 4.0810 0.8965
9.3026 7.7152 1.6165
8.6535 7.7170 1.5470
8.4954 8.1412 1.5663
8.0970 8.3366 1.5435
7.5366 8.3379 1.4894
7.0112 8.3392 1.4408
6.8790 8.8042 1.4746
6.8806 9.4888 1.5439
6.8626 10.2155 1.6181
6.5054 10.4764 1.6186
6.1538 10.7520 1.6234
6.0444 11.4982 1.6996
6.5726 13.6715 1.9819
5.7679 13.1884 1.8781
5.2136 13.1897 1.8483
4.8825 13.7772 1.9027
4.8971 15.5696 2.1226
4.3733 15.8706 2.1390
3.8046 16.0294 2.1390
2.4597 12.3116 1.6290
2.0708 12.7229 1.6716
2.0654 16.3709 2.1390
1.5490 17.2315 2.2421
0.9306 17.2789 2.2421
0.3108 17.3019 2.2421
-0.3095 17.3007 2.2421
-0.9291 17.2752 2.2421
-1.5472 17.2254 2.2421
-2.1626 17.1515 2.2421
-2.7744 17.0536 2.2421
-3.3815 16.9318 2.2421
-3.9830 16.7866 2.2421
-4.5780 16.6181 2.2421
-5.1654 16.4267 2.2421
-5.7444 16.2127 2.2421
-6.1306 15.5127 2.1769
-6.5568 14.9951 2.1388
-7.0797 14.7290 2.1388
-7.5913 14.4433 2.1388
-8.0908 14.1385 2.1388
-8.5773 13.8150 2.1388
-9.0503 13.4737 2.1388
-9.5089 13.1151 2.1388
-9.9527 12.7398 2.1388
-10.3967 12.3674 2.1421
-10.8096 11.9602 2.1421
-11.2058 11.5386 2.1421
-11.5849 11.1031 2.1421
-11.9464 10.6546 2.1421
-12.2899 10.1938 2.1421
-12.6150 9.7215 2.1421
-12.9214 9.2384 2.1421
-13.2088 8.7455 2.1421
-13.4768 8.2435 2.1421
-13.7253 7.7332 2.1421
-13.9541 7.2153 2.1421
-9.9497 4.7004 1.5048
-14.3518 6.1604 2.1421
-14.5205 5.6249 2.1421
-14.6690 5.0852 2.1421
-15.0736 4.6267 2.1821
-15.1836 4.0705 2.1821
-15.2731 3.5124 2.1821
-15.3421 2.9530 2.1821
-15.3907 2.3931 2.1821
-15.4191 1.8336 2.1821
-15.4272 1.2751 2.1821
-15.4154 0.7184 2.1821
-15.3838 0.1641 2.1821
-9.0648 -0.2288 1.2900
-9.0656 -0.5550 1.2961
-10.0414 -0.9776 1.4441
-10.0423 -1.3432 1.4546
-10.0431 -1.7123 1.4671
-10.0440 -2.0861 1.4816
-10.0449 -2.4656 1.4982
-10.0458 -2.8520 1.5170
-10.0467 -3.2464 1.5382
-10.0476 -3.6502 1.5618
-10.0486 -4.0648 1.5880
-10.0495 -4.4917 1.6170
-10.0505 -4.9326 1.6490
-10.0516 -5.3896 1.6842
-10.0526 -5.8646 1.7230
-10.0538 -6.3600 1.7656
-10.0549 -6.8787 1.8125
-9.5468 -7.0477 1.7696
-9.0814 -7.2224 1.7343
-9.0827 -7.7723 1.7907
-10.6970 -9.8413 2.1821
-10.1115 -9.9969 2.1390
-9.7264 -10.3334 2.1390
-9.3310 -10.6560 2.1390
-8.9256 -10.9646 2.1390
-8.5110 -11.2588 2.1390
-8.0875 -11.5384 2.1390
-7.6555 -11.8033 2.1390
-7.2156 -12.0532 2.1390
-6.7683 -12.2879 2.1390
-6.3141 -12.5072 2.1390
-6.1355 -13.3237 2.2421
-5.6463 -13.5209 2.2421
-5.1514 -13.7015 2.2421
-4.6512 -13.8654 2.2421
-4.1463 -14.0125 2.2421
-3.6373 -14.1426 2.2421
-3.1245 -14.2557 2.2421
-2.6086 -14.3516 2.2421
-2.0900 -14.4304 2.2421
-1.5693 -14.4919 2.2421
-1.0469 -14.5362 2.2421
-0.5235 -14.5631 2.2421
0.0005 -12.6676 2.2421
0.4562 -12.6606 2.2421
0.9115 -12.6384 2.2421
1.3659 -12.6009 2.2421
1.8189 -12.5483 2.2421
2.1657 -11.9065 2.1390
2.5940 -11.8274 2.1390
3.0196 -11.7338 2.1390
3.4421 -11.6260 2.1390
3.8611 -11.5039 2.1390
4.2761 -11.3677 2.1390
4.6868 -11.2175 2.1390
5.0925 -11.0534 2.1390
5.3790 -10.6500 2.0946
5.2188 -9.4702 1.8960
5.6726 -9.4713 1.9333
6.1466 -9.4724 1.9746
6.2052 -8.8488 1.8872
6.2067 -8.2067 1.7940
6.2081 -7.6226 1.7113
6.2094 -7.0878 1.6375
6.2106 -6.5949 1.5715
6.2116 -6.1382 1.5122
6.2127 -5.7127 1.4587
6.2136 -5.3144 1.4104
6.2146 -4.9398 1.3667
6.2153 -4.5858 1.3270
6.2161 -4.2501 1.2910
6.2169 -3.9305 1.2582
6.2176 -3.6250 1.2285
6.2431 -3.3453 1.2062
6.2433 -3.0619 1.1814
6.2434 -2.7884 1.1590
6.2393 -2.5219 1.1379
6.2209 -2.2580 1.1163
6.2215 -2.0084 1.1000
2.2514 -0.6385 0.3928
2.2929 -0.5621 0.3952
6.2232 -1.2907 1.0612
6.2237 -1.0593 1.0514
6.7033 -0.8947 1.1233
6.0835 -0.5906 1.0126
6.7061 -0.4087 1.1101
6.7067 -0.1675 1.1056
7.0895 0.0775 1.1652
7.4205 0.3478 1.2177
7.4188 0.6151 1.2170
7.4170 0.8839 1.2178
7.4177 1.1553 1.2207
2.2283 0.4295 0.3680
1.9401 0.4467 0.3220
6.8322 1.8334 1.1412
5.9717 1.8345 1.0052
5.3024 1.8395 0.9008
6.0183 2.3329 1.0333
6.0189 2.5851 1.0460
6.0195 2.8452 1.0606
6.0201 3.1144 1.0770
6.0208 3.3938 1.0956
6.0215 3.6848 1.1164
6.0222 3.9889 1.1397
5.7998 4.1482 1.1225
5.2934 4.0807 1.0499
9.2987 7.7152 1.8939
8.6498 7.7168 1.8132
8.4955 8.1445 1.8372
8.0940 8.3366 1.8103
7.5339 8.3379 1.7475
7.0088 8.3392 1.6909
6.8790 8.8072 1.7317
6.8806 9.4919 1.8137
6.8612 10.2166 1.9009
6.5040 10.4774 1.9020
6.1529 10.7537 1.9082
6.0444 11.5016 1.9985
6.0510 12.5903 2.1460
5.5840 12.7716 2.1390
5.1281 12.9770 2.1390
4.6642 13.1648 2.1390
4.1931 13.3348 2.1390
3.7154 13.4866 2.1390
3.2319 13.6199 2.1390
2.1374 10.7010 1.6665
2.0708 12.7261 1.9682
1.8386 14.5770 2.2421
1.3155 14.6371 2.2421
0.7903 14.6770 2.2421
0.2640 14.6965 2.2421
-0.2627 14.6956 2.2421
-0.7889 14.6743 2.2421
-1.3139 14.6327 2.2421
-1.8366 14.5709 2.2421
-2.3564 14.4889 2.2421
-2.8724 14.3870 2.2421
-3.3838 14.2652 2.2421
-3.8897 14.1240 2.2421
-4.3895 13.9634 2.2421
-4.8823 13.7839 2.2421
-5.3674 13.5857 2.2421
-5.8440 13.3693 2.2421
-6.1364 12.7705 2.1798
-6.4574 12.2899 2.1388
-6.8839 12.0335 2.1388
-7.2998 11.7613 2.1388
-7.7044 11.4739 2.1388
-8.0971 11.1718 2.1388
-8.4775 10.8555 2.1388
-8.8451 10.5254 2.1388
-9.1993 10.1823 2.1388
-9.5396 9.8267 2.1388
-9.8657 9.4592 2.1388
-10.1926 9.0943 2.1421
-10.4895 8.7042 2.1421
-10.7709 8.3042 2.1421
-11.0367 7.8947 2.1421
-11.2865 7.4766 2.1421
-11.5201 7.0504 2.1421
-11.7372 6.6167 2.1421
-11.9377 6.1764 2.1421
-9.9384 4.6981 1.7563
-12.2880 5.2782 2.1421
-12.4376 4.8218 2.1421
-12.8048 4.4427 2.1821
-12.9222 3.9701 2.1821
-13.0221 3.4948 2.1821
-13.1045 3.0174 2.1821
-13.1693 2.5385 2.1821
-13.2167 2.0588 2.1821
-13.2467 1.5789 2.1821
-13.2593 1.0996 2.1821
-13.2548 0.6213 2.1821
-13.2332 0.1448 2.1821
-9.0648 -0.2263 1.4991
-9.0656 -0.5525 1.5055
-10.0411 -0.9748 1.6766
-10.0420 -1.3403 1.6881
-10.0429 -1.7095 1.7019
-10.0437 -2.0833 1.7181
-10.0446 -2.4627 1.7366
-10.0455 -2.8491 1.7578
-10.0464 -3.2434 1.7816
-10.0473 -3.6472 1.8083
-10.0482 -4.0617 1.8379
-10.0492 -4.4885 1.8708
-10.0502 -4.9294 1.9072
-10.0512 -5.3863 1.9473
-10.0523 -5.8612 1.9915
-10.0534 -6.3566 2.0400
-10.0546 -6.8752 2.0935
-9.5512 -7.0477 2.0443
-9.0814 -7.2192 2.0021
-9.0827 -7.7691 2.0666
-9.0880 -8.3576 2.1388
-8.7659 -8.6632 2.1388
-8.4342 -8.9572 2.1388
-8.0933 -9.2393 2.1388
-7.7442 -9.5099 2.1390
-7.3860 -9.7674 2.1390
-7.0200 -10.0122 2.1390
-6.6464 -10.2442 2.1390
-6.2657 -10.4631 2.1390
-6.1616 -11.1830 2.2421
-5.7490 -11.3845 2.2421
-5.3303 -11.5719 2.2421
-4.9060 -11.7449 2.2421
-4.4765 -11.9033 2.2421
-4.0424 -12.0471 2.2421
-3.6039 -12.1762 2.2421
-3.1617 -12.2904 2.2421
-2.7162 -12.3897 2.2421
-2.2678 -12.4739 2.2421
-1.8170 -12.5430 2.2421
-1.3644 -12.5970 2.2421
-0.9102 -12.6358 2.2421
-0.4551 -12.6593 2.2421
0.0006 -11.1927 2.2421
0.4033 -11.1864 2.2421
0.8056 -11.1665 2.2421
1.2072 -11.1331 2.2421
1.6075 -11.0860 2.2421
1.9138 -10.5184 2.1389
2.2921 -10.4478 2.1389
2.6680 -10.3644 2.1389
3.0411 -10.2684 2.1389
3.4110 -10.1596 2.1390
3.7772 -10.0383 2.1390
4.1395 -9.9045 2.1390
4.4973 -9.7584 2.1390
4.8503 -9.6000 2.1390
5.1981 -9.4296 2.1390
5.5403 -9.2472 2.1390
5.8765 -9.0531 2.1390
6.2052 -8.8458 2.1386
6.2067 -8.2038 2.0333
6.2081 -7.6198 1.9399
6.2094 -7.0851 1.8567
6.2106 -6.5924 1.7822
6.2117 -6.1357 1.7153
6.2127 -5.7104 1.6550
6.2136 -5.3121 1.6005
6.2145 -4.9375 1.5512
6.2154 -4.5836 1.5065
6.2162 -4.2480 1.4660
6.2169 -3.9284 1.4292
6.2197 -3.6242 1.3962
6.2466 -3.3451 1.3716
6.2466 -3.0616 1.3437
6.2467 -2.7880 1.3186
6.2391 -2.5199 1.2942
6.2209 -2.2562 1.2701
6.2215 -2.0066 1.2519
2.2508 -0.6377 0.4470
2.2935 -0.5616 0.4502
6.2232 -1.2890 1.2089
6.2238 -1.0576 1.1981
6.7177 -0.8947 1.2831
6.0835 -0.5889 1.1545
6.9061 -0.4190 1.3039
6.9067 -0.1706 1.2989
7.2860 0.0817 1.3667
7.4205 0.3498 1.3901
7.4188 0.6172 1.3898
7.4183 0.8862 1.3915
7.4190 1.1576 1.3952
2.2282 0.4301 0.4207
1.9601 0.4518 0.3720
6.8274 1.8340 1.3045
5.9678 1.8350 1.1494
5.2983 1.8396 1.0302
6.0183 2.3347 1.1831
6.0189 2.5869 1.1980
6.0195 2.8471 1.2150
6.0201 3.1163 1.2343
6.0208 3.3957 1.2559
6.0215 3.6867 1.2802
6.0222 3.9908 1.3073
5.7965 4.1478 1.2872
5.2906 4.0803 1.2042
9.1785 7.6187 2.1460
8.6463 7.7168 2.0811
8.4956 8.1478 2.1101
8.0910 8.3366 2.0789
7.5312 8.3379 2.0073
7.0063 8.3392 1.9428
6.8790 8.8102 1.9908
6.8806 9.4951 2.0854
6.7350 10.0319 2.1460
6.3795 10.2802 2.1460
6.0145 10.5150 2.1460
5.6219 10.7010 2.1390
5.2406 10.9072 2.1390
4.8513 11.0989 2.1390
4.4546 11.2759 2.1390
4.0512 11.4376 2.1390
3.6416 11.5840 2.1390
3.2264 11.7147 2.1390
2.3120 9.7459 1.7622
2.0651 10.3416 1.8545
1.9539 12.0105 2.1390
1.5963 12.6585 2.2421
1.1421 12.7103 2.2421
0.6862 12.7447 2.2421
0.2292 12.7615 2.2421
-0.2280 12.7609 2.2421
-0.6848 12.7427 2.2421
-1.1406 12.7070 2.2421
-1.5945 12.6539 2.2421
-2.0459 12.5835 2.2421
-2.4940 12.4959 2.2421
-2.9383 12.3913 2.2421
-3.3780 12.2698 2.2421
-3.8125 12.1317 2.2421
-4.2411 11.9772 2.2421
-4.6631 11.8067 2.2421
-5.0779 11.6203 2.2421
-5.4850 11.4186 2.2421
-5.8837 11.2016 2.2421
-6.1389 10.7347 2.1940
