ply
format ascii 1.0
element vertex 2126
property float32 x
property float32 y
property float32 z
end_header
6.3435 -2.5774 0.0546
6.3871 -2.3316 0.0527
6.3224 -2.0540 0.0500
6.4618 -1.8456 0.0490
6.4071 -1.5836 0.0466
6.4483 -1.3502 0.0450
6.5360 -1.1253 0.0438
6.5776 -0.8907 0.0423
6.6193 -0.6554 0.0408
6.6612 -0.4188 0.0393
6.7035 -0.1803 0.0379
6.7462 0.0608 0.0366
6.7413 0.3030 0.0350
6.8878 0.5579 0.0342
6.9330 0.8129 0.0329
6.8737 1.0573 0.0311
7.0383 1.3429 0.0304
7.0871 1.6178 0.0292
7.0176 1.8693 0.0275
7.1772 2.1906 0.0267
7.2310 2.4941 0.0255
7.2721 2.8042 0.0243
7.2782 3.1111 0.0229
7.4191 3.4914 0.0220
7.4287 3.8274 0.0207
7.5393 4.2335 0.0196
7.6115 4.6411 0.0184
7.7023 5.0845 0.0173
7.5231 5.3635 0.0155
7.0808 5.4419 0.0133
6.6667 5.5153 0.0113
6.2770 5.5844 0.0095
5.9089 5.6497 0.0079
5.7598 5.9172 0.0066
5.8452 6.4530 0.0056
5.8242 6.9131 0.0044
6.0921 7.7818 0.0034
6.2185 8.5593 0.0022
6.3977 9.5055 0.0008
6.5421 10.5164 -0.0006
6.7278 11.7340 -0.0023
6.9320 13.1639 -0.0041
7.2772 15.1116 -0.0064
7.6773 17.5252 -0.0091
6.9870 17.6476 -0.0106
6.3069 17.7681 -0.0120
5.6348 17.8872 -0.0133
6.6094 23.9490 -0.0191
7.1166 29.9388 -0.0253
7.4980 37.4755 -0.0332
6.3999 39.2663 -0.0360
8.2008 64.9163 -0.0611
2.1872 24.3023 -0.0233
-9.5094 58.3451 -0.0507
-14.2395 71.1707 -0.0587
-16.6095 69.8754 -0.0541
-15.5745 56.4339 -0.0403
-15.5907 49.4915 -0.0320
-15.6037 43.9599 -0.0250
-17.0350 43.0264 -0.0207
-18.8737 43.0841 -0.0166
-20.9694 43.5444 -0.0120
-22.4927 42.7138 -0.0066
-23.9720 41.8101 -0.0009
-26.2148 42.1403 0.0054
-28.1407 41.8112 0.0122
-28.8424 39.6991 0.0187
-33.4270 42.6979 0.0287
-35.6073 42.2649 0.0377
-36.4462 40.2361 0.0457
-37.0679 38.0810 0.0536
-37.6646 36.0123 0.0615
-38.0495 33.8511 0.0692
-39.1955 32.4266 0.0784
-39.2313 30.1511 0.0856
-39.2652 27.9941 0.0928
-39.3277 25.9613 0.1000
-42.6404 26.0000 0.1161
-46.3823 26.0453 0.1347
-15.5621 8.0180 0.0480
-61.8962 29.1280 0.2023
-9.8505 4.2106 0.0340
-61.9432 23.8861 0.2256
-69.2266 23.8775 0.2652
-26.5737 8.1108 0.1069
-91.0749 24.2605 0.3844
-75.5780 17.2528 0.3341
-90.3812 17.2443 0.4180
-65.3108 5.2900 0.3439
-37.6581 1.6926 0.2068
-58.8137 0.5302 0.3365
-58.8914 -1.5839 0.3511
-6.6175 -0.4161 0.0411
-6.5599 -0.6496 0.0424
-58.8212 -7.9655 0.3957
-61.3276 -10.5591 0.4293
-64.4318 -13.4913 0.4694
-64.4343 -15.9260 0.4885
-43.2524 -12.3538 0.3413
-37.7542 -12.2653 0.3101
-25.0501 -9.1446 0.2143
-63.8060 -25.9243 0.5684
-83.1586 -44.7450 0.8395
-31.5448 -18.4632 0.3324
-74.3777 -47.1972 0.8186
-43.5394 -29.8733 0.5010
-43.3086 -32.0607 0.5215
-66.2325 -52.8143 0.8354
-61.5671 -52.8185 0.8145
-25.4138 -23.4376 0.3531
-46.7107 -46.2898 0.6827
-14.8496 -15.8120 0.2287
-43.3823 -49.6515 0.7053
-59.7869 -73.6003 1.0285
-43.1842 -61.7348 0.8380
-43.2946 -66.8822 0.8964
-31.5728 -57.4272 0.7517
-15.1764 -30.1171 0.3909
-33.3359 -72.5207 0.9329
-9.8414 -26.2208 0.3322
-10.0045 -29.8738 0.3760
-9.9984 -33.8450 0.4235
-15.1669 -59.0679 0.7354
-9.9973 -45.6848 0.5662
-10.0861 -55.5759 0.6862
-10.0772 -69.6809 0.8577
-10.1546 -93.9055 1.1529
0.0003 -64.4246 2.2395
2.2075 -61.4366 2.1364
2.5496 -35.4355 1.2340
6.1434 -56.8010 1.9829
6.6321 -45.8508 1.6063
4.3812 -24.1365 0.8495
4.6052 -21.0409 0.7447
5.4083 -21.0592 0.7505
1.9033 -6.4416 0.2314
2.1588 -6.4452 0.2336
2.4196 -6.4455 0.2361
6.2326 -14.9484 0.5538
6.4503 -14.0300 0.5265
6.5884 -13.0720 0.4975
6.7346 -12.2472 0.4734
6.9095 -11.5617 0.4546
7.0423 -10.8770 0.4356
7.0668 -10.1006 0.4127
7.2546 -9.6147 0.4015
7.2770 -8.9566 0.3830
7.4576 -8.5336 0.3743
5.7149 -6.0840 0.2744
5.7748 -5.7216 0.2658
5.8353 -5.3804 0.2581
5.8397 -5.0087 0.2488
5.9584 -4.7501 0.2450
6.0117 -4.4493 0.2391
5.9620 -4.0895 0.2297
6.1027 -3.8715 0.2281
6.1510 -3.5991 0.2235
6.1980 -3.3339 0.2192
6.1500 -3.0287 0.2121
6.2994 -2.8260 0.2121
6.3437 -2.5764 0.2088
6.3872 -2.3307 0.2059
6.3229 -2.0532 0.1998
6.4620 -1.8447 0.2004
6.4073 -1.5827 0.1953
6.4484 -1.3493 0.1934
6.4345 -1.1069 0.1902
6.5778 -0.8898 0.1918
6.6195 -0.6545 0.1906
6.6614 -0.4179 0.1897
6.7037 -0.1793 0.1890
6.7464 0.0618 0.1885
6.7414 0.3040 0.1870
6.8880 0.5589 0.1899
6.9332 0.8140 0.1901
6.8743 1.0584 0.1878
7.0385 1.3440 0.1918
7.0873 1.6189 0.1929
7.0183 1.8706 0.1911
7.1774 2.1918 0.1958
7.2312 2.4953 0.1978
7.2701 2.8046 0.1998
7.2789 3.1125 0.2013
7.4194 3.4927 0.2067
7.4270 3.8278 0.2089
7.5395 4.2349 0.2144
7.6118 4.6426 0.2193
7.7027 5.0861 0.2252
7.5216 5.3638 0.2236
7.0795 5.4422 0.2144
6.6654 5.5156 0.2062
6.2759 5.5846 0.1987
5.9078 5.6498 0.1920
5.7600 5.9186 0.1926
5.8455 6.4546 0.2017
5.8252 6.9156 0.2081
6.0925 7.7836 0.2260
6.2189 8.5613 0.2405
6.3981 9.5078 0.2590
6.5411 10.5166 0.2783
6.7283 11.7368 0.3024
6.9339 13.1695 0.3311
7.2794 15.1185 0.3716
7.6762 17.5254 0.4219
6.9861 17.6477 0.4169
6.3060 17.7683 0.4126
5.6341 17.8874 0.4091
6.6111 23.9585 0.5407
7.1157 29.9394 0.6678
6.6541 33.2624 0.7346
6.3357 38.8778 0.8515
8.4615 66.9886 1.4577
2.1870 24.3026 0.5263
5.3294 98.8692 2.1345
1.6485 91.8130 1.9793
-1.7780 99.0744 2.1364
-5.3293 98.8828 2.1364
-8.8825 98.7136 2.1405
-12.4813 98.8195 2.1542
-14.3096 71.5335 1.5841
-16.2633 68.4302 1.5312
-15.5744 56.4432 1.2785
-15.5907 49.4998 1.1369
-15.6037 43.9672 1.0258
-15.6506 39.5364 0.9387
-15.6539 35.7401 0.8651
-20.9657 43.5443 1.0766
-22.4928 42.7215 1.0809
-23.9677 41.8101 1.0846
-26.2155 42.1490 1.1234
-28.1354 41.8111 1.1473
-28.8373 39.6997 1.1239
-33.4202 42.6975 1.2500
-35.6012 42.2661 1.2824
-36.4409 40.2385 1.2685
-37.0636 38.0847 1.2506
-37.6615 36.0172 1.2353
-38.0421 33.8522 1.2162
-39.1954 32.4342 1.2244
-39.2312 30.1585 1.2002
-39.2651 28.0013 1.1791
-39.3168 25.9612 1.1612
-42.6278 25.9998 1.2408
-46.3677 26.0451 1.3326
-15.5587 8.0188 0.4423
-61.8962 29.1383 1.7434
-9.9602 4.2592 0.2784
-61.9175 23.8861 1.7204
-12.3637 4.2664 0.3420
-14.2805 4.3609 0.3938
-16.2838 4.3402 0.4483
-75.4467 17.2344 2.0768
-22.8050 4.3546 0.6285
-30.1704 4.6454 0.8335
-38.4961 4.5197 1.0674
-62.1447 5.0428 1.7318
-37.6321 1.6971 1.0552
-58.8137 0.5389 1.6615
-43.4556 -1.1623 1.2383
-58.8175 -3.6894 1.6927
-14.8385 -1.4671 0.4318
-43.4200 -5.8734 1.2791
-43.4562 -7.4755 1.2976
-31.5218 -6.5955 0.9551
-63.4500 -15.6730 1.9534
-43.3337 -12.3704 1.3572
-37.7309 -12.2519 1.2037
-25.0474 -9.1397 0.8149
-10.1727 -4.1315 0.3380
-9.8563 -4.4216 0.3349
-43.2985 -21.3230 1.5064
-43.3003 -23.2913 1.5448
-10.0384 -5.8738 0.3678
-9.8238 -6.2321 0.3702
-43.3059 -29.7053 1.6814
-43.3079 -32.0523 1.7353
-9.8767 -7.8739 0.4092
-52.1882 -44.7623 2.2395
-25.3233 -23.3492 1.1279
-9.9727 -9.8809 0.4621
-14.8632 -15.8234 0.7180
-43.1733 -49.4028 2.1802
-9.8677 -12.1452 0.5223
-39.8804 -52.8551 2.2195
-9.8696 -14.1068 0.5794
-35.7050 -55.1483 2.2195
-29.4019 -49.1991 1.9432
-9.8735 -17.9557 0.6971
-10.0310 -19.9029 0.7605
-10.0697 -21.9028 0.8250
-9.9659 -23.9029 0.8886
-9.8805 -26.3209 0.9670
-10.0157 -29.9029 1.0870
-10.0090 -33.8761 1.2199
-15.1338 -58.9306 2.1047
-9.9418 -45.4252 1.6108
-9.9501 -54.8192 1.9323
-8.8088 -60.9026 2.1363
-6.6119 -61.1367 2.1363
-4.6237 -64.2700 2.2395
-2.3127 -64.3809 2.2395
0.0003 -39.0629 2.2395
1.4033 -39.0444 2.2395
2.5496 -35.4286 2.0354
4.0116 -37.0840 2.1364
5.3440 -36.9387 2.1364
4.3819 -24.1365 1.4031
4.6060 -21.0409 1.2309
5.4088 -21.0576 1.2411
1.9036 -6.4416 0.3830
2.1592 -6.4452 0.3870
2.4200 -6.4455 0.3914
6.2867 -15.0756 0.9272
6.4663 -14.0623 0.8770
6.5887 -13.0704 0.8278
6.7349 -12.2455 0.7888
6.9111 -11.5624 0.7586
7.0336 -10.8616 0.7270
7.0254 -10.0396 0.6868
7.1367 -9.4567 0.6623
7.1988 -8.8585 0.6364
7.2906 -8.3408 0.6159
5.7150 -6.0829 0.4627
5.7750 -5.7205 0.4492
5.8355 -5.3793 0.4372
5.8402 -5.0080 0.4224
5.9586 -4.7491 0.4169
6.0119 -4.4483 0.4078
5.9625 -4.0888 0.3928
6.1029 -3.8705 0.3912
6.1512 -3.5982 0.3843
6.1982 -3.3329 0.3780
6.1506 -3.0279 0.3668
6.2996 -2.8250 0.3679
6.3438 -2.5755 0.3633
6.3874 -2.3297 0.3593
6.3235 -2.0523 0.3498
6.4621 -1.8437 0.3520
6.4075 -1.5817 0.3442
6.4486 -1.3483 0.3421
6.5363 -1.1234 0.3428
6.5779 -0.8888 0.3415
6.6196 -0.6535 0.3407
6.6616 -0.4169 0.3403
6.7038 -0.1783 0.3403
6.7466 0.0628 0.3407
6.7416 0.3050 0.3392
6.8882 0.5599 0.3457
6.9334 0.8150 0.3476
6.8749 1.0596 0.3447
7.0387 1.3451 0.3535
7.0875 1.6200 0.3569
7.0189 1.8718 0.3550
7.1776 2.1929 0.3650
7.2314 2.4965 0.3704
7.2681 2.8049 0.3754
7.2796 3.1140 0.3799
7.4196 3.4940 0.3917
7.4252 3.8281 0.3972
7.5398 4.2363 0.4094
7.6120 4.6440 0.4204
7.7030 5.0876 0.4334
7.5201 5.3641 0.4318
7.0781 5.4424 0.4157
6.6642 5.5158 0.4012
6.2747 5.5848 0.3881
5.9068 5.6500 0.3763
5.7601 5.9200 0.3789
5.8458 6.4562 0.3981
5.8262 6.9181 0.4121
6.0928 7.7855 0.4490
6.2193 8.5633 0.4792
6.3985 9.5100 0.5174
6.5401 10.5168 0.5575
6.7287 11.7396 0.6076
6.8570 13.0257 0.6594
7.4410 15.4566 0.7666
7.6751 17.5256 0.8532
6.9851 17.6479 0.8448
6.3051 17.7684 0.8377
5.6333 17.8875 0.8319
6.6128 23.9680 1.1015
7.1149 29.9400 1.3616
6.6533 33.2625 1.4994
5.4141 33.2268 1.4868
6.2019 49.1057 2.1845
2.1868 24.3029 1.0764
2.6071 48.3709 2.1364
0.9117 50.7739 2.2395
-0.9108 50.7675 2.2395
-2.7311 50.6862 2.2395
-4.5459 50.5298 2.2395
-6.2132 49.2013 2.1906
-7.7699 47.6891 2.1363
-9.4661 47.3286 2.1363
-9.1023 38.3059 1.7448
-12.7910 46.3635 2.1345
-14.4230 45.8001 2.1345
-13.8949 39.1590 1.8504
-15.6506 39.5431 1.8977
-15.6539 35.7462 1.7451
-15.6567 32.5236 1.6179
-15.6592 29.7473 1.5105
-15.6613 27.3249 1.4189
-15.6632 25.1877 1.3401
-15.6648 23.2833 1.2716
-15.6663 21.5716 1.2118
-29.1857 37.2948 2.1595
-30.4027 36.1016 2.1595
-31.5682 34.8651 2.1595
-32.6806 33.5880 2.1595
-33.7387 32.2728 2.1595
-34.1432 30.3897 2.1223
-34.7804 28.7877 2.1046
-35.6239 27.3922 2.1033
-36.4372 25.9914 2.1035
-37.2648 24.6129 2.1078
-38.1080 23.2498 2.1160
-38.9349 21.8767 2.1262
-39.7100 20.4730 2.1364
-40.2379 18.9492 2.1364
-9.8470 4.2123 0.5168
-43.1004 16.6340 2.2395
-12.4715 4.3056 0.6425
-14.3200 4.3752 0.7326
-16.3322 4.3556 0.8309
-44.2039 10.1043 2.2395
-9.8490 1.8821 0.4976
-30.1704 4.6500 1.5220
-38.2277 4.4939 1.9281
-43.1421 3.5073 2.1785
-37.6060 1.7015 1.9036
-9.9000 0.0922 0.5030
-9.8577 -0.2622 0.5033
-43.1978 -2.7032 2.2195
-14.8484 -1.4658 0.7686
-42.5018 -5.7428 2.2195
-42.0781 -7.2321 2.2195
-9.8592 -2.0614 0.5260
-41.0851 -10.1424 2.2195
-40.5183 -11.5604 2.2195
-37.7076 -12.2385 2.0972
-25.0447 -9.1347 1.4162
-9.8612 -4.0034 0.5677
-37.8115 -16.9564 2.2195
-37.0314 -18.2305 2.2195
-36.2124 -19.4727 2.2195
-10.0910 -5.9028 0.6335
-9.8629 -6.2552 0.6352
-32.0145 -21.9544 2.1188
-31.2093 -23.0923 2.1265
-9.9155 -7.9030 0.6968
-27.9023 -23.9267 2.0266
-25.2333 -23.2612 1.8982
-9.9971 -9.9029 0.7807
-14.8769 -15.8348 1.2089
-10.0486 -11.4963 0.8519
-9.8676 -12.1429 0.8753
-21.1096 -27.9723 1.9655
-9.8695 -14.1041 0.9678
-10.0402 -15.5049 1.0409
-10.0569 -16.8258 1.1070
-9.8729 -17.9517 1.1593
-10.0326 -19.9029 1.2636
-10.0465 -21.8489 1.3657
-9.9172 -23.7825 1.4656
-9.8798 -26.3151 1.6011
-9.8825 -29.5010 1.7745
-9.8859 -33.4548 1.9920
-9.2972 -36.1981 2.1363
-7.9844 -36.4768 2.1363
-6.6647 -36.7136 2.1363
-5.5970 -38.6919 2.2395
-4.2022 -38.8514 2.2395
-2.8036 -38.9664 2.2395
-1.4024 -39.0369 2.2395
0.0003 -28.0085 2.2395
1.0064 -27.9938 2.2395
1.9189 -26.6596 2.1364
2.8761 -26.5824 2.1364
3.8306 -26.4737 2.1364
4.7816 -26.3334 2.1364
4.6068 -21.0409 1.7182
5.2010 -20.2450 1.6662
7.7746 -26.3039 2.1845
2.1584 -6.4418 0.5406
6.0861 -16.2073 1.3760
6.2870 -15.0738 1.2966
6.4666 -14.0606 1.2271
6.5890 -13.0687 1.1588
6.7352 -12.2439 1.1048
6.9197 -11.5747 1.0645
7.0339 -10.8601 1.0197
7.1485 -10.2135 0.9808
7.2551 -9.6117 0.9457
7.3549 -9.0488 0.9139
5.5234 -6.3178 0.6564
5.5890 -5.9475 0.6370
5.6512 -5.5967 0.6195
5.7104 -5.2628 0.6035
5.7286 -4.9112 0.5850
5.8939 -4.6964 0.5828
6.0121 -4.4473 0.5769
5.9631 -4.0881 0.5563
6.1031 -3.8695 0.5546
6.1514 -3.5972 0.5454
6.1984 -3.3320 0.5372
6.1511 -3.0271 0.5218
6.2998 -2.8240 0.5240
6.3440 -2.5745 0.5181
6.3876 -2.3287 0.5130
6.3240 -2.0515 0.5001
6.4623 -1.8428 0.5040
6.4077 -1.5808 0.4934
6.4488 -1.3474 0.4910
6.5365 -1.1225 0.4927
6.5781 -0.8878 0.4916
6.6198 -0.6525 0.4911
6.6617 -0.4159 0.4912
6.7040 -0.1773 0.4919
6.7468 0.0638 0.4933
6.7418 0.3060 0.4918
6.8883 0.5610 0.5020
6.9336 0.8161 0.5054
6.8755 1.0607 0.5020
7.0389 1.3462 0.5155
7.0877 1.6212 0.5213
7.0195 1.8731 0.5192
7.1778 2.1941 0.5347
7.2316 2.4977 0.5433
7.2660 2.8053 0.5514
7.3584 3.1489 0.5649
7.4198 3.4954 0.5771
7.3844 3.8083 0.5828
7.3781 4.1468 0.5920
7.4489 4.5458 0.6086
7.5242 4.9709 0.6271
7.5185 5.3644 0.6405
7.0767 5.4427 0.6174
6.6629 5.5160 0.5966
6.2736 5.5850 0.5779
5.9057 5.6502 0.5609
5.7426 5.9031 0.5638
5.6648 6.2576 0.5766
5.7704 6.8532 0.6106
5.8420 7.4664 0.6447
6.2196 8.5653 0.7184
6.3834 9.4892 0.7747
6.5391 10.5169 0.8373
6.7292 11.7424 0.9135
7.0885 13.4675 1.0255
7.4417 15.4604 1.1544
7.6740 17.5258 1.2855
6.9841 17.6481 1.2736
6.3043 17.7686 1.2636
5.6325 17.8876 1.2556
6.2741 22.7436 1.5782
7.0761 29.7807 2.0459
6.4141 32.0713 2.1845
5.1464 31.5877 2.1364
4.0114 31.7657 2.1364
2.1866 24.3032 1.6277
1.8071 33.5302 2.2395
0.6029 33.5750 2.2395
-0.6021 33.5723 2.2395
-1.8059 33.5220 2.2395
-3.0065 33.4244 2.2395
-4.2019 33.2796 2.2395
-5.3900 33.0879 2.2395
-6.2662 31.3351 2.1363
-7.3802 31.0640 2.1363
-8.4819 30.7496 2.1363
-8.9481 28.4195 1.9976
-10.6322 29.9689 2.1345
-9.1098 23.0208 1.6641
-12.7189 29.0491 2.1345
-13.7318 28.5299 2.1345
-14.7222 27.9723 2.1345
-13.1355 22.9222 1.7871
-15.6632 25.1923 2.0104
-15.6648 23.2876 1.9059
-15.6663 21.5757 1.8144
-19.5135 24.9402 2.1595
-20.3500 24.1693 2.1595
-21.1545 23.3686 2.1595
-21.9260 22.5396 2.1595
-21.7738 20.8323 2.0747
-23.1149 20.5784 2.1363
-23.7751 19.6832 2.1363
-24.3993 18.7660 2.1363
-24.9870 17.8284 2.1363
-25.5376 16.8719 2.1363
-27.2794 16.6481 2.2370
-27.8075 15.6293 2.2395
-28.2650 14.5772 2.2395
-28.6821 13.5120 2.2395
-9.8469 4.2139 0.7589
-29.3935 11.3488 2.2395
-12.4655 4.3055 0.9403
-14.3185 4.3770 1.0710
-16.3302 4.3576 1.2129
-19.7204 4.5108 1.4564
-9.8490 1.8836 0.7243
-29.9516 4.6208 2.1961
-30.0002 3.5312 2.1961
-30.0344 2.4462 2.1979
-30.1530 1.3688 2.2087
-9.9016 0.0937 0.7269
-9.8576 -0.2607 0.7263
-27.3593 -1.7080 2.0255
-14.8583 -1.4646 1.1067
-26.0546 -3.5166 1.9550
-26.7183 -4.5882 2.0223
-9.8591 -2.0599 0.7537
-26.8687 -6.6288 2.0772
-26.4618 -7.5459 2.0717
-26.3387 -8.5445 2.0910
-25.0419 -9.1298 2.0188
-9.8610 -4.0018 0.8084
-10.0208 -4.4921 0.8365
-24.4496 -12.0325 2.0816
-24.3079 -13.0672 2.1139
-10.0939 -5.9028 0.8981
-9.8628 -6.2534 0.8993
-22.2080 -15.2255 2.0787
-22.0819 -16.3349 2.1257
-9.9178 -7.9030 0.9838
-21.2819 -18.2455 2.1797
-20.7641 -19.1372 2.2006
-9.9991 -9.9029 1.0991
-14.8906 -15.8462 1.7018
-10.0287 -11.4713 1.1949
-9.8675 -12.1405 1.2292
-16.1923 -21.4525 2.1156
-9.8692 -14.1013 1.3571
-10.0249 -15.4787 1.4564
-9.8712 -16.5122 1.5216
-9.8724 -17.9479 1.6225
-9.8738 -19.5848 1.7396
-9.8754 -21.4735 1.8770
-9.8773 -23.6832 2.0401
-9.4356 -25.1283 2.1363
-8.5191 -25.4271 2.1363
-7.5941 -25.6952 2.1363
-6.6615 -25.9325 2.1363
-5.9989 -27.4020 2.2395
-5.0083 -27.5854 2.2395
-4.0127 -27.7361 2.2395
-3.0131 -27.8537 2.2395
-2.0104 -27.9384 2.2395
-1.0056 -27.9900 2.2395
0.0003 -21.8132 2.2395
0.7839 -21.8012 2.2395
1.5668 -21.7629 2.2395
2.2400 -20.6995 2.1364
2.9831 -20.6128 2.1364
3.7232 -20.5011 2.1364
4.4594 -20.3645 2.1364
5.1911 -20.2032 2.1364
6.0506 -20.4678 2.1845
2.1791 -6.5026 0.7014
6.1548 -16.3873 1.7888
6.3199 -15.1500 1.6759
6.1393 -13.3465 1.4984
6.2590 -12.4119 1.4163
6.6947 -12.1682 1.4134
6.9247 -11.5809 1.3715
7.0342 -10.8585 1.3134
7.1488 -10.2119 1.2637
7.2554 -9.6102 1.2190
7.3552 -9.0474 1.1786
5.5579 -6.3559 0.8521
5.6680 -6.0303 0.8338
5.7754 -5.7184 0.8175
5.8359 -5.3772 0.7968
5.8414 -5.0066 0.7711
5.9490 -4.7391 0.7609
6.0022 -4.4388 0.7454
5.9998 -4.1122 0.7248
6.1033 -3.8685 0.7186
6.0194 -3.5190 0.6919
6.0654 -3.2595 0.6819
6.0881 -2.9951 0.6704
6.1254 -2.7448 0.6618
6.1626 -2.4999 0.6542
6.1998 -2.2593 0.6476
6.2744 -2.0344 0.6459
6.3237 -1.8023 0.6423
6.0496 -1.4915 0.6072
6.4059 -1.3374 0.6362
6.5367 -1.1215 0.6432
6.5783 -0.8869 0.6422
6.6200 -0.6515 0.6420
6.6619 -0.4149 0.6426
6.7042 -0.1763 0.6440
6.7469 0.0648 0.6463
6.6969 0.3050 0.6406
6.7406 0.5500 0.6446
6.7849 0.7996 0.6495
6.7967 1.0496 0.6522
6.8417 1.3095 0.6590
6.8965 1.5785 0.6677
6.9538 1.8566 0.6776
7.0238 2.1481 0.6898
7.2318 2.4989 0.7168
7.2878 2.8149 0.7302
7.3463 3.1449 0.7452
7.4076 3.4908 0.7618
7.4721 3.8547 0.7804
7.5403 4.2392 0.8011
7.6125 4.6470 0.8242
7.5711 5.0032 0.8368
7.5170 5.3646 0.8498
7.0753 5.4429 0.8197
6.6616 5.5162 0.7926
6.2724 5.5852 0.7682
5.9047 5.6504 0.7461
5.7605 5.9227 0.7529
5.8463 6.4593 0.7925
5.9553 7.0741 0.8398
6.0787 7.7703 0.8945
6.2200 8.5674 0.9585
6.3838 9.4915 1.0340
6.5650 10.5603 1.1225
6.7297 11.7452 1.2204
5.6382 10.7139 1.0902
7.6015 15.7950 1.5766
7.6729 17.5260 1.7190
6.9831 17.6483 1.7036
6.3034 17.7687 1.6909
5.6317 17.8878 1.6805
6.2732 22.7438 2.1128
5.5177 23.2252 2.1364
4.6833 23.4202 2.1364
3.8417 23.5830 2.1364
2.9942 23.7132 2.1364
2.1420 23.8108 2.1364
1.3487 25.0275 2.2395
0.4500 25.0606 2.2395
-0.4493 25.0591 2.2395
-1.3477 25.0229 2.2395
-2.2440 24.9522 2.2395
-3.1366 24.8469 2.2395
-4.0242 24.7075 2.2395
-4.9053 24.5341 2.2395
-5.7787 24.3270 2.2395
-6.3366 22.9761 2.1363
-7.1510 22.7155 2.1363
-7.9542 22.4242 2.1363
-8.7449 22.1025 2.1363
-9.5219 21.7510 2.1363
-10.2757 21.3531 2.1345
-11.0215 20.9446 2.1345
-11.7502 20.5084 2.1345
-12.4711 20.0619 2.1363
-13.1633 19.5724 2.1363
-13.8355 19.0579 2.1363
-14.4867 18.5190 2.1363
-15.1160 17.9567 2.1363
-15.7227 17.3720 2.1363
-16.3060 16.7659 2.1363
-17.3952 16.6467 2.2034
-18.2401 16.2424 2.2395
-18.7734 15.5461 2.2395
-19.2792 14.8318 2.2395
-19.7571 14.1005 2.2395
-20.2066 13.3535 2.2395
-20.6271 12.5920 2.2395
-21.0183 11.8170 2.2395
-21.3798 11.0299 2.2395
-21.7113 10.2317 2.2395
-9.8468 4.2155 1.0018
-21.2576 8.2109 2.1364
-12.4586 4.3051 1.2388
-14.3169 4.3788 1.4104
-16.2310 4.3337 1.5865
-18.9031 4.3268 1.8358
-9.8489 1.8851 0.9517
-22.7904 3.5195 2.1940
-22.8375 2.6916 2.1933
-10.0168 0.8173 0.9610
-23.0384 1.0493 2.2107
-9.9033 0.0952 0.9517
-9.8575 -0.2593 0.9500
-22.8849 -1.4252 2.2144
-14.8683 -1.4633 1.4464
-22.4426 -3.0257 2.1977
-22.2026 -3.8093 2.1915
-9.8591 -2.0584 0.9822
-21.8698 -5.3921 2.2018
-10.0361 -2.8603 1.0225
-21.0644 -6.8302 2.1747
-20.8007 -7.5802 2.1791
-9.8607 -4.0001 1.0498
-10.0215 -4.4909 1.0858
-19.5927 -9.6391 2.1635
-18.7953 -10.1006 2.1187
-10.0968 -5.9028 1.1637
-9.8625 -6.2515 1.1642
-10.0245 -6.8709 1.2141
-17.4178 -12.8815 2.1683
-9.9201 -7.9030 1.2718
-16.5675 -14.2006 2.1920
-16.1404 -14.8725 2.2086
-10.0012 -9.9029 1.4187
-9.9102 -10.5441 1.4610
-9.8666 -11.2837 1.5157
-9.8673 -12.1380 1.5842
-9.8681 -13.0715 1.6610
-9.8690 -14.0985 1.7476
-9.8700 -15.2368 1.8459
-9.8710 -16.5092 1.9582
-9.8723 -17.9447 2.0874
-9.4276 -18.6967 2.1363
-8.7415 -19.0048 2.1363
-8.0460 -19.2893 2.1363
-7.3420 -19.5499 2.1363
-6.6302 -19.7866 2.1363
-6.1971 -20.9655 2.2395
-5.4370 -21.1625 2.2395
-4.6710 -21.3337 2.2395
-3.9002 -21.4790 2.2395
-3.1251 -21.5983 2.2395
-2.3467 -21.6914 2.2395
-1.5658 -21.7583 2.2395
-0.7832 -21.7989 2.2395
0.0003 -17.8473 2.2395
0.6415 -17.8372 2.2395
1.2821 -17.8052 2.2395
1.8329 -16.9344 2.1364
2.4408 -16.8624 2.1364
3.0460 -16.7697 2.1364
3.6481 -16.6564 2.1364
4.2461 -16.5227 2.1364
4.8396 -16.3685 2.1364
2.1795 -6.5027 0.8579
6.0972 -16.2311 2.1673
6.2886 -15.0723 2.0399
6.0147 -13.0735 1.7960
6.1653 -12.2240 1.7072
6.3274 -11.4986 1.6350
6.9250 -11.5792 1.6791
7.1134 -10.9788 1.6264
7.2293 -10.3250 1.5652
7.2557 -9.6087 1.4935
7.3554 -9.0459 1.4444
7.4492 -8.5170 1.4000
5.7155 -6.0795 1.0310
5.7756 -5.7173 1.0027
5.8360 -5.3762 0.9777
5.7871 -4.9590 0.9376
5.8250 -4.6393 0.9147
5.8709 -4.3406 0.8955
5.9312 -4.0640 0.8804
6.0093 -3.8079 0.8696
6.0569 -3.5398 0.8561
6.1032 -3.2787 0.8440
6.1749 -3.0367 0.8368
6.2896 -2.8174 0.8365
6.3337 -2.5682 0.8281
6.3772 -2.3229 0.8208
6.3634 -2.0623 0.8074
6.4663 -1.8419 0.8100
5.9219 -1.4591 0.7333
6.4684 -1.3495 0.7930
6.5369 -1.1205 0.7943
6.5784 -0.8859 0.7934
6.6202 -0.6505 0.7935
6.6621 -0.4139 0.7947
6.7044 -0.1753 0.7968
6.7471 0.0658 0.8000
6.7643 0.3091 0.8013
6.8929 0.5634 0.8167
6.9349 0.8183 0.8230
6.9184 1.0694 0.8234
7.0275 1.3461 0.8399
7.0132 1.6063 0.8428
6.9773 1.8640 0.8443
7.0675 2.1626 0.8624
7.1205 2.4616 0.8774
7.1757 2.7727 0.8942
7.1948 3.0812 0.9080
7.2673 3.4259 0.9303
7.3541 3.7951 0.9565
7.5405 4.2406 0.9981
7.6128 4.6484 1.0273
7.7041 5.0924 1.0618
7.5155 5.3649 1.0598
7.0739 5.4432 1.0228
6.6604 5.5165 0.9894
6.2713 5.5854 0.9593
5.9036 5.6506 0.9320
5.7607 5.9241 0.9411
5.8466 6.4609 0.9910
5.9556 7.0758 1.0504
6.0790 7.7722 1.1192
6.2203 8.5694 1.1996
6.3842 9.4938 1.2945
6.5319 10.5089 1.3985
6.1392 10.7163 1.3945
5.6374 10.7140 1.3656
7.4742 15.5330 1.9426
7.6718 17.5262 2.1542
6.9821 17.6484 2.1354
6.3025 17.7689 2.1198
5.6310 17.8879 2.1072
5.0577 18.3395 2.1364
4.3988 18.5181 2.1364
3.7332 18.6715 2.1364
3.0621 18.7997 2.1364
2.3864 18.9023 2.1364
1.7896 19.8950 2.2395
1.0749 19.9485 2.2395
0.3587 19.9747 2.2395
-0.3580 19.9737 2.2395
-1.0740 19.9456 2.2395
-1.7884 19.8901 2.2395
-2.5000 19.8077 2.2395
-3.2078 19.6983 2.2395
-3.9106 19.5622 2.2395
-4.6074 19.3995 2.2395
-5.2973 19.2107 2.2395
-5.9790 18.9959 2.2395
-6.6518 18.7557 2.2395
-7.3145 18.4903 2.2395
-7.9661 18.2003 2.2395
-8.6058 17.8862 2.2395
-9.2327 17.5484 2.2395
-9.8458 17.1876 2.2395
-10.4442 16.8044 2.2395
-11.0272 16.3993 2.2395
-11.5939 15.9732 2.2395
-12.1435 15.5266 2.2395
-12.6754 15.0604 2.2395
-13.1888 14.5752 2.2395
-13.6829 14.0719 2.2395
-14.1574 13.5513 2.2395
-14.6114 13.0141 2.2395
-15.0446 12.4613 2.2395
-15.4562 11.8936 2.2395
-15.8460 11.3121 2.2395
-12.5988 8.3282 1.7402
-16.5579 10.1109 2.2395
-16.8793 9.4930 2.2395
-16.3866 8.4567 2.1364
-16.6481 7.8484 2.1364
-9.8468 4.2171 1.2457
-11.7092 4.5247 1.4627
-12.4518 4.3048 1.5381
-10.0276 3.0685 1.2267
-10.0095 2.6741 1.2144
-10.0118 2.2932 1.2063
-9.8488 1.8866 1.1801
-10.0116 1.5476 1.1946
-10.0140 1.1817 1.1914
-10.0164 0.8188 1.1899
-10.0187 0.4578 1.1898
-9.9051 0.0967 1.1775
-9.8573 -0.2578 1.1746
-10.0144 -0.6222 1.1976
-10.0166 -0.9843 1.2037
-10.0188 -1.3492 1.2114
-18.2194 -3.1232 2.2195
-9.8588 -2.0568 1.2116
-17.8786 -4.4053 2.2195
-10.0310 -2.8573 1.2596
-17.4499 -5.6554 2.2195
-17.2035 -6.2666 2.2195
-9.8604 -3.9984 1.2922
-10.0251 -4.4908 1.3365
-16.3414 -8.0368 2.2195
-16.0145 -8.6035 2.2195
-10.0998 -5.9028 1.4307
-9.8622 -6.2496 1.4303
-9.8960 -6.7810 1.4719
-9.8631 -7.2925 1.5074
-9.8635 -7.8560 1.5520
-9.8641 -8.4529 1.6012
-9.8646 -9.0877 1.6556
-9.8652 -9.7662 1.7159
-9.8658 -10.4948 1.7828
-9.8665 -11.2814 1.8573
-9.8672 -12.1356 1.9407
-9.8680 -13.0689 2.0343
-9.8522 -14.0720 2.1363
-9.3307 -14.4018 2.1363
-8.7986 -14.7132 2.1363
-8.2568 -15.0059 2.1363
-7.7058 -15.2797 2.1363
-7.1463 -15.5343 2.1363
-6.5788 -15.7694 2.1363
-6.2715 -16.6968 2.2314
-5.6848 -16.9626 2.2395
-5.0691 -17.1467 2.2395
-4.4477 -17.3096 2.2395
-3.8215 -17.4512 2.2395
-3.1910 -17.5713 2.2395
-2.5570 -17.6699 2.2395
-1.9202 -17.7469 2.2395
-1.2812 -17.8021 2.2395
-0.6408 -17.8356 2.2395
0.0003 -15.0884 2.2395
0.5425 -15.0797 2.2395
1.0841 -15.0524 2.2395
1.6245 -15.0064 2.2395
2.0636 -14.2542 2.1364
2.5752 -14.1751 2.1364
3.0840 -14.0784 2.1364
3.5893 -13.9643 2.1364
4.0906 -13.8329 2.1364
2.1800 -6.5028 1.0152
5.0790 -13.5184 2.1364
5.5650 -13.3357 2.1364
5.7368 -12.4672 2.0276
6.0408 -11.9751 1.9801
6.3287 -11.4988 1.9362
6.9252 -11.5774 1.9884
7.1137 -10.9772 1.9262
7.2295 -10.3234 1.8542
7.2559 -9.6072 1.7694
7.4382 -9.1459 1.7308
7.5330 -8.6111 1.6779
5.7156 -6.0784 1.2223
5.7758 -5.7163 1.1890
5.8362 -5.3751 1.1595
5.8940 -5.0493 1.1328
5.9493 -4.7371 1.1085
6.0025 -4.4368 1.0866
6.0539 -4.1470 1.0667
6.1036 -3.8665 1.0488
6.1519 -3.5942 1.0328
6.1989 -3.3290 1.0184
6.2448 -3.0700 1.0057
6.2897 -2.8164 0.9945
6.3339 -2.5673 0.9847
6.3774 -2.3219 0.9763
6.3164 -2.0460 0.9536
6.3632 -1.8115 0.9487
5.7989 -1.4279 0.8549
6.4460 -1.3438 0.9410
6.5370 -1.1195 0.9463
6.5786 -0.8849 0.9455
6.6203 -0.6496 0.9459
6.6623 -0.4129 0.9476
6.7046 -0.1743 0.9504
6.7473 0.0669 0.9546
6.7389 0.3089 0.9527
6.1282 0.5019 0.8669
6.9350 0.8194 0.9829
6.9803 1.0800 0.9925
7.0277 1.3472 1.0038
7.0764 1.6219 1.0167
7.1265 1.9049 1.0313
7.1784 2.1977 1.0478
7.2323 2.5013 1.0664
7.2883 2.8174 1.0871
7.3468 3.1475 1.1102
7.4081 3.4935 1.1359
7.4726 3.8575 1.1645
7.5408 4.2420 1.1962
7.6131 4.6500 1.2316
7.7044 5.0941 1.2732
7.5139 5.3652 1.2710
7.0725 5.4434 1.2269
6.6591 5.5167 1.1871
6.2701 5.5856 1.1513
5.9026 5.6508 1.1189
5.7609 5.9256 1.1302
5.8469 6.4625 1.1905
5.9559 7.0776 1.2621
6.0794 7.7740 1.3451
6.2207 8.5714 1.4420
6.5211 9.6991 1.5898
6.5309 10.5091 1.6815
6.0666 10.5914 1.6573
5.6365 10.7142 1.6424
6.9862 14.5211 2.1845
6.4655 14.7727 2.1845
5.8047 14.6745 2.1364
5.2777 14.8820 2.1364
4.7431 15.0696 2.1364
4.2015 15.2372 2.1364
3.6539 15.3843 2.1364
3.1008 15.5107 2.1364
2.5432 15.6163 2.1364
1.9943 15.7980 2.1497
1.4863 16.5248 2.2395
0.8927 16.5690 2.2395
0.2980 16.5907 2.2395
-0.2972 16.5900 2.2395
-0.8919 16.5670 2.2395
-1.4852 16.5215 2.2395
-2.0763 16.4538 2.2395
-2.6643 16.3639 2.2395
-3.2483 16.2520 2.2395
-3.8275 16.1183 2.2395
-4.4010 15.9629 2.2395
-4.9679 15.7862 2.2395
-5.5276 15.5885 2.2395
-6.0791 15.3700 2.2395
-6.6216 15.1311 2.2395
-7.1545 14.8723 2.2395
-7.6769 14.5939 2.2395
-8.1881 14.2965 2.2395
-8.6874 13.9804 2.2395
-9.1742 13.6462 2.2395
-9.6476 13.2944 2.2395
-10.1072 12.9256 2.2395
-10.5523 12.5403 2.2395
-10.9822 12.1393 2.2395
-11.3965 11.7230 2.2395
-11.7947 11.2922 2.2395
-12.1761 10.8475 2.2395
-12.5404 10.3896 2.2395
-12.8870 9.9191 2.2395
-13.2157 9.4369 2.2395
-12.5842 8.3209 2.0836
-13.1813 8.0513 2.1364
-13.4410 7.5616 2.1364
-13.6823 7.0634 2.1364
-13.9049 6.5575 2.1363
-9.8465 4.2186 1.4910
-9.8815 3.8200 1.4769
-9.8993 3.4239 1.4627
-9.9992 3.0614 1.4627
-10.0858 2.6961 1.4627
-15.4154 3.5333 2.2195
-9.8487 1.8881 1.4097
-15.5763 2.4102 2.2195
-15.6261 1.8464 2.2195
-10.0179 0.8205 1.4202
-15.6648 0.7182 2.2195
-15.6538 0.1552 2.2195
-9.8569 -0.2563 1.4004
-15.5716 -0.9651 2.2195
-14.8884 -1.4608 2.1318
-10.1120 -1.3602 1.4564
-10.0399 -1.7195 1.4564
-9.8585 -2.0553 1.4423
-9.9013 -2.4382 1.4628
-9.8873 -2.8149 1.4771
-9.8714 -3.1977 1.4933
-9.8598 -3.5900 1.5125
-9.8601 -3.9967 1.5359
-9.8605 -4.4155 1.5621
-9.8609 -4.8480 1.5911
-9.8613 -5.2961 1.6232
-9.8617 -5.7619 1.6587
-9.8621 -6.2478 1.6978
-9.8625 -6.7563 1.7409
-9.8630 -7.2906 1.7885
-9.8635 -7.8541 1.8409
-9.8640 -8.4509 1.8989
-9.8645 -9.0857 1.9629
-9.8651 -9.7640 2.0340
-9.8657 -10.4925 2.1129
-9.5771 -10.9484 2.1363
-9.1682 -11.2737 2.1363
-8.7486 -11.5844 2.1363
-8.3190 -11.8801 2.1363
-7.8799 -12.1605 2.1363
-7.4317 -12.4253 2.1363
-6.9751 -12.6744 2.1363
-6.5105 -12.9073 2.1363
-6.2688 -13.6246 2.2177
-5.8283 -13.9682 2.2395
-5.3196 -14.1605 2.2395
-4.8050 -14.3352 2.2395
-4.2849 -14.4919 2.2395
-3.7599 -14.6307 2.2395
-3.2307 -14.7513 2.2395
-2.6978 -14.8537 2.2395
-2.1619 -14.9376 2.2395
-1.6235 -15.0031 2.2395
-1.0833 -15.0501 2.2395
-0.5418 -15.0786 2.2395
0.0003 -13.0566 2.2395
0.4696 -13.0489 2.2395
0.9383 -13.0251 2.2395
1.4060 -12.9850 2.2395
1.7890 -12.3551 2.1401
2.2285 -12.2647 2.1364
2.6687 -12.1805 2.1364
3.1058 -12.0811 2.1364
3.5393 -11.9666 2.1364
2.1804 -6.5029 1.1737
4.3939 -11.6928 2.1364
4.8139 -11.5338 2.1364
5.2284 -11.3602 2.1364
5.6368 -11.1723 2.1364
6.1748 -11.2171 2.1845
6.5787 -10.9961 2.1845
6.9750 -10.7611 2.1845
7.1579 -10.2192 2.1236
7.2579 -9.6079 2.0477
7.3560 -9.0429 1.9806
7.5333 -8.6096 1.9419
5.7158 -6.0772 1.4147
5.7760 -5.7152 1.3765
5.8364 -5.3741 1.3426
5.8942 -5.0483 1.3118
5.9495 -4.7360 1.2839
6.0027 -4.4358 1.2587
6.0541 -4.1460 1.2360
6.1038 -3.8655 1.2155
6.1521 -3.5932 1.1971
6.1991 -3.3280 1.1807
6.2450 -3.0691 1.1662
6.2899 -2.8154 1.1534
6.3341 -2.5663 1.1423
6.3776 -2.3210 1.1328
6.4205 -2.0787 1.1249
6.4711 -1.8412 1.1199
5.6801 -1.3978 0.9723
6.5194 -1.3581 1.1053
6.5372 -1.1186 1.0992
6.5788 -0.8839 1.0985
6.6205 -0.6486 1.0993
6.6624 -0.4119 1.1014
6.7047 -0.1733 1.1051
6.7475 0.0679 1.1101
6.8191 0.3136 1.1214
5.9991 0.4922 0.9874
6.9352 0.8205 1.1439
6.9805 1.0811 1.1553
7.0279 1.3484 1.1687
7.0766 1.6230 1.1840
7.1268 1.9061 1.2013
7.1786 2.1989 1.2209
7.2325 2.5026 1.2427
7.2885 2.8187 1.2672
7.3470 3.1488 1.2944
7.4083 3.4948 1.3246
7.4729 3.8589 1.3583
7.5410 4.2435 1.3956
7.6133 4.6514 1.4371
7.7048 5.0957 1.4861
7.5124 5.3655 1.4833
7.0711 5.4437 1.4322
6.6578 5.5169 1.3861
6.2690 5.5858 1.3445
5.9015 5.6510 1.3069
5.7611 5.9270 1.3206
5.8472 6.4641 1.3913
6.0836 7.2307 1.5068
6.2097 7.9422 1.6061
6.2211 8.5735 1.6860
6.5215 9.7014 1.8591
6.5299 10.5093 1.9661
6.0657 10.5915 1.9381
5.6357 10.7143 1.9209
5.9145 12.2954 2.1636
5.4044 12.3503 2.1364
4.9608 12.5432 2.1364
4.5101 12.7194 2.1364
4.0530 12.8788 2.1364
3.5900 13.0211 2.1364
3.1218 13.1460 2.1364
2.6492 13.2534 2.1364
2.1727 13.3430 2.1364
1.7749 14.0622 2.2395
1.2697 14.1186 2.2395
0.7627 14.1561 2.2395
0.2546 14.1746 2.2395
-0.2539 14.1742 2.2395
-0.7619 14.1547 2.2395
-1.2688 14.1162 2.2395
-1.7738 14.0588 2.2395
-2.2762 13.9826 2.2395
-2.7753 13.8877 2.2395
-3.2703 13.7743 2.2395
-3.7606 13.6425 2.2395
-4.2454 13.4925 2.2395
-4.7240 13.3247 2.2395
-5.1959 13.1392 2.2395
-5.6602 12.9364 2.2395
-6.1164 12.7166 2.2395
-6.5638 12.4801 2.2395
-7.0017 12.2273 2.2395
-7.4297 11.9586 2.2395
-7.8471 11.6744 2.2395
-8.2533 11.3752 2.2395
-8.6478 11.0614 2.2395
-9.0300 10.7335 2.2395
-9.3996 10.3921 2.2395
-9.7559 10.0376 2.2395
-10.0985 9.6705 2.2395
-10.4270 9.2915 2.2395
-10.7410 8.9010 2.2395
-10.5319 8.1085 2.1364
-10.8026 7.7159 2.1364
-11.0584 7.3141 2.1364
-11.2990 6.9036 2.1364
-11.5241 6.4852 2.1363
-11.7335 6.0594 2.1363
-11.9270 5.6268 2.1363
-9.8465 4.2202 1.7378
-9.8468 3.8083 1.7150
-9.8472 3.4075 1.6951
-9.8475 3.0165 1.6778
-9.8479 2.6341 1.6631
-9.8482 2.2588 1.6508
-9.8485 1.8896 1.6408
-9.8553 1.5265 1.6341
-9.8556 1.1661 1.6286
-9.8559 0.8087 1.6252
-9.8562 0.4534 1.6239
-9.8565 0.0992 1.6247
-9.8568 -0.2548 1.6276
-9.8571 -0.6094 1.6327
-9.8574 -0.9657 1.6398
-9.8578 -1.3245 1.6491
-9.8581 -1.6869 1.6606
-9.8584 -2.0537 1.6744
-9.8587 -2.4261 1.6906
-9.8590 -2.8053 1.7092
-9.8594 -3.1923 1.7304
-9.8597 -3.5884 1.7544
-9.8601 -3.9951 1.7813
-9.8604 -4.4138 1.8112
-9.8608 -4.8463 1.8445
-9.8612 -5.2944 1.8813
-9.8616 -5.7602 1.9220
-9.8620 -6.2460 1.9670
-9.8624 -6.7545 2.0166
-9.8629 -7.2887 2.0713
-9.8634 -7.8521 2.1317
-9.5849 -8.2099 2.1363
-9.2740 -8.5399 2.1363
-8.9522 -8.8586 2.1363
-8.6197 -9.1655 2.1363
-8.2771 -9.4603 2.1363
-7.9247 -9.7428 2.1363
-7.5631 -10.0127 2.1363
-7.1926 -10.2696 2.1363
-6.8137 -10.5132 2.1363
-6.4269 -10.7434 2.1363
-6.2668 -11.3854 2.2192
-5.9035 -11.7020 2.2395
-5.4759 -11.8996 2.2395
-5.0421 -12.0821 2.2395
-4.6024 -12.2494 2.2395
-4.1574 -12.4014 2.2395
-3.7076 -12.5378 2.2395
-3.2535 -12.6585 2.2395
-2.7957 -12.7634 2.2395
-2.3347 -12.8525 2.2395
-1.8709 -12.9255 2.2395
-1.4050 -12.9825 2.2395
-0.9375 -13.0234 2.2395
-0.4689 -13.0481 2.2395
0.0003 -11.4965 2.2395
0.4135 -11.4896 2.2395
0.8263 -11.4684 2.2395
1.2381 -11.4330 2.2395
1.6486 -11.3832 2.2395
1.9705 -10.8426 2.1452
2.3499 -10.7236 2.1364
2.7347 -10.6357 2.1364
3.1163 -10.5343 2.1364
2.1808 -6.5030 1.3333
3.8682 -10.2921 2.1364
4.2377 -10.1515 2.1364
4.6022 -9.9980 2.1364
4.9614 -9.8318 2.1364
5.3148 -9.6531 2.1364
5.6619 -9.4621 2.1364
6.1376 -9.4674 2.1845
6.4786 -9.2475 2.1845
6.8119 -9.0157 2.1845
7.1372 -8.7722 2.1845
7.4541 -8.5173 2.1845
5.7159 -6.0761 1.6086
5.7761 -5.7141 1.5653
5.8366 -5.3730 1.5270
5.9301 -5.0779 1.5012
5.9858 -4.7637 1.4695
6.0029 -4.4347 1.4322
6.0543 -4.1450 1.4065
6.1040 -3.8645 1.3834
6.1522 -3.5922 1.3627
6.1992 -3.3270 1.3442
6.2451 -3.0681 1.3279
6.2901 -2.8144 1.3135
6.3342 -2.5653 1.3011
6.3777 -2.3200 1.2905
6.4207 -2.0777 1.2817
6.4713 -1.8402 1.2762
5.9126 -1.4540 1.1535
6.5389 -1.3611 1.2637
6.5774 -1.1244 1.2609
6.6192 -0.8883 1.2604
6.6612 -0.6515 1.2614
6.7009 -0.4132 1.2637
6.7202 -0.1727 1.2637
6.7309 0.0688 1.2637
6.7367 0.3109 1.2644
6.0899 0.5006 1.1442
6.9353 0.8216 1.3060
6.9807 1.0822 1.3193
7.0281 1.3495 1.3349
7.0768 1.6241 1.3526
7.1270 1.9073 1.3726
7.1789 2.2001 1.3952
7.2327 2.5038 1.4204
7.2887 2.8199 1.4486
7.3918 3.1692 1.4889
7.4535 3.5174 1.5240
7.5185 3.8837 1.5629
7.5413 4.2449 1.5965
7.6136 4.6530 1.6442
7.7052 5.0973 1.7005
7.5108 5.3657 1.6972
7.0697 5.4439 1.6389
6.6565 5.5171 1.5864
6.2678 5.5860 1.5390
5.9004 5.6512 1.4962
5.7613 5.9284 1.5125
5.8475 6.4657 1.5936
6.0839 7.2325 1.7261
6.2101 7.9442 1.8401
6.2214 8.5756 1.9319
6.3975 9.5186 2.0897
6.3310 10.1909 2.1845
5.9654 10.4182 2.1845
5.4684 10.3980 2.1364
5.0950 10.5935 2.1364
4.7144 10.7751 2.1364
4.3271 10.9426 2.1364
3.9337 11.0956 2.1364
3.5348 11.2340 2.1364
3.1308 11.3575 2.1364
2.7225 11.4659 2.1364
2.3102 11.5592 2.1364
1.8947 11.6370 2.1364
1.5477 12.2639 2.2395
1.1072 12.3129 2.2395
0.6651 12.3455 2.2395
0.2220 12.3616 2.2395
-0.2213 12.3612 2.2395
-0.6643 12.3444 2.2395
-1.1063 12.3111 2.2395
-1.5467 12.2613 2.2395
-1.9849 12.1953 2.2395
-2.4202 12.1130 2.2395
-2.8520 12.0146 2.2395
-3.2798 11.9003 2.2395
-3.7028 11.7702 2.2395
-4.1206 11.6245 2.2395
-4.5324 11.4636 2.2395
-4.9379 11.2875 2.2395
-5.3363 11.0967 2.2395
-5.7271 10.8913 2.2395
-6.1099 10.6717 2.2395
-6.4840 10.4383 2.2395
-6.8490 10.1914 2.2395
-7.2043 9.9314 2.2395
-7.5495 9.6586 2.2395
-7.8842 9.3735 2.2395
-8.2079 9.0765 2.2395
-8.5202 8.7681 2.2395
-8.8206 8.4487 2.2395
-9.1088 8.1187 2.2395
-8.9523 7.4205 2.1364
-9.2029 7.0871 2.1364
-9.4409 6.7450 2.1364
-9.6659 6.3949 2.1363
-9.8778 6.0371 2.1363
-10.0762 5.6722 2.1363
-10.2610 5.3008 2.1363
-10.4320 4.9233 2.1363
-9.8464 4.2219 1.9864
-9.8468 3.8099 1.9601
-9.8471 3.4091 1.9370
-9.8475 3.0181 1.9169
-9.8478 2.6356 1.8997
-9.8481 2.2603 1.8853
-9.8485 1.8911 1.8736
-9.8552 1.5280 1.8657
-9.8555 1.1676 1.8590
-9.8558 0.8102 1.8548
-9.8561 0.4549 1.8530
-9.8564 0.1007 1.8536
-9.8568 -0.2533 1.8566
-9.8571 -0.6079 1.8620
-9.8574 -0.9642 1.8698
-9.8577 -1.3230 1.8801
-9.8580 -1.6853 1.8929
-9.8583 -2.0522 1.9083
-9.8586 -2.4246 1.9264
-9.8590 -2.8037 1.9473
-9.8593 -3.1907 1.9712
-9.8597 -3.5868 1.9981
-9.8600 -3.9934 2.0284
-9.8604 -4.4121 2.0622
-9.8607 -4.8446 2.0997
-9.8377 -5.2801 2.1363
-9.6311 -5.6239 2.1363
-9.4128 -5.9598 2.1363
-9.1830 -6.2875 2.1363
-8.9421 -6.6065 2.1363
-8.6904 -6.9166 2.1363
-8.4282 -7.2174 2.1363
-8.1559 -7.5086 2.1363
-7.8738 -7.7898 2.1364
-7.5819 -8.0603 2.1363
-7.2813 -8.3205 2.1363
-6.9721 -8.5700 2.1363
-6.6545 -8.8082 2.1363
-6.3292 -9.0352 2.1363
-6.2653 -9.6653 2.2321
-5.9298 -9.9107 2.2395
-5.5664 -10.1113 2.2395
-5.1965 -10.2990 2.2395
-4.8205 -10.4736 2.2395
-4.4388 -10.6349 2.2395
-4.0520 -10.7828 2.2395
-3.6604 -10.9172 2.2395
-3.2645 -11.0378 2.2395
-2.8648 -11.1445 2.2395
-2.4618 -11.2373 2.2395
-2.0559 -11.3161 2.2395
-1.6475 -11.3807 2.2395
-1.2373 -11.4310 2.2395
-0.8256 -11.4672 2.2395
-0.4129 -11.4890 2.2395
0.0003 -10.2597 2.2395
0.3691 -10.2536 2.2395
0.7376 -10.2345 2.2395
1.1051 -10.2027 2.2395
1.4714 -10.1581 2.2395
1.7832 -9.8102 2.1751
2.0972 -9.5690 2.1364
2.4405 -9.4902 2.1364
2.7810 -9.3994 2.1364
2.1812 -6.5031 1.4944
3.4517 -9.1824 2.1364
3.7812 -9.0565 2.1364
4.1063 -8.9190 2.1364
4.4265 -8.7702 2.1364
4.7415 -8.6102 2.1364
5.0508 -8.4392 2.1364
5.3542 -8.2575 2.1364
5.6512 -8.0650 2.1364
6.0753 -8.0392 2.1845
6.3649 -7.8213 2.1845
6.6469 -7.5933 2.1845
5.7161 -6.0749 1.8042
5.7763 -5.7130 1.7558
5.8368 -5.3719 1.7129
5.9303 -5.0768 1.6843
5.9860 -4.7627 1.6489
6.0395 -4.4606 1.6169
6.0912 -4.1691 1.5881
6.1042 -3.8635 1.5527
6.1524 -3.5912 1.5297
6.1994 -3.3260 1.5091
6.2832 -3.0857 1.5000
6.3284 -2.8305 1.4840
6.3729 -2.5799 1.4701
6.4166 -2.3331 1.4583
6.4208 -2.0767 1.4398
6.4715 -1.8392 1.4338
5.9128 -1.4531 1.2961
6.4440 -1.3403 1.3995
6.4853 -1.1076 1.3974
6.5265 -0.8749 1.3970
6.5679 -0.6414 1.3983
6.6095 -0.4066 1.4016
6.6414 -0.1696 1.4045
6.6510 0.0690 1.4045
6.6520 0.3080 1.4045
6.0901 0.5016 1.2873
6.9355 0.8227 1.4696
7.0233 1.0899 1.4938
7.0709 1.3588 1.5116
7.1199 1.6352 1.5318
7.1704 1.9200 1.5548
7.1791 2.2013 1.5710
7.2329 2.5051 1.5996
7.2890 2.8212 1.6316
7.3921 3.1705 1.6772
7.5185 3.5493 1.7319
7.5840 3.9189 1.7763
7.5416 4.2464 1.7991
7.6139 4.6545 1.8531
7.7055 5.0989 1.9168
7.5093 5.3660 1.9128
7.0683 5.4442 1.8473
6.6552 5.5174 1.7883
6.2666 5.5863 1.7351
5.8993 5.6514 1.6870
5.7615 5.9299 1.7059
5.8478 6.4674 1.7976
6.0694 7.2166 1.9426
6.0840 7.7843 2.0339
6.2350 8.5959 2.1845
5.7962 8.6256 2.1364
5.4867 8.8334 2.1364
5.1695 9.0298 2.1364
4.8452 9.2145 2.1364
4.5140 9.3871 2.1364
4.1766 9.5474 2.1364
3.8333 9.6952 2.1364
3.4846 9.8303 2.1364
3.1311 9.9525 2.1364
2.7732 10.0615 2.1364
2.4114 10.1572 2.1364
2.0462 10.2395 2.1364
1.7591 10.8056 2.2395
1.3708 10.8633 2.2395
0.9806 10.9066 2.2395
0.5890 10.9353 2.2395
0.1967 10.9496 2.2395
-0.1960 10.9493 2.2395
-0.5883 10.9345 2.2395
-0.9798 10.9051 2.2395
-1.3699 10.8613 2.2395
-1.7580 10.8030 2.2395
-2.1436 10.7305 2.2395
-2.5262 10.6437 2.2395
-2.9052 10.5429 2.2395
-3.2800 10.4281 2.2395
-3.6503 10.2996 2.2395
-4.0154 10.1576 2.2395
-4.3748 10.0022 2.2395
-4.7281 9.8338 2.2395
-5.0748 9.6525 2.2395
-5.4143 9.4586 2.2395
-5.7463 9.2525 2.2395
-6.0703 9.0344 2.2395
-6.3858 8.8047 2.2395
-6.6924 8.5637 2.2395
-6.9898 8.3118 2.2395
-7.2774 8.0493 2.2395
-7.5551 7.7766 2.2395
-7.8223 7.4941 2.2395
-8.0788 7.2024 2.2395
-7.9405 6.5834 2.1363
-8.1637 6.2884 2.1363
-8.3759 5.9858 2.1363
-8.5767 5.6759 2.1363
-8.7659 5.3591 2.1363
-8.9432 5.0360 2.1363
-9.1085 4.7070 2.1363
-9.2616 4.3725 2.1363
-9.4022 4.0330 2.1363
-9.5303 3.6890 2.1363
-9.6457 3.3409 2.1363
-9.7483 2.9893 2.1363
-9.8380 2.6346 2.1363
-9.8481 2.2619 2.1219
-9.8484 1.8927 2.1084
-9.8551 1.5295 2.0992
-9.8554 1.1691 2.0914
-9.8558 0.8117 2.0864
-9.8561 0.4564 2.0841
-9.8564 0.1022 2.0845
-9.8567 -0.2517 2.0875
-9.8570 -0.6064 2.0933
-9.8573 -0.9626 2.1018
-9.8576 -1.3214 2.1131
-9.8579 -1.6838 2.1272
-9.8219 -2.0430 2.1363
-9.7313 -2.3917 2.1363
-9.6284 -2.7366 2.1363
-9.5134 -3.0772 2.1363
-9.3866 -3.4131 2.1363
-9.2481 -3.7441 2.1363
-9.0981 -4.0695 2.1363
-8.9368 -4.3891 2.1363
-8.7645 -4.7026 2.1363
-8.5814 -5.0094 2.1363
-8.3878 -5.3093 2.1363
-8.1840 -5.6019 2.1363
-7.9701 -5.8869 2.1364
-7.7466 -6.1640 2.1364
-7.5136 -6.4327 2.1364
-7.2715 -6.6930 2.1364
-7.0207 -6.9443 2.1364
-6.7614 -7.1865 2.1364
-6.4939 -7.4193 2.1364
-6.2706 -7.7062 2.1543
-6.2224 -8.2346 2.2395
-5.9185 -8.4474 2.2395
-5.6077 -8.6493 2.2395
-5.2901 -8.8401 2.2395
-4.9663 -9.0196 2.2395
-4.6365 -9.1876 2.2395
-4.3013 -9.3439 2.2395
-3.9609 -9.4884 2.2395
-3.6159 -9.6208 2.2395
-3.2666 -9.7411 2.2395
-2.9134 -9.8491 2.2395
-2.5568 -9.9447 2.2395
-2.1971 -10.0278 2.2395
-1.8349 -10.0983 2.2395
-1.4705 -10.1561 2.2395
-1.1043 -10.2012 2.2395
-0.7368 -10.2335 2.2395
-0.3685 -10.2530 2.2395
0.0003 -9.2543 2.2395
0.3331 -9.2487 2.2395
0.6654 -9.2315 2.2395
0.9970 -9.2027 2.2395
1.3274 -9.1623 2.2395
1.6563 -9.1104 2.2395
1.8919 -8.6306 2.1364
2.2015 -8.5592 2.1364
2.5086 -8.4771 2.1364
2.1816 -6.5032 1.6571
3.1134 -8.2808 2.1364
3.4104 -8.1668 2.1364
3.7034 -8.0425 2.1364
3.9920 -7.9079 2.1364
4.2758 -7.7632 2.1364
4.5546 -7.6086 2.1364
4.8278 -7.4442 2.1364
5.0954 -7.2702 2.1364
5.3567 -7.0869 2.1364
5.6117 -6.8944 2.1364
5.9918 -6.8435 2.1845
5.7162 -6.0738 2.0017
5.7765 -5.7119 1.9482
5.8370 -5.3708 1.9007
5.9820 -5.1198 1.8853
6.0382 -4.8030 1.8458
6.0922 -4.4983 1.8102
6.1443 -4.2043 1.7781
6.1043 -3.8625 1.7237
6.1526 -3.5902 1.6982
6.1996 -3.3250 1.6756
6.2834 -3.0847 1.6656
6.3286 -2.8295 1.6480
6.3730 -2.5789 1.6328
6.4168 -2.3320 1.6198
6.4210 -2.0757 1.5994
6.4718 -1.8382 1.5930
6.0708 -1.4910 1.4786
6.1100 -1.2699 1.4746
6.1491 -1.0492 1.4724
6.1882 -0.8285 1.4722
6.2274 -0.6071 1.4738
6.2669 -0.3845 1.4773
6.3067 -0.1601 1.4828
6.3469 0.0668 1.4903
6.3876 0.2968 1.4998
6.0902 0.5025 1.4318
6.9356 0.8238 1.6347
7.0235 1.0911 1.6618
7.0711 1.3600 1.6818
7.1201 1.6363 1.7045
7.1875 1.9258 1.7343
7.1793 2.2025 1.7485
7.2331 2.5063 1.7806
7.2892 2.8225 1.8163
7.4565 3.1994 1.8836
7.5188 3.5507 1.9284
7.4866 3.8698 1.9526
7.5418 4.2479 2.0036
7.6199 4.6596 2.0656
7.7059 5.1006 2.1352
7.5077 5.3663 2.1304
7.0668 5.4444 2.0576
6.6539 5.5176 1.9921
6.2654 5.5865 1.9330
5.8982 5.6515 1.8796
5.7617 5.9313 1.9013
5.8481 6.4690 2.0036
5.9742 7.1049 2.1313
5.7331 7.3368 2.1364
5.4698 7.5424 2.1364
5.1991 7.7383 2.1364
4.9211 7.9242 2.1364
4.6364 8.0999 2.1364
4.3452 8.2650 2.1364
4.0480 8.4194 2.1364
3.7452 8.5628 2.1364
2.3466 5.9361 1.4585
3.1245 8.8158 2.1364
2.8074 8.9250 2.1364
2.4864 9.0224 2.1364
2.1620 9.1080 2.1364
1.8345 9.1816 2.1364
1.5771 9.6890 2.2395
1.2290 9.7406 2.2395
0.8791 9.7793 2.2395
0.5281 9.8050 2.2395
0.1763 9.8178 2.2395
-0.1756 9.8176 2.2395
-0.5274 9.8043 2.2395
-0.8783 9.7781 2.2395
-1.2281 9.7390 2.2395
-1.5761 9.6869 2.2395
-1.9218 9.6221 2.2395
-2.2649 9.5446 2.2395
-2.6048 9.4545 2.2395
-2.9410 9.3519 2.2395
-3.2731 9.2371 2.2395
-3.6007 9.1101 2.2395
-3.9232 8.9712 2.2395
-4.2402 8.8206 2.2395
-4.5514 8.6585 2.2395
-4.8562 8.4852 2.2395
-5.1543 8.3008 2.2395
-5.4452 8.1058 2.2395
-5.7287 7.9002 2.2395
-6.0042 7.6846 2.2395
-6.2714 7.4591 2.2395
-6.5301 7.2242 2.2395
-6.7797 6.9801 2.2395
-7.0202 6.7272 2.2395
-7.2510 6.4659 2.2395
-7.4720 6.1965 2.2395
-7.3289 5.6468 2.1364
-7.5201 5.3756 2.1364
-7.7011 5.0979 2.1364
-7.8718 4.8140 2.1364
-8.0318 4.5242 2.1364
-8.1810 4.2291 2.1364
-8.3193 3.9291 2.1364
-8.4465 3.6245 2.1363
-8.5625 3.3158 2.1363
-8.6671 3.0034 2.1363
-8.7602 2.6878 2.1363
-8.8419 2.3692 2.1363
-8.9119 2.0483 2.1363
-8.9702 1.7254 2.1363
-9.0168 1.4008 2.1363
-9.0516 1.0752 2.1363
-9.0748 0.7488 2.1363
-9.0861 0.4222 2.1363
-9.0857 0.0956 2.1363
-9.0737 -0.2303 2.1363
-9.0500 -0.5553 2.1363
-9.0147 -0.8789 2.1363
-8.9679 -1.2008 2.1363
-8.9097 -1.5204 2.1363
-8.8402 -1.8374 2.1363
-8.7596 -2.1515 2.1363
-8.6679 -2.4622 2.1363
-8.5653 -2.7691 2.1363
-8.4520 -3.0719 2.1363
-8.3281 -3.3702 2.1363
-8.1938 -3.6637 2.1363
-8.0494 -3.9519 2.1364
-7.8950 -4.2346 2.1364
-7.7308 -4.5114 2.1364
-7.5571 -4.7821 2.1364
-7.3740 -5.0462 2.1364
-7.1820 -5.3034 2.1364
-6.9811 -5.5535 2.1364
-6.7717 -5.7962 2.1364
-6.5541 -6.0312 2.1364
-6.3284 -6.2582 2.1364
-6.2614 -6.6537 2.1947
-6.1369 -7.0100 2.2395
-5.8771 -7.2213 2.2395
-5.6103 -7.4232 2.2395
-5.3367 -7.6156 2.2395
-5.0567 -7.7981 2.2395
-4.7706 -7.9706 2.2395
-4.4788 -8.1329 2.2395
-4.1816 -8.2848 2.2395
-3.8794 -8.4261 2.2395
-3.5726 -8.5567 2.2395
-3.2615 -8.6765 2.2395
-2.9465 -8.7853 2.2395
-2.6280 -8.8830 2.2395
-2.3064 -8.9694 2.2395
-1.9820 -9.0446 2.2395
-1.6552 -9.1084 2.2395
-1.3265 -9.1607 2.2395
-0.9962 -9.2014 2.2395
-0.6647 -9.2307 2.2395
-0.3324 -9.2483 2.2395
0.0003 -8.4202 2.2395
0.3031 -8.4150 2.2395
0.6056 -8.3993 2.2395
0.9073 -8.3730 2.2395
1.2079 -8.3361 2.2395
1.5072 -8.2888 2.2395
1.7820 -8.1279 2.2115
2.0032 -7.7870 2.1364
2.2826 -7.7120 2.1364
2.1820 -6.5034 1.8216
2.8327 -7.5329 2.1364
3.1029 -7.4290 2.1364
3.3693 -7.3156 2.1364
3.6317 -7.1929 2.1364
3.8898 -7.0609 2.1364
4.1431 -6.9200 2.1364
4.3915 -6.7701 2.1364
4.6346 -6.6115 2.1364
4.8721 -6.4444 2.1364
5.1037 -6.2689 2.1364
5.3291 -6.0853 2.1364
5.5480 -5.8938 2.1364
5.7602 -5.6945 2.1364
5.8442 -5.3762 2.0930
5.8974 -5.0461 2.0442
5.9503 -4.7318 2.0008
6.0035 -4.4316 1.9623
6.1332 -4.1955 1.9526
6.1045 -3.8614 1.8965
6.1528 -3.5892 1.8686
6.1998 -3.3240 1.8438
6.2836 -3.0836 1.8330
6.3838 -2.8530 1.8295
6.4286 -2.6002 1.8128
6.4727 -2.3513 1.7986
6.4212 -2.0747 1.7608
6.4720 -1.8372 1.7539
6.0093 -1.4749 1.6116
6.0642 -1.2594 1.6116
6.1114 -1.0418 1.6116
6.1508 -0.8225 1.6116
6.1823 -0.6018 1.6116
6.2060 -0.3798 1.6116
6.2217 -0.1569 1.6116
6.2294 0.0665 1.6116
6.2291 0.2904 1.6116
6.0904 0.5035 1.5778
6.9357 0.8249 1.8016
7.0847 1.1017 1.8476
7.1328 1.3730 1.8699
7.1822 1.6518 1.8954
7.1849 1.9262 1.9113
7.1795 2.2038 1.9279
7.2334 2.5076 1.9634
7.2894 2.8238 2.0030
7.3514 3.1556 2.0480
7.4189 3.5048 2.0986
7.4903 3.8731 2.1549
7.4540 4.1997 2.1845
7.3047 4.4681 2.1845
7.1456 4.7311 2.1845
6.9770 4.9883 2.1845
6.7989 5.2393 2.1845
6.6117 5.4839 2.1845
6.2642 5.5867 2.1330
5.8971 5.6517 2.0742
5.7738 5.9451 2.1030
5.6489 6.2500 2.1364
5.4246 6.4526 2.1364
5.1930 6.6469 2.1364
4.9543 6.8328 2.1364
4.7088 7.0098 2.1364
4.4568 7.1778 2.1364
4.1987 7.3366 2.1364
3.9349 7.4858 2.1364
3.6656 7.6253 2.1364
3.3913 7.7548 2.1364
2.3138 5.8540 1.5883
2.1602 6.0960 1.6314
2.5419 8.0820 2.1364
2.2512 8.1700 2.1364
1.9574 8.2473 2.1364
1.7410 8.7149 2.2395
1.4278 8.7731 2.2395
1.1126 8.8197 2.2395
0.7959 8.8546 2.2395
0.4781 8.8779 2.2395
0.1597 8.8894 2.2395
-0.1590 8.8892 2.2395
-0.4774 8.8773 2.2395
-0.7951 8.8537 2.2395
-1.1118 8.8183 2.2395
-1.4268 8.7714 2.2395
-1.7399 8.7129 2.2395
-2.0506 8.6429 2.2395
-2.3584 8.5615 2.2395
-2.6629 8.4689 2.2395
-2.9637 8.3652 2.2395
-3.2604 8.2506 2.2395
-3.5525 8.1251 2.2395
-3.8398 7.9891 2.2395
-4.1217 7.8426 2.2395
-4.3980 7.6860 2.2395
-4.6682 7.5195 2.2395
-4.9320 7.3432 2.2395
-5.1890 7.1575 2.2395
-5.4389 6.9625 2.2395
-5.6813 6.7587 2.2395
-5.9160 6.5463 2.2395
-6.1427 6.3256 2.2395
-6.3609 6.0969 2.2395
-6.5706 5.8606 2.2395
-6.7713 5.6169 2.2395
-6.9629 5.3662 2.2395
-6.8335 4.8862 2.1419
-6.9808 4.6224 2.1364
-7.1360 4.3653 2.1364
-7.2816 4.1030 2.1364
-7.4176 3.8358 2.1364
-7.5436 3.5641 2.1364
-7.6596 3.2882 2.1364
-7.7655 3.0085 2.1364
-7.8611 2.7254 2.1364
-7.9463 2.4393 2.1364
-8.0210 2.1506 2.1364
-8.0853 1.8596 2.1364
-8.1390 1.5668 2.1363
-8.1820 1.2725 2.1363
-8.2144 0.9770 2.1363
-8.2361 0.6809 2.1363
-8.2472 0.3845 2.1363
-8.2476 0.0881 2.1363
-8.2374 -0.2078 2.1363
-8.2167 -0.5029 2.1363
-8.1854 -0.7968 2.1363
-8.1437 -1.0891 2.1363
-8.0916 -1.3795 2.1364
-8.0292 -1.6676 2.1364
-7.9567 -1.9530 2.1364
-7.8741 -2.2354 2.1364
-7.7815 -2.5145 2.1364
-7.6792 -2.7898 2.1364
-7.5673 -3.0611 2.1364
-7.4459 -3.3280 2.1364
-7.3153 -3.5902 2.1364
-7.1755 -3.8474 2.1364
-7.0268 -4.0994 2.1364
-6.8694 -4.3457 2.1364
-6.7036 -4.5861 2.1364
-6.5294 -4.8203 2.1364
-6.3472 -5.0480 2.1364
-6.2636 -5.3600 2.1733
-6.2473 -5.7476 2.2395
-6.0326 -5.9644 2.2395
-5.8105 -6.1733 2.2395
-5.5814 -6.3741 2.2395
-5.3454 -6.5667 2.2395
-5.1030 -6.7507 2.2395
-4.8544 -6.9260 2.2395
-4.5999 -7.0924 2.2395
-4.3398 -7.2496 2.2395
-4.0746 -7.3976 2.2395
-3.8043 -7.5361 2.2395
-3.5295 -7.6649 2.2395
-3.2505 -7.7840 2.2395
-2.9675 -7.8933 2.2395
-2.6810 -7.9925 2.2395
-2.3913 -8.0815 2.2395
-2.0987 -8.1604 2.2395
-1.8035 -8.2289 2.2395
-1.5062 -8.2871 2.2395
-1.2071 -8.3348 2.2395
-0.9065 -8.3720 2.2395
-0.6048 -8.3986 2.2395
-0.3024 -8.4147 2.2395
0.0003 -7.7163 2.2395
0.2778 -7.7115 2.2395
0.5550 -7.6971 2.2395
0.8316 -7.6729 2.2395
1.1071 -7.6390 2.2395
1.3814 -7.5955 2.2395
1.6539 -7.5424 2.2395
1.8360 -7.1354 2.1364
2.0919 -7.0666 2.1364
2.1825 -6.5035 1.9881
2.5959 -6.9021 2.1364
2.8434 -6.8066 2.1364
3.0875 -6.7025 2.1364
3.3279 -6.5898 2.1364
3.5642 -6.4687 2.1364
3.7962 -6.3393 2.1364
4.0236 -6.2017 2.1364
4.2462 -6.0562 2.1364
4.4635 -5.9028 2.1364
4.6755 -5.7418 2.1364
4.8817 -5.5733 2.1364
5.0820 -5.3975 2.1364
5.2761 -5.2147 2.1364
5.4637 -5.0250 2.1364
5.6446 -4.8286 2.1364
5.9496 -4.7300 2.1845
6.0162 -4.4397 2.1474
6.0638 -4.1468 2.1083
6.1101 -3.8638 2.0731
6.1553 -3.5895 2.0418
6.2000 -3.3230 2.0141
6.2459 -3.0640 1.9903
6.2908 -2.8104 1.9696
6.3380 -2.5625 1.9526
6.4313 -2.3351 1.9526
6.4214 -2.0737 1.9241
6.4722 -1.8362 1.9166
5.9054 -1.4484 1.7307
5.9435 -1.2333 1.7263
5.9815 -1.0187 1.7240
6.0196 -0.8040 1.7240
6.0577 -0.5887 1.7262
6.0961 -0.3721 1.7307
6.1348 -0.1538 1.7374
6.1740 0.0669 1.7465
6.2136 0.2906 1.7579
6.0906 0.5045 1.7256
6.9359 0.8260 1.9704
6.9815 1.0868 1.9914
7.0289 1.3541 2.0157
7.0805 1.6295 2.0441
7.1345 1.9139 2.0764
7.1906 2.2084 2.1126
7.2493 2.5143 2.1531
7.2649 2.8156 2.1845
7.1652 3.0769 2.1845
7.0561 3.3347 2.1845
6.9375 3.5885 2.1845
6.8098 3.8380 2.1845
6.6730 4.0829 2.1845
6.5272 4.3229 2.1845
6.3728 4.5575 2.1845
6.2097 4.7865 2.1845
6.0384 5.0096 2.1845
5.7299 5.1114 2.1364
5.5466 5.3170 2.1364
5.3559 5.5160 2.1364
5.1579 5.7079 2.1364
4.9528 5.8926 2.1364
4.7411 6.0697 2.1364
4.5230 6.2391 2.1364
4.2986 6.4004 2.1364
4.0684 6.5536 2.1364
3.8327 6.6982 2.1364
3.5917 6.8341 2.1364
