ply
format ascii 1.0
element vertex 2092
property float32 x
property float32 y
property float32 z
end_header
6.7130 -14.5957 -0.8119
6.9229 -13.7303 -0.7741
7.0260 -12.7721 -0.7307
7.2115 -12.0621 -0.7013
7.2750 -11.2318 -0.6646
5.7866 -8.2673 -0.4986
5.8676 -7.7731 -0.4786
5.8612 -7.2107 -0.4541
6.0305 -6.8975 -0.4450
6.1007 -6.4917 -0.4300
6.1575 -6.0977 -0.4156
6.2206 -5.7328 -0.4030
6.1907 -5.3071 -0.3857
6.3487 -5.0585 -0.3812
6.4043 -4.7371 -0.3712
6.3552 -4.3567 -0.3563
6.4995 -4.1207 -0.3529
6.5498 -3.8300 -0.3451
6.5061 -3.4972 -0.3331
6.5973 -3.2466 -0.3287
6.6438 -2.9781 -0.3225
6.6894 -2.7145 -0.3168
6.7343 -2.4550 -0.3116
6.7786 -2.1989 -0.3068
6.7769 -1.9324 -0.3004
6.9172 -1.7064 -0.3006
6.9609 -1.4543 -0.2970
6.9041 -1.1855 -0.2895
7.0590 -0.9527 -0.2913
7.1027 -0.7001 -0.2887
7.1467 -0.4461 -0.2865
7.0768 -0.1872 -0.2801
7.2243 0.0683 -0.2827
7.2696 0.3300 -0.2815
7.3155 0.5958 -0.2807
7.2570 0.8541 -0.2763
7.4220 1.1449 -0.2806
7.4711 1.4287 -0.2809
7.4021 1.6930 -0.2772
7.5615 2.0176 -0.2823
7.6152 2.3277 -0.2839
7.6713 2.6494 -0.2860
7.7455 2.9903 -0.2891
7.5818 3.2443 -0.2838
7.0739 3.3322 -0.2660
6.6155 3.4115 -0.2503
6.1986 3.4837 -0.2363
5.8169 3.5497 -0.2239
5.5847 3.6894 -0.2175
5.6266 4.0143 -0.2221
5.6876 4.3741 -0.2280
5.7339 4.7467 -0.2340
5.8419 5.2005 -0.2433
5.9225 5.6659 -0.2524
5.8718 6.0356 -0.2567
6.0957 6.7332 -0.2742
6.2202 7.3871 -0.2887
6.1979 7.9209 -0.2980
6.3401 8.7308 -0.3169
6.5660 9.7603 -0.3425
6.7663 10.8817 -0.3701
7.0631 12.3243 -0.4072
7.2974 13.8638 -0.4458
7.3912 15.3549 -0.4817
6.8939 15.7435 -0.4827
6.4159 16.2116 -0.4869
2.2733 6.4070 -0.1888
7.3041 23.1953 -0.6722
6.5324 23.6789 -0.6761
8.0974 34.0780 -0.9604
2.0327 10.1636 -0.2833
8.2803 50.8222 -1.4037
8.1085 64.2083 -1.7606
6.9032 76.7265 -2.0926
2.0440 37.9278 -1.0308
1.5884 88.4748 -2.4006
-1.5858 88.4014 -2.3993
-4.7596 88.3389 -2.4027
-11.5205 70.7156 -1.9575
-13.8323 69.1654 -1.9332
-10.4498 43.9807 -1.2435
-15.1302 54.8479 -1.5717
-16.9669 53.8835 -1.5680
-18.3872 51.8246 -1.5344
-16.0239 40.4907 -1.2221
-15.9098 36.3347 -1.1201
-15.8160 32.8581 -1.0368
-15.7379 29.9004 -0.9676
-16.2692 28.3890 -0.9441
-17.6759 28.4278 -0.9737
-19.1527 28.4710 -1.0065
-20.7094 28.5193 -1.0429
-22.3573 28.5732 -1.0834
-22.9321 27.2346 -1.0733
-22.8936 25.2882 -1.0385
-26.6334 27.3773 -1.1744
-27.7321 26.5315 -1.1923
-31.1636 27.7424 -1.3099
-32.9765 27.2995 -1.3586
-37.9460 29.1834 -1.5359
-38.8875 27.7449 -1.5498
-39.1041 25.8335 -1.5377
-39.3167 23.9929 -1.5286
-39.5261 22.2146 -1.5222
-39.7331 20.4905 -1.5184
-39.8935 18.7926 -1.5153
-39.9114 17.0789 -1.5094
-39.9522 15.4246 -1.5066
-39.9956 13.8136 -1.5063
-40.0416 12.2397 -1.5081
-63.4296 16.9250 -2.3926
-63.4258 14.5071 -2.3993
-14.7367 2.8183 -0.5598
-71.8931 11.0908 -2.7458
-71.9009 8.4628 -2.7645
-88.4606 -11.9385 -3.6838
-80.4380 -13.8121 -3.4038
-65.6903 -13.7240 -2.8278
-60.3409 -14.8857 -2.6455
-36.3820 -10.3740 -1.6265
-35.5413 -11.5291 -1.6221
-41.3449 -15.0726 -1.9287
-38.0712 -15.4491 -1.8176
-64.1966 -28.7764 -3.1406
-68.9613 -33.9362 -3.4617
-63.6829 -34.2318 -3.2846
-63.6733 -37.2332 -3.3791
-39.9849 -25.3505 -2.1866
-36.2922 -24.8800 -2.0483
-34.3427 -25.4031 -2.0037
-33.7394 -26.8835 -2.0385
-74.1416 -63.5595 -4.6474
-27.1048 -24.9795 -1.7662
-22.5647 -22.3462 -1.5317
-14.8909 -15.8456 -1.0553
-33.1511 -37.9176 -2.4592
-21.6125 -26.5894 -1.6826
-20.4539 -27.0969 -1.6762
-24.9055 -35.5832 -2.1555
-34.4288 -53.1555 -3.1583
-22.1699 -37.0829 -2.1644
-26.6324 -48.4143 -2.7800
-16.2844 -32.2982 -1.8270
-21.8579 -47.5256 -2.6520
-11.7540 -28.1811 -1.5532
-15.6933 -41.7910 -2.2778
-10.7723 -32.1502 -1.7349
-9.5411 -32.2811 -1.7266
-11.0225 -42.9066 -2.2772
-10.1562 -46.3892 -2.4456
-8.3350 -45.9059 -2.4065
-8.6398 -59.7143 -3.1160
-9.1694 -84.7579 -4.4069
6.2899 -87.4141 -2.5538
7.4145 -68.5491 -2.0059
9.6168 -66.4804 -1.9501
5.8720 -32.3473 -0.9519
6.3473 -28.9982 -0.8567
6.8194 -26.5518 -0.7882
5.8646 -19.8470 -0.5925
6.0910 -18.1836 -0.5463
6.3729 -16.9752 -0.5137
6.5001 -15.5887 -0.4757
6.7173 -14.6096 -0.4499
6.9223 -13.7336 -0.4273
7.0818 -12.8776 -0.4052
7.2110 -12.0652 -0.3844
7.2722 -11.2313 -0.3627
5.7863 -8.2697 -0.2711
5.8672 -7.7754 -0.2590
5.8612 -7.2134 -0.2446
6.0301 -6.8996 -0.2385
6.1003 -6.4938 -0.2292
6.1571 -6.0998 -0.2202
6.2203 -5.7348 -0.2122
6.1908 -5.3094 -0.2019
6.3483 -5.0605 -0.1981
6.4039 -4.7391 -0.1916
6.3553 -4.3590 -0.1826
6.4992 -4.1226 -0.1795
6.5495 -3.8319 -0.1740
6.5058 -3.4991 -0.1666
6.5970 -3.2485 -0.1629
6.6435 -2.9800 -0.1584
6.6891 -2.7164 -0.1541
6.7340 -2.4569 -0.1500
6.7783 -2.2008 -0.1461
6.7765 -1.9342 -0.1415
6.9169 -1.7083 -0.1400
6.9605 -1.4562 -0.1367
6.9042 -1.1875 -0.1316
7.0587 -0.9546 -0.1307
7.1024 -0.7020 -0.1278
7.1463 -0.4481 -0.1251
7.0769 -0.1892 -0.1206
7.2239 0.0663 -0.1198
7.2692 0.3279 -0.1175
7.3152 0.5937 -0.1153
7.2571 0.8521 -0.1116
7.4216 1.1428 -0.1114
7.4707 1.4266 -0.1095
7.4022 1.6909 -0.1061
7.5612 2.0153 -0.1060
7.6148 2.3254 -0.1045
7.6708 2.6470 -0.1031
7.7449 2.9878 -0.1020
7.5856 3.2437 -0.0981
7.0773 3.3317 -0.0898
6.6184 3.4110 -0.0826
6.2013 3.4832 -0.0762
5.8193 3.5493 -0.0704
5.5844 3.6874 -0.0667
5.6263 4.0122 -0.0664
5.6872 4.3718 -0.0664
5.7359 4.7463 -0.0663
5.8415 5.1979 -0.0671
5.9220 5.6632 -0.0677
5.8719 6.0335 -0.0670
6.0952 6.7301 -0.0695
6.2197 7.3838 -0.0712
6.1981 7.9184 -0.0714
6.3394 8.7270 -0.0738
6.5653 9.7561 -0.0775
6.7682 10.8814 -0.0815
7.0621 12.3188 -0.0871
7.2994 13.8635 -0.0929
7.3933 15.3546 -0.0978
6.8954 15.7424 -0.0956
6.4169 16.2096 -0.0941
2.2733 6.4052 -0.0357
7.3060 23.1950 -0.1244
6.5337 23.6775 -0.1227
7.7774 32.7224 -0.1646
2.0332 10.1631 -0.0498
7.9763 48.9435 -0.2347
7.9307 62.7847 -0.2960
6.8301 75.8959 -0.3533
2.0442 37.9234 -0.1751
1.5829 88.1594 -0.4058
-1.5839 88.2482 -0.4068
-4.8321 89.6529 -0.4159
-8.8127 97.9335 -0.4592
-12.0508 95.4069 -0.4543
-11.5807 71.0634 -0.3452
-13.8067 69.0166 -0.3435
-10.4529 43.9807 -0.2252
-15.1239 54.8084 -0.2898
-17.4003 55.2433 -0.3028
-18.6161 52.4538 -0.2992
-15.7655 39.8253 -0.2371
-15.7587 35.9783 -0.2244
-15.7530 32.7168 -0.2143
-15.7481 29.9100 -0.2065
-16.4027 28.6125 -0.2086
-17.8208 28.6512 -0.2213
-19.3078 28.6918 -0.2353
-20.8730 28.7346 -0.2508
-22.5265 28.7791 -0.2680
-21.8356 25.9228 -0.2581
-24.8016 27.3855 -0.2923
-26.6440 27.3773 -0.3140
-29.2237 27.9472 -0.3452
-28.5262 25.3839 -0.3385
-33.5278 27.7437 -0.4006
-35.7729 27.4995 -0.4311
-36.2416 25.8447 -0.4412
-36.6985 24.2319 -0.4521
-37.1450 22.6555 -0.4636
-37.5826 21.1102 -0.4759
-38.0128 19.5914 -0.4889
-38.8025 18.2668 -0.5074
-38.8470 16.6117 -0.5170
-38.8902 15.0030 -0.5272
-38.9324 13.4349 -0.5380
-38.9735 11.9019 -0.5495
-42.9719 11.4540 -0.6187
-61.8968 14.1398 -0.9106
-14.7367 2.8141 -0.2217
-61.9312 9.5366 -0.9532
-70.4334 8.2704 -1.1098
-88.3389 -11.9467 -1.6696
-73.4636 -12.6351 -1.4285
-65.3229 -13.6657 -1.3078
-58.7775 -14.5167 -1.2124
-58.7702 -16.7747 -1.2498
-58.7628 -19.0789 -1.2894
-58.7552 -21.4369 -1.3312
-61.2482 -24.8724 -1.4341
-64.3372 -28.8588 -1.5582
-68.8255 -33.8904 -1.7257
-63.6829 -34.2516 -1.6547
-63.6732 -37.2534 -1.7162
-63.6632 -40.3832 -1.7821
-75.4724 -55.8521 -2.2870
-37.9956 -30.2881 -1.2004
-74.1415 -63.5861 -2.4457
-68.0477 -67.4148 -2.4598
-14.8001 -15.7548 -0.5616
-37.8576 -43.3163 -1.5115
-62.3638 -76.7518 -2.6259
-27.1787 -38.8438 -1.2835
-35.2751 -54.4797 -1.7728
-33.9155 -56.7473 -1.8208
-28.6580 -52.1126 -1.6507
-24.9282 -49.4572 -1.5483
-19.2501 -41.8678 -1.2968
-34.2897 -82.2362 -2.5225
-24.0277 -64.0030 -1.9462
-14.8386 -44.2989 -1.3366
-18.4970 -62.5992 -1.8757
-15.2056 -59.2055 -1.7633
-12.6527 -57.8072 -1.7126
-11.1642 -61.5036 -1.8141
-10.6842 -73.8629 -2.1707
6.2891 -87.4331 -0.5795
7.3987 -68.4241 -0.4518
5.1110 -35.3432 -0.2322
5.8712 -32.3530 -0.2113
6.4021 -29.2578 -0.1896
6.8186 -26.5566 -0.1706
5.8639 -19.8508 -0.1262
6.0897 -18.1852 -0.1143
6.3722 -16.9788 -0.1053
6.4995 -15.5921 -0.0952
6.7167 -14.6129 -0.0877
6.9217 -13.7368 -0.0809
7.0812 -12.8808 -0.0742
7.2104 -12.0683 -0.0678
7.2695 -11.2308 -0.0613
5.7860 -8.2721 -0.0437
5.8668 -7.7776 -0.0396
5.8613 -7.2162 -0.0352
6.0298 -6.9018 -0.0321
6.1000 -6.4960 -0.0285
6.1568 -6.1019 -0.0250
6.2199 -5.7369 -0.0217
6.1909 -5.3118 -0.0182
6.3480 -5.0625 -0.0153
6.4036 -4.7411 -0.0122
6.3554 -4.3612 -0.0090
6.4989 -4.1245 -0.0061
6.5492 -3.8339 -0.0031
6.5055 -3.5010 -0.0002
6.5967 -3.2503 0.0027
6.6431 -2.9819 0.0056
6.6887 -2.7183 0.0085
6.7336 -2.4588 0.0114
6.7780 -2.2026 0.0144
6.7762 -1.9361 0.0172
6.9166 -1.7102 0.0204
6.9602 -1.4581 0.0234
6.9043 -1.1894 0.0261
7.0584 -0.9566 0.0297
7.1021 -0.7040 0.0329
7.1460 -0.4501 0.0361
7.0769 -0.1911 0.0389
7.2236 0.0643 0.0428
7.2689 0.3259 0.0464
7.3148 0.5916 0.0500
7.2571 0.8501 0.0530
7.4212 1.1407 0.0577
7.4703 1.4244 0.0617
7.4023 1.6889 0.0649
7.5608 2.0131 0.0702
7.6144 2.3231 0.0748
7.6703 2.6446 0.0796
7.7444 2.9853 0.0849
7.5894 3.2430 0.0878
7.0806 3.3311 0.0863
6.6214 3.4105 0.0851
6.2039 3.4827 0.0840
5.8217 3.5489 0.0831
5.5842 3.6853 0.0840
5.6260 4.0101 0.0893
5.6868 4.3695 0.0952
5.7380 4.7460 0.1013
5.8411 5.1954 0.1090
5.9215 5.6606 0.1168
5.8720 6.0313 0.1226
6.0947 6.7271 0.1349
6.2191 7.3805 0.1462
6.1983 7.9159 0.1551
6.3387 8.7231 0.1691
6.5645 9.7518 0.1873
6.7702 10.8811 0.2072
7.0612 12.3133 0.2326
7.3015 13.8631 0.2600
7.3500 15.2601 0.2843
6.8058 15.5333 0.2877
6.3689 16.0837 0.2962
2.2733 6.4034 0.1174
6.9983 22.2119 0.4054
6.5351 23.6762 0.4305
8.0410 33.8227 0.6129
8.2923 41.4395 0.7487
8.2636 50.6938 0.9137
8.5309 67.5200 1.2145
7.3544 81.7033 1.4673
2.0444 37.9190 0.6801
1.5790 87.9404 1.5761
-1.6029 89.2601 1.5992
-4.7882 88.8073 1.5911
-8.0609 89.5499 1.6051
-11.3001 89.4354 1.6044
-14.3249 87.8755 1.5784
-17.8214 89.0581 1.6023
-21.2907 89.5535 1.6147
-15.0627 54.5701 0.9864
-17.3915 55.1985 1.0008
-19.1115 53.8329 0.9795
-15.7655 39.8130 0.7273
-16.1545 36.8703 0.6766
-15.7530 32.7064 0.6033
-15.7480 29.9003 0.5547
-16.4081 28.6126 0.5342
-18.0764 29.0525 0.5462
-19.3145 28.6920 0.5436
-21.1728 29.1371 0.5568
-22.5348 28.7793 0.5551
-21.8362 25.9139 0.5051
-24.8109 27.3855 0.5398
-26.6544 27.3773 0.5465
-29.2368 27.9484 0.5656
-28.5280 25.3747 0.5213
-33.6013 27.7923 0.5806
-35.8192 27.5225 0.5857
-36.5005 26.0168 0.5651
-36.9617 24.3934 0.5421
-37.4129 22.8066 0.5198
-37.8555 21.2514 0.4984
-38.0694 19.6086 0.4748
-39.2855 18.4820 0.4641
-39.3051 16.7957 0.4396
-39.3242 15.1587 0.4161
-39.3427 13.5649 0.3935
-39.0009 11.8989 0.3684
-43.2152 11.5064 0.3850
-61.9775 14.1405 0.5199
-14.7366 2.8100 0.1162
-61.9626 9.5240 0.4582
-70.3680 8.2431 0.4868
-94.3780 -9.3545 0.4011
-65.2970 -8.8488 0.2499
-80.1714 -13.8113 0.2731
-65.6902 -13.7611 0.1963
-58.7775 -14.5334 0.1511
-58.7702 -16.7915 0.1266
-58.7628 -19.0959 0.1021
-58.7598 -21.4558 0.0774
-15.5587 -6.3229 0.0139
-64.4231 -28.9168 0.0300
-68.6462 -33.8231 0.0022
-63.6828 -34.2714 -0.0260
-63.6732 -37.2736 -0.0547
-63.6631 -40.4038 -0.0840
-75.4226 -55.8409 -0.1721
-74.1558 -59.1391 -0.2067
-74.1414 -63.6127 -0.2457
-9.8821 -9.7939 -0.0439
-14.7877 -15.7476 -0.0747
-61.0154 -69.8385 -0.3476
-60.9229 -75.0047 -0.3891
-14.8636 -44.3858 -0.2846
-15.2020 -59.2073 -0.3862
-13.4260 -92.8406 -0.6151
6.3010 -87.6276 1.3978
2.2439 -20.7588 0.3332
5.1094 -35.3432 0.5720
5.8705 -32.3588 0.5294
6.4001 -29.2574 0.4849
6.8177 -26.5614 0.4469
5.8633 -19.8546 0.3400
6.0898 -18.1911 0.3177
6.3716 -16.9824 0.3032
6.4989 -15.5956 0.2853
6.7162 -14.6163 0.2745
6.9212 -13.7401 0.2656
7.0807 -12.8840 0.2569
7.2099 -12.0714 0.2489
7.2667 -11.2304 0.2400
5.7857 -8.2745 0.1837
5.8665 -7.7799 0.1798
5.8614 -7.2189 0.1742
6.0294 -6.9039 0.1744
6.0996 -6.4981 0.1722
6.1564 -6.1040 0.1703
6.2196 -5.7389 0.1689
6.1910 -5.3142 0.1656
6.3476 -5.0645 0.1676
6.4033 -4.7431 0.1673
6.3554 -4.3634 0.1646
6.4985 -4.1265 0.1673
6.5488 -3.8358 0.1678
6.5051 -3.5029 0.1662
6.5964 -3.2522 0.1684
6.6428 -2.9837 0.1696
6.6884 -2.7202 0.1712
6.7333 -2.4607 0.1729
6.7776 -2.2045 0.1749
6.7759 -1.9380 0.1759
6.9163 -1.7121 0.1809
6.9599 -1.4600 0.1836
6.9043 -1.1914 0.1840
7.0580 -0.9585 0.1901
7.1017 -0.7059 0.1936
7.1457 -0.4520 0.1974
7.0770 -0.1931 0.1983
7.2233 0.0623 0.2056
7.2685 0.3239 0.2103
7.3145 0.5896 0.2153
7.2572 0.8481 0.2176
7.4209 1.1385 0.2268
7.4699 1.4222 0.2330
7.4023 1.6868 0.2359
7.5604 2.0108 0.2465
7.6140 2.3208 0.2541
7.6698 2.6422 0.2624
7.7438 2.9828 0.2718
7.5932 3.2424 0.2738
7.0839 3.3305 0.2627
6.6244 3.4100 0.2530
6.2066 3.4823 0.2444
5.8241 3.5485 0.2368
5.5839 3.6834 0.2347
5.6258 4.0080 0.2449
5.6864 4.3673 0.2567
5.7400 4.7456 0.2692
5.8406 5.1929 0.2851
5.9211 5.6579 0.3013
5.8722 6.0291 0.3123
6.0941 6.7240 0.3394
6.2185 7.3772 0.3636
6.1984 7.9133 0.3816
6.3381 8.7193 0.4120
6.5638 9.7475 0.4521
6.7721 10.8807 0.4960
6.9640 12.1401 0.5448
7.0594 13.3994 0.5926
7.3974 15.3540 0.6702
6.8984 15.7402 0.6788
6.4190 16.2056 0.6914
2.2733 6.4015 0.2705
6.4557 20.4842 0.8580
6.1209 22.1695 0.9215
8.0410 33.8138 1.3962
8.2924 41.4289 1.7009
8.2637 50.6812 2.0709
6.5985 52.2127 2.1254
4.7187 52.4102 2.1273
2.0406 37.8421 1.5330
0.9897 55.1171 2.2304
-0.9904 55.1266 2.2304
-2.9712 55.0862 2.2304
-4.9522 54.9964 2.2304
-6.6123 52.3176 2.1272
-8.5016 52.1368 2.1272
-10.3905 51.9084 2.1272
-12.4131 52.1964 2.1504
-14.3211 51.8678 2.1504
-15.9325 50.5524 2.1113
-13.6611 38.4685 1.6201
-15.7654 39.8006 1.6920
-15.7587 35.9556 1.5447
-15.7529 32.6960 1.4211
-15.7480 29.8907 1.3160
-15.7838 27.5150 1.2286
-15.7769 25.3482 1.1495
-15.7706 23.4195 1.0801
-15.7651 21.6876 1.0188
-15.7600 20.1200 0.9641
-15.7554 18.6907 0.9152
-15.7512 17.3790 0.8712
-15.7473 16.1680 0.8314
-29.2401 27.9401 1.4769
-28.5298 25.3656 1.3815
-33.5998 27.7789 1.5629
-35.8181 27.5089 1.6033
-36.4999 26.0039 1.5748
-36.9624 24.3814 1.5397
-37.4145 22.7953 1.5069
-37.8577 21.2405 1.4764
-38.0723 19.5982 1.4396
-39.2857 18.4700 1.4421
-39.3053 16.7838 1.4024
-39.3243 15.1470 1.3655
-39.3428 13.5534 1.3310
-39.0010 11.8876 1.2869
-43.2634 11.5068 1.3939
-61.9774 14.1229 1.9519
-57.0359 10.8593 1.7576
-61.9626 9.5066 1.8704
-70.3669 8.2233 2.0827
-73.2196 5.9022 2.1272
-74.5193 3.3208 2.1272
-79.4407 0.6857 2.2304
-80.6827 -2.2007 2.2304
-81.8567 -5.1777 2.2304
-79.1245 -7.8646 2.1273
-65.2501 -8.8606 1.7329
-72.8653 -12.5730 1.9137
-65.1447 -13.6651 1.6939
-58.7774 -14.5501 1.5150
-34.3530 -9.8250 0.8788
-30.1529 -9.8074 0.7665
-58.7752 -21.4786 1.4869
-15.5587 -6.3275 0.3922
-63.6671 -28.5966 1.6017
-20.2646 -9.9909 0.5095
-18.2821 -9.8444 0.4602
-16.5835 -9.7131 0.4186
-63.6630 -40.4244 1.6144
-14.2634 -9.7924 0.3641
-75.2980 -55.7743 1.9386
-12.5953 -10.0491 0.3278
-74.1413 -63.6393 1.9549
-43.3293 -39.9801 1.1604
-9.9083 -9.8237 0.2702
-14.8007 -15.7673 0.4123
-60.9398 -69.7772 1.7392
-55.8089 -68.7326 1.6375
-43.0672 -57.1126 1.3039
-42.9261 -66.3389 1.4013
-9.7755 -16.3665 0.3337
-10.0231 -18.2376 0.3599
-42.8658 -85.0961 1.6287
-10.1102 -24.2610 0.4399
-9.8551 -26.2662 0.4652
-14.8887 -44.4730 0.7710
-9.8226 -38.2661 0.6402
-9.7238 -44.4491 0.7330
-9.8205 -67.9258 1.0957
-9.7344 -90.0442 1.4415
-0.0006 -58.0792 2.2304
1.9861 -55.3378 2.1273
3.9669 -55.1870 2.1273
2.2494 -20.8162 0.8060
5.1078 -35.3432 1.3769
5.8697 -32.3646 1.2708
6.4018 -29.2741 1.1605
6.8169 -26.5662 1.0652
5.8626 -19.8584 0.8067
6.0899 -18.1969 0.7503
6.3632 -16.9652 0.7113
6.4847 -15.5663 0.6648
6.7156 -14.6196 0.6372
6.8122 -13.5281 0.6029
6.9272 -12.6088 0.5757
7.1945 -12.0496 0.5648
7.2639 -11.2299 0.5414
5.7853 -8.2769 0.4113
5.8661 -7.7821 0.3995
5.8615 -7.2216 0.3839
6.0290 -6.9061 0.3811
6.0992 -6.5002 0.3732
6.1560 -6.1061 0.3657
6.2192 -5.7410 0.3598
6.1911 -5.3165 0.3496
6.3473 -5.0665 0.3507
6.4029 -4.7451 0.3470
6.3555 -4.3656 0.3385
6.4982 -4.1284 0.3409
6.5485 -3.8377 0.3389
6.5048 -3.5048 0.3328
6.5960 -3.2541 0.3342
6.6425 -2.9856 0.3339
6.6881 -2.7220 0.3340
6.7330 -2.4625 0.3346
6.7773 -2.2064 0.3356
6.7756 -1.9398 0.3348
6.9159 -1.7140 0.3416
6.9595 -1.4619 0.3440
6.9044 -1.1934 0.3420
7.0577 -0.9604 0.3508
7.1014 -0.7079 0.3546
7.1453 -0.4540 0.3589
7.0771 -0.1950 0.3580
7.2229 0.0603 0.3685
7.2682 0.3218 0.3743
7.3141 0.5875 0.3808
7.2573 0.8461 0.3824
7.4205 1.1364 0.3962
7.4696 1.4201 0.4045
7.4024 1.6847 0.4072
7.5600 2.0085 0.4229
7.6136 2.3184 0.4337
7.6692 2.6398 0.4454
7.7433 2.9803 0.4590
7.5970 3.2417 0.4603
7.0873 3.3299 0.4395
6.6274 3.4095 0.4213
6.2092 3.4818 0.4051
5.8265 3.5480 0.3908
5.5837 3.6813 0.3856
5.6255 4.0059 0.4007
5.6860 4.3650 0.4184
5.7420 4.7453 0.4374
5.8402 5.1904 0.4613
5.9206 5.6552 0.4861
5.8723 6.0269 0.5022
6.0936 6.7210 0.5441
5.9735 7.0840 0.5584
6.0846 7.7653 0.5972
6.2790 8.6351 0.6491
6.5631 9.7432 0.7171
6.8283 10.9676 0.7917
7.0593 12.3024 0.8723
7.3407 13.9292 0.9716
7.3994 15.3537 1.0550
6.8294 15.5781 1.0559
6.4200 16.2035 1.0849
2.2732 6.3997 0.4237
5.9789 18.9659 1.2434
5.6454 20.4418 1.3285
5.2724 22.1655 1.4297
6.7963 33.9458 2.1754
5.4431 33.3742 2.1273
4.2370 33.5180 2.1273
3.0283 33.6268 2.1273
1.8177 33.7005 2.1273
0.6352 35.3742 2.2304
-0.6360 35.3781 2.2304
-1.9071 35.3452 2.2304
-3.1774 35.2755 2.2304
-4.4464 35.1690 2.2304
-5.7132 35.0257 2.2304
-6.6542 33.2324 2.1272
-7.8563 33.0253 2.1272
-9.0544 32.7830 2.1272
-10.2393 32.4785 2.1254
-11.4262 32.1656 2.1254
-9.6314 24.3074 1.6238
-13.7810 31.4334 2.1254
-14.9473 31.0139 2.1254
-15.7480 29.8810 2.0783
-14.0543 24.4920 1.7313
-15.7768 25.3397 1.8231
-15.7706 23.4115 1.7171
-15.7650 21.6800 1.6237
-15.7600 20.1127 1.5407
-15.7554 18.6838 1.4668
-15.7511 17.3724 1.4004
-15.7472 16.1616 1.3406
-15.7436 15.0376 1.2865
-15.7402 13.9886 1.2374
-15.7371 13.0050 1.1926
-15.7341 12.0785 1.1518
-15.7313 11.2021 1.1145
-15.7286 10.3697 1.0803
-15.7260 9.5762 1.0488
-15.7236 8.8168 1.0199
-15.7212 8.0878 0.9933
-15.7190 7.3854 0.9688
-15.7168 6.7065 0.9463
-35.5716 13.6909 2.0950
-36.2996 12.4943 2.0940
-37.0266 11.2750 2.0949
-37.7822 10.0380 2.0992
-38.5669 8.7774 2.1068
-39.3549 7.4818 2.1164
-40.1346 6.1464 2.1273
-40.6703 4.7415 2.1273
-41.1636 3.3067 2.1273
-43.6292 1.9321 2.2304
-44.0520 0.3680 2.2304
-44.4247 -1.2240 2.2304
-44.7456 -2.8427 2.2304
-45.0131 -4.4866 2.2304
-45.2251 -6.1540 2.2304
-43.2817 -7.4805 2.1273
-43.3715 -9.1101 2.1272
-39.0602 -9.6803 1.9143
-33.7471 -9.6614 1.6549
-30.1528 -9.8161 1.4816
-43.2386 -15.8137 2.1320
-43.2329 -17.5951 2.1424
-43.2270 -19.4288 2.1561
-20.2646 -9.9971 1.0190
-18.2922 -9.8555 0.9290
-16.6377 -9.7502 0.8548
-42.4495 -26.9682 2.2104
-14.2924 -9.8171 0.7558
-41.0798 -30.4424 2.2104
-12.2891 -9.8091 0.6743
-39.4127 -33.8441 2.2104
-25.3039 -23.3574 1.4540
-9.9064 -9.8256 0.5848
-14.8138 -15.7871 0.9007
-35.1862 -40.3034 2.2104
-9.9124 -12.2121 0.6454
-30.5953 -40.5871 2.0721
-9.9723 -14.2665 0.7052
-26.1852 -40.4802 1.9417
-9.8141 -16.4364 0.7666
-9.9967 -18.1952 0.8269
-10.0011 -19.8599 0.8813
-19.2520 -41.9088 1.8194
-18.3176 -43.9688 1.8708
-9.8523 -26.2662 1.0974
-14.9139 -44.5607 1.8316
-14.3728 -48.6816 1.9721
-9.7442 -37.9710 1.5187
-9.7232 -44.4578 1.7588
-9.8437 -54.2701 2.1272
-7.9034 -54.6796 2.1272
-6.0853 -56.3037 2.1777
-4.1633 -57.9026 2.2304
-2.0842 -58.0401 2.2304
-0.0005 -36.5763 2.2304
1.3110 -36.5440 2.2304
2.4985 -34.7701 2.1273
2.2487 -20.8165 1.2787
4.9758 -34.4402 2.1273
5.8690 -32.3704 2.0138
6.0513 -27.6796 1.7370
6.6266 -25.8325 1.6379
5.8620 -19.8623 1.2744
6.1289 -18.3191 1.1915
6.3626 -16.9688 1.1206
6.5427 -15.7105 1.0552
6.7150 -14.6230 1.0006
6.8423 -13.5922 0.9493
6.9632 -12.6784 0.9054
7.1277 -11.9417 0.8737
7.2185 -11.1634 0.8383
5.6643 -8.1065 0.6261
5.7472 -7.6272 0.6072
5.7885 -7.1342 0.5867
5.8608 -6.7159 0.5718
5.9840 -6.3798 0.5638
6.0802 -6.0333 0.5548
6.2189 -5.7430 0.5510
6.1912 -5.3189 0.5340
6.3469 -5.0686 0.5342
6.4026 -4.7470 0.5270
6.3556 -4.3678 0.5128
6.4979 -4.1304 0.5148
6.5482 -3.8396 0.5105
6.5045 -3.5067 0.4998
6.5957 -3.2560 0.5004
6.6422 -2.9875 0.4984
6.6878 -2.7239 0.4972
6.7327 -2.4644 0.4966
6.7770 -2.2083 0.4967
6.7753 -1.9417 0.4941
6.9156 -1.7159 0.5026
6.9592 -1.4638 0.5047
6.9045 -1.1953 0.5004
7.0574 -0.9624 0.5118
7.1011 -0.7098 0.5159
7.1450 -0.4560 0.5207
7.0772 -0.1970 0.5181
7.2226 0.0583 0.5317
7.2678 0.3198 0.5388
7.3138 0.5855 0.5467
7.2574 0.8441 0.5476
7.3926 1.1301 0.5638
7.3049 1.3867 0.5637
7.3103 1.6616 0.5716
7.4069 1.9658 0.5876
7.4595 2.2693 0.6012
7.5139 2.5841 0.6160
7.5706 2.9116 0.6322
7.6008 3.2411 0.6474
7.0906 3.3293 0.6169
6.6303 3.4090 0.5901
6.2119 3.4814 0.5664
5.8289 3.5476 0.5453
5.5834 3.6793 0.5369
5.5030 3.9169 0.5448
5.5177 4.2339 0.5634
5.5831 4.6119 0.5891
5.6098 4.9836 0.6129
5.7088 5.4508 0.6472
5.9949 6.1504 0.7069
6.0931 6.7179 0.7492
6.2030 7.3535 0.7975
6.3310 8.0770 0.8536
6.3995 8.7979 0.9077
6.5623 9.7389 0.9827
6.8275 10.9627 1.0838
7.0583 12.2969 1.1930
7.3396 13.9229 1.3276
7.4015 15.3534 1.4410
6.9015 15.7380 1.4559
6.4211 16.2015 1.4794
2.2732 6.3979 0.5774
5.9805 18.9658 1.6938
5.2389 18.9647 1.6781
5.2829 22.2034 1.9490
4.8867 24.4014 2.1273
4.0034 24.5404 2.1273
3.1170 24.6520 2.1273
2.2281 24.7362 2.1273
1.4023 25.9946 2.2304
0.4673 26.0254 2.2304
-0.4681 26.0275 2.2304
-1.4034 26.0008 2.2304
-2.3378 25.9453 2.2304
-3.2706 25.8611 2.2304
-4.2012 25.7481 2.2304
-5.1288 25.6063 2.2304
-6.0527 25.4359 2.2304
-6.6495 24.0684 2.1272
-6.7257 21.3270 1.9021
-8.3884 23.6064 2.1272
-9.2488 23.3345 2.1272
-10.1023 23.0354 2.1272
-8.9666 18.5987 1.7421
-11.7761 22.3374 2.1254
-12.6040 21.9573 2.1254
-13.4221 21.5504 2.1254
-14.2297 21.1167 2.1254
-14.0759 19.3503 1.9910
-15.7600 20.1054 2.1187
-15.7554 18.6768 2.0195
-15.7511 17.3657 1.9307
-13.8291 14.1874 1.6255
-15.7436 15.0314 1.7789
-15.7402 13.9827 1.7136
-15.7371 12.9992 1.6544
-15.7341 12.0729 1.6004
-15.7312 11.1967 1.5512
-15.7286 10.3644 1.5063
-15.7260 9.5710 1.4652
-15.7236 8.8118 1.4275
-15.7212 8.0828 1.3931
-15.7189 7.3805 1.3615
-15.7168 6.7017 1.3327
-24.6938 9.4968 2.0526
-25.0734 8.6229 2.0460
-25.5071 7.7597 2.0460
-25.9140 6.8774 2.0460
-27.3364 6.2136 2.1272
-27.7008 5.2584 2.1272
-28.0347 4.2855 2.1272
-28.3369 3.2957 2.1272
-28.6065 2.2900 2.1272
-30.2427 1.3309 2.2304
-30.4543 0.2460 2.2304
-30.6290 -0.8524 2.2304
-30.7657 -1.9631 2.2304
-30.8637 -3.0849 2.2304
-30.9221 -4.2163 2.2304
-30.9400 -5.3561 2.2304
-29.4879 -6.2022 2.1273
-29.4258 -7.3010 2.1273
-29.3230 -8.4033 2.1273
-29.1791 -9.5076 2.1273
-29.8062 -10.9098 2.1870
-29.5935 -12.0529 2.1886
-21.7543 -9.7843 1.6241
-19.7978 -9.7729 1.4945
-18.2922 -9.8612 1.3985
-16.6286 -9.7501 1.2899
-25.8397 -16.4244 2.0373
-14.2923 -9.8218 1.1476
-24.9747 -18.5161 2.0463
-12.2890 -9.8134 1.0296
-24.1442 -20.7416 2.0732
-23.4901 -21.6919 2.0722
-9.9044 -9.8275 0.8999
-14.8269 -15.8070 1.3912
-21.2869 -24.3916 2.0686
-9.9090 -12.2121 1.0005
-19.1870 -25.4618 2.0197
-9.9690 -14.2665 1.0981
-18.6883 -28.8999 2.1632
-9.8138 -16.4411 1.1991
-9.9937 -18.1952 1.2956
-9.9981 -19.8599 1.3833
-9.8324 -21.4100 1.4613
-9.7907 -23.5080 1.5752
-9.7824 -26.0871 1.7190
-9.7723 -29.2063 1.8958
-9.7598 -33.0661 2.1179
-8.6206 -33.6017 2.1272
-7.4214 -33.9422 2.1272
-6.2074 -34.2314 2.1272
-5.2226 -36.1413 2.2304
-3.9261 -36.3343 2.2304
-2.6218 -36.4714 2.2304
-1.3123 -36.5520 2.2304
-0.0005 -26.6736 2.2304
0.9558 -26.6518 2.2304
1.8633 -25.9394 2.1758
2.2480 -20.8169 1.7527
3.6300 -25.1330 2.1273
4.5246 -24.9634 2.1273
5.4108 -24.7574 2.1273
6.4290 -25.0697 2.1754
5.8613 -19.8661 1.7436
6.1554 -18.4040 1.6363
6.3901 -17.0475 1.5379
6.3360 -15.2189 1.3954
6.6753 -14.5412 1.3573
6.9304 -13.7717 1.3109
7.0704 -12.8778 1.2523
7.2083 -12.0807 1.2023
7.3351 -11.3476 1.1581
5.7847 -8.2818 0.8684
5.8653 -7.7866 0.8406
5.9444 -7.3292 0.8163
6.0188 -6.8995 0.7947
6.0889 -6.4942 0.7754
6.1553 -6.1102 0.7582
6.2185 -5.7451 0.7428
6.2788 -5.3965 0.7292
6.3366 -5.0626 0.7172
6.3921 -4.7415 0.7066
6.4457 -4.4319 0.6973
6.3662 -4.0488 0.6754
6.4156 -3.7640 0.6687
6.4634 -3.4866 0.6631
6.5954 -3.2579 0.6672
6.6418 -2.9894 0.6635
6.6874 -2.7258 0.6609
6.7323 -2.4663 0.6591
6.7767 -2.2102 0.6583
6.7324 -1.9314 0.6498
6.7756 -1.6832 0.6507
6.8184 -1.4361 0.6525
6.8398 -1.1861 0.6531
6.8843 -0.9407 0.6568
6.9307 -0.6947 0.6615
6.9781 -0.4473 0.6672
7.0268 -0.1976 0.6738
7.2222 0.0563 0.6955
7.2674 0.3178 0.7038
7.3134 0.5834 0.7130
7.3602 0.8540 0.7234
7.4080 1.1303 0.7349
7.4570 1.4134 0.7477
7.5073 1.7043 0.7617
7.5592 2.0040 0.7772
7.6128 2.3138 0.7941
7.6684 2.6350 0.8127
7.7422 2.9753 0.8347
7.6046 3.2404 0.8353
7.0940 3.3287 0.7950
6.6334 3.4084 0.7596
6.2146 3.4809 0.7283
5.8313 3.5472 0.7005
5.5832 3.6773 0.6886
5.6250 4.0018 0.7135
5.6852 4.3605 0.7431
5.7526 4.7499 0.7763
5.8258 5.1734 0.8134
5.9060 5.6368 0.8549
5.9944 6.1476 0.9018
6.0925 6.7148 0.9550
6.2025 7.3502 1.0158
6.3302 8.0731 1.0864
6.3988 8.7940 1.1545
6.4892 9.6272 1.2354
6.8266 10.9579 1.3768
7.0574 12.2914 1.5147
7.4051 14.0428 1.6999
7.4036 15.3530 1.8284
6.9030 15.7369 1.8465
6.4221 16.1995 1.8753
2.2732 6.3960 0.7315
5.9821 18.9655 2.1458
5.2406 18.9654 2.1255
4.5552 19.1398 2.1273
3.8612 19.2753 2.1273
3.1638 19.3886 2.1273
2.4636 19.4795 2.1273
1.7612 19.5480 2.1273
1.1085 20.5436 2.2304
0.3694 20.5685 2.2304
-0.3702 20.5698 2.2304
-1.1095 20.5476 2.2304
-1.8479 20.5018 2.2304
-2.5849 20.4325 2.2304
-3.3197 20.3397 2.2304
-4.0518 20.2234 2.2304
-4.7806 20.0837 2.2304
-5.5053 19.9206 2.2304
-6.2253 19.7343 2.2304
-6.6188 18.6209 2.1272
-7.2948 18.3989 2.1272
-7.9645 18.1550 2.1272
-8.6273 17.8892 2.1272
-9.2825 17.6017 2.1272
-9.9296 17.2925 2.1272
-8.7414 14.0303 1.7595
-9.4371 13.9998 1.7929
-11.8056 16.2236 2.1254
-12.4130 15.8300 2.1254
-13.0091 15.4156 2.1254
-13.5931 14.9807 2.1254
-14.1644 14.5257 2.1254
-14.7224 14.0506 2.1254
-15.2662 13.5558 2.1254
-15.7370 12.9934 2.1176
-15.7340 12.0673 2.0505
-15.7312 11.1912 1.9894
-13.1587 8.6666 1.6178
-15.7260 9.5658 1.8829
-15.7235 8.8067 1.8365
-15.7212 8.0778 1.7942
-15.7189 7.3756 1.7555
-15.7167 6.6969 1.7203
-20.0170 7.6921 2.1504
-20.3033 6.9764 2.1439
-20.4682 6.2208 2.1272
-20.7682 5.5057 2.1272
-21.0448 4.7775 2.1272
-21.2973 4.0368 2.1272
-21.5250 3.2843 2.1272
-21.7274 2.5209 2.1272
-22.9670 1.8321 2.2304
-23.1242 1.0112 2.2304
-23.2531 0.1813 2.2304
-23.3529 -0.6564 2.2304
-23.4234 -1.5012 2.2304
-23.4638 -2.3518 2.2304
-23.4737 -3.2073 2.2304
-23.4528 -4.0666 2.2304
-23.4006 -4.9285 2.2304
-23.3167 -5.7919 2.2304
-22.1283 -6.3478 2.1273
-21.9866 -7.1705 2.1273
-21.8140 -7.9909 2.1273
-21.6102 -8.8079 2.1272
-21.3752 -9.6202 2.1272
-19.7818 -9.7711 1.9934
-18.0936 -9.7599 1.8494
-16.6194 -9.7500 1.7259
-15.3177 -9.7413 1.6192
-14.1571 -9.7336 1.5261
-13.1744 -9.7720 1.4512
-12.2890 -9.8177 1.3861
-19.0960 -16.4118 2.2104
-18.5643 -17.1501 2.2104
-9.9025 -9.8294 1.2159
-14.8400 -15.8270 1.8841
-16.7902 -19.2460 2.2104
-9.9055 -12.2121 1.3565
-15.4656 -20.5303 2.2104
-9.8434 -14.0915 1.4738
-9.8175 -15.1869 1.5462
-9.8134 -16.4457 1.6330
-9.8088 -17.8642 1.7334
-9.8036 -19.4795 1.8505
-9.7976 -21.3406 1.9882
-9.6765 -23.2406 2.1272
-8.8534 -23.6165 2.1272
-8.0143 -23.9591 2.1272
-7.1609 -24.2676 2.1272
-6.2944 -24.5413 2.1272
-5.6795 -25.9823 2.2304
-4.7487 -26.1943 2.2304
-3.8093 -26.3681 2.2304
-2.8631 -26.5032 2.2304
-1.9117 -26.5992 2.2304
-0.9569 -26.6561 2.2304
-0.0005 -20.9738 2.2304
0.7513 -20.9574 2.2304
1.5016 -20.9109 2.2304
2.1453 -19.8715 2.1273
2.8546 -19.7702 2.1273
3.5588 -19.6406 2.1273
4.2568 -19.4833 2.1273
4.9474 -19.2983 2.1273
5.6295 -19.0861 2.1273
6.1320 -18.3397 2.0700
5.9048 -15.7576 1.8040
6.1256 -14.7181 1.7117
6.3217 -13.7753 1.6302
6.9300 -13.7752 1.6616
7.1011 -12.9380 1.5935
7.2077 -12.0838 1.5224
7.3671 -11.4009 1.4720
5.7844 -8.2842 1.0982
5.8649 -7.7888 1.0624
5.9440 -7.3314 1.0311
6.0184 -6.9017 1.0030
6.0885 -6.4963 0.9780
6.1550 -6.1124 0.9555
6.2181 -5.7472 0.9355
6.2785 -5.3986 0.9176
6.3362 -5.0646 0.9018
6.3918 -4.7435 0.8877
6.4454 -4.4339 0.8754
6.4996 -4.1358 0.8649
6.5531 -3.8468 0.8560
6.5350 -3.5273 0.8395
6.5951 -3.2598 0.8346
6.6415 -2.9913 0.8293
6.6871 -2.7277 0.8253
6.7320 -2.4682 0.8223
6.7763 -2.2121 0.8206
6.8027 -1.9535 0.8178
6.9199 -1.7210 0.8270
6.9636 -1.4687 0.8285
7.0021 -1.2162 0.8305
7.0456 -0.9647 0.8341
7.0892 -0.7126 0.8389
7.1330 -0.4592 0.8448
7.1772 -0.2038 0.8518
7.2219 0.0543 0.8600
7.2671 0.3157 0.8694
7.3130 0.5813 0.8802
7.3599 0.8518 0.8922
7.4077 1.1282 0.9056
7.4566 1.4113 0.9206
7.5070 1.7021 0.9371
7.5588 2.0017 0.9553
7.6124 2.3114 0.9754
7.6679 2.6326 0.9974
7.7417 2.9728 1.0237
7.6084 3.2397 1.0242
7.0974 3.3282 0.9741
6.6364 3.4079 0.9300
6.2173 3.4804 0.8910
5.8337 3.5468 0.8564
5.5829 3.6753 0.8409
5.6247 3.9997 0.8708
5.6848 4.3582 0.9064
5.7522 4.7475 0.9463
5.8254 5.1708 0.9909
5.9056 5.6341 1.0410
5.9939 6.1447 1.0975
6.0920 6.7118 1.1616
6.2019 7.3469 1.2350
6.3293 8.0692 1.3201
6.2750 8.6208 1.3754
5.9608 8.8404 1.3780
6.1979 9.9455 1.5173
7.0564 12.2859 1.8377
7.3466 13.9275 2.0457
7.2642 15.0595 2.1754
6.7088 15.2896 2.1754
6.1470 15.5011 2.1754
2.2732 6.3942 0.8863
4.8957 15.5169 2.1273
4.3307 15.6684 2.1273
3.7616 15.8013 2.1273
3.1890 15.9155 2.1273
2.6133 16.0109 2.1273
2.0351 16.0874 2.1273
1.5255 16.9275 2.2304
0.9157 16.9681 2.2304
0.3051 16.9889 2.2304
-0.3059 16.9897 2.2304
-0.9167 16.9708 2.2304
-1.5266 16.9319 2.2304
-2.1353 16.8732 2.2304
-2.7420 16.7946 2.2304
-3.3462 16.6963 2.2304
-3.9474 16.5782 2.2304
-4.5449 16.4405 2.2304
-5.1382 16.2831 2.2304
-5.7268 16.1063 2.2304
-6.3032 15.8929 2.2280
-6.5685 14.9680 2.1272
-7.1129 14.7443 2.1272
-7.6505 14.5023 2.1272
-8.1809 14.2424 2.1272
-8.7033 13.9646 2.1272
-9.2175 13.6692 2.1272
-9.7226 13.3563 2.1272
-10.2098 13.0155 2.1254
-10.6949 12.6686 2.1254
-11.1695 12.3050 2.1254
-11.6328 11.9248 2.1254
-9.1981 8.7748 1.6178
-12.5238 11.1159 2.1254
-12.9503 10.6878 2.1254
-13.3634 10.2443 2.1254
-13.7626 9.7859 2.1254
-13.3109 8.7623 1.9998
-14.5169 8.8255 2.1254
-14.8709 8.3243 2.1254
-15.2089 7.8097 2.1254
-15.5302 7.2822 2.1254
-15.7167 6.6921 2.1096
-16.1340 6.1951 2.1272
-16.4024 5.6311 2.1272
-16.6522 5.0561 2.1272
-16.8828 4.4708 2.1272
-17.0936 3.8756 2.1272
-17.2844 3.2712 2.1272
-17.4545 2.6583 2.1272
-18.4581 2.1364 2.2304
-18.5920 1.4779 2.2304
-18.7029 0.8126 2.2304
-18.7906 0.1413 2.2304
-18.8546 -0.5353 2.2304
-18.8946 -1.2162 2.2304
-18.9102 -1.9007 2.2304
-18.9012 -2.5879 2.2304
-18.8673 -3.2768 2.2304
-18.8082 -3.9667 2.2304
-18.7239 -4.6564 2.2304
-18.6140 -5.3451 2.2304
-17.7754 -5.8023 2.1456
-17.4704 -6.4049 2.1273
-17.2919 -7.0530 2.1273
-17.0887 -7.6962 2.1273
-12.6019 -6.2286 1.5899
-16.6088 -8.9642 2.1272
-16.3323 -9.5868 2.1272
-15.3097 -9.7413 2.0314
-14.1501 -9.7336 1.9163
-13.1071 -9.7266 1.8153
-12.2115 -9.7601 1.7332
-11.3484 -9.7573 1.6542
-10.5548 -9.7548 1.5838
-9.9006 -9.8314 1.5332
-9.8263 -10.4837 1.5745
-9.8237 -11.2647 1.6334
-9.8210 -12.1123 1.6997
-9.8244 -13.0462 1.7757
-9.8211 -14.0642 1.8608
-9.8174 -15.1916 1.9577
-9.8133 -16.4506 2.0688
-9.4964 -17.3005 2.1272
-8.8867 -17.6630 2.1272
-8.2623 -18.0018 2.1273
-7.6239 -18.3161 2.1273
-6.9728 -18.6052 2.1273
-6.3098 -18.8686 2.1273
-5.9091 -20.0312 2.2304
-5.1927 -20.2514 2.2304
-4.4675 -20.4430 2.2304
-3.7346 -20.6056 2.2304
-2.9953 -20.7388 2.2304
-2.2510 -20.8424 2.2304
-1.5029 -20.9162 2.2304
-0.7523 -20.9601 2.2304
-0.0005 -17.2664 2.2304
0.6182 -17.2533 2.2304
1.2358 -17.2160 2.2304
1.8169 -16.8357 2.1890
2.3498 -16.2798 2.1273
2.9300 -16.1752 2.1273
3.5052 -16.0481 2.1273
4.0746 -15.8986 2.1273
4.6373 -15.7271 2.1273
5.1923 -15.5339 2.1273
5.7002 -15.2164 2.1130
5.8834 -14.1408 1.9943
6.3195 -13.7749 1.9762
6.9299 -13.7796 2.0144
7.1456 -13.0234 1.9432
7.2072 -12.0870 1.8441
7.3665 -11.4040 1.7824
5.7841 -8.2867 1.3293
5.8645 -7.7911 1.2854
5.9437 -7.3336 1.2469
6.0180 -6.9039 1.2125
6.0882 -6.4985 1.1816
6.1546 -6.1145 1.1539
6.2178 -5.7492 1.1292
6.2781 -5.4006 1.1070
6.3359 -5.0666 1.0873
6.3914 -4.7455 1.0698
6.4450 -4.4359 1.0543
6.4992 -4.1377 1.0412
6.5583 -3.8520 1.0308
6.5692 -3.5479 1.0148
6.5947 -3.2618 1.0029
6.6412 -2.9932 0.9960
6.6868 -2.7296 0.9905
6.7317 -2.4701 0.9864
6.7760 -2.2140 0.9837
6.8365 -1.9653 0.9847
6.9251 -1.7243 0.9910
6.9643 -1.4709 0.9915
7.0017 -1.2181 0.9931
7.0452 -0.9667 0.9969
7.0888 -0.7146 1.0020
7.1327 -0.4612 1.0084
7.1769 -0.2058 1.0162
7.2215 0.0522 1.0254
7.2667 0.3137 1.0360
7.3127 0.5792 1.0481
7.3595 0.8497 1.0619
7.4073 1.1260 1.0772
7.4563 1.4091 1.0944
7.5066 1.6998 1.1134
7.5584 1.9994 1.1344
7.6120 2.3091 1.1576
7.6675 2.6302 1.1831
7.7411 2.9702 1.2136
7.6123 3.2391 1.2143
7.1008 3.3276 1.1543
6.6394 3.4074 1.1015
6.2200 3.4800 1.0548
5.8362 3.5464 1.0133
5.5826 3.6733 0.9941
5.6244 3.9975 1.0290
5.6844 4.3559 1.0705
5.7517 4.7451 1.1172
5.8250 5.1683 1.1694
5.9051 5.6314 1.2280
5.9934 6.1418 1.2942
6.0915 6.7087 1.3693
6.3277 7.4932 1.4849
6.3284 8.0652 1.5551
6.1577 8.4568 1.5896
5.8137 8.6194 1.5825
5.9579 9.5573 1.7169
5.8523 10.1861 1.7935
6.6403 12.5847 2.1754
6.1756 12.7988 2.1754
5.5785 12.7098 2.1273
5.1123 12.8881 2.1273
2.2732 6.3923 1.0420
4.1650 13.1973 2.1273
3.6848 13.3280 2.1273
3.2010 13.4426 2.1273
2.7139 13.5411 2.1273
2.2242 13.6234 2.1273
1.7322 13.6895 2.1273
1.2984 14.4050 2.2304
0.7795 14.4400 2.2304
0.2596 14.4578 2.2304
-0.2604 14.4585 2.2304
-0.7804 14.4419 2.2304
-1.2995 14.4082 2.2304
-1.8175 14.3573 2.2304
-2.3337 14.2893 2.2304
-2.8476 14.2042 2.2304
-3.3588 14.1021 2.2304
-3.8668 13.9831 2.2304
-4.3709 13.8471 2.2304
-4.8707 13.6944 2.2304
-5.3658 13.5250 2.2304
-5.8555 13.3390 2.2304
-6.2961 13.0469 2.2152
-6.5069 12.3305 2.1290
-6.9503 12.0960 2.1272
-7.3922 11.8568 2.1272
-7.8266 11.6025 2.1272
-8.2530 11.3335 2.1272
-8.6709 11.0497 2.1272
-9.0799 10.7515 2.1272
-9.4794 10.4391 2.1272
-6.9590 7.1308 1.4999
-9.8833 9.4245 2.0514
-10.6080 9.4114 2.1254
-10.9647 9.0450 2.1254
-11.3097 8.6659 2.1254
-11.6424 8.2743 2.1254
-11.9624 7.8705 2.1254
-12.2692 7.4550 2.1254
-12.5625 7.0280 2.1254
-12.8417 6.5901 2.1254
-13.1064 6.1415 2.1254
-13.3672 5.6875 2.1272
-13.6019 5.2187 2.1272
-13.8209 4.7407 2.1272
-14.0237 4.2539 2.1272
-14.2100 3.7588 2.1272
-14.3794 3.2560 2.1272
-14.5316 2.7460 2.1272
-14.9030 2.2654 2.1615
-15.5004 1.7896 2.2304
-15.6037 1.2359 2.2304
-15.6875 0.6772 2.2304
-15.7516 0.1140 2.2304
-15.7957 -0.4529 2.2304
-15.8196 -1.0227 2.2304
-15.8230 -1.5949 2.2304
-15.8059 -2.1686 2.2304
-15.7678 -2.7430 2.2304
-15.7089 -3.3175 2.2304
-15.6289 -3.8912 2.2304
-15.5277 -4.4634 2.2304
-15.4053 -5.0331 2.2304
-15.2617 -5.5997 2.2304
-14.3990 -5.8774 2.1273
-14.2215 -6.4093 2.1273
-12.5883 -6.2258 1.9096
-13.8060 -7.4558 2.1273
-13.5684 -7.9689 2.1273
-13.3112 -8.4740 2.1272
-13.0345 -8.9705 2.1272
-12.7385 -9.4575 2.1272
-12.2061 -9.7601 2.0899
-11.3435 -9.7573 1.9958
-10.5505 -9.7548 1.9119
-9.8986 -9.8333 1.8520
-9.8262 -10.4876 1.9032
-9.8236 -11.2687 1.9753
-9.8209 -12.1164 2.0564
-9.7232 -12.9163 2.1272
-9.2722 -13.2826 2.1272
-8.8066 -13.6320 2.1272
-8.3270 -13.9636 2.1273
-7.8343 -14.2769 2.1273
-7.3289 -14.5712 2.1273
-6.8119 -14.8461 2.1273
-6.2838 -15.1009 2.1273
-6.0240 -16.0783 2.2304
-5.4499 -16.3018 2.2304
-4.8670 -16.5029 2.2304
-4.2761 -16.6812 2.2304
-3.6783 -16.8363 2.2304
-3.0745 -16.9679 2.2304
-2.4657 -17.0758 2.2304
-1.8529 -17.1598 2.2304
-1.2370 -17.2196 2.2304
-0.6192 -17.2551 2.2304
-0.0005 -14.6599 2.2304
0.5247 -14.6491 2.2304
1.0490 -14.6179 2.2304
1.5715 -14.5664 2.2304
1.9948 -13.8248 2.1273
2.4876 -13.7373 2.1273
2.9763 -13.6308 2.1273
3.4602 -13.5056 2.1273
3.9386 -13.3619 2.1273
4.4108 -13.1999 2.1273
4.8759 -13.0200 2.1273
5.3332 -12.8225 2.1273
5.7822 -12.6077 2.1273
6.3627 -12.6559 2.1754
6.8026 -12.4023 2.1754
7.2205 -12.1133 2.1720
7.3403 -11.3673 2.0874
5.7838 -8.2891 1.5618
5.8641 -7.7934 1.5097
6.0064 -7.4137 1.4797
6.0176 -6.9061 1.4232
6.0878 -6.5006 1.3865
6.1542 -6.1166 1.3536
6.2174 -5.7514 1.3241
6.2777 -5.4027 1.2976
6.3355 -5.0686 1.2740
6.3911 -4.7476 1.2530
6.4447 -4.4379 1.2344
5.6249 -3.5830 1.0547
6.5617 -3.8562 1.2066
6.6039 -3.5688 1.1930
6.5944 -3.2637 1.1723
6.6408 -2.9952 1.1637
6.6865 -2.7315 1.1568
6.7314 -2.4720 1.1516
6.7757 -2.2159 1.1479
6.8709 -1.9772 1.1543
6.9303 -1.7276 1.1563
6.9640 -1.4728 1.1555
7.0014 -1.2201 1.1568
7.0449 -0.9687 1.1607
7.0885 -0.7166 1.1661
7.1323 -0.4632 1.1731
7.1765 -0.2078 1.1816
7.2212 0.0502 1.1918
7.2664 0.3116 1.2036
7.3123 0.5771 1.2172
7.3591 0.8476 1.2326
7.4069 1.1239 1.2499
7.4559 1.4068 1.2693
7.5062 1.6976 1.2908
7.5580 1.9971 1.3146
7.6116 2.3067 1.3410
7.6671 2.6277 1.3700
7.7405 2.9677 1.4048
7.6162 3.2384 1.4059
7.1043 3.3270 1.3358
6.6425 3.4069 1.2742
6.2227 3.4795 1.2197
5.8386 3.5459 1.1714
5.5824 3.6712 1.1482
5.6242 3.9954 1.1882
5.6840 4.3536 1.2357
5.7513 4.7426 1.2892
5.8245 5.1657 1.3490
5.9046 5.6287 1.4162
5.9929 6.1389 1.4921
6.0909 6.7055 1.5784
6.3271 7.4898 1.7112
6.3275 8.0613 1.7914
6.1596 8.4565 1.8317
5.7532 8.5268 1.8035
5.7240 9.1790 1.8993
5.6073 9.7566 1.9783
5.6416 10.6886 2.1273
5.2476 10.8723 2.1273
4.8482 11.0425 2.1273
4.4436 11.1990 2.1273
2.2732 6.3904 1.1986
3.6211 11.4705 2.1273
3.2039 11.5853 2.1273
2.7835 11.6860 2.1273
2.3601 11.7726 2.1273
1.9377 11.8655 2.1310
1.5795 12.4797 2.2304
1.1293 12.5255 2.2304
0.6779 12.5562 2.2304
0.2258 12.5717 2.2304
-0.2266 12.5722 2.2304
-0.6788 12.5576 2.2304
-1.1303 12.5279 2.2304
-1.5807 12.4831 2.2304
-2.0295 12.4232 2.2304
-2.4763 12.3483 2.2304
-2.9206 12.2585 2.2304
-3.3619 12.1537 2.2304
-3.7998 12.0342 2.2304
-4.2338 11.8999 2.2304
-4.6635 11.7511 2.2304
-5.0883 11.5877 2.2304
-5.5079 11.4099 2.2304
-5.9218 11.2179 2.2304
-6.2917 10.9461 2.2171
-6.4190 10.2923 2.1272
-6.7947 10.0694 2.1272
-7.1633 9.8335 2.1272
-7.5243 9.5850 2.1272
-7.8772 9.3239 2.1272
-8.2217 9.0505 2.1272
-6.9493 7.1180 1.7275
-8.8836 8.4678 2.1272
-9.2003 8.1589 2.1272
-9.5068 7.8388 2.1272
-9.8028 7.5078 2.1272
-10.0880 7.1660 2.1272
-10.3533 6.8083 2.1254
-10.6152 6.4464 2.1254
-10.8651 6.0749 2.1254
-11.1117 5.6988 2.1272
-11.3366 5.3087 2.1272
-11.5483 4.9100 2.1272
-11.7466 4.5033 2.1272
-11.9310 4.0889 2.1272
-12.1013 3.6672 2.1272
-12.2571 3.2387 2.1272
-12.3982 2.8038 2.1272
-12.5242 2.3631 2.1272
-13.2482 2.0101 2.2304
-13.3479 1.5373 2.2304
-13.4310 1.0600 2.2304
-13.4974 0.5788 2.2304
-13.5466 0.0942 2.2304
-13.5786 -0.3932 2.2304
-13.5932 -0.8827 2.2304
-13.5902 -1.3737 2.2304
-13.5694 -1.8656 2.2304
-13.5308 -2.3578 2.2304
-13.4743 -2.8495 2.2304
-13.3998 -3.3401 2.2304
-13.3072 -3.8290 2.2304
-13.1965 -4.3154 2.2304
-13.0678 -4.7987 2.2304
-12.9211 -5.2781 2.2304
-12.7565 -5.7530 2.2304
-11.9928 -5.9350 2.1273
-11.8018 -6.3772 2.1273
-11.5939 -6.8130 2.1273
-11.3696 -7.2418 2.1273
-11.1288 -7.6628 2.1273
-10.8720 -8.0755 2.1273
-10.5993 -8.4791 2.1272
-10.3110 -8.8729 2.1272
-10.0073 -9.2563 2.1272
-9.6891 -9.6290 2.1272
-9.3566 -9.9902 2.1272
-9.0098 -10.3390 2.1272
-8.6494 -10.6749 2.1273
-8.2759 -10.9975 2.1273
-7.8897 -11.3060 2.1273
-7.4915 -11.6001 2.1273
-7.0817 -11.8791 2.1273
-6.6610 -12.1425 2.1273
-6.2555 -12.4409 2.1361
-6.0696 -13.2323 2.2304
-5.5979 -13.4567 2.2304
-5.1175 -13.6628 2.2304
-4.6291 -13.8505 2.2304
-4.1333 -14.0192 2.2304
-3.6311 -14.1688 2.2304
-3.1231 -14.2990 2.2304
-2.6102 -14.4094 2.2304
-2.0932 -14.4999 2.2304
-1.5729 -14.5703 2.2304
-1.0501 -14.6205 2.2304
-0.5257 -14.6504 2.2304
-0.0005 -12.7257 2.2304
0.4553 -12.7165 2.2304
0.9103 -12.6897 2.2304
1.3638 -12.6456 2.2304
1.8080 -12.5337 2.2215
2.1591 -11.9272 2.1273
2.5835 -11.8358 2.1273
3.0039 -11.7282 2.1273
2.4163 -8.1998 1.5032
3.8300 -11.4654 2.1273
4.2344 -11.3106 2.1273
4.6323 -11.1407 2.1273
5.0230 -10.9559 2.1273
5.4060 -10.7565 2.1273
5.7808 -10.5430 2.1273
6.2857 -10.5488 2.1754
6.6504 -10.3025 2.1754
5.7834 -8.2916 1.7961
5.8637 -7.7957 1.7357
6.0038 -7.4133 1.7002
6.1011 -7.0045 1.6583
6.1722 -6.5934 1.6151
6.1539 -6.1187 1.5547
6.2171 -5.7534 1.5204
6.2774 -5.4048 1.4896
6.4234 -5.1413 1.4825
6.4798 -4.8158 1.4576
6.4443 -4.4399 1.4159
6.4983 -4.1416 1.3971
6.5613 -3.8581 1.3830
6.4974 -3.5133 1.3451
6.5445 -3.2411 1.3329
6.5906 -2.9746 1.3227
6.6359 -2.7129 1.3144
6.6804 -2.4554 1.3080
6.7244 -2.2012 1.3034
6.7679 -1.9496 1.3005
6.9315 -1.7300 1.3223
6.9638 -1.4748 1.3207
7.0010 -1.2221 1.3218
7.0445 -0.9706 1.3258
7.0882 -0.7186 1.3315
7.1320 -0.4652 1.3390
7.1762 -0.2099 1.3483
7.2208 0.0481 1.3594
7.2660 0.3095 1.3724
7.3120 0.5750 1.3875
7.3587 0.8454 1.4046
7.4065 1.1217 1.4239
7.5593 1.4242 1.4656
7.6103 1.7189 1.4900
7.5576 1.9948 1.4962
7.6112 2.3043 1.5257
7.6667 2.6253 1.5582
7.7400 2.9651 1.5973
7.6201 3.2377 1.5990
7.1077 3.3264 1.5189
6.6455 3.4063 1.4484
6.2255 3.4790 1.3861
5.8411 3.5455 1.3307
5.5821 3.6691 1.3035
5.6239 3.9933 1.3485
5.6836 4.3512 1.4020
5.7509 4.7402 1.4624
5.9427 5.2683 1.5611
6.0244 5.7406 1.6385
5.9924 6.1360 1.6915
6.0904 6.7024 1.7889
6.2759 7.4265 1.9235
6.3331 8.0655 2.0316
6.1615 8.4562 2.0756
5.7549 8.5265 2.0434
5.4871 8.7962 2.0619
5.3250 9.2624 2.1273
4.9830 9.4378 2.1273
4.6356 9.6013 2.1273
4.2832 9.7528 2.1273
3.9262 9.8921 2.1273
2.2732 6.3885 1.3565
3.2000 10.1339 2.1273
2.8316 10.2362 2.1273
2.4602 10.3259 2.1273
2.0861 10.4030 2.1273
1.7319 10.6025 2.1548
1.3962 11.0288 2.2304
0.9983 11.0695 2.2304
0.5992 11.0968 2.2304
0.1996 11.1107 2.2304
-0.2004 11.1111 2.2304
-0.6001 11.0980 2.2304
-0.9992 11.0714 2.2304
-1.3973 11.0314 2.2304
-1.7940 10.9780 2.2304
-2.1888 10.9112 2.2304
-2.5813 10.8310 2.2304
-2.9712 10.7377 2.2304
-3.3578 10.6311 2.2304
-3.7410 10.5114 2.2304
-4.1202 10.3788 2.2304
-4.4950 10.2332 2.2304
-4.8651 10.0749 2.2304
-5.2299 9.9040 2.2304
-5.5892 9.7206 2.2304
-5.9424 9.5248 2.2304
-6.2892 9.3169 2.2304
-6.3271 8.6824 2.1288
-6.6397 8.4550 2.1272
-6.9498 8.2230 2.1272
-7.2523 7.9802 2.1272
-6.9396 7.1051 1.9560
-7.8329 7.4630 2.1272
-8.1102 7.1891 2.1272
-8.3785 6.9053 2.1272
-8.6373 6.6119 2.1272
-8.8863 6.3092 2.1272
-9.1252 5.9975 2.1272
-9.3536 5.6771 2.1272
-9.5712 5.3483 2.1272
-9.7777 5.0114 2.1272
-9.9728 4.6668 2.1272
-10.1561 4.3149 2.1272
-10.3274 3.9561 2.1272
-10.4865 3.5906 2.1272
-10.6329 3.2190 2.1272
-10.7665 2.8416 2.1272
-11.0577 2.4974 2.1605
-11.5278 2.1717 2.2304
-11.6260 1.7606 2.2304
-11.7097 1.3453 2.2304
-11.7788 0.9263 2.2304
-11.8331 0.5040 2.2304
-11.8723 0.0792 2.2304
-11.8964 -0.3478 2.2304
-11.9052 -0.7764 2.2304
-11.8986 -1.2061 2.2304
-11.8765 -1.6363 2.2304
-11.8388 -2.0663 2.2304
-11.7854 -2.4957 2.2304
-11.7163 -2.9239 2.2304
-11.6315 -3.3503 2.2304
-11.5310 -3.7742 2.2304
-11.4148 -4.1951 2.2304
-11.2830 -4.6124 2.2304
-11.1356 -5.0255 2.2304
-10.9729 -5.4337 2.2304
-10.7948 -5.8365 2.2304
-10.4607 -6.1505 2.2008
-9.9807 -6.3605 2.1419
-9.7002 -6.6824 2.1273
-9.4736 -7.0401 2.1273
-9.2332 -7.3896 2.1273
-8.9795 -7.7305 2.1272
-8.7128 -8.0623 2.1272
-8.4334 -8.3844 2.1272
-8.1419 -8.6966 2.1272
-7.8383 -8.9980 2.1273
-7.5231 -9.2883 2.1273
-7.1967 -9.5667 2.1273
-6.8594 -9.8329 2.1273
-6.5786 -10.1899 2.1492
-6.3917 -10.7251 2.2094
-6.0681 -11.0653 2.2304
-5.6744 -11.2887 2.2304
-5.2721 -11.4971 2.2304
-4.8617 -11.6903 2.2304
-4.4439 -11.8677 2.2304
-4.0192 -12.0292 2.2304
-3.5884 -12.1744 2.2304
-3.1521 -12.3031 2.2304
-2.7109 -12.4151 2.2304
-2.2656 -12.5100 2.2304
-1.8167 -12.5879 2.2304
-1.3651 -12.6485 2.2304
-0.9113 -12.6917 2.2304
-0.4562 -12.7175 2.2304
-0.0005 -11.2320 2.2304
0.4017 -11.2240 2.2304
0.8032 -11.2006 2.2304
1.2034 -11.1620 2.2304
1.6018 -11.1081 2.2304
1.9054 -10.5289 2.1273
2.2801 -10.4489 2.1273
2.1674 -8.4649 1.7391
2.4131 -8.1914 1.7007
3.3810 -10.1245 2.1273
3.7384 -9.9889 2.1273
4.0901 -9.8400 2.1273
4.4357 -9.6780 2.1273
4.7745 -9.5031 2.1273
5.1062 -9.3158 2.1273
5.4303 -9.1163 2.1273
5.7462 -8.9049 2.1273
5.7862 -8.2986 2.0334
5.8633 -7.7981 1.9636
6.0011 -7.4128 1.9223
6.1007 -7.0068 1.8753
6.1718 -6.5956 1.8262
6.1535 -6.1209 1.7575
6.2167 -5.7556 1.7184
6.2770 -5.4069 1.6832
6.4231 -5.1434 1.6748
6.4794 -4.8178 1.6464
6.5337 -4.5038 1.6211
6.4979 -4.1436 1.5773
6.1345 -3.6092 1.4595
6.1804 -3.3439 1.4438
6.1828 -3.0640 1.4206
6.2264 -2.8122 1.4094
6.2692 -2.5650 1.4003
6.3113 -2.3216 1.3931
6.3528 -2.0814 1.3878
6.3987 -1.8451 1.3854
6.9313 -1.7320 1.4895
6.9635 -1.4768 1.4872
7.0982 -1.2411 1.5088
7.1423 -0.9862 1.5130
7.1865 -0.7306 1.5191
7.2310 -0.4738 1.5272
7.1758 -0.2119 1.5163
7.2204 0.0460 1.5284
7.2657 0.3074 1.5427
7.3116 0.5729 1.5592
7.4609 0.8550 1.6000
7.5093 1.1350 1.6215
7.5589 1.4219 1.6457
7.6099 1.7166 1.6727
7.5572 1.9924 1.6792
7.6107 2.3019 1.7119
7.6663 2.6228 1.7481
7.7394 2.9625 1.7914
7.6241 3.2370 1.7940
7.1112 3.3258 1.7037
6.6487 3.4058 1.6242
6.2283 3.4785 1.5540
5.8436 3.5451 1.4916
5.5818 3.6671 1.4601
5.6236 3.9911 1.5102
5.6832 4.3489 1.5698
5.7505 4.7377 1.6371
5.9423 5.2656 1.7472
6.0240 5.7377 1.8336
5.9919 6.1330 1.8925
6.0915 6.7010 2.0017
6.2192 7.3567 2.1322
6.0634 7.7192 2.1754
5.6470 7.7474 2.1273
5.3583 7.9362 2.1273
5.0637 8.1149 2.1273
4.7635 8.2832 2.1273
4.4581 8.4410 2.1273
4.1477 8.5881 2.1273
3.8328 8.7245 2.1273
3.5136 8.8499 2.1273
2.2403 6.2943 1.4937
2.8642 9.0677 2.1273
2.5346 9.1598 2.1273
2.2022 9.2406 2.1273
1.8674 9.3100 2.1273
1.6048 9.8220 2.2304
1.2499 9.8708 2.2304
0.8937 9.9075 2.2304
0.5364 9.9321 2.2304
0.1786 9.9445 2.2304
-0.1794 9.9448 2.2304
-0.5373 9.9330 2.2304
-0.8946 9.9090 2.2304
-1.2510 9.8729 2.2304
-1.6061 9.8247 2.2304
-1.9594 9.7644 2.2304
-2.3106 9.6922 2.2304
-2.6594 9.6080 2.2304
-3.0053 9.5120 2.2304
-3.3480 9.4041 2.2304
-3.6870 9.2846 2.2304
-4.0221 9.1536 2.2304
-4.3527 9.0110 2.2304
-4.6787 8.8571 2.2304
-4.9995 8.6920 2.2304
-5.3148 8.5159 2.2304
-5.6242 8.3288 2.2304
-5.9274 8.1311 2.2304
-6.2241 7.9228 2.2304
-6.3813 7.5474 2.1851
-6.4816 7.1293 2.1272
-6.7436 6.9017 2.1272
-6.9981 6.6648 2.1272
-7.2446 6.4190 2.1272
-7.4828 6.1643 2.1272
-7.7125 5.9012 2.1272
-7.9333 5.6298 2.1272
-8.1449 5.3504 2.1272
-8.3470 5.0633 2.1272
-8.5394 4.7689 2.1272
-8.7217 4.4674 2.1272
-8.8938 4.1591 2.1272
-9.0552 3.8443 2.1272
-9.2314 3.5333 2.1331
-9.3697 3.2054 2.1327
-9.7218 2.9402 2.1829
-10.0558 2.6510 2.2304
-10.1658 2.2930 2.2304
-10.2633 1.9305 2.2304
-10.3481 1.5641 2.2304
-10.4200 1.1941 2.2304
-10.4788 0.8210 2.2304
-10.5244 0.4452 2.2304
-10.5565 0.0674 2.2304
-10.5752 -0.3123 2.2304
-10.5803 -0.6931 2.2304
-10.5716 -1.0747 2.2304
-10.5492 -1.4564 2.2304
-10.5129 -1.8380 2.2304
-10.4628 -2.2187 2.2304
-10.3987 -2.5982 2.2304
-10.3208 -2.9758 2.2304
-10.2290 -3.3511 2.2304
-10.1233 -3.7236 2.2304
-10.0039 -4.0926 2.2304
-9.8708 -4.4578 2.2304
-9.7241 -4.8184 2.2304
-9.5640 -5.1742 2.2304
-9.3905 -5.5244 2.2304
-9.2039 -5.8685 2.2304
-9.0043 -6.2062 2.2304
-8.7921 -6.5367 2.2304
-8.5673 -6.8597 2.2304
-8.3302 -7.1746 2.2304
-8.0812 -7.4810 2.2304
-7.8206 -7.7783 2.2304
-7.5486 -8.0660 2.2304
-7.2657 -8.3438 2.2304
-6.9721 -8.6111 2.2304
-6.6684 -8.8675 2.2304
-6.3548 -9.1127 2.2304
-6.0318 -9.3461 2.2304
-5.6999 -9.5673 2.2304
-5.3595 -9.7762 2.2304
-5.0111 -9.9722 2.2304
-4.6552 -10.1550 2.2304
-4.2924 -10.3244 2.2304
-3.9231 -10.4800 2.2304
-3.5479 -10.6215 2.2304
-3.1673 -10.7488 2.2304
-2.7820 -10.8616 2.2304
-2.3925 -10.9597 2.2304
-1.9993 -11.0429 2.2304
-1.6032 -11.1112 2.2304
-1.2046 -11.1643 2.2304
-0.8042 -11.2022 2.2304
-0.4026 -11.2248 2.2304
-0.0005 -10.0427 2.2304
0.3590 -10.0356 2.2304
0.7179 -10.0149 2.2304
1.0757 -9.9805 2.2304
1.4319 -9.9327 2.2304
1.7859 -9.8715 2.2304
2.0384 -9.3441 2.1273
2.1589 -8.4343 1.9375
2.4098 -8.1830 1.8995
3.0232 -9.0559 2.1273
3.3430 -8.9354 2.1273
3.6579 -8.8030 2.1273
3.9673 -8.6589 2.1273
4.2708 -8.5035 2.1273
4.5681 -8.3368 2.1273
4.8585 -8.1593 2.1273
5.1419 -7.9712 2.1273
5.4177 -7.7727 2.1273
5.6855 -7.5644 2.1273
5.9539 -7.3573 2.1305
6.0227 -6.9200 2.0678
6.0878 -6.5084 2.0116
6.1531 -6.1231 1.9622
6.2163 -5.7577 1.9182
6.2766 -5.4090 1.8787
6.4227 -5.1456 1.8690
6.4790 -4.8199 1.8369
6.5334 -4.5059 1.8083
6.4974 -4.1455 1.7591
6.0021 -3.5334 1.5925
6.1140 -3.3101 1.5925
6.2175 -3.0832 1.5925
6.2687 -2.8333 1.5815
6.3118 -2.5844 1.5709
6.3542 -2.3394 1.5625
6.3960 -2.0976 1.5562
6.4374 -1.8582 1.5521
6.9310 -1.7340 1.6582
6.9633 -1.4789 1.6554
7.0979 -1.2432 1.6790
7.1420 -0.9882 1.6833
7.1862 -0.7327 1.6898
7.2306 -0.4758 1.6985
7.1754 -0.2140 1.6859
7.2201 0.0439 1.6991
7.2653 0.3053 1.7146
7.3112 0.5707 1.7325
7.4605 0.8528 1.7775
7.5089 1.1328 1.8011
7.5586 1.4196 1.8276
7.6095 1.7142 1.8571
7.5568 1.9901 1.8640
7.6103 2.2995 1.9000
7.6658 2.6203 1.9397
7.7389 2.9599 1.9874
7.6281 3.2363 1.9911
7.1148 3.3252 1.8905
6.6518 3.4052 1.8019
6.2311 3.4780 1.7237
5.8462 3.5446 1.6541
