ply
format ascii 1.0
element vertex 2159
property float32 x
property float32 y
property float32 z
end_header
6.0993 17.1811 2.1808
5.3573 17.0041 2.1327
4.7430 17.1841 2.1327
4.1228 17.3420 2.1327
3.4973 17.4778 2.1327
2.8675 17.5911 2.1327
2.2340 17.6820 2.1327
1.6750 18.6081 2.2358
1.0058 18.6558 2.2358
0.3354 18.6797 2.2358
-0.3354 18.6796 2.2358
-1.0058 18.6556 2.2358
-1.6749 18.6077 2.2358
-2.3419 18.5360 2.2358
-3.0059 18.4406 2.2358
-3.6661 18.3216 2.2358
-4.3217 18.1791 2.2358
-4.9719 18.0133 2.2358
-5.6157 17.8245 2.2358
-6.2525 17.6128 2.2358
-6.5688 16.5890 2.1343
-7.1551 16.3313 2.1326
-7.7376 16.0656 2.1326
-8.3104 15.7793 2.1326
-8.8726 15.4727 2.1326
-9.4236 15.1462 2.1326
-9.9627 14.8003 2.1326
-10.4891 14.4352 2.1326
-11.0023 14.0516 2.1326
-11.5015 13.6498 2.1326
-11.9862 13.2303 2.1326
-12.4556 12.7938 2.1326
-12.9093 12.3407 2.1326
-13.6513 12.1427 2.1813
-14.4335 11.9384 2.2358
-14.8558 11.4150 2.2358
-15.2592 10.8766 2.2358
-15.6432 10.3241 2.2358
-16.0073 9.7580 2.2358
-16.3511 9.1792 2.2358
-16.6739 8.5883 2.2358
-16.9755 7.9861 2.2358
-17.2554 7.3734 2.2358
-17.5133 6.7509 2.2358
-17.7488 6.1194 2.2358
-17.9616 5.4797 2.2358
-18.1513 4.8326 2.2358
-17.4733 3.9863 2.1327
-17.6095 3.3573 2.1327
-17.7232 2.7237 2.1327
-17.8140 2.0863 2.1327
-17.8820 1.4459 2.1326
-17.9269 0.8032 2.1326
-9.9803 0.0885 1.1858
-9.8512 -0.2664 1.1705
-10.0074 -0.6307 1.1907
-10.0088 -0.9925 1.1940
-10.0103 -1.3570 1.1989
-10.0117 -1.7253 1.2054
-10.0131 -2.0981 1.2136
-9.8505 -2.4362 1.2034
-9.8568 -2.8168 1.2154
-17.7792 -5.7788 2.2158
-10.0261 -3.6617 1.2648
-14.8746 -6.0459 1.9021
-9.8709 -4.4314 1.2815
-9.8559 -4.8570 1.3010
-16.4823 -8.8714 2.2158
-16.1570 -9.4596 2.2158
-10.0881 -6.4034 1.4138
-9.8550 -6.7636 1.4140
-9.8995 -7.3303 1.4569
-9.8642 -7.8677 1.4920
-9.8543 -8.4561 1.5351
-9.8541 -9.0899 1.5846
-9.8538 -9.7672 1.6396
-9.8535 -10.4945 1.7008
-9.8532 -11.2795 1.7692
-9.8529 -12.1318 1.8459
-9.8525 -13.0629 1.9321
-9.8521 -14.0870 2.0296
-9.8155 -15.1661 2.1326
-9.2662 -15.5109 2.1326
-8.7047 -15.8357 2.1326
-8.1317 -16.1400 2.1326
-7.5481 -16.4235 2.1326
-6.9545 -16.6857 2.1326
-6.3518 -16.9263 2.1326
-6.0187 -17.9752 2.2358
-5.3701 -18.1811 2.2358
-4.7144 -18.3636 2.2358
-4.0526 -18.5222 2.2358
-3.3853 -18.6569 2.2358
-2.7136 -18.7673 2.2358
-2.0384 -18.8533 2.2358
-1.3604 -18.9148 2.2358
-0.6806 -18.9519 2.2358
0.0000 -15.8800 2.2358
0.5700 -15.8698 2.2358
1.1392 -15.8390 2.2358
1.7069 -15.7877 2.2358
2.1677 -14.9912 2.1327
2.7042 -14.9033 2.1327
2.4521 -11.2074 1.6155
3.7661 -14.6696 2.1327
4.2899 -14.5241 2.1327
4.8081 -14.3599 2.1327
5.3201 -14.1770 2.1327
5.9563 -14.2909 2.1808
6.4649 -14.0667 2.1808
6.9649 -13.8243 2.1808
5.7404 -10.4432 1.6791
5.8538 -9.7989 1.6084
5.9905 -9.2561 1.5538
6.0875 -8.7044 1.4971
6.1445 -8.1468 1.4384
6.2285 -7.6693 1.3929
6.3074 -7.2206 1.3519
5.5088 -5.8672 1.1350
6.4565 -6.3999 1.2823
6.5228 -6.0171 1.2519
6.5374 -5.6099 1.2154
6.5984 -5.2631 1.1911
6.6571 -4.9296 1.1692
6.7137 -4.6078 1.1495
6.2531 -3.9693 1.0458
6.8479 -4.0094 1.1206
6.9260 -3.7280 1.1110
6.9732 -3.4365 1.0983
7.0231 -3.1531 1.0878
7.0721 -2.8747 1.0790
7.1203 -2.6006 1.0716
7.1679 -2.3299 1.0657
7.2151 -2.0620 1.0613
7.2619 -1.7961 1.0582
7.3084 -1.5315 1.0565
7.3549 -1.2676 1.0562
7.4013 -1.0035 1.0573
7.4479 -0.7387 1.0597
7.4948 -0.4725 1.0635
7.5420 -0.2041 1.0687
7.5897 0.0672 1.0754
7.6385 0.3421 1.0836
7.7004 0.6225 1.0950
7.5337 0.8822 1.0754
6.6979 1.0292 0.9610
6.0224 1.1481 0.8696
5.7363 1.3085 0.8347
5.7662 1.5351 0.8467
5.8024 1.7700 0.8610
5.8455 2.0153 0.8778
5.8904 2.2704 0.8964
5.9373 2.5369 0.9170
5.9864 2.8162 0.9398
6.0381 3.1099 0.9650
6.0927 3.4202 0.9929
6.1506 3.7492 1.0239
2.2355 1.4753 0.3808
6.2783 4.4749 1.0963
6.3493 4.8785 1.1388
6.4261 5.3151 1.1862
6.5198 5.7991 1.2414
6.3813 6.1001 1.2562
6.5712 6.7494 1.3406
6.5603 7.2410 1.3908
6.3084 7.4864 1.3937
7.2120 9.2106 1.6656
7.2452 9.9707 1.7551
7.5701 11.2455 1.9307
7.6654 12.3200 2.0668
7.4978 13.0748 2.1471
6.9381 13.1733 2.1212
6.3912 13.2695 2.0986
5.8552 13.3638 2.0791
5.5097 13.9140 2.1327
5.0062 14.1016 2.1327
4.4964 14.2712 2.1327
3.9809 14.4224 2.1327
3.4603 14.5552 2.1327
2.9354 14.6692 2.1327
2.4068 14.7645 2.1327
1.8751 14.8409 2.1327
1.4059 15.6183 2.2358
0.8443 15.6584 2.2358
0.2816 15.6784 2.2358
-0.2815 15.6784 2.2358
-0.8442 15.6582 2.2358
-1.4058 15.6180 2.2358
-1.9656 15.5578 2.2358
-2.5230 15.4776 2.2358
-3.0771 15.3776 2.2358
-3.6273 15.2579 2.2358
-4.1730 15.1186 2.2358
-4.7133 14.9600 2.2358
-5.2477 14.7821 2.2358
-5.7755 14.5853 2.2358
-6.2959 14.3697 2.2358
-6.8083 14.1357 2.2358
-7.3121 13.8835 2.2358
-7.8066 13.6135 2.2358
-8.2912 13.3260 2.2358
-8.7654 13.0213 2.2358
-9.2283 12.6998 2.2358
-9.6796 12.3619 2.2358
-10.1185 12.0081 2.2358
-10.5446 11.6388 2.2358
-10.9573 11.2545 2.2358
-11.3561 10.8556 2.2358
-11.7404 10.4426 2.2358
-12.1097 10.0161 2.2358
-12.4637 9.5766 2.2358
-12.8017 9.1246 2.2358
-13.1234 8.6607 2.2358
-13.4284 8.1856 2.2358
-13.7162 7.6997 2.2358
-13.9866 7.2038 2.2358
-14.2390 6.6984 2.2358
-14.4732 6.1842 2.2358
-14.6890 5.6618 2.2358
-14.8859 5.1320 2.2358
-12.6027 3.8446 1.8706
-14.5204 3.8656 2.1327
-14.6529 3.3426 2.1327
-14.7665 2.8150 2.1327
-14.8612 2.2836 2.1327
-14.9368 1.7490 2.1327
-14.9931 1.2120 2.1326
-15.0302 0.6731 2.1326
-9.9801 0.0884 1.4144
-9.8511 -0.2666 1.3962
-15.6120 -0.9841 2.2158
-15.5701 -1.5443 2.2158
-15.5081 -2.1027 2.2158
-15.4261 -2.6586 2.2158
-10.0902 -2.1145 1.4590
-9.8502 -2.4363 1.4357
-9.8564 -2.8169 1.4501
-9.8875 -3.2139 1.4704
-9.8717 -3.6055 1.4860
-9.8560 -4.0063 1.5040
-9.8558 -4.4248 1.5270
-9.8556 -4.8571 1.5526
-9.8555 -5.3049 1.5813
-9.8553 -5.7703 1.6131
-9.8551 -6.2557 1.6485
-9.8549 -6.7638 1.6877
-9.8547 -7.2974 1.7311
-9.8545 -7.8603 1.7792
-9.8542 -8.4563 1.8325
-9.8540 -9.0901 1.8916
-9.8537 -9.7674 1.9573
-9.8534 -10.4946 2.0305
-9.8531 -11.2797 2.1122
-9.5347 -11.7403 2.1326
-9.1085 -12.0768 2.1326
-8.6704 -12.3977 2.1327
-8.2207 -12.7022 2.1326
-7.7604 -12.9907 2.1326
-7.2900 -13.2624 2.1326
-6.8100 -13.5170 2.1326
-6.3211 -13.7541 2.1326
-6.1059 -14.6500 2.2358
-5.5767 -14.8611 2.2358
-5.0401 -15.0529 2.2358
-4.4969 -15.2252 2.2358
-3.9478 -15.3777 2.2358
-3.3935 -15.5104 2.2358
-2.8348 -15.6230 2.2358
-2.2723 -15.7153 2.2358
-1.7068 -15.7873 2.2358
-1.1391 -15.8387 2.2358
-0.5699 -15.8697 2.2358
0.0000 -13.6465 2.2358
0.4898 -13.6377 2.2358
0.9790 -13.6113 2.2358
1.4668 -13.5672 2.2358
1.8628 -12.8828 2.1327
2.3239 -12.8073 2.1327
2.4496 -11.1962 1.8780
3.2364 -12.6066 2.1327
3.6866 -12.4817 2.1327
4.1320 -12.3407 2.1327
4.5719 -12.1837 2.1327
5.0059 -12.0109 2.1327
5.4334 -11.8226 2.1327
5.9857 -11.8810 2.1808
5.7404 -10.4434 1.9537
5.8538 -9.7991 1.8715
6.0371 -9.3284 1.8220
6.1349 -8.7724 1.7555
6.1444 -8.1470 1.6736
6.2285 -7.6694 1.6206
6.3417 -7.2600 1.5814
6.4166 -6.8343 1.5381
6.0627 -6.0097 1.4008
6.2736 -5.7874 1.4008
6.4763 -5.5577 1.4008
6.5512 -5.2256 1.3757
6.6094 -4.8944 1.3504
6.6656 -4.5750 1.3276
6.7200 -4.2658 1.3073
6.8848 -4.0312 1.3106
6.9260 -3.7281 1.2923
6.9732 -3.4367 1.2775
7.0231 -3.1532 1.2653
7.0721 -2.8748 1.2549
7.1203 -2.6007 1.2463
7.1679 -2.3301 1.2394
7.2151 -2.0622 1.2342
7.2618 -1.7963 1.2306
7.3084 -1.5317 1.2286
7.3548 -1.2677 1.2282
7.4013 -1.0037 1.2294
7.4479 -0.7389 1.2322
7.4947 -0.4726 1.2366
7.5420 -0.2042 1.2426
7.5897 0.0670 1.2503
7.6385 0.3419 1.2598
7.7003 0.6223 1.2731
7.5342 0.8821 1.2503
6.6983 1.0291 1.1172
6.0227 1.1480 1.0110
5.7363 1.3084 0.9703
5.7662 1.5349 0.9843
5.8023 1.7699 1.0008
5.8455 2.0151 1.0203
5.8904 2.2703 1.0419
5.9373 2.5368 1.0658
5.9864 2.8160 1.0923
6.0381 3.1098 1.1216
6.0927 3.4200 1.1540
6.1506 3.7491 1.1899
2.2353 1.4751 0.4425
6.2782 4.4747 1.2740
6.3493 4.8783 1.3233
6.4261 5.3149 1.3785
6.5197 5.7988 1.4425
6.3403 6.0607 1.4503
6.1482 6.3148 1.4575
6.2511 6.8996 1.5399
6.2246 7.3868 1.5979
6.2740 8.0124 1.6836
7.2504 9.9775 2.0407
7.3597 10.9327 2.1808
6.9617 11.1887 2.1808
6.5548 11.4302 2.1808
6.1397 11.6570 2.1808
5.5906 11.6071 2.1327
5.1699 11.7993 2.1327
4.7426 11.9764 2.1327
4.3092 12.1381 2.1327
3.8704 12.2841 2.1327
3.4267 12.4144 2.1327
2.9787 12.5288 2.1327
2.5268 12.6271 2.1327
2.0718 12.7092 2.1327
1.6921 13.3925 2.2358
1.2102 13.4443 2.2358
0.7268 13.4788 2.2358
0.2424 13.4961 2.2358
-0.2423 13.4960 2.2358
-0.7267 13.4787 2.2358
-1.2101 13.4440 2.2358
-1.6920 13.3921 2.2358
-2.1718 13.3231 2.2358
-2.6488 13.2369 2.2358
-3.1224 13.1338 2.2358
-3.5921 13.0138 2.2358
-4.0572 12.8772 2.2358
-4.5171 12.7239 2.2358
-4.9714 12.5544 2.2358
-5.4193 12.3687 2.2358
-5.8603 12.1671 2.2358
-6.2938 11.9499 2.2358
-6.7194 11.7173 2.2358
-7.1364 11.4696 2.2358
-7.5444 11.2072 2.2358
-7.9427 10.9303 2.2358
-8.3310 10.6393 2.2358
-8.7086 10.3346 2.2358
-9.0751 10.0166 2.2358
-9.4301 9.6856 2.2358
-9.7731 9.3421 2.2358
-10.1036 8.9865 2.2358
-10.4212 8.6192 2.2358
-10.7255 8.2408 2.2358
-11.0162 7.8517 2.2358
-11.2927 7.4523 2.2358
-11.5549 7.0433 2.2358
-11.8022 6.6250 2.2358
-12.0345 6.1981 2.2358
-12.2514 5.7631 2.2358
-12.4526 5.3205 2.2358
-12.6378 4.8710 2.2358
-12.8069 4.4150 2.2358
-12.3620 3.7709 2.1327
-12.4916 3.3252 2.1327
-12.6052 2.8752 2.1327
-12.7026 2.4213 2.1327
-12.7837 1.9641 2.1327
-12.8483 1.5042 2.1326
-12.8964 1.0422 2.1326
-12.9279 0.5787 2.1326
-9.9799 0.0881 1.6444
-9.8509 -0.2668 1.6234
-9.8508 -0.6212 1.6256
-9.8507 -0.9772 1.6300
-9.8505 -1.3358 1.6366
-9.8504 -1.6979 1.6453
-9.8503 -2.0644 1.6563
-9.8501 -2.4365 1.6696
-9.8564 -2.8171 1.6864
-9.8562 -3.2040 1.7046
-9.8561 -3.6000 1.7255
-9.8559 -4.0065 1.7492
-9.8557 -4.4250 1.7760
-9.8556 -4.8572 1.8059
-9.8554 -5.3050 1.8392
-9.8552 -5.7705 1.8763
-9.8550 -6.2559 1.9175
-9.8548 -6.7639 1.9632
-9.8546 -7.2976 2.0137
-9.8544 -7.8605 2.0697
-9.8541 -8.4564 2.1317
-9.5497 -8.8097 2.1326
-9.2287 -9.1481 2.1326
-8.8957 -9.4749 2.1326
-8.5511 -9.7894 2.1327
-8.1954 -10.0914 2.1327
-7.8289 -10.3804 2.1327
-7.4522 -10.6561 2.1327
-7.0658 -10.9180 2.1327
-6.6702 -11.1659 2.1327
-6.2658 -11.3993 2.1327
-6.1361 -12.1795 2.2358
-5.6955 -12.3930 2.2358
-5.2474 -12.5905 2.2358
-4.7925 -12.7717 2.2358
-4.3313 -12.9363 2.2358
-3.8645 -13.0843 2.2358
-3.3926 -13.2153 2.2358
-2.9162 -13.3292 2.2358
-2.4360 -13.4259 2.2358
-1.9527 -13.5051 2.2358
-1.4667 -13.5669 2.2358
-0.9789 -13.6111 2.2358
-0.4897 -13.6376 2.2358
0.0000 -11.9529 2.2358
0.4290 -11.9452 2.2358
0.8575 -11.9220 2.2358
1.2848 -11.8835 2.2358
1.7104 -11.8295 2.2358
2.0354 -11.2179 2.1327
2.4367 -11.1373 2.1327
2.8347 -11.0423 2.1327
3.2291 -10.9329 2.1327
3.6192 -10.8095 2.1327
4.0046 -10.6720 2.1327
4.3848 -10.5208 2.1327
4.7592 -10.3559 2.1327
5.1275 -10.1777 2.1327
5.4890 -9.9863 2.1327
5.8644 -9.8171 2.1404
5.9614 -9.2116 2.0539
6.0546 -8.6577 1.9778
6.1444 -8.1471 1.9105
6.2284 -7.6696 1.8500
6.3910 -7.3167 1.8193
6.4665 -6.8877 1.7694
6.0661 -6.0133 1.5999
6.1292 -5.6544 1.5622
6.1895 -5.3117 1.5281
6.2473 -4.9834 1.4974
6.3029 -4.6676 1.4698
6.3154 -4.3348 1.4357
6.3670 -4.0418 1.4137
6.8866 -4.0324 1.4962
6.9260 -3.7283 1.4749
7.0111 -3.4555 1.4659
7.0612 -3.1705 1.4519
7.0720 -2.8750 1.4322
7.1203 -2.6009 1.4223
7.1679 -2.3302 1.4145
7.2150 -2.0623 1.4085
7.2618 -1.7964 1.4043
7.3084 -1.5318 1.4020
7.3548 -1.2679 1.4015
7.4013 -1.0038 1.4028
7.4479 -0.7390 1.4060
7.4947 -0.4728 1.4110
7.5419 -0.2044 1.4178
7.5897 0.0669 1.4265
7.6385 0.3418 1.4374
7.7003 0.6221 1.4525
7.5348 0.8820 1.4266
6.6988 1.0291 1.2747
6.0231 1.1479 1.1534
5.7363 1.3083 1.1070
5.7661 1.5348 1.1228
5.8023 1.7698 1.1417
5.8455 2.0150 1.1639
5.8904 2.2702 1.1885
5.9372 2.5366 1.2158
5.9864 2.8159 1.2459
6.0381 3.1096 1.2793
6.0926 3.4199 1.3163
6.1505 3.7489 1.3572
2.2351 1.4749 0.5046
6.2782 4.4746 1.4531
6.4655 4.9674 1.5369
6.5437 5.4120 1.6009
6.5197 5.7986 1.6452
6.3405 6.0607 1.6540
5.9653 6.1267 1.6127
6.0365 6.6625 1.6958
6.1466 7.2940 1.7994
5.9972 7.6586 1.8352
6.7946 9.3500 2.1808
6.4539 9.5870 2.1808
6.1050 9.8115 2.1808
5.6215 9.8024 2.1327
5.2655 9.9971 2.1327
4.9028 10.1788 2.1327
4.5339 10.3475 2.1327
4.1592 10.5029 2.1327
3.7792 10.6448 2.1327
3.3944 10.7730 2.1327
3.0053 10.8873 2.1327
2.6123 10.9877 2.1327
2.2161 11.0739 2.1327
1.8170 11.1460 2.1327
1.4841 11.7453 2.2358
1.0614 11.7907 2.2358
0.6374 11.8210 2.2358
0.2126 11.8362 2.2358
-0.2125 11.8362 2.2358
-0.6373 11.8209 2.2358
-1.0613 11.7905 2.2358
-1.4840 11.7450 2.2358
-1.9047 11.6844 2.2358
-2.3230 11.6088 2.2358
-2.7384 11.5183 2.2358
-3.1503 11.4130 2.2358
-3.5582 11.2931 2.2358
-3.9615 11.1586 2.2358
-4.3598 11.0099 2.2358
-4.7526 10.8469 2.2358
-5.1393 10.6700 2.2358
-5.5195 10.4794 2.2358
-5.8926 10.2753 2.2358
-6.2583 10.0580 2.2358
-6.6159 9.8278 2.2358
-6.9652 9.5848 2.2358
-7.3055 9.3295 2.2358
-7.6366 9.0622 2.2358
-7.9579 8.7832 2.2358
-8.2690 8.4928 2.2358
-8.5696 8.1915 2.2358
-8.8593 7.8795 2.2358
-9.1376 7.5574 2.2358
-9.4043 7.2254 2.2358
-9.6589 6.8841 2.2358
-9.9012 6.5338 2.2358
-10.1309 6.1751 2.2358
-10.3476 5.8082 2.2358
-10.5510 5.4338 2.2358
-10.7409 5.0523 2.2358
-10.9171 4.6642 2.2358
-11.0792 4.2700 2.2358
-10.7095 3.6917 2.1327
-10.8369 3.3054 2.1327
-10.9503 2.9147 2.1327
-11.0496 2.5201 2.1327
-11.1347 2.1222 2.1327
-11.2055 1.7214 2.1327
-11.2619 1.3182 2.1326
-11.3039 0.9133 2.1326
-11.3312 0.5070 2.1326
-9.9797 0.0879 1.8761
-9.8509 -0.2670 1.8522
-9.8507 -0.6214 1.8548
-9.8506 -0.9774 1.8599
-9.8505 -1.3360 1.8674
-9.8503 -1.6980 1.8774
-9.8502 -2.0646 1.8900
-9.8501 -2.4367 1.9052
-9.8563 -2.8173 1.9244
-9.8562 -3.2042 1.9453
-9.8560 -3.6002 1.9692
-9.8558 -4.0067 1.9963
-9.8557 -4.4252 2.0268
-9.8555 -4.8574 2.0610
-9.8553 -5.3052 2.0991
-9.8141 -5.7467 2.1326
-9.6030 -6.0962 2.1326
-9.3795 -6.4379 2.1326
-9.1437 -6.7714 2.1326
-8.8960 -7.0962 2.1326
-8.6368 -7.4120 2.1327
-8.3664 -7.7183 2.1327
-8.0850 -8.0147 2.1327
-7.7932 -8.3008 2.1327
-7.4912 -8.5762 2.1327
-7.1794 -8.8407 2.1327
-6.8582 -9.0937 2.1327
-6.5282 -9.3350 2.1327
-6.2594 -9.6722 2.1568
-6.1253 -10.2540 2.2358
-5.7538 -10.4682 2.2358
-5.3748 -10.6688 2.2358
-4.9888 -10.8557 2.2358
-4.5963 -11.0286 2.2358
-4.1978 -11.1872 2.2358
-3.7939 -11.3313 2.2358
-3.3849 -11.4608 2.2358
-2.9715 -11.5755 2.2358
-2.5543 -11.6752 2.2358
-2.1337 -11.7598 2.2358
-1.7103 -11.8292 2.2358
-1.2847 -11.8832 2.2358
-0.8574 -11.9219 2.2358
-0.4290 -11.9451 2.2358
0.0000 -10.6233 2.2358
0.3813 -10.6165 2.2358
0.7621 -10.5959 2.2358
1.1419 -10.5616 2.2358
1.5201 -10.5137 2.2358
1.8090 -9.9702 2.1327
2.1656 -9.8985 2.1327
2.5194 -9.8141 2.1327
2.8699 -9.7170 2.1327
3.2166 -9.6073 2.1327
3.5592 -9.4852 2.1327
3.8971 -9.3508 2.1327
4.2299 -9.2044 2.1327
4.5573 -9.0461 2.1327
4.8787 -8.8761 2.1327
5.1937 -8.6946 2.1327
5.5020 -8.5019 2.1327
5.9339 -8.4854 2.1808
6.1567 -8.1637 2.1538
6.2346 -7.6774 2.0834
6.3078 -7.2216 2.0201
6.3819 -6.7977 1.9646
5.9188 -5.8674 1.7562
5.9804 -5.5173 1.7148
6.0393 -5.1829 1.6774
6.0553 -4.8304 1.6328
6.1290 -4.5390 1.6079
6.2872 -4.3156 1.6079
6.4083 -4.0682 1.6007
6.8195 -3.9933 1.6667
6.9260 -3.7285 1.6591
7.0111 -3.4556 1.6489
7.0612 -3.1706 1.6331
7.1105 -2.8907 1.6197
7.1589 -2.6151 1.6085
7.1679 -2.3304 1.5910
7.2150 -2.0625 1.5842
7.2618 -1.7966 1.5795
7.3481 -1.5403 1.5855
7.3948 -1.2749 1.5849
7.4415 -1.0094 1.5863
7.4883 -0.7432 1.5898
7.5354 -0.4755 1.5954
7.5419 -0.2045 1.5945
7.5896 0.0667 1.6043
7.6384 0.3416 1.6164
7.7003 0.6220 1.6334
7.5353 0.8819 1.6044
6.6992 1.0290 1.4335
6.0234 1.1479 1.2971
5.7363 1.3082 1.2448
5.7661 1.5347 1.2626
5.8023 1.7696 1.2838
5.8454 2.0149 1.3087
5.8903 2.2700 1.3363
5.9372 2.5365 1.3670
5.9863 2.8157 1.4009
6.1486 3.1664 1.4647
6.2042 3.4823 1.5070
6.1505 3.7487 1.5259
2.2348 1.4747 0.5673
6.2782 4.4744 1.6336
6.4654 4.9672 1.7279
6.5436 5.4118 1.7998
6.5196 5.7984 1.8495
6.3407 6.0606 1.8595
5.9654 6.1267 1.8131
5.7702 6.3684 1.8223
5.9347 7.0424 1.9531
5.7840 7.3862 1.9897
5.9704 8.2157 2.1542
5.6147 8.3401 2.1327
5.3112 8.5356 2.1327
5.0009 8.7200 2.1327
4.6842 8.8933 2.1327
4.3616 9.0551 2.1327
4.0334 9.2052 2.1327
3.7001 9.3435 2.1327
3.3621 9.4698 2.1327
3.0198 9.5839 2.1327
2.6736 9.6857 2.1327
2.3241 9.7750 2.1327
1.9777 9.8824 2.1394
1.6946 10.3952 2.2358
1.3203 10.4491 2.2358
0.9443 10.4895 2.2358
0.5671 10.5165 2.2358
0.1891 10.5300 2.2358
-0.1891 10.5300 2.2358
-0.5670 10.5165 2.2358
-0.9442 10.4894 2.2358
-1.3202 10.4489 2.2358
-1.6945 10.3949 2.2358
-2.0667 10.3277 2.2358
-2.4362 10.2471 2.2358
-2.8027 10.1534 2.2358
-3.1655 10.0466 2.2358
-3.5243 9.9270 2.2358
-3.8787 9.7945 2.2358
-4.2281 9.6495 2.2358
-4.5721 9.4921 2.2358
-4.9102 9.3225 2.2358
-5.2421 9.1408 2.2358
-5.5674 8.9474 2.2358
-5.8855 8.7425 2.2358
-6.1961 8.5263 2.2358
-6.4988 8.2991 2.2358
-6.7932 8.0612 2.2358
-7.0789 7.8129 2.2358
-7.3556 7.5545 2.2358
-7.6229 7.2863 2.2358
-7.8805 7.0088 2.2358
-8.1280 6.7221 2.2358
-8.3651 6.4267 2.2358
-8.5915 6.1231 2.2358
-8.8068 5.8114 2.2358
-9.0110 5.4922 2.2358
-9.2035 5.1659 2.2358
-9.3843 4.8328 2.2358
-9.5531 4.4934 2.2358
-9.7096 4.1481 2.2358
-9.8537 3.7974 2.2358
-9.5247 3.2831 2.1327
-9.6378 2.9395 2.1327
-9.7385 2.5920 2.1327
-9.8266 2.2410 2.1327
-9.9021 1.8871 2.1327
-9.9649 1.5306 2.1326
-10.0148 1.1721 2.1326
-10.0519 0.8119 2.1326
-10.0760 0.4506 2.1326
-9.9795 0.0877 2.1098
-9.8508 -0.2671 2.0830
-9.8507 -0.6216 2.0860
-9.8505 -0.9776 2.0917
-9.8504 -1.3362 2.1002
-9.8503 -1.6982 2.1115
-9.8501 -2.0648 2.1257
-9.8031 -2.4253 2.1326
-9.7112 -2.7761 2.1326
-9.6068 -3.1233 2.1326
-9.4899 -3.4666 2.1326
-9.3608 -3.8056 2.1326
-9.2195 -4.1397 2.1326
-9.0663 -4.4687 2.1326
-8.9013 -4.7919 2.1326
-8.7248 -5.1090 2.1327
-8.5370 -5.4196 2.1327
-8.3381 -5.7233 2.1327
-8.1284 -6.0197 2.1327
-7.9081 -6.3084 2.1327
-7.6776 -6.5890 2.1327
-7.4370 -6.8612 2.1327
-7.1868 -7.1245 2.1327
-6.9273 -7.3787 2.1327
-6.6588 -7.6235 2.1327
-6.3815 -7.8584 2.1327
-6.2533 -8.2917 2.1878
-6.0829 -8.6986 2.2358
-5.7673 -8.9121 2.2358
-5.4442 -9.1141 2.2358
-5.1140 -9.3044 2.2358
-4.7771 -9.4827 2.2358
-4.4340 -9.6487 2.2358
-4.0852 -9.8022 2.2358
-3.7310 -9.9432 2.2358
-3.3719 -10.0712 2.2358
-3.0084 -10.1862 2.2358
-2.6410 -10.2881 2.2358
-2.2701 -10.3767 2.2358
-1.8963 -10.4518 2.2358
-1.5200 -10.5134 2.2358
-1.1418 -10.5614 2.2358
-0.7620 -10.5958 2.2358
-0.3812 -10.6164 2.2358
0.0000 -9.5508 2.2358
0.3428 -9.5447 2.2358
0.6851 -9.5262 2.2358
1.0266 -9.4954 2.2358
1.3667 -9.4523 2.2358
1.7050 -9.3969 2.2358
1.9470 -8.8993 2.1327
2.2650 -8.8234 2.1327
2.5801 -8.7361 2.1327
2.8919 -8.6376 2.1327
3.1999 -8.5278 2.1327
3.5037 -8.4071 2.1327
3.8030 -8.2755 2.1327
4.0973 -8.1332 2.1327
4.3863 -7.9804 2.1327
4.6695 -7.8173 2.1327
4.9467 -7.6441 2.1327
5.2175 -7.4611 2.1327
5.4814 -7.2684 2.1327
5.7383 -7.0664 2.1327
6.1227 -7.0099 2.1808
6.3697 -6.7850 2.1808
5.7753 -5.7253 1.9059
5.8354 -5.3836 1.8609
5.8575 -5.0271 1.8094
6.0335 -4.8131 1.8094
6.1498 -4.5546 1.7943
6.2021 -4.2573 1.7640
6.2527 -3.9696 1.7369
6.8191 -3.9932 1.8534
6.9259 -3.7286 1.8451
7.0656 -3.4827 1.8480
7.1162 -3.1955 1.8303
7.1658 -2.9134 1.8152
7.2147 -2.6356 1.8027
7.1678 -2.3305 1.7691
7.2150 -2.0626 1.7616
7.2618 -1.7967 1.7564
7.4053 -1.5524 1.7767
7.4523 -1.2850 1.7760
7.4994 -1.0174 1.7776
7.5466 -0.7491 1.7815
7.5595 -0.4772 1.7796
7.5419 -0.2047 1.7728
7.5896 0.0666 1.7837
7.6384 0.3415 1.7972
7.7002 0.6218 1.8161
7.5358 0.8818 1.7839
6.6996 1.0289 1.5939
6.0238 1.1478 1.4422
5.7363 1.3081 1.3839
5.7661 1.5345 1.4037
5.8023 1.7695 1.4272
5.8454 2.0147 1.4549
5.8903 2.2699 1.4856
6.0459 2.5828 1.5474
6.0959 2.8671 1.5858
6.1485 3.1662 1.6282
6.2041 3.4822 1.6752
6.1505 3.7486 1.6962
2.2346 1.4745 0.6305
6.2782 4.4742 1.8159
6.4654 4.9671 1.9206
6.4260 5.3143 1.9646
6.5269 5.8047 2.0581
6.3408 6.0606 2.0670
5.9656 6.1266 2.0153
5.6683 6.2558 1.9897
5.7189 6.7861 2.0919
5.5779 7.1229 2.1327
5.3181 7.3179 2.1327
5.0516 7.5035 2.1327
4.7785 7.6794 2.1327
4.4994 7.8454 2.1327
4.2145 8.0013 2.1327
3.9243 8.1470 2.1327
3.6290 8.2821 2.1327
3.3292 8.4066 2.1327
3.0250 8.5202 2.1327
2.7171 8.6230 2.1327
2.4056 8.7146 2.1327
2.0911 8.7950 2.1327
1.7772 8.8803 2.1367
1.5248 9.3531 2.2358
1.1880 9.4016 2.2358
0.8496 9.4380 2.2358
0.5102 9.4623 2.2358
0.1702 9.4745 2.2358
-0.1701 9.4744 2.2358
-0.5102 9.4622 2.2358
-0.8496 9.4379 2.2358
-1.1879 9.4014 2.2358
-1.5247 9.3529 2.2358
-1.8596 9.2923 2.2358
-2.1920 9.2198 2.2358
-2.5217 9.1355 2.2358
-2.8482 9.0394 2.2358
-3.1710 8.9317 2.2358
-3.4898 8.8125 2.2358
-3.8042 8.6819 2.2358
-4.1137 8.5402 2.2358
-4.4179 8.3876 2.2358
-4.7165 8.2241 2.2358
-5.0091 8.0500 2.2358
-5.2953 7.8655 2.2358
-5.5747 7.6710 2.2358
-5.8470 7.4665 2.2358
-6.1118 7.2524 2.2358
-6.3688 7.0289 2.2358
-6.6177 6.7964 2.2358
-6.8581 6.5551 2.2358
-7.0897 6.3053 2.2358
-7.3123 6.0473 2.2358
-7.5255 5.7815 2.2358
-7.7291 5.5082 2.2358
-7.9227 5.2278 2.2358
-8.1063 4.9406 2.2358
-8.2794 4.6470 2.2358
-8.4419 4.3473 2.2358
-8.5936 4.0419 2.2358
-8.7343 3.7313 2.2358
-8.8638 3.4158 2.2358
-8.9819 3.0958 2.2358
-8.6691 2.6438 2.1327
-8.7595 2.3312 2.1327
-8.8387 2.0155 2.1326
-8.9065 1.6971 2.1326
-8.9628 1.3765 2.1326
-9.0077 1.0540 2.1326
-9.0410 0.7301 2.1326
-9.0628 0.4051 2.1326
-9.0729 0.0796 2.1326
-9.0712 -0.2462 2.1327
-9.0578 -0.5717 2.1327
-9.0327 -0.8966 2.1326
-8.9959 -1.2204 2.1326
-8.9476 -1.5428 2.1326
-8.8877 -1.8632 2.1326
-8.8163 -2.1814 2.1326
-8.7335 -2.4968 2.1327
-8.6395 -2.8090 2.1327
-8.5342 -3.1177 2.1327
-8.4180 -3.4225 2.1327
-8.2908 -3.7230 2.1327
-8.1529 -4.0187 2.1327
-8.0044 -4.3093 2.1327
-7.8456 -4.5944 2.1327
-7.6766 -4.8736 2.1327
-7.4977 -5.1467 2.1327
-7.3090 -5.4131 2.1327
-7.1108 -5.6726 2.1327
-6.9035 -5.9249 2.1327
-6.6871 -6.1695 2.1327
-6.4665 -6.4107 2.1342
-6.2636 -6.6720 2.1447
-6.2537 -7.1599 2.2277
-6.0150 -7.4073 2.2358
-5.7458 -7.6191 2.2358
-5.4692 -7.8211 2.2358
-5.1854 -8.0130 2.2358
-4.8948 -8.1945 2.2358
-4.5979 -8.3655 2.2358
-4.2950 -8.5258 2.2358
-3.9865 -8.6750 2.2358
-3.6728 -8.8130 2.2358
-3.3543 -8.9396 2.2358
-3.0315 -9.0547 2.2358
-2.7047 -9.1580 2.2358
-2.3744 -9.2496 2.2358
-2.0409 -9.3292 2.2358
-1.7049 -9.3967 2.2358
-1.3666 -9.4521 2.2358
-1.0265 -9.4952 2.2358
-0.6850 -9.5261 2.2358
-0.3427 -9.5446 2.2358
0.0000 -8.6666 2.2358
0.3111 -8.6610 2.2358
0.6217 -8.6442 2.2358
0.9315 -8.6163 2.2358
1.2401 -8.5772 2.2358
1.5471 -8.5270 2.2358
1.7776 -8.1254 2.1459
2.0553 -8.0066 2.1327
2.3412 -7.9274 2.1327
2.6241 -7.8380 2.1327
2.9036 -7.7385 2.1327
3.1793 -7.6289 2.1327
3.4509 -7.5095 2.1327
3.7180 -7.3805 2.1327
3.9802 -7.2419 2.1327
4.2373 -7.0939 2.1327
4.4889 -6.9368 2.1327
4.7346 -6.7707 2.1327
4.9742 -6.5960 2.1327
5.2073 -6.4127 2.1327
5.4337 -6.2212 2.1327
5.5682 -5.9314 2.1008
5.5907 -5.5425 2.0330
5.6907 -5.2503 1.9997
5.8749 -5.0422 1.9997
5.9478 -4.7449 1.9654
6.0007 -4.4442 1.9291
6.0517 -4.1542 1.8965
6.2148 -3.9457 1.9022
6.8187 -3.9931 2.0421
6.9278 -3.7298 2.0336
6.9731 -3.4373 2.0096
7.0230 -3.1538 1.9902
7.0720 -2.8754 1.9738
7.1202 -2.6013 1.9602
7.1678 -2.3307 1.9492
7.2150 -2.0628 1.9409
7.2617 -1.7969 1.9351
7.3730 -1.5458 1.9489
7.4228 -1.2800 1.9489
7.4630 -1.0126 1.9489
7.4936 -0.7440 1.9489
7.5145 -0.4745 1.9489
7.5418 -0.2049 1.9531
7.5896 0.0664 1.9651
7.6384 0.3413 1.9799
7.7002 0.6216 2.0006
7.5364 0.8817 1.9653
6.7000 1.0288 1.7559
6.0241 1.1478 1.5888
5.7362 1.3079 1.5245
5.7661 1.5344 1.5462
5.8022 1.7694 1.5722
5.8454 2.0146 1.6026
5.8903 2.2698 1.6364
6.0459 2.5826 1.7045
6.0959 2.8670 1.7468
6.1485 3.1661 1.7935
6.2041 3.4820 1.8452
6.1504 3.7484 1.8683
2.2344 1.4743 0.6944
6.2781 4.4740 2.0001
6.3587 4.8849 2.0806
6.4473 5.3317 2.1710
6.2792 5.5842 2.1808
6.0741 5.8055 2.1808
5.7320 5.8866 2.1327
5.5165 6.0880 2.1327
5.2939 6.2816 2.1327
5.0645 6.4671 2.1327
4.8287 6.6442 2.1327
4.5867 6.8127 2.1327
4.3388 6.9725 2.1327
4.0854 7.1233 2.1327
3.8268 7.2649 2.1327
3.5632 7.3972 2.1327
3.2952 7.5199 2.1327
3.0229 7.6330 2.1327
2.7468 7.7362 2.1327
2.4671 7.8295 2.1327
2.1843 7.9128 2.1327
1.8988 7.9858 2.1327
1.6886 8.4376 2.2358
1.3845 8.4926 2.2358
1.0787 8.5367 2.2358
0.7715 8.5697 2.2358
0.4633 8.5918 2.2358
0.1545 8.6028 2.2358
-0.1545 8.6028 2.2358
-0.4632 8.5918 2.2358
-0.7714 8.5696 2.2358
-1.0786 8.5365 2.2358
-1.3844 8.4924 2.2358
-1.6885 8.4374 2.2358
-1.9904 8.3716 2.2358
-2.2898 8.2950 2.2358
-2.5862 8.2077 2.2358
-2.8793 8.1098 2.2358
-3.1688 8.0016 2.2358
-3.4542 7.8830 2.2358
-3.7352 7.7543 2.2358
-4.0114 7.6156 2.2358
-4.2825 7.4672 2.2358
-4.5481 7.3091 2.2358
-4.8080 7.1415 2.2358
-5.0616 6.9648 2.2358
-5.3088 6.7791 2.2358
-5.5492 6.5847 2.2358
-5.7825 6.3817 2.2358
-6.0084 6.1705 2.2358
-6.2267 5.9514 2.2358
-6.4369 5.7245 2.2358
-6.6389 5.4903 2.2358
-6.8324 5.2489 2.2358
-7.0172 5.0008 2.2358
-7.1930 4.7461 2.2358
-7.3595 4.4853 2.2358
-7.5166 4.2187 2.2358
-7.6641 3.9465 2.2358
-7.8017 3.6693 2.2358
-7.9294 3.3872 2.2358
-8.0468 3.1007 2.2358
-8.1539 2.8102 2.2358
-8.2506 2.5160 2.2358
-7.9541 2.1167 2.1332
-8.0235 1.8294 2.1326
-8.0851 1.5404 2.1326
-8.1363 1.2494 2.1326
-8.1770 0.9566 2.1326
-8.2072 0.6626 2.1327
-8.2268 0.3676 2.1327
-8.2358 0.0721 2.1327
-8.2341 -0.2237 2.1327
-8.2219 -0.5191 2.1327
-8.1990 -0.8140 2.1327
-8.1655 -1.1080 2.1327
-8.1215 -1.4005 2.1327
-8.0671 -1.6914 2.1327
-8.0022 -1.9801 2.1327
-7.9269 -2.2663 2.1327
-7.8415 -2.5497 2.1327
-7.7459 -2.8299 2.1327
-7.6403 -3.1065 2.1327
-7.5248 -3.3791 2.1327
-7.3995 -3.6475 2.1327
-7.2647 -3.9112 2.1327
-7.1205 -4.1699 2.1327
-6.9670 -4.4233 2.1327
-6.8045 -4.6710 2.1327
-6.6332 -4.9128 2.1327
-6.4653 -5.1579 2.1367
-6.2670 -5.3788 2.1334
-6.2542 -5.7703 2.1980
-6.1478 -6.0948 2.2358
-5.9256 -6.3121 2.2358
-5.6958 -6.5213 2.2358
-5.4585 -6.7221 2.2358
-5.2142 -6.9142 2.2358
-4.9630 -7.0975 2.2358
-4.7055 -7.2716 2.2358
-4.4418 -7.4363 2.2358
-4.1723 -7.5914 2.2358
-3.8974 -7.7368 2.2358
-3.6174 -7.8721 2.2358
-3.3328 -7.9973 2.2358
-3.0438 -8.1122 2.2358
-2.7508 -8.2166 2.2358
-2.4543 -8.3103 2.2358
-2.1545 -8.3934 2.2358
-1.8520 -8.4655 2.2358
-1.5470 -8.5268 2.2358
-1.2400 -8.5770 2.2358
-0.9314 -8.6162 2.2358
-0.6216 -8.6442 2.2358
-0.3110 -8.6610 2.2358
0.0000 -7.9244 2.2358
0.2844 -7.9193 2.2358
0.5684 -7.9039 2.2358
0.8517 -7.8784 2.2358
1.1339 -7.8426 2.2358
1.4146 -7.7968 2.2358
1.6934 -7.7408 2.2358
1.8793 -7.3210 2.1327
2.1407 -7.2486 2.1327
2.3994 -7.1669 2.1327
2.6550 -7.0759 2.1327
2.9070 -6.9757 2.1327
3.1554 -6.8666 2.1327
3.3996 -6.7486 2.1327
3.6394 -6.6219 2.1327
3.8745 -6.4866 2.1327
4.1045 -6.3430 2.1327
4.3293 -6.1912 2.1327
4.5483 -6.0314 2.1327
4.7615 -5.8639 2.1327
4.9685 -5.6888 2.1327
5.1691 -5.5064 2.1327
5.3630 -5.3169 2.1327
5.5498 -5.1205 2.1327
5.7295 -4.9176 2.1327
5.7980 -4.6256 2.0952
5.8496 -4.3325 2.0565
5.8583 -4.0216 2.0077
6.1825 -3.9253 2.0694
6.6591 -3.8999 2.1808
6.7941 -3.6580 2.1808
6.9203 -3.4114 2.1808
7.0375 -3.1605 2.1808
7.0871 -2.8817 2.1630
7.1338 -2.6064 2.1475
7.1803 -2.3349 2.1351
7.2265 -2.0662 2.1257
7.2727 -1.7997 2.1191
7.3189 -1.5346 2.1154
7.3653 -1.2703 2.1145
7.4120 -1.0059 2.1164
7.4592 -0.7407 2.1212
7.5070 -0.4742 2.1288
7.5554 -0.2054 2.1393
7.6047 0.0664 2.1528
7.6550 0.3419 2.1694
7.6770 0.6196 2.1808
7.5369 0.8816 2.1489
6.7005 1.0288 1.9199
6.0245 1.1477 1.7371
5.7362 1.3078 1.6667
5.7661 1.5343 1.6905
5.8022 1.7692 1.7188
5.8454 2.0144 1.7521
5.8903 2.2696 1.7890
6.0458 2.5825 1.8635
6.0959 2.8668 1.9096
6.0803 3.1308 1.9389
6.0925 3.4192 1.9809
6.1552 3.7512 2.0440
2.2341 1.4741 0.7591
6.2618 4.4622 2.1808
6.0970 4.6837 2.1808
5.7937 4.7911 2.1327
5.6174 4.9955 2.1327
5.4340 5.1935 2.1327
5.2436 5.3848 2.1327
5.0464 5.5691 2.1327
4.8428 5.7462 2.1327
4.6331 5.9160 2.1327
4.4173 6.0780 2.1327
4.1960 6.2323 2.1327
3.9692 6.3785 2.1327
3.7374 6.5165 2.1327
3.5008 6.6461 2.1327
3.2598 6.7671 2.1327
3.0146 6.8794 2.1327
2.7655 6.9829 2.1327
2.5129 7.0774 2.1327
2.2571 7.1627 2.1327
1.9984 7.2389 2.1327
1.7673 7.4328 2.1698
1.5449 7.7191 2.2358
1.2667 7.7694 2.2358
0.9869 7.8097 2.2358
0.7058 7.8400 2.2358
0.4239 7.8602 2.2358
0.1414 7.8703 2.2358
-0.1413 7.8703 2.2358
-0.4238 7.8602 2.2358
-0.7057 7.8399 2.2358
-0.9868 7.8096 2.2358
-1.2666 7.7693 2.2358
-1.5448 7.7189 2.2358
-1.8209 7.6586 2.2358
-2.0948 7.5885 2.2358
-2.3660 7.5087 2.2358
-2.6342 7.4191 2.2358
-2.8990 7.3201 2.2358
-3.1600 7.2116 2.2358
-3.4171 7.0938 2.2358
-3.6698 6.9669 2.2358
-3.9178 6.8311 2.2358
-4.1608 6.6864 2.2358
-4.3984 6.5331 2.2358
-4.6305 6.3714 2.2358
-4.8566 6.2015 2.2358
-5.0765 6.0235 2.2358
-5.2899 5.8379 2.2358
-5.4965 5.6446 2.2358
-5.6961 5.4441 2.2358
-5.8884 5.2365 2.2358
-6.0731 5.0222 2.2358
-6.2501 4.8014 2.2358
-6.4191 4.5743 2.2358
-6.5798 4.3413 2.2358
-6.7321 4.1027 2.2358
-6.8757 3.8588 2.2358
-7.0106 3.6098 2.2358
-7.1364 3.3562 2.2358
-7.2531 3.0982 2.2358
-7.3604 2.8361 2.2358
-7.4583 2.5703 2.2358
-7.5467 2.3012 2.2358
-7.6253 2.0290 2.2358
-7.6466 1.7434 2.2220
-7.4569 1.4206 2.1504
-7.4420 1.1426 2.1327
-7.4791 0.8748 2.1327
-7.5067 0.6059 2.1327
-7.5246 0.3361 2.1327
-7.5327 0.0658 2.1327
-7.5311 -0.2047 2.1327
-7.5197 -0.4750 2.1327
-7.4987 -0.7447 2.1327
-7.4681 -1.0135 2.1327
-7.4277 -1.2811 2.1327
-7.3779 -1.5470 2.1327
-7.3184 -1.8111 2.1327
-7.2496 -2.0728 2.1327
-7.1713 -2.3320 2.1327
-7.0838 -2.5882 2.1327
-6.9872 -2.8411 2.1327
-6.8815 -3.0904 2.1327
-6.7669 -3.3358 2.1327
-6.6435 -3.5769 2.1327
-6.5116 -3.8135 2.1327
-6.3712 -4.0452 2.1327
-6.2639 -4.3001 2.1469
-6.2546 -4.6325 2.1991
-6.1864 -4.9355 2.2358
-6.0059 -5.1549 2.2358
-5.8175 -5.3676 2.2358
-5.6216 -5.5734 2.2358
-5.4185 -5.7721 2.2358
-5.2082 -5.9633 2.2358
-4.9912 -6.1469 2.2358
-4.7678 -6.3225 2.2358
-4.5381 -6.4900 2.2358
-4.3026 -6.6492 2.2358
-4.0615 -6.7998 2.2358
-3.8150 -6.9416 2.2358
-3.5637 -7.0744 2.2358
-3.3077 -7.1982 2.2358
-3.0474 -7.3126 2.2358
-2.7831 -7.4176 2.2358
-2.5152 -7.5130 2.2358
-2.2440 -7.5987 2.2358
-1.9700 -7.6746 2.2358
-1.6933 -7.7406 2.2358
-1.4145 -7.7966 2.2358
-1.1338 -7.8425 2.2358
-0.8516 -7.8783 2.2358
-0.5684 -7.9039 2.2358
-0.2843 -7.9192 2.2358
0.0000 -7.2919 2.2358
0.2617 -7.2872 2.2358
0.5231 -7.2731 2.2358
0.7837 -7.2496 2.2358
1.0434 -7.2167 2.2358
1.3017 -7.1745 2.2358
1.5583 -7.1230 2.2358
1.7743 -6.9123 2.1883
1.9805 -6.7062 2.1443
2.2079 -6.5949 2.1327
2.4430 -6.5112 2.1327
2.6750 -6.4191 2.1327
2.9035 -6.3187 2.1327
3.1283 -6.2101 2.1327
3.3490 -6.0936 2.1327
3.5653 -5.9691 2.1327
3.7770 -5.8370 2.1327
3.9838 -5.6973 2.1327
4.1854 -5.5503 2.1327
4.3816 -5.3962 2.1327
4.5722 -5.2351 2.1327
4.7567 -5.0672 2.1327
4.9352 -4.8929 2.1327
5.1072 -4.7122 2.1327
5.2726 -4.5255 2.1327
5.4311 -4.3330 2.1327
5.5826 -4.1349 2.1327
5.7269 -3.9316 2.1327
5.9960 -3.8071 2.1808
6.1282 -3.5891 2.1808
6.2525 -3.3665 2.1808
6.3687 -3.1396 2.1808
6.4766 -2.9087 2.1808
6.5762 -2.6741 2.1808
6.6672 -2.4361 2.1808
6.7496 -2.1950 2.1808
6.8234 -1.9511 2.1808
6.8882 -1.7047 2.1808
6.9442 -1.4562 2.1808
6.9913 -1.2059 2.1808
7.0293 -0.9541 2.1808
7.0582 -0.7011 2.1808
7.0780 -0.4472 2.1808
7.0887 -0.1928 2.1808
7.0903 0.0617 2.1808
7.0827 0.3162 2.1808
7.0660 0.5701 2.1808
7.0402 0.8233 2.1808
6.7009 1.0287 2.0861
6.0248 1.1477 1.8874
5.7362 1.3077 1.8108
5.7661 1.5342 1.8366
5.8022 1.7691 1.8673
5.8453 2.0143 1.9035
5.8902 2.2695 1.9436
5.9371 2.5359 1.9881
5.9903 2.8170 2.0386
6.0489 3.1145 2.0955
6.1112 3.4296 2.1586
6.0452 3.6839 2.1808
2.2339 1.4739 0.8245
5.6370 4.0168 2.1327
5.4887 4.2162 2.1327
5.3333 4.4102 2.1327
5.1711 4.5984 2.1327
5.0022 4.7807 2.1327
4.8270 4.9568 2.1327
4.6455 5.1265 2.1327
4.4581 5.2896 2.1327
4.2650 5.4459 2.1327
4.0665 5.5951 2.1327
3.8627 5.7371 2.1327
3.6540 5.8718 2.1327
3.4406 5.9988 2.1327
3.2229 6.1181 2.1327
3.0009 6.2296 2.1327
2.7752 6.3330 2.1327
2.5459 6.4283 2.1327
2.3134 6.5153 2.1327
2.0779 6.5939 2.1327
1.8397 6.6640 2.1327
1.6765 7.0507 2.2358
1.4222 7.1061 2.2358
1.1661 7.1525 2.2358
0.9085 7.1896 2.2358
0.6498 7.2175 2.2358
0.3902 7.2361 2.2358
0.1302 7.2454 2.2358
-0.1301 7.2454 2.2358
-0.3902 7.2360 2.2358
-0.6497 7.2174 2.2358
-0.9085 7.1895 2.2358
-1.1660 7.1523 2.2358
-1.4221 7.1060 2.2358
-1.6764 7.0505 2.2358
-1.9285 6.9859 2.2358
-2.1782 6.9124 2.2358
-2.4250 6.8300 2.2358
-2.6688 6.7387 2.2358
-2.9091 6.6388 2.2358
-3.1458 6.5304 2.2358
-3.3784 6.4136 2.2358
-3.6067 6.2884 2.2358
-3.8304 6.1552 2.2358
-4.0491 6.0141 2.2358
-4.2627 5.8652 2.2358
-4.4708 5.7087 2.2358
-4.6732 5.5449 2.2358
-4.8697 5.3739 2.2358
-5.0598 5.1960 2.2358
-5.2435 5.0114 2.2358
-5.4205 4.8203 2.2358
-5.5906 4.6230 2.2358
-5.7534 4.4197 2.2358
-5.9089 4.2106 2.2358
-6.0568 3.9961 2.2358
-6.1970 3.7765 2.2358
-6.3292 3.5519 2.2358
-6.4532 3.3227 2.2358
-6.5690 3.0892 2.2358
-6.6764 2.8517 2.2358
-6.7751 2.6104 2.2358
-6.8652 2.3658 2.2358
-6.9464 2.1180 2.2358
-7.0187 1.8675 2.2358
-7.0820 1.6145 2.2358
-7.1362 1.3593 2.2358
-7.1812 1.1024 2.2358
-7.0458 0.8240 2.1828
-6.9094 0.5575 2.1327
-6.9257 0.3092 2.1327
-6.9395 0.0604 2.1347
-6.9316 -0.1886 2.1327
-6.9211 -0.4373 2.1327
-6.9017 -0.6856 2.1327
-6.8734 -0.9329 2.1327
-6.8363 -1.1792 2.1327
-6.7903 -1.4240 2.1327
-6.7355 -1.6670 2.1327
-6.6721 -1.9079 2.1327
-6.6000 -2.1464 2.1327
-6.5195 -2.3821 2.1327
-6.4304 -2.6149 2.1327
-6.3331 -2.8443 2.1327
-6.2761 -3.0941 2.1494
-6.2577 -3.3693 2.1829
-6.2563 -3.6641 2.2266
-6.1466 -3.9028 2.2358
-6.0032 -4.1212 2.2358
-5.8519 -4.3344 2.2358
-5.6931 -4.5421 2.2358
-5.5269 -4.7439 2.2358
-5.3535 -4.9396 2.2358
-5.1732 -5.1290 2.2358
-4.9862 -5.3118 2.2358
-4.7927 -5.4877 2.2358
-4.5930 -5.6566 2.2358
-4.3874 -5.8182 2.2358
-4.1760 -5.9723 2.2358
-3.9593 -6.1187 2.2358
-3.7373 -6.2573 2.2358
-3.5106 -6.3878 2.2358
-3.2793 -6.5100 2.2358
-3.0437 -6.6238 2.2358
-2.8041 -6.7291 2.2358
-2.5609 -6.8257 2.2358
-2.3144 -6.9135 2.2358
-2.0649 -6.9923 2.2358
-1.8127 -7.0621 2.2358
-1.5581 -7.1228 2.2358
-1.3016 -7.1743 2.2358
-1.0433 -7.2166 2.2358
-0.7836 -7.2495 2.2358
-0.5230 -7.2730 2.2358
-0.2616 -7.2872 2.2358
0.0000 -6.7460 2.2358
0.2421 -6.7416 2.2358
0.4839 -6.7286 2.2358
0.7250 -6.7068 2.2358
0.9652 -6.6764 2.2358
1.2042 -6.6374 2.2358
1.4416 -6.5898 2.2358
1.6771 -6.5336 2.2358
1.8223 -6.1708 2.1327
2.0425 -6.1012 2.1327
2.2601 -6.0238 2.1327
2.4747 -5.9386 2.1327
2.6861 -5.8457 2.1327
2.8941 -5.7453 2.1327
3.0982 -5.6375 2.1327
3.2984 -5.5224 2.1327
3.4943 -5.4002 2.1327
3.6856 -5.2710 2.1327
3.8722 -5.1350 2.1327
4.0537 -4.9924 2.1327
4.2300 -4.8434 2.1327
4.4008 -4.6882 2.1327
4.5659 -4.5269 2.1327
4.7250 -4.3598 2.1327
4.8781 -4.1871 2.1327
5.0248 -4.0090 2.1327
5.1650 -3.8258 2.1327
5.2985 -3.6376 2.1327
5.4252 -3.4448 2.1327
5.5449 -3.2476 2.1327
5.6573 -3.0462 2.1327
5.7625 -2.8409 2.1327
5.9923 -2.6914 2.1808
6.0845 -2.4743 2.1808
6.1688 -2.2541 2.1808
6.2451 -2.0310 2.1808
6.3133 -1.8054 2.1808
6.3734 -1.5775 2.1808
6.4253 -1.3476 2.1808
6.4688 -1.1159 2.1808
6.5041 -0.8829 2.1808
6.5309 -0.6488 2.1808
6.5493 -0.4140 2.1808
6.5592 -0.1786 2.1808
6.5607 0.0570 2.1808
6.5538 0.2924 2.1808
6.5383 0.5274 2.1808
6.5145 0.7617 2.1808
6.4823 0.9950 2.1808
6.0252 1.1476 2.0398
5.7362 1.3075 1.9568
5.7660 1.5340 1.9847
5.8037 1.7694 2.0185
5.8517 2.0163 2.0592
5.9019 2.2738 2.1045
5.9549 2.5433 2.1548
5.7992 2.7270 2.1327
5.6971 2.9332 2.1327
5.5876 3.1355 2.1327
5.4709 3.3338 2.1327
2.2336 1.4736 0.8909
5.2166 3.7171 2.1327
5.0794 3.9017 2.1327
4.9356 4.0812 2.1327
4.7855 4.2554 2.1327
4.6293 4.4241 2.1327
4.4671 4.5872 2.1327
4.2992 4.7442 2.1327
4.1258 4.8952 2.1327
3.9471 5.0398 2.1327
3.7634 5.1780 2.1327
3.5748 5.3094 2.1327
3.3817 5.4340 2.1327
3.1842 5.5516 2.1327
2.9827 5.6621 2.1327
2.7773 5.7653 2.1327
2.5684 5.8610 2.1327
2.3562 5.9492 2.1327
2.1410 6.0297 2.1327
1.9231 6.1025 2.1327
1.7696 6.4098 2.2166
1.5516 6.5253 2.2358
1.3163 6.5766 2.2358
1.0793 6.6195 2.2358
0.8409 6.6539 2.2358
0.6014 6.6797 2.2358
0.3612 6.6969 2.2358
0.1205 6.7055 2.2358
-0.1204 6.7055 2.2358
-0.3611 6.6969 2.2358
-0.6013 6.6796 2.2358
-0.8408 6.6538 2.2358
-1.0792 6.6194 2.2358
-1.3162 6.5765 2.2358
-1.5515 6.5251 2.2358
-1.7848 6.4654 2.2358
-2.0159 6.3973 2.2358
-2.2444 6.3210 2.2358
-2.4700 6.2365 2.2358
-2.6924 6.1441 2.2358
-2.9114 6.0437 2.2358
-3.1267 5.9355 2.2358
-3.3379 5.8197 2.2358
-3.5449 5.6964 2.2358
-3.7474 5.5657 2.2358
-3.9450 5.4279 2.2358
-4.1376 5.2831 2.2358
-4.3249 5.1315 2.2358
-4.5067 4.9732 2.2358
-4.6827 4.8085 2.2358
-4.8526 4.6377 2.2358
-5.0164 4.4608 2.2358
-5.1737 4.2782 2.2358
-5.3244 4.0900 2.2358
-5.4683 3.8965 2.2358
-5.6051 3.6980 2.2358
-5.7348 3.4947 2.2358
-5.8571 3.2868 2.2358
-5.9718 3.0747 2.2358
-6.0789 2.8586 2.2358
-6.1782 2.6388 2.2358
-6.2696 2.4155 2.2358
-6.3529 2.1891 2.2358
-6.4280 1.9598 2.2358
-6.4949 1.7279 2.2358
-6.5534 1.4938 2.2358
-6.6035 1.2577 2.2358
-6.6451 1.0200 2.2358
-6.6781 0.7809 2.2358
-6.7025 0.5407 2.2358
-6.7183 0.2997 2.2358
-6.7061 0.0583 2.2294
-6.6321 -0.1806 2.2053
-6.5595 -0.4146 2.1845
-6.4964 -0.6454 2.1696
-6.4337 -0.8734 2.1575
-6.3816 -1.1009 2.1517
-6.3532 -1.3325 2.1566
-6.3231 -1.5650 2.1639
-6.2914 -1.7992 2.1735
-6.2641 -2.0373 2.1877
-6.2629 -2.2885 2.2143
-6.2373 -2.5365 2.2358
-6.1428 -2.7590 2.2358
-6.0404 -2.9780 2.2358
-5.9302 -3.1932 2.2358
-5.8123 -3.4043 2.2358
-5.6869 -3.6110 2.2358
-5.5541 -3.8131 2.2358
-5.4142 -4.0104 2.2358
-5.2672 -4.2024 2.2358
-5.1134 -4.3891 2.2358
-4.9530 -4.5702 2.2358
-4.7861 -4.7454 2.2358
-4.6131 -4.9145 2.2358
-4.4341 -5.0772 2.2358
-4.2493 -5.2334 2.2358
-4.0590 -5.3829 2.2358
-3.8635 -5.5255 2.2358
-3.6629 -5.6609 2.2358
-3.4576 -5.7890 2.2358
-3.2478 -5.9097 2.2358
-3.0338 -6.0228 2.2358
-2.8158 -6.1280 2.2358
-2.5942 -6.2254 2.2358
-2.3692 -6.3148 2.2358
-2.1411 -6.3960 2.2358
-1.9103 -6.4689 2.2358
-1.6770 -6.5335 2.2358
-1.4415 -6.5896 2.2358
-1.2041 -6.6373 2.2358
-0.9651 -6.6763 2.2358
-0.7250 -6.7068 2.2358
-0.4838 -6.7285 2.2358
-0.2420 -6.7416 2.2358
0.0000 -6.2695 2.2358
0.2250 -6.2655 2.2358
0.4497 -6.2534 2.2358
0.6738 -6.2332 2.2358
0.8971 -6.2049 2.2358
1.1191 -6.1686 2.2358
1.3397 -6.1244 2.2358
1.5586 -6.0722 2.2358
1.7750 -6.0107 2.2353
1.8983 -5.6704 2.1327
2.1005 -5.5984 2.1327
2.2999 -5.5193 2.1327
2.4964 -5.4330 2.1327
2.6897 -5.3397 2.1327
2.8794 -5.2395 2.1327
3.0655 -5.1325 2.1327
3.2475 -5.0190 2.1327
3.4253 -4.8989 2.1327
3.5987 -4.7726 2.1327
3.7675 -4.6401 2.1327
3.9313 -4.5016 2.1327
4.0901 -4.3573 2.1327
4.2435 -4.2074 2.1327
4.3915 -4.0522 2.1327
4.5337 -3.8916 2.1327
4.6701 -3.7261 2.1327
4.8005 -3.5559 2.1327
4.9246 -3.3810 2.1327
5.0424 -3.2018 2.1327
5.1536 -3.0185 2.1327
5.2582 -2.8314 2.1327
5.3559 -2.6406 2.1327
5.4468 -2.4465 2.1327
5.5306 -2.2492 2.1327
5.6072 -2.0490 2.1327
5.6766 -1.8463 2.1327
5.7387 -1.6412 2.1327
5.7934 -1.4340 2.1327
5.9722 -1.2527 2.1808
6.0128 -1.0374 2.1808
6.0455 -0.8208 2.1808
6.0705 -0.6032 2.1808
6.0876 -0.3849 2.1808
6.0969 -0.1661 2.1808
6.0984 0.0528 2.1808
6.0919 0.2717 2.1808
6.0776 0.4901 2.1808
6.0555 0.7079 2.1808
6.0256 0.9247 2.1808
5.9880 1.1404 2.1808
5.7410 1.3085 2.1069
5.7597 1.5322 2.1327
5.7004 1.7378 2.1327
5.6338 1.9411 2.1327
5.5600 2.1420 2.1327
5.4790 2.3400 2.1327
5.3910 2.5349 2.1327
5.2960 2.7266 2.1327
5.1942 2.9147 2.1327
5.0858 3.0990 2.1327
2.2334 1.4734 0.9582
4.8495 3.4554 2.1327
4.7220 3.6270 2.1327
4.5883 3.7939 2.1327
4.4488 3.9559 2.1327
4.3036 4.1128 2.1327
4.1529 4.2643 2.1327
3.9968 4.4104 2.1327
3.8356 4.5507 2.1327
3.6695 4.6852 2.1327
3.4987 4.8137 2.1327
3.3234 4.9359 2.1327
3.1439 5.0517 2.1327
2.9603 5.1611 2.1327
2.7729 5.2638 2.1327
2.5820 5.3597 2.1327
0.8579 1.9575 0.7662
2.1906 5.5307 2.1327
1.9905 5.6056 2.1327
1.7879 5.6733 2.1327
1.6595 6.0108 2.2358
1.4425 6.0664 2.2358
1.2237 6.1141 2.2358
1.0034 6.1540 2.2358
0.7817 6.1860 2.2358
0.5591 6.2100 2.2358
0.3358 6.2260 2.2358
0.1120 6.2340 2.2358
-0.1119 6.2340 2.2358
-0.3357 6.2259 2.2358
-0.5590 6.2099 2.2358
-0.7817 6.1859 2.2358
-1.0033 6.1539 2.2358
-1.2236 6.1140 2.2358
-1.4424 6.0662 2.2358
-1.6593 6.0107 2.2358
-1.8741 5.9474 2.2358
-2.0865 5.8764 2.2358
-2.2963 5.7979 2.2358
-0.8578 1.9575 0.7662
-0.9276 1.9255 0.7662
-2.9068 5.5180 2.2358
-3.1032 5.4103 2.2358
-3.2956 5.2957 2.2358
-3.4838 5.1742 2.2358
-3.6676 5.0461 2.2358
-3.8466 4.9114 2.2358
-4.0207 4.7704 2.2358
-4.1897 4.6233 2.2358
-4.3532 4.4702 2.2358
-4.5112 4.3113 2.2358
-4.6635 4.1468 2.2358
-4.8097 3.9770 2.2358
-4.9498 3.8020 2.2358
-5.0835 3.6222 2.2358
-5.2107 3.4376 2.2358
-5.3312 3.2486 2.2358
-5.4448 3.0553 2.2358
-5.5515 2.8581 2.2358
-5.6510 2.6572 2.2358
-5.7433 2.4528 2.2358
-5.8282 2.2453 2.2358
-5.9056 2.0348 2.2358
-5.9754 1.8216 2.2358
-6.0375 1.6061 2.2358
-6.0918 1.3885 2.2358
-6.1383 1.1690 2.2358
-6.1769 0.9480 2.2358
-6.2076 0.7257 2.2358
-6.2303 0.5024 2.2358
-6.2449 0.2785 2.2358
-6.2515 0.0542 2.2358
-6.2500 -0.1703 2.2358
-6.2405 -0.3946 2.2358
-6.2229 -0.6184 2.2358
-6.1973 -0.8414 2.2358
-6.1638 -1.0635 2.2358
-6.1222 -1.2842 2.2358
-6.0728 -1.5032 2.2358
-6.0155 -1.7204 2.2358
-5.9504 -1.9354 2.2358
-5.8777 -2.1479 2.2358
-5.7973 -2.3577 2.2358
-5.7095 -2.5645 2.2358
-5.6143 -2.7680 2.2358
-5.5118 -2.9680 2.2358
-5.4022 -3.1642 2.2358
-5.2856 -3.3563 2.2358
-5.1622 -3.5442 2.2358
-5.0321 -3.7275 2.2358
-4.8954 -3.9060 2.2358
-4.7525 -4.0795 2.2358
-4.6034 -4.2477 2.2358
-4.4483 -4.4105 2.2358
-4.2874 -4.5676 2.2358
-4.1210 -4.7189 2.2358
-3.9493 -4.8641 2.2358
-3.7724 -5.0030 2.2358
-3.5906 -5.1354 2.2358
-3.4042 -5.2613 2.2358
-3.2134 -5.3803 2.2358
-3.0184 -5.4925 2.2358
-2.8195 -5.5975 2.2358
-2.6169 -5.6954 2.2358
-2.4109 -5.7859 2.2358
-2.2019 -5.8689 2.2358
-1.9899 -5.9443 2.2358
-1.7754 -6.0121 2.2358
-1.5585 -6.0721 2.2358
-1.3396 -6.1243 2.2358
-1.1190 -6.1685 2.2358
-0.8970 -6.2048 2.2358
-0.6737 -6.2331 2.2358
-0.4496 -6.2533 2.2358
-0.2249 -6.2655 2.2358
0.0000 -5.8497 2.2358
0.2099 -5.8459 2.2358
0.4196 -5.8346 2.2358
0.6287 -5.8158 2.2358
0.8370 -5.7894 2.2358
1.0442 -5.7556 2.2358
1.2500 -5.7143 2.2358
1.4542 -5.6656 2.2358
1.6566 -5.6097 2.2358
1.7808 -5.3196 2.1444
1.9598 -5.2236 2.1327
2.1459 -5.1498 2.1327
2.3292 -5.0692 2.1327
2.5095 -4.9822 2.1327
2.6866 -4.8887 2.1327
2.8602 -4.7889 2.1327
3.0300 -4.6830 2.1327
3.1960 -4.5710 2.1327
3.3578 -4.4531 2.1327
3.5152 -4.3295 2.1327
3.6681 -4.2003 2.1327
3.8163 -4.0657 2.1327
3.9595 -3.9259 2.1327
4.0975 -3.7810 2.1327
4.2303 -3.6313 2.1327
4.3576 -3.4769 2.1327
4.4792 -3.3180 2.1327
4.5951 -3.1549 2.1327
4.7050 -2.9877 2.1327
4.8088 -2.8167 2.1327
4.9064 -2.6421 2.1327
4.9976 -2.4641 2.1327
5.0824 -2.2829 2.1327
5.1606 -2.0989 2.1327
5.2322 -1.9121 2.1327
5.2970 -1.7229 2.1327
5.3549 -1.5316 2.1327
5.4059 -1.3383 2.1327
5.4500 -1.1433 2.1327
5.4870 -0.9468 2.1327
5.5170 -0.7492 2.1327
5.5398 -0.5506 2.1327
5.5555 -0.3514 2.1327
5.5640 -0.1517 2.1327
5.5653 0.0481 2.1327
5.5595 0.2478 2.1327
5.5465 0.4472 2.1327
5.5263 0.6459 2.1327
5.4991 0.8438 2.1327
5.4647 1.0406 2.1327
5.4233 1.2360 2.1327
5.3750 1.4297 2.1327
5.3197 1.6216 2.1327
5.2576 1.8114 2.1327
5.1887 1.9988 2.1327
5.1131 2.1836 2.1327
5.0310 2.3655 2.1327
4.9424 2.5444 2.1327
4.8475 2.7200 2.1327
4.7463 2.8920 2.1327
2.2331 1.4732 1.0267
4.5258 3.2247 2.1327
4.4068 3.3848 2.1327
4.2821 3.5406 2.1327
4.1519 3.6918 2.1327
4.0164 3.8382 2.1327
3.8758 3.9797 2.1327
3.7301 4.1160 2.1327
3.5797 4.2470 2.1327
3.4247 4.3725 2.1327
3.2653 4.4924 2.1327
3.1017 4.6065 2.1327
2.9342 4.7146 2.1327
2.7629 4.8167 2.1327
2.5880 4.9126 2.1327
0.8656 1.7967 0.7661
0.8005 1.8267 0.7661
0.7344 1.8542 0.7661
0.6674 1.8794 0.7661
0.5994 1.9021 0.7662
0.5308 1.9224 0.7662
0.4614 1.9402 0.7662
0.3914 1.9555 0.7662
0.9365 5.7435 2.2358
0.7296 5.7733 2.2358
0.5218 5.7957 2.2358
0.3134 5.8107 2.2358
0.1045 5.8182 2.2358
-0.1045 5.8182 2.2358
-0.3133 5.8107 2.2358
-0.5218 5.7957 2.2358
-0.7295 5.7733 2.2358
-0.9364 5.7434 2.2358
-0.3914 1.9555 0.7662
-0.4614 1.9402 0.7662
-0.5307 1.9224 0.7662
-0.5994 1.9021 0.7662
-0.6673 1.8794 0.7662
-0.7344 1.8542 0.7661
-0.8005 1.8267 0.7661
-0.8656 1.7968 0.7661
-0.9295 1.7645 0.7661
-2.8962 5.0493 2.2358
-3.0758 4.9423 2.2358
-3.2514 4.8289 2.2358
-3.4229 4.7093 2.2358
-3.5900 4.5836 2.2358
-3.7525 4.4520 2.2358
-3.9101 4.3147 2.2358
-4.0628 4.1718 2.2358
-4.2102 4.0235 2.2358
-4.3523 3.8700 2.2358
-4.4887 3.7115 2.2358
-4.6194 3.5482 2.2358
-4.7442 3.3803 2.2358
-4.8629 3.2080 2.2358
-4.9753 3.0316 2.2358
-5.0813 2.8513 2.2358
-5.1809 2.6672 2.2358
-5.2737 2.4797 2.2358
-5.3598 2.2889 2.2358
-5.4390 2.0952 2.2358
-5.5112 1.8988 2.2358
-5.5763 1.6999 2.2358
-5.6342 1.4987 2.2358
-5.6849 1.2956 2.2358
-5.7283 1.0908 2.2358
-5.7643 0.8845 2.2358
-5.7929 0.6771 2.2358
-5.8140 0.4688 2.2358
-5.8276 0.2598 2.2358
-5.8337 0.0504 2.2358
-5.8323 -0.1590 2.2358
-5.8234 -0.3683 2.2358
-5.8070 -0.5772 2.2358
-5.7831 -0.7853 2.2358
-5.7517 -0.9925 2.2358
-5.7129 -1.1984 2.2358
-5.6667 -1.4028 2.2358
-5.6132 -1.6055 2.2358
-5.5525 -1.8061 2.2358
-5.4846 -2.0044 2.2358
-5.4096 -2.2001 2.2358
-5.3276 -2.3931 2.2358
-5.2387 -2.5830 2.2358
-5.1431 -2.7696 2.2358
-5.0408 -2.9526 2.2358
-4.9319 -3.1319 2.2358
-4.8168 -3.3071 2.2358
-4.6953 -3.4782 2.2358
-4.5678 -3.6447 2.2358
-4.4344 -3.8066 2.2358
-4.2952 -3.9636 2.2358
-4.1505 -4.1154 2.2358
-4.0004 -4.2620 2.2358
-3.8451 -4.4031 2.2358
-3.6849 -4.5385 2.2358
-3.5198 -4.6682 2.2358
-3.3502 -4.7917 2.2358
-3.1763 -4.9091 2.2358
-2.9982 -5.0202 2.2358
-2.8163 -5.1248 2.2358
-2.6307 -5.2228 2.2358
-2.4417 -5.3141 2.2358
-2.2495 -5.3985 2.2358
-2.0544 -5.4759 2.2358
-1.8566 -5.5463 2.2358
-1.6564 -5.6095 2.2358
-1.4541 -5.6655 2.2358
-1.2499 -5.7142 2.2358
-1.0441 -5.7555 2.2358
-0.8369 -5.7893 2.2358
-0.6286 -5.8157 2.2358
-0.4195 -5.8346 2.2358
-0.2099 -5.8459 2.2358
0.0000 -5.4766 2.2358
0.1966 -5.4731 2.2358
0.3928 -5.4625 2.2358
0.5886 -5.4448 2.2358
0.7836 -5.4202 2.2358
0.9775 -5.3885 2.2358
1.1703 -5.3498 2.2358
1.3614 -5.3043 2.2358
1.5509 -5.2519 2.2358
1.7383 -5.1927 2.2358
1.8348 -4.8905 2.1327
2.0090 -4.8213 2.1327
2.1807 -4.7460 2.1327
2.3495 -4.6645 2.1327
2.5152 -4.5770 2.1327
2.6778 -4.4836 2.1327
2.8368 -4.3844 2.1327
2.9922 -4.2796 2.1327
3.1436 -4.1693 2.1327
3.2911 -4.0535 2.1327
3.4342 -3.9326 2.1327
3.5729 -3.8066 2.1327
3.7070 -3.6757 2.1327
3.8363 -3.5401 2.1327
3.9606 -3.3999 2.1327
4.0798 -3.2554 2.1327
4.1937 -3.1066 2.1327
4.3021 -2.9539 2.1327
4.4051 -2.7974 2.1327
4.5023 -2.6373 2.1327
4.5937 -2.4738 2.1327
4.6791 -2.3072 2.1327
4.7585 -2.1376 2.1327
4.8318 -1.9652 2.1327
4.8988 -1.7904 2.1327
4.9595 -1.6133 2.1327
5.0138 -1.4341 2.1327
5.0616 -1.2531 2.1327
5.1029 -1.0706 2.1327
5.1375 -0.8866 2.1327
5.1656 -0.7016 2.1327
5.1870 -0.5157 2.1327
5.2017 -0.3291 2.1327
5.2097 -0.1422 2.1327
5.2110 0.0449 2.1327
5.2055 0.2319 2.1327
5.1934 0.4186 2.1327
5.1746 0.6047 2.1327
5.1490 0.7900 2.1327
5.1169 0.9742 2.1327
5.0782 1.1572 2.1327
5.0329 1.3386 2.1327
4.9812 1.5183 2.1327
4.9231 1.6960 2.1327
4.8586 1.8715 2.1327
4.7879 2.0446 2.1327
4.7110 2.2149 2.1327
4.6281 2.3824 2.1327
4.5392 2.5469 2.1327
4.4445 2.7080 2.1327
2.2329 1.4730 1.0963
4.2380 3.0195 2.1327
4.1266 3.1695 2.1327
4.0099 3.3153 2.1327
3.8880 3.4569 2.1327
3.7611 3.5941 2.1327
3.6294 3.7266 2.1327
3.4930 3.8542 2.1327
3.3522 3.9769 2.1327
3.2070 4.0945 2.1327
3.0578 4.2068 2.1327
2.9046 4.3136 2.1327
2.7477 4.4149 2.1327
2.5873 4.5105 2.1327
0.8704 1.6521 0.7659
0.8105 1.6823 0.7660
0.7496 1.7103 0.7660
0.6877 1.7361 0.7660
0.6249 1.7597 0.7660
0.5613 1.7810 0.7661
0.4970 1.8000 0.7661
0.4320 1.8167 0.7661
0.3665 1.8310 0.7661
0.3005 1.8430 0.7661
0.2341 1.8526 0.7661
0.1675 1.8598 0.7661
0.1006 1.8646 0.7661
0.0335 1.8670 0.7661
-0.0335 1.8670 0.7661
-0.1005 1.8646 0.7661
-0.1674 1.8598 0.7661
-0.2341 1.8526 0.7661
-0.3005 1.8430 0.7661
-0.3665 1.8310 0.7661
-0.4320 1.8167 0.7661
-0.4969 1.8000 0.7661
-0.5613 1.7810 0.7661
-0.6248 1.7597 0.7661
-0.6876 1.7361 0.7660
-0.7495 1.7103 0.7660
-0.8105 1.6823 0.7660
-0.8704 1.6521 0.7660
-0.9291 1.6198 0.7659
-2.8803 4.6281 2.2358
-3.0448 4.5219 2.2358
-3.2054 4.4099 2.2358
-3.3618 4.2922 2.2358
-3.5140 4.1689 2.2358
-3.6616 4.0403 2.2358
-3.8045 3.9065 2.2358
-3.9426 3.7676 2.2358
-4.0756 3.6238 2.2358
-4.2034 3.4754 2.2358
-4.3257 3.3224 2.2358
-4.4425 3.1652 2.2358
-4.5536 3.0039 2.2358
-4.6589 2.8387 2.2358
-4.7582 2.6698 2.2358
-4.8514 2.4974 2.2358
-4.9383 2.3218 2.2358
-5.0189 2.1432 2.2358
-5.0930 1.9618 2.2358
-5.1606 1.7779 2.2358
-5.2215 1.5916 2.2358
-5.2757 1.4032 2.2358
-5.3232 1.2130 2.2358
-5.3638 1.0212 2.2358
-5.3974 0.8281 2.2358
-5.4242 0.6339 2.2358
-5.4439 0.4388 2.2358
-5.4566 0.2431 2.2358
-5.4623 0.0471 2.2358
-5.4610 -0.1490 2.2358
-5.4526 -0.3450 2.2358
-5.4372 -0.5406 2.2358
-5.4148 -0.7355 2.2358
-5.3854 -0.9294 2.2358
