ply
format ascii 1.0
element vertex 2146
property float32 x
property float32 y
property float32 z
end_header
6.1668 5.9014 0.9030
6.1138 6.2868 0.9262
6.0600 6.6970 0.9522
6.1294 7.2834 1.0018
6.0668 7.7585 1.0343
5.9995 8.2684 1.0706
5.9270 8.8184 1.1110
5.8483 9.4151 1.1562
5.7624 10.0666 1.2071
5.6521 10.7522 1.2609
5.1352 10.6841 1.2271
4.6421 10.6191 1.1964
4.1699 10.5568 1.1684
3.7162 10.4970 1.1429
3.5045 11.1576 1.1967
3.3633 12.2283 1.2936
3.1959 13.4981 1.4103
2.9969 15.0497 1.5550
2.6277 16.2164 1.6591
2.4252 19.3434 1.9620
1.9271 21.6432 2.1791
1.1463 21.6534 2.1668
0.3715 21.8843 2.1791
-0.4068 21.4804 2.1311
-1.1823 21.5333 2.1311
-1.9621 21.5594 2.1311
-2.7455 21.5586 2.1311
-3.5315 21.5303 2.1311
-4.5282 22.5133 2.2341
-5.3548 22.4256 2.2341
-6.1811 22.3084 2.2341
-7.0062 22.1615 2.2341
-7.8288 21.9848 2.2341
-8.6480 21.7781 2.2341
-9.4626 21.5413 2.2341
-10.2714 21.2745 2.2341
-11.0734 20.9775 2.2341
-11.8673 20.6504 2.2341
-12.0671 19.3555 2.1309
-12.8055 18.9865 2.1309
-13.5328 18.5891 2.1309
-14.2476 18.1637 2.1309
-14.9490 17.7105 2.1309
-14.3950 15.8625 1.9618
-13.8815 14.2352 1.8140
-13.4363 12.8241 1.6881
-13.0456 11.5859 1.5798
-12.7163 10.5021 1.4879
-12.3892 9.5054 1.4037
-12.2472 8.7168 1.3465
-20.6294 13.5948 2.2054
-11.7906 7.1770 1.2280
-11.5505 6.4748 1.1742
-11.3553 5.8402 1.1287
-11.1397 5.2330 1.0846
-13.9801 5.9649 1.3354
-13.3097 5.1227 1.2494
-10.5343 3.6263 0.9734
-22.9281 6.9836 2.0886
-7.0072 1.8625 0.6302
-10.2594 2.3364 0.9124
-9.9899 1.9009 0.8799
-9.8764 1.5145 0.8627
-16.6686 1.9472 1.4461
-18.4366 1.4859 1.5909
-25.1144 1.1196 2.1587
-21.8154 0.1894 1.8705
-24.9960 -0.6798 2.1410
-9.2102 -0.5816 0.7892
-9.2628 -0.9194 0.7952
-11.4803 -1.5570 0.9888
-24.9231 -4.2954 2.1569
-24.9624 -5.2302 2.1739
-24.2790 -6.0034 2.1309
-24.0542 -6.8720 2.1309
-23.7945 -7.7309 2.1309
-23.5003 -8.5786 2.1309
-24.2949 -9.8698 2.2341
-23.9158 -10.7304 2.2341
-23.5025 -11.5747 2.2341
-23.0556 -12.4012 2.2341
-22.5761 -13.2083 2.2341
-22.0650 -13.9949 2.2341
-21.5232 -14.7596 2.2341
-20.9517 -15.5010 2.2341
-20.3516 -16.2180 2.2341
-19.0733 -16.3513 2.1604
-18.1908 -16.7634 2.1311
-17.5438 -17.3712 2.1311
-16.8740 -17.9514 2.1310
-16.1836 -18.5042 2.1311
-15.4730 -19.0279 2.1311
-14.7926 -19.5864 2.1381
-14.0439 -20.0520 2.1381
-13.2794 -20.4868 2.1381
-12.5004 -20.8904 2.1381
-11.7083 -21.2624 2.1381
-10.9046 -21.6024 2.1381
-10.0908 -21.9101 2.1381
-9.2680 -22.1855 2.1381
-8.4421 -22.4395 2.1391
-7.6054 -22.6499 2.1391
-6.7641 -22.8276 2.1391
-5.9195 -22.9727 2.1391
-5.0729 -23.0854 2.1391
-3.7001 -20.2852 1.8731
-2.9171 -20.0423 1.8468
-2.1976 -20.1471 1.8552
-1.3863 -19.0195 1.7524
-0.6885 -18.6642 1.7231
-0.0224 -18.5385 2.1391
0.6407 -18.4676 2.1391
1.2451 -17.6146 2.0509
1.9236 -18.0007 2.1094
2.5304 -17.6556 2.0851
3.1250 -17.3459 2.0673
1.4800 -6.8052 0.8195
4.2832 -16.7717 2.0438
4.6567 -15.8392 1.9557
5.2104 -15.6264 1.9577
5.7260 -15.3172 1.9499
6.1633 -14.8397 1.9223
6.3649 -13.8947 1.8343
6.8002 -13.5388 1.8243
7.3959 -13.4941 1.8588
7.7856 -13.0687 1.8434
7.8753 -12.2005 1.7652
8.2362 -11.8065 1.7553
8.9095 -11.8416 1.8125
9.2729 -11.4449 1.8070
9.6154 -11.0328 1.8007
9.9715 -10.6440 1.7998
10.3439 -10.2756 1.8043
10.6976 -9.8895 1.8079
10.6421 -9.1516 1.7466
10.7652 -8.6045 1.7195
11.1481 -8.2722 1.7365
11.4577 -7.8799 1.7439
11.5727 -7.3610 1.7242
11.6846 -6.8554 1.7071
11.7940 -6.3614 1.6925
11.9012 -5.8774 1.6801
12.0066 -5.4019 1.6701
12.1103 -4.9333 1.6621
12.2129 -4.4705 1.6563
12.3144 -4.0121 1.6525
12.4152 -3.5568 1.6507
12.5156 -3.1036 1.6509
12.6158 -2.6511 1.6531
12.6907 -2.1939 1.6540
7.0719 -0.9622 0.9178
7.0374 -0.7011 0.9107
7.0036 -0.4442 0.9047
6.9702 -0.1910 0.8999
6.9372 0.0593 0.8962
6.8685 0.3059 0.8890
6.8286 0.5506 0.8865
6.7964 0.7947 0.8860
6.7642 1.0386 0.8866
6.7482 1.2860 0.8904
6.7421 1.5378 0.8966
6.7094 1.7864 0.9004
6.6763 2.0372 0.9053
6.6315 2.2872 0.9098
6.5777 2.5366 0.9142
6.5506 2.8006 0.9237
6.5237 3.0710 0.9346
6.4971 3.3489 0.9470
6.6016 3.7089 0.9805
6.4742 3.9500 0.9814
6.4729 4.2758 1.0031
6.4316 4.5889 1.0208
6.3887 4.9141 1.0404
6.3440 5.2532 1.0620
6.2801 5.5927 1.0830
6.3004 6.0306 1.1218
6.2431 6.4212 1.1504
6.1879 6.8399 1.1830
6.1292 7.2851 1.2192
6.0665 7.7604 1.2593
5.9993 8.2705 1.3040
5.9267 8.8208 1.3537
5.8480 9.4179 1.4095
5.7620 10.0697 1.4721
5.6496 10.7519 1.5379
5.1327 10.6838 1.4975
4.6396 10.6187 1.4607
4.1675 10.5565 1.4272
3.7138 10.4967 1.3968
3.5038 11.1631 1.4641
3.3625 12.2348 1.5837
3.1948 13.5062 1.7276
2.9960 15.0615 1.9064
2.4707 15.2685 1.9148
2.0800 16.6200 2.0677
1.5316 17.2452 2.1311
0.9140 17.3402 2.1311
0.2916 17.4140 2.1311
-0.3349 17.4664 2.1311
-0.9648 17.4970 2.1311
-1.5974 17.5058 2.1311
-2.2320 17.4924 2.1311
-3.0064 18.3012 2.2341
-3.6733 18.2402 2.2341
-4.3398 18.1554 2.2341
-5.0051 18.0468 2.2341
-5.6683 17.9143 2.2341
-6.3284 17.7577 2.2341
-6.9848 17.5771 2.2341
-7.6363 17.3724 2.2341
-8.2822 17.1437 2.2341
-8.9215 16.8911 2.2341
-9.5533 16.6146 2.2341
-10.1766 16.3145 2.2341
-10.4649 15.5082 2.1667
-10.8676 14.9209 2.1309
-11.4326 14.5680 2.1309
-11.9859 14.1935 2.1309
-12.5267 13.7976 2.1309
-13.0540 13.3807 2.1309
-13.4338 12.8162 2.1100
-13.0435 11.5791 1.9762
-12.6973 10.4820 1.8600
-12.3876 9.5002 1.7585
-12.1080 8.6141 1.6691
-11.8538 7.8084 1.5900
-11.6211 7.0708 1.5196
-11.4539 6.4179 1.4629
-11.3555 5.8378 1.4190
-11.1399 5.2308 1.3644
-14.5661 6.2121 1.7514
-13.3526 5.1368 1.5787
-10.5337 3.6244 1.2266
-10.5165 3.2016 1.2079
-7.0049 1.8608 0.7948
-10.2619 2.3356 1.1519
-9.9895 1.8996 1.1110
-9.8769 1.5135 1.0899
-18.0975 2.1123 1.9843
-15.2065 1.2241 1.6590
-19.3893 0.8627 2.1078
-19.4032 0.1669 2.1048
-19.4762 -0.5310 2.1111
-9.2100 -0.5821 0.9990
-9.2631 -0.9199 1.0068
-11.4801 -1.5575 1.2522
-20.0942 -3.4639 2.2026
-19.3182 -4.0482 2.1311
-13.5772 -3.3575 1.5096
-18.9886 -5.4250 2.1311
-18.7833 -6.1028 2.1311
-18.5514 -6.7719 2.1311
-18.2932 -7.4313 2.1311
-18.8806 -8.4707 2.2341
-18.5565 -9.1381 2.2341
-18.2065 -9.7919 2.2341
-17.8313 -10.4311 2.2341
-17.4314 -11.0546 2.2341
-17.0077 -11.6614 2.2341
-16.5609 -12.2505 2.2341
-16.0918 -12.8211 2.2341
-15.6013 -13.3723 2.2341
-15.0902 -13.9032 2.2341
-14.5595 -14.4131 2.2341
-13.7690 -14.6448 2.1957
-12.8227 -14.6577 2.1311
-12.2658 -15.0798 2.1311
-11.6940 -15.4793 2.1311
-11.1083 -15.8556 2.1311
-10.4248 -16.0776 2.1138
-9.8991 -16.5374 2.1311
-9.2778 -16.8420 2.1311
-8.6467 -17.1220 2.1311
-8.0372 -17.4430 2.1391
-7.3871 -17.6739 2.1391
-6.7304 -17.8794 2.1391
-6.0680 -18.0595 2.1391
-5.4009 -18.2140 2.1391
-4.7305 -18.3430 2.1391
-4.0575 -18.4465 2.1391
-3.3830 -18.5246 2.1391
-2.7080 -18.5773 2.1391
-2.0335 -18.6048 2.1391
-1.3604 -18.6074 2.1391
-0.6897 -18.5852 2.1391
-0.0223 -15.4706 2.1391
0.5313 -15.4195 2.1391
1.0813 -15.3485 2.1391
1.6268 -15.2578 2.1391
2.1673 -15.1477 2.1391
2.7020 -15.0184 2.1391
1.4783 -6.8054 0.9790
3.7513 -14.7038 2.1391
4.2647 -14.5192 2.1391
4.7699 -14.3170 2.1391
5.2661 -14.0974 2.1391
5.7529 -13.8609 2.1391
6.2296 -13.6081 2.1391
6.6959 -13.3392 2.1391
7.1511 -13.0549 2.1391
7.5948 -12.7554 2.1391
7.8729 -12.2031 2.0982
8.2338 -11.8091 2.0854
8.8528 -11.7718 2.1391
9.2462 -11.4172 2.1391
9.6132 -11.0352 2.1363
9.9693 -10.6464 2.1343
10.3417 -10.2780 2.1387
10.6812 -9.8785 2.1391
10.6414 -9.1548 2.0687
10.7629 -8.6063 2.0355
11.1414 -8.2707 2.0540
11.4571 -7.8828 2.0631
11.5721 -7.3637 2.0390
11.1627 -6.5520 1.9280
11.2673 -6.0799 1.9108
11.4703 -5.6670 1.9131
12.0061 -5.4040 1.9723
12.1099 -4.9354 1.9624
12.2124 -4.4724 1.9549
11.7354 -3.8253 1.8583
11.8315 -3.3914 1.8558
12.5152 -3.1052 1.9470
12.6155 -2.6527 1.9491
12.6903 -2.1954 1.9497
7.2376 -0.9856 1.1071
7.1904 -0.7170 1.0964
7.1496 -0.4541 1.0881
7.1155 -0.1956 1.0821
7.0818 0.0601 1.0775
7.0484 0.3134 1.0743
7.0152 0.5652 1.0723
6.9821 0.8161 1.0717
6.9491 1.0667 1.0723
6.9160 1.3177 1.0742
6.8828 1.5698 1.0774
6.8493 1.8235 1.0820
6.8155 2.0796 1.0879
6.7813 2.3388 1.0951
6.7467 2.6019 1.1038
6.7114 2.8695 1.1140
6.6754 3.1426 1.1258
6.6385 3.4221 1.1392
6.6073 3.7125 1.1555
6.5097 3.9722 1.1620
6.4728 4.2764 1.1813
6.4315 4.5895 1.2023
6.3886 4.9149 1.2255
6.3439 5.2541 1.2513
6.3175 5.6272 1.2839
6.3057 6.0369 1.3233
5.5277 5.6867 1.2008
6.1877 6.8414 1.3950
6.1290 7.2867 1.4380
6.0663 7.7623 1.4857
5.9990 8.2726 1.5388
5.9264 8.8232 1.5980
5.8476 9.4206 1.6642
5.7616 10.0728 1.7387
5.6471 10.7516 1.8164
5.0457 10.5073 1.7401
4.6007 10.5348 1.7128
4.1650 10.5562 1.6874
3.7114 10.4963 1.6521
3.5030 11.1686 1.7332
3.4291 12.4872 1.9133
3.1938 13.5143 2.0471
2.8874 14.5323 2.1791
2.3169 14.3377 2.1311
1.8047 14.4464 2.1311
1.2878 14.5376 2.1311
0.7668 14.6110 2.1311
0.2422 14.6664 2.1311
-0.2854 14.7032 2.1310
-0.8153 14.7217 2.1310
-1.3469 14.7216 2.1309
-1.9543 15.2866 2.2155
-2.5297 15.3759 2.2341
-3.0885 15.3169 2.2341
-3.6464 15.2379 2.2341
-4.2026 15.1389 2.2341
-4.7565 15.0198 2.2341
-5.3073 14.8807 2.2341
-5.8542 14.7215 2.2341
-6.3966 14.5424 2.2341
-6.9336 14.3433 2.2341
-7.4646 14.1244 2.2341
-7.9887 13.8858 2.2341
-8.5052 13.6277 2.2341
-9.0133 13.3502 2.2341
-9.5123 13.0537 2.2341
-9.5399 12.1504 2.1311
-9.9962 11.8318 2.1311
-10.4417 11.4959 2.1311
-10.8755 11.1428 2.1311
-11.2971 10.7730 2.1311
-11.7056 10.3870 2.1311
-12.1005 9.9850 2.1311
-12.3859 9.4949 2.1148
-12.1065 8.6094 2.0083
-11.8525 7.8043 1.9141
-11.6199 7.0672 1.8302
-11.4057 6.3882 1.7554
-11.2072 5.7592 1.6884
-11.0224 5.1733 1.6282
-10.8494 4.6250 1.5740
-10.6867 4.1093 1.5251
-10.5331 3.6224 1.4810
-10.4588 3.1824 1.4510
-7.0025 1.8592 0.9601
-10.2645 2.3348 1.3927
-9.9891 1.8983 1.3433
-9.8775 1.5125 1.3183
-16.5297 1.9276 2.1926
-16.5228 1.3285 2.1813
-13.0088 0.5777 1.7117
-12.8521 0.1096 1.6878
-16.6711 -0.4557 2.1881
-9.2099 -0.5827 1.2098
-9.2634 -0.9204 1.2195
-11.2600 -1.5281 1.4877
-16.0481 -2.7670 2.1311
-15.9447 -3.3417 2.1311
-13.5966 -3.3626 1.8317
-15.6713 -4.4774 2.1311
-15.5017 -5.0366 2.1311
-15.3105 -5.5887 2.1311
-15.0980 -6.1330 2.1311
-15.5837 -6.9910 2.2341
-15.3174 -7.5424 2.2341
-15.0301 -8.0827 2.2341
-14.7222 -8.6113 2.2341
-14.3942 -9.1272 2.2341
-14.0467 -9.6297 2.2341
-13.6803 -10.1180 2.2341
-13.2956 -10.5914 2.2341
-12.8934 -11.0492 2.2341
-12.4741 -11.4906 2.2341
-12.0387 -11.9151 2.2341
-11.5879 -12.3220 2.2341
-11.1223 -12.7108 2.2341
-10.6429 -13.0810 2.2341
-10.1504 -13.4320 2.2341
-9.2889 -13.2545 2.1515
-8.7081 -13.4255 2.1311
-8.2056 -13.7032 2.1311
-7.6939 -13.9611 2.1311
-7.1736 -14.1990 2.1311
-6.6459 -14.4167 2.1311
-6.1113 -14.6139 2.1311
-5.5708 -14.7904 2.1311
-5.0252 -14.9463 2.1311
-4.4754 -15.0813 2.1311
-3.9222 -15.1954 2.1311
-3.3663 -15.2886 2.1311
-2.8193 -15.4192 2.1391
-2.2586 -15.4709 2.1391
-1.6978 -15.5017 2.1391
-1.1376 -15.5119 2.1391
-0.5789 -15.5015 2.1391
-0.0222 -13.2120 2.1311
0.4507 -13.1734 2.1311
0.9245 -13.1675 2.1391
1.3930 -13.0947 2.1391
1.8575 -13.0052 2.1391
2.3175 -12.8992 2.1391
1.4769 -6.8073 1.1397
3.2212 -12.6387 2.1391
3.6639 -12.4848 2.1391
4.0997 -12.3156 2.1391
4.5283 -12.1313 2.1391
4.9490 -11.9324 2.1391
5.3614 -11.7191 2.1391
5.7651 -11.4918 2.1391
6.1594 -11.2510 2.1391
6.5442 -10.9970 2.1391
6.9189 -10.7301 2.1391
7.2833 -10.4509 2.1391
7.6367 -10.1598 2.1391
7.9790 -9.8571 2.1391
8.3097 -9.5433 2.1391
8.6286 -9.2189 2.1391
8.9354 -8.8843 2.1391
9.2298 -8.5399 2.1391
9.5115 -8.1863 2.1391
9.7802 -7.8238 2.1391
10.0357 -7.4530 2.1391
10.2778 -7.0744 2.1391
10.5063 -6.6883 2.1391
10.7210 -6.2953 2.1391
10.9217 -5.8959 2.1391
11.1083 -5.4906 2.1391
11.2806 -5.0797 2.1391
11.4386 -4.6639 2.1391
11.5820 -4.2436 2.1391
11.7108 -3.8192 2.1391
11.8249 -3.3912 2.1391
11.9243 -2.9602 2.1391
12.0089 -2.5266 2.1391
12.0786 -2.0910 2.1391
7.2378 -0.9864 1.2760
7.1905 -0.7177 1.2635
7.1497 -0.4548 1.2538
7.1156 -0.1962 1.2468
7.0819 0.0595 1.2413
7.0485 0.3130 1.2374
7.0153 0.5648 1.2351
6.9822 0.8158 1.2342
6.9491 1.0664 1.2349
6.9160 1.3175 1.2370
6.8828 1.5696 1.2407
6.8493 1.8234 1.2459
6.8155 2.0796 1.2527
6.7813 2.3389 1.2610
6.7467 2.6020 1.2711
6.7114 2.8697 1.2829
6.6753 3.1429 1.2964
6.6385 3.4224 1.3119
6.6130 3.7161 1.3319
6.5460 3.9948 1.3459
6.4727 4.2769 1.3608
6.4314 4.5902 1.3851
6.3885 4.9157 1.4120
6.3438 5.2550 1.4418
6.3566 5.6631 1.4888
6.3055 6.0380 1.5253
5.5538 5.7149 1.3908
6.1875 6.8429 1.6084
6.1287 7.2884 1.6582
6.0660 7.7641 1.7136
5.9987 8.2747 1.7752
6.0095 8.9499 1.8699
5.8926 9.4965 1.9358
5.7612 10.0760 2.0073
5.6445 10.7512 2.0967
4.8847 10.1767 1.9460
4.4150 10.1147 1.8993
4.0580 10.2907 1.9004
3.7090 10.4960 1.9090
3.5023 11.1742 2.0044
3.3751 12.3008 2.1791
2.8719 12.1640 2.1311
2.4380 12.2840 2.1311
1.9992 12.3891 2.1311
1.5561 12.4790 2.1311
1.1092 12.5537 2.1311
0.6590 12.6128 2.1311
0.2060 12.6563 2.1311
-0.2492 12.6840 2.1311
-0.7061 12.6957 2.1311
-1.1801 12.8639 2.1600
-1.7015 13.2836 2.2341
-2.1825 13.2450 2.2341
-2.6629 13.1892 2.2341
-3.1421 13.1163 2.2341
-3.6196 13.0261 2.2341
-4.0947 12.9188 2.2341
-4.5667 12.7942 2.2341
-5.0351 12.6525 2.2341
-5.4991 12.4937 2.2341
-5.9583 12.3180 2.2341
-6.4119 12.1253 2.2341
-6.8592 11.9159 2.2341
-7.2997 11.6899 2.2341
-7.7326 11.4475 2.2341
-8.1574 11.1889 2.2341
-8.5735 10.9143 2.2341
-8.8789 10.5045 2.2090
-8.9440 9.8425 2.1311
-9.3121 9.5367 2.1311
-9.6694 9.2168 2.1311
-10.0154 8.8833 2.1311
-10.3495 8.5365 2.1311
-10.6711 8.1769 2.1311
-10.9798 7.8049 2.1311
-11.2750 7.4209 2.1311
-11.5561 7.0254 2.1311
-11.4047 6.3849 2.0557
-11.2063 5.7562 1.9778
-11.0215 5.1706 1.9079
-10.8486 4.6225 1.8449
-10.6860 4.1072 1.7882
-10.5324 3.6204 1.7369
-10.3868 3.1589 1.6906
-7.0001 1.8575 1.1262
-10.1157 2.2996 1.6109
-9.9887 1.8970 1.5769
-9.8690 1.5101 1.5466
-9.7510 1.1361 1.5190
-9.6476 0.7748 1.4961
-9.5565 0.4235 1.4773
-9.4656 0.0799 1.4606
-9.4485 -0.2590 1.4573
-9.2097 -0.5832 1.4218
-9.2636 -0.9209 1.4335
-11.1550 -1.5144 1.7325
-13.6511 -2.3542 2.1311
-13.5624 -2.8428 2.1311
-13.4550 -3.3278 2.1311
-13.3290 -3.8083 2.1311
-13.1846 -4.2838 2.1311
-13.0221 -4.7533 2.1311
-12.8418 -5.2162 2.1311
-12.6818 -5.6888 2.1375
-13.0297 -6.4153 2.2341
-12.7862 -6.8753 2.2341
-12.5254 -7.3255 2.2341
-12.2477 -7.7651 2.2341
-11.9535 -8.1935 2.2341
-11.6433 -8.6100 2.2341
-11.3176 -9.0141 2.2341
-10.9770 -9.4051 2.2341
-10.6221 -9.7826 2.2341
-10.2534 -10.1458 2.2341
-9.8715 -10.4944 2.2341
-9.4771 -10.8278 2.2341
-9.0707 -11.1456 2.2341
-8.6532 -11.4474 2.2341
-8.2251 -11.7329 2.2341
-7.7878 -12.0026 2.2344
-7.3402 -12.2534 2.2342
-6.8760 -12.4720 2.2314
-6.2010 -12.2685 2.1576
-5.7028 -12.3651 2.1411
-5.2213 -12.4792 2.1311
-4.7614 -12.6340 2.1311
-4.2968 -12.7713 2.1311
-3.8283 -12.8910 2.1311
-3.3566 -12.9930 2.1311
-2.8823 -13.0773 2.1311
-2.4063 -13.1438 2.1311
-1.9291 -13.1926 2.1311
-1.4514 -13.2238 2.1311
-0.9739 -13.2373 2.1311
-0.4973 -13.2333 2.1311
-0.0222 -11.5510 2.1311
0.3914 -11.5206 2.1311
0.8028 -11.4753 2.1311
1.2114 -11.4151 2.1311
1.6168 -11.3404 2.1311
2.0184 -11.2512 2.1311
1.4757 -6.8098 1.3018
2.8190 -11.0723 2.1391
3.2078 -10.9407 2.1391
3.5908 -10.7955 2.1391
3.9675 -10.6371 2.1391
4.3376 -10.4657 2.1391
4.7007 -10.2815 2.1391
5.0561 -10.0850 2.1391
5.4038 -9.8764 2.1391
5.7431 -9.6561 2.1391
6.0738 -9.4244 2.1391
6.3954 -9.1817 2.1391
6.7077 -8.9283 2.1391
7.0103 -8.6645 2.1391
7.3030 -8.3909 2.1391
7.5852 -8.1077 2.1391
7.8569 -7.8154 2.1391
8.1178 -7.5143 2.1391
8.3676 -7.2049 2.1391
8.6060 -6.8875 2.1391
8.8329 -6.5626 2.1391
9.0480 -6.2306 2.1391
9.2512 -5.8918 2.1391
9.4422 -5.5468 2.1391
9.6209 -5.1960 2.1391
9.7872 -4.8397 2.1391
9.9409 -4.4785 2.1391
10.0819 -4.1126 2.1391
10.2100 -3.7427 2.1391
10.3253 -3.3690 2.1391
10.4275 -2.9921 2.1391
10.5167 -2.6123 2.1391
10.5927 -2.2301 2.1391
10.6556 -1.8459 2.1391
7.2379 -0.9872 1.4463
7.1906 -0.7185 1.4320
7.1498 -0.4555 1.4208
7.1157 -0.1968 1.4127
7.0819 0.0590 1.4064
7.0485 0.3125 1.4019
7.0153 0.5644 1.3991
6.9822 0.8154 1.3981
6.9492 1.0661 1.3988
6.9160 1.3173 1.4012
6.8828 1.5694 1.4053
6.8493 1.8233 1.4111
6.8155 2.0796 1.4188
6.7813 2.3389 1.4283
6.7466 2.6021 1.4397
6.7113 2.8699 1.4530
6.6753 3.1431 1.4685
6.6385 3.4227 1.4861
6.6138 3.7170 1.5090
6.5188 3.9788 1.5183
5.6339 3.7232 1.3419
6.3824 4.5560 1.5574
6.3398 4.8791 1.5878
6.2954 5.2159 1.6215
6.2490 5.5683 1.6587
6.0510 5.7956 1.6591
5.5537 5.7161 1.5767
6.2744 6.9408 1.8492
6.2148 7.3927 1.9068
6.0658 7.7661 1.9434
5.9984 8.2769 2.0136
6.0092 8.9524 2.1214
5.8457 9.4243 2.1791
5.5105 9.6413 2.1791
5.1676 9.8469 2.1791
4.8172 10.0409 2.1791
4.4126 10.1144 2.1560
4.0574 10.2950 2.1587
3.6435 10.3174 2.1311
3.2758 10.4589 2.1311
2.9028 10.5878 2.1311
2.5248 10.7039 2.1311
2.1424 10.8070 2.1311
1.7559 10.8968 2.1311
1.3658 10.9733 2.1311
0.9726 11.0361 2.1311
0.5766 11.0853 2.1311
0.1784 11.1206 2.1311
-0.2216 11.1420 2.1311
-0.6228 11.1493 2.1311
-1.0745 11.6814 2.2341
-1.4963 11.6592 2.2341
-1.9180 11.6220 2.2341
-2.3389 11.5698 2.2341
-2.7586 11.5026 2.2341
-3.1764 11.4202 2.2341
-3.5919 11.3228 2.2341
-4.0045 11.2104 2.2341
-4.4137 11.0830 2.2341
-4.8188 10.9408 2.2341
-5.2194 10.7837 2.2341
-5.6149 10.6119 2.2341
-6.0047 10.4255 2.2341
-6.3883 10.2248 2.2341
-6.7651 10.0099 2.2341
-7.1345 9.7809 2.2341
-7.4961 9.5382 2.2341
-7.8493 9.2820 2.2341
-8.1935 9.0124 2.2341
-8.2297 8.4245 2.1560
-8.4444 8.0456 2.1311
-8.7442 7.7524 2.1311
-9.0334 7.4478 2.1311
-9.3116 7.1321 2.1311
-9.5785 6.8059 2.1311
-9.8335 6.4694 2.1311
-10.0762 6.1231 2.1311
-10.3062 5.7674 2.1311
-10.5231 5.4029 2.1311
-10.7265 5.0300 2.1311
-10.8478 4.6201 2.1177
-10.6853 4.1050 2.0530
-10.5318 3.6184 1.9945
-10.3862 3.1571 1.9417
-6.9977 1.8559 1.2933
-10.1153 2.2981 1.8509
-9.9883 1.8957 1.8121
-9.8687 1.5089 1.7776
-9.7507 1.1350 1.7462
-9.6365 0.7730 1.7181
-9.5255 0.4213 1.6931
-9.4175 0.0788 1.6711
-9.3119 -0.2559 1.6518
-9.2095 -0.5838 1.6353
-9.2639 -0.9215 1.6489
-11.1574 -1.5152 1.9934
-11.8663 -2.0468 2.1311
-11.7887 -2.4714 2.1311
-11.6950 -2.8927 2.1311
-11.5853 -3.3103 2.1311
-11.4598 -3.7234 2.1311
-11.3187 -4.1314 2.1311
-11.1621 -4.5337 2.1311
-10.9904 -4.9298 2.1311
-11.3263 -5.5762 2.2341
-11.1153 -5.9762 2.2341
-10.8894 -6.3679 2.2341
-10.6488 -6.7504 2.2341
-10.3939 -7.1234 2.2341
-10.1253 -7.4863 2.2341
-9.8432 -7.8384 2.2341
-9.5482 -8.1794 2.2341
-9.2408 -8.5086 2.2341
-8.9222 -8.8266 2.2344
-8.5923 -9.1323 2.2346
-8.2514 -9.4250 2.2349
-7.9001 -9.7045 2.2352
-7.5375 -9.9685 2.2350
-7.1656 -10.2183 2.2349
-6.7859 -10.4548 2.2350
-6.3982 -10.6769 2.2352
-6.0019 -10.8822 2.2350
-5.5987 -11.0721 2.2347
-5.1894 -11.2465 2.2345
-4.7746 -11.4055 2.2343
-4.3550 -11.5491 2.2341
-3.7857 -11.2449 2.1514
-3.3639 -11.3189 2.1449
-2.9315 -11.3378 2.1311
-2.5184 -11.4143 2.1311
-2.1034 -11.4755 2.1311
-1.6873 -11.5212 2.1311
-1.2705 -11.5516 2.1311
-0.8537 -11.5666 2.1311
-0.4374 -11.5664 2.1311
-0.0221 -10.2515 2.1311
0.3450 -10.2268 2.1311
0.7103 -10.1888 2.1311
1.0734 -10.1377 2.1311
1.4337 -10.0736 2.1311
1.7908 -9.9967 2.1311
1.4622 -6.7557 1.4532
2.4937 -9.8051 2.1311
2.8393 -9.6932 2.1316
3.1804 -9.5700 2.1323
3.5162 -9.4344 2.1329
3.8464 -9.2872 2.1336
4.1804 -9.1498 2.1391
4.4978 -8.9769 2.1391
4.8083 -8.7932 2.1391
5.1115 -8.5989 2.1391
5.4071 -8.3944 2.1391
5.6948 -8.1800 2.1391
5.9742 -7.9559 2.1391
6.2451 -7.7225 2.1391
6.5072 -7.4801 2.1391
6.7602 -7.2292 2.1391
7.0038 -6.9699 2.1391
7.2378 -6.7027 2.1391
7.4620 -6.4279 2.1391
7.6761 -6.1459 2.1391
7.8799 -5.8570 2.1391
8.0733 -5.5617 2.1391
8.2560 -5.2603 2.1391
8.4279 -4.9531 2.1391
8.5888 -4.6406 2.1391
8.7386 -4.3231 2.1391
8.8771 -4.0010 2.1391
9.0043 -3.6748 2.1391
9.1200 -3.3447 2.1391
9.2241 -3.0112 2.1391
9.3166 -2.6747 2.1391
9.3973 -2.3356 2.1391
9.4663 -1.9942 2.1391
8.1505 -1.4129 1.8308
7.2381 -0.9881 1.6181
7.1907 -0.7192 1.6019
7.1499 -0.4561 1.5893
7.1157 -0.1974 1.5801
7.0820 0.0584 1.5730
7.0486 0.3120 1.5678
7.0154 0.5640 1.5647
6.9823 0.8151 1.5634
6.9492 1.0659 1.5641
6.9161 1.3171 1.5668
6.8828 1.5693 1.5713
6.8493 1.8232 1.5779
6.8155 2.0795 1.5864
6.7813 2.3389 1.5970
6.7466 2.6022 1.6098
6.7113 2.8700 1.6247
6.6753 3.1434 1.6420
6.6385 3.4231 1.6618
6.6138 3.7174 1.6875
6.3693 3.8880 1.6591
6.2281 4.1165 1.6591
6.0791 4.3401 1.6591
5.9858 4.6074 1.6768
5.9850 4.9597 1.7244
5.9408 5.2948 1.7642
5.8944 5.6468 1.8082
5.5535 5.7173 1.7642
6.2742 6.9423 2.0694
6.2146 7.3945 2.1341
6.0655 7.7680 2.1753
5.7984 8.0035 2.1791
5.5129 8.2159 2.1791
5.2200 8.4185 2.1791
4.9198 8.6112 2.1791
4.6128 8.7936 2.1791
4.2044 8.7676 2.1311
3.8918 8.9252 2.1311
3.5734 9.0721 2.1311
3.2497 9.2080 2.1311
2.9210 9.3327 2.1311
2.5876 9.4461 2.1311
2.2500 9.5479 2.1311
1.9085 9.6381 2.1311
1.5635 9.7164 2.1311
1.2154 9.7827 2.1311
0.8646 9.8368 2.1311
0.5115 9.8786 2.1311
0.1566 9.9080 2.1311
-0.1997 9.9250 2.1311
-0.5841 10.4097 2.2341
-0.9593 10.4010 2.2341
-1.3346 10.3790 2.2341
-1.7096 10.3436 2.2341
-2.0838 10.2949 2.2341
-2.4567 10.2327 2.2341
-2.8279 10.1572 2.2341
-3.1967 10.0683 2.2341
-3.5628 9.9660 2.2341
-3.9257 9.8505 2.2341
-4.2849 9.7218 2.2341
-4.6398 9.5800 2.2341
-4.9900 9.4252 2.2341
-5.3351 9.2576 2.2341
-5.6744 9.0773 2.2341
-6.0076 8.8845 2.2341
-6.3341 8.6793 2.2341
-6.6535 8.4620 2.2341
-6.9653 8.2328 2.2341
-7.2691 7.9920 2.2341
-7.5643 7.7398 2.2341
-7.8506 7.4765 2.2341
-7.7524 6.8701 2.1311
-8.0071 6.5988 2.1311
-8.2520 6.3178 2.1311
-8.4868 6.0276 2.1311
-8.7109 5.7284 2.1311
-8.9242 5.4207 2.1311
-9.1262 5.1049 2.1311
-9.3166 4.7813 2.1311
-9.4950 4.4505 2.1311
-9.6612 4.1128 2.1311
-9.8149 3.7688 2.1311
-9.9559 3.4189 2.1311
-10.0837 3.0635 2.1311
-6.9543 1.8434 1.4532
-10.1148 2.2967 2.0928
-9.9879 1.8944 2.0492
-9.8683 1.5077 2.0104
-9.7504 1.1339 1.9751
-9.6362 0.7720 1.9435
-9.5253 0.4205 1.9155
-9.4172 0.0780 1.8907
-9.3117 -0.2565 1.8690
-9.2094 -0.5844 1.8505
-9.2642 -0.9220 1.8661
-10.5391 -1.4317 2.1311
-10.4845 -1.8089 2.1311
-10.4157 -2.1838 2.1311
-10.3327 -2.5559 2.1311
-10.2356 -2.9247 2.1311
-10.1247 -3.2896 2.1311
-10.0001 -3.6500 2.1311
-9.8619 -4.0054 2.1311
-9.7104 -4.3553 2.1311
-9.5459 -4.6992 2.1311
-9.8221 -5.2803 2.2342
-9.6235 -5.6269 2.2344
-9.4121 -5.9657 2.2345
-9.1881 -6.2961 2.2347
-8.9520 -6.6177 2.2348
-8.7039 -6.9299 2.2350
-8.4445 -7.2324 2.2351
-8.1740 -7.5248 2.2352
-7.8935 -7.8072 2.2356
-7.6031 -8.0790 2.2360
-7.3026 -8.3392 2.2363
-6.9921 -8.5868 2.2364
-6.6729 -8.8225 2.2365
-6.3449 -9.0450 2.2364
-6.0088 -9.2543 2.2361
-5.6655 -9.4507 2.2359
-5.3156 -9.6339 2.2357
-4.9596 -9.8037 2.2354
-4.5980 -9.9599 2.2352
-4.2314 -10.1024 2.2349
-3.8603 -10.2310 2.2347
-3.4853 -10.3456 2.2345
-3.1069 -10.4462 2.2343
-2.7259 -10.5332 2.2341
-2.2529 -10.2004 2.1486
-1.8823 -10.2561 2.1484
-1.4985 -10.2161 2.1311
-1.1292 -10.2452 2.1311
-0.7597 -10.2608 2.1311
-0.3905 -10.2629 2.1311
-0.0221 -9.2060 2.1311
0.3076 -9.1855 2.1311
0.6358 -9.1531 2.1311
0.9621 -9.1089 2.1311
1.2861 -9.0529 2.1311
1.6075 -8.9862 2.1312
1.4525 -6.7191 1.6077
2.2415 -8.8229 2.1326
2.5532 -8.7246 2.1333
2.8604 -8.6146 2.1339
3.1632 -8.4938 2.1344
3.4610 -8.3626 2.1350
3.7536 -8.2210 2.1356
4.0406 -8.0694 2.1362
4.3216 -7.9080 2.1368
4.5938 -7.7325 2.1362
4.8590 -7.5477 2.1355
5.1272 -7.3685 2.1391
5.3798 -7.1679 2.1391
5.6248 -6.9588 2.1391
5.8619 -6.7416 2.1391
6.0909 -6.5164 2.1391
6.3115 -6.2838 2.1391
6.5234 -6.0438 2.1391
6.7265 -5.7969 2.1391
6.9206 -5.5435 2.1391
7.1055 -5.2837 2.1391
7.2809 -5.0180 2.1391
7.4467 -4.7467 2.1391
7.6028 -4.4702 2.1391
7.7490 -4.1887 2.1391
7.8852 -3.9027 2.1391
8.0112 -3.6124 2.1391
8.1269 -3.3182 2.1391
8.2322 -3.0206 2.1391
8.3271 -2.7198 2.1391
8.4114 -2.4161 2.1391
8.4851 -2.1101 2.1391
8.5482 -1.8019 2.1391
8.1507 -1.4140 2.0273
7.2382 -0.9889 1.7916
7.1909 -0.7200 1.7736
7.1500 -0.4568 1.7595
7.1158 -0.1980 1.7492
7.0821 0.0579 1.7412
7.1479 0.3159 1.7599
7.1142 0.5715 1.7563
7.0807 0.8262 1.7548
7.0471 1.0806 1.7555
7.0135 1.3354 1.7584
6.8828 1.5691 1.7390
6.8494 1.8231 1.7463
6.8155 2.0795 1.7557
6.8768 2.3719 1.7923
6.8416 2.6389 1.8067
6.8058 2.9106 1.8235
6.7693 3.1879 1.8429
6.6384 3.4234 1.8393
6.6137 3.7178 1.8677
6.1698 3.7667 1.7789
6.1067 4.0368 1.8007
6.0677 4.3327 1.8332
6.0174 4.6326 1.8662
5.8503 4.8489 1.8662
5.7461 5.1223 1.8894
5.7418 5.5018 1.9504
5.5534 5.7185 1.9536
5.9656 6.6025 2.1791
5.7291 6.8187 2.1791
5.4851 7.0267 2.1791
5.2338 7.2264 2.1791
4.9755 7.4174 2.1791
4.6065 7.4319 2.1311
4.3410 7.6011 2.1311
4.0695 7.7612 2.1311
3.7923 7.9120 2.1311
3.5097 8.0532 2.1311
3.2220 8.1847 2.1311
2.9295 8.3061 2.1311
2.6326 8.4175 2.1311
2.3316 8.5185 2.1311
2.0268 8.6092 2.1311
1.7185 8.6891 2.1311
1.4073 8.7584 2.1311
1.0933 8.8167 2.1311
0.7770 8.8640 2.1311
0.4587 8.9003 2.1311
0.1389 8.9253 2.1311
-0.1909 9.3715 2.2341
-0.5283 9.3740 2.2341
-0.8660 9.3646 2.2341
-1.2038 9.3431 2.2341
-1.5411 9.3096 2.2341
-1.8776 9.2641 2.2341
-2.2128 9.2065 2.2341
-2.5463 9.1368 2.2341
-2.8776 9.0552 2.2341
-3.2063 8.9616 2.2341
-3.5320 8.8561 2.2341
-3.8542 8.7387 2.2341
-4.1725 8.6097 2.2341
-4.4865 8.4690 2.2341
-4.7956 8.3168 2.2341
-5.0996 8.1533 2.2341
-5.3979 7.9787 2.2341
-5.6902 7.7930 2.2341
-5.9759 7.5965 2.2341
-6.2548 7.3894 2.2341
-6.5263 7.1720 2.2341
-6.7901 6.9444 2.2341
-7.0458 6.7071 2.2341
-7.2929 6.4601 2.2341
-7.5220 6.1963 2.2314
-7.4022 5.6647 2.1311
-7.6114 5.4036 2.1311
-7.8112 5.1345 2.1311
-8.0012 4.8580 2.1311
-8.1811 4.5742 2.1311
-8.3505 4.2836 2.1311
-8.5092 3.9866 2.1311
-8.6570 3.6836 2.1311
-8.7936 3.3750 2.1311
-8.9187 3.0612 2.1311
-9.0322 2.7426 2.1311
-6.9091 1.8304 1.6120
-9.2234 2.0930 2.1311
-9.3008 1.7629 2.1311
-9.3658 1.4298 2.1311
-9.4184 1.0943 2.1311
-9.4584 0.7568 2.1311
-9.4858 0.4179 2.1311
-9.4170 0.0773 2.1123
-9.3115 -0.2572 2.0882
-9.2092 -0.5849 2.0677
-9.2645 -0.9225 2.0853
-9.4313 -1.2817 2.1311
-9.3821 -1.6191 2.1311
-9.3203 -1.9544 2.1311
-9.2458 -2.2873 2.1311
-9.1589 -2.6172 2.1311
-9.0597 -2.9436 2.1311
-8.9482 -3.2660 2.1311
-8.8247 -3.5840 2.1311
-8.6893 -3.8971 2.1311
-8.8119 -4.3375 2.1983
-8.7897 -4.7249 2.2342
-8.6127 -5.0353 2.2344
-8.4243 -5.3389 2.2347
-8.2249 -5.6352 2.2350
-8.0146 -5.9237 2.2353
-7.7937 -6.2041 2.2356
-7.5626 -6.4759 2.2359
-7.3215 -6.7386 2.2362
-7.0708 -6.9919 2.2364
-6.8109 -7.2354 2.2367
-6.5423 -7.4689 2.2369
-6.2653 -7.6920 2.2372
-5.9794 -7.9032 2.2371
-5.6859 -8.1030 2.2368
-5.3855 -8.2915 2.2366
-5.0786 -8.4685 2.2364
-4.7657 -8.6338 2.2361
-4.4473 -8.7872 2.2359
-4.1238 -8.9285 2.2357
-3.7958 -9.0576 2.2354
-3.4637 -9.1744 2.2352
-3.1279 -9.2786 2.2350
-2.7890 -9.3703 2.2348
-2.4475 -9.4493 2.2345
-2.1038 -9.5157 2.2343
-1.7585 -9.5695 2.2341
-1.3869 -9.4405 2.1944
-1.0157 -9.1955 2.1311
-0.6842 -9.2111 2.1311
-0.3528 -9.2146 2.1311
-0.0221 -8.3766 2.1389
0.2769 -8.3286 2.1311
0.5745 -8.3007 2.1311
0.8708 -8.2640 2.1317
1.1652 -8.2167 2.1322
1.4574 -8.1590 2.1328
1.4491 -6.7116 1.7697
1.7247 -6.7959 1.8100
2.3167 -7.9241 2.1347
2.5961 -7.8251 2.1351
2.8714 -7.7165 2.1356
3.1424 -7.5982 2.1362
3.4086 -7.4705 2.1367
3.6683 -7.3306 2.1363
3.9220 -7.1811 2.1358
4.1698 -7.0228 2.1352
4.4114 -6.8561 2.1346
4.6465 -6.6813 2.1340
4.8749 -6.4985 2.1334
5.0962 -6.3080 2.1328
5.3103 -6.1102 2.1322
5.5170 -5.9052 2.1316
5.7161 -5.6936 2.1311
5.9313 -5.4978 2.1391
6.1169 -5.2739 2.1391
6.2942 -5.0439 2.1391
6.4631 -4.8082 2.1391
6.6235 -4.5670 2.1391
6.7752 -4.3206 2.1391
6.9180 -4.0693 2.1391
7.0518 -3.8135 2.1391
7.1765 -3.5535 2.1391
7.2919 -3.2896 2.1391
7.3979 -3.0221 2.1391
7.4945 -2.7513 2.1391
7.5816 -2.4776 2.1391
7.6590 -2.2012 2.1391
7.7267 -1.9226 2.1391
7.7847 -1.6420 2.1391
7.8329 -1.3598 2.1391
7.2384 -0.9898 1.9671
7.1910 -0.7208 1.9472
7.1500 -0.4575 1.9316
7.1159 -0.1986 1.9202
7.0822 0.0573 1.9114
7.1480 0.3154 1.9318
7.1143 0.5711 1.9277
7.0807 0.8258 1.9261
7.0471 1.0803 1.9268
7.0135 1.3351 1.9300
6.8829 1.5689 1.9086
6.8494 1.8230 1.9165
6.8156 2.0794 1.9269
6.8768 2.3719 1.9671
6.8416 2.6390 1.9828
6.8058 2.9108 2.0013
6.7692 3.1881 2.0227
6.6384 3.4237 2.0187
6.6137 3.7183 2.0500
6.1688 3.7666 1.9523
5.9486 3.9329 1.9255
5.9106 4.2212 1.9603
5.8711 4.5207 1.9989
5.8299 4.8330 2.0417
5.7275 5.1068 2.0677
5.5524 5.3215 2.0710
5.5465 5.7127 2.1426
5.4322 6.0137 2.1791
5.1013 6.0731 2.1311
4.8836 6.2580 2.1311
4.6594 6.4353 2.1311
4.4289 6.6049 2.1311
4.1925 6.7665 2.1311
3.9504 6.9200 2.1311
3.7029 7.0651 2.1311
3.4502 7.2016 2.1311
3.1926 7.3294 2.1311
2.9304 7.4482 2.1311
2.6639 7.5579 2.1311
2.3934 7.6583 2.1311
2.1193 7.7494 2.1311
1.8417 7.8309 2.1311
1.5612 7.9026 2.1311
1.2779 7.9646 2.1311
0.9922 8.0166 2.1311
0.7045 8.0586 2.1311
0.4150 8.0904 2.1311
0.1303 8.5045 2.2341
-0.1756 8.5164 2.2341
-0.4821 8.5174 2.2341
-0.7889 8.5076 2.2341
-1.0957 8.4869 2.2341
-1.4019 8.4552 2.2341
-1.7073 8.4126 2.2341
-2.0114 8.3591 2.2341
-2.3139 8.2946 2.2341
-2.6143 8.2192 2.2341
-2.9122 8.1330 2.2341
-3.2073 8.0360 2.2341
-3.4992 7.9283 2.2341
-3.7874 7.8101 2.2341
-4.0717 7.6813 2.2341
-4.3514 7.5421 2.2341
-4.6264 7.3927 2.2341
-4.8962 7.2332 2.2341
-5.1604 7.0638 2.2341
-5.4186 6.8847 2.2341
-5.6706 6.6960 2.2341
-5.9158 6.4980 2.2341
-6.1539 6.2909 2.2341
-6.3847 6.0750 2.2341
-6.6077 5.8505 2.2341
-6.8226 5.6177 2.2341
-7.0291 5.3768 2.2341
-7.1765 5.0926 2.2186
-7.0733 4.6475 2.1311
-7.2444 4.3965 2.1311
-7.4063 4.1392 2.1311
-7.5588 3.8758 2.1311
-7.7016 3.6066 2.1311
-7.8344 3.3321 2.1311
-7.9572 3.0525 2.1311
-8.0695 2.7683 2.1311
-8.1714 2.4799 2.1311
-6.9006 1.8271 1.7798
-8.3429 1.8920 2.1311
-8.4122 1.5934 2.1311
-8.4703 1.2921 2.1311
-8.5173 0.9887 2.1311
-8.5529 0.6835 2.1311
-8.5771 0.3771 2.1311
-8.5899 0.0698 2.1311
-8.5911 -0.2379 2.1311
-8.5809 -0.5456 2.1311
-8.5592 -0.8528 2.1311
-8.5259 -1.1590 2.1311
-8.4813 -1.4639 2.1311
-8.4252 -1.7670 2.1311
-8.3578 -2.0678 2.1311
-8.2792 -2.3659 2.1311
-8.1895 -2.6608 2.1311
-8.0887 -2.9522 2.1311
-7.9772 -3.2396 2.1311
-7.8550 -3.5226 2.1311
-8.0959 -3.9847 2.2342
-7.9468 -4.2713 2.2344
-7.7871 -4.5521 2.2346
-7.6171 -4.8266 2.2349
-7.4370 -5.0945 2.2351
-7.2470 -5.3555 2.2353
-7.0475 -5.6090 2.2356
-6.8387 -5.8548 2.2358
-6.6210 -6.0926 2.2360
-6.3947 -6.3219 2.2362
-6.1601 -6.5425 2.2365
-5.9177 -6.7541 2.2367
-5.6676 -6.9563 2.2369
-5.4105 -7.1490 2.2371
-5.1460 -7.3312 2.2371
-4.8748 -7.5025 2.2369
-4.5976 -7.6635 2.2367
-4.3150 -7.8140 2.2365
-4.0273 -7.9538 2.2363
-3.7350 -8.0827 2.2360
-3.4385 -8.2005 2.2358
-3.1382 -8.3072 2.2356
-2.8346 -8.4027 2.2354
-2.5281 -8.4869 2.2352
-2.2191 -8.5597 2.2350
-1.9080 -8.6210 2.2348
-1.5954 -8.6708 2.2346
-1.2815 -8.7092 2.2344
-0.9670 -8.7360 2.2342
-0.6441 -8.6440 2.2066
-0.3218 -8.3525 2.1311
-0.0229 -7.9322 2.2168
0.2512 -7.6144 2.1322
0.5262 -7.6298 2.1435
0.7945 -7.5585 2.1331
1.0639 -7.5160 2.1337
1.3312 -7.4640 2.1342
1.4457 -6.7041 1.9333
1.7199 -6.7845 1.9760
2.1179 -7.2511 2.1358
2.3738 -7.1613 2.1362
2.6260 -7.0626 2.1367
2.8733 -6.9527 2.1364
3.1158 -6.8335 2.1359
3.3535 -6.7059 2.1354
3.5861 -6.5701 2.1349
3.8134 -6.4262 2.1344
4.0350 -6.2747 2.1339
4.2508 -6.1155 2.1333
4.4604 -5.9490 2.1328
4.6636 -5.7753 2.1322
4.8600 -5.5947 2.1315
5.0502 -5.4081 2.1311
5.2344 -5.2163 2.1311
5.4116 -5.0184 2.1311
5.5816 -4.8145 2.1311
5.7440 -4.6051 2.1311
5.8988 -4.3903 2.1311
6.0459 -4.1705 2.1311
6.2084 -3.9609 2.1391
6.3399 -3.7309 2.1391
6.4632 -3.4968 2.1391
6.5780 -3.2586 2.1391
6.6844 -3.0169 2.1391
6.7822 -2.7718 2.1391
6.8713 -2.5237 2.1391
6.9516 -2.2729 2.1391
7.0231 -2.0196 2.1391
7.0857 -1.7641 2.1391
7.1393 -1.5068 2.1391
7.1839 -1.2480 2.1391
7.2195 -0.9880 2.1391
7.1912 -0.7216 2.1229
7.1501 -0.4582 2.1058
7.1160 -0.1992 2.0933
7.0822 0.0568 2.0836
7.1481 0.3149 2.1058
7.1143 0.5707 2.1013
7.0807 0.8255 2.0994
7.0472 1.0800 2.1002
7.0136 1.3349 2.1036
6.8829 1.5688 2.0803
6.8494 1.8229 2.0889
6.8156 2.0794 2.1002
6.8768 2.3720 2.1440
6.8416 2.6391 2.1612
6.7989 2.9080 2.1791
6.6907 3.1514 2.1791
6.5743 3.3910 2.1791
6.4495 3.6264 2.1791
6.1677 3.7665 2.1278
5.8600 3.8749 2.0677
5.7190 4.0850 2.0677
5.7190 4.4044 2.1227
5.6789 4.7087 2.1683
5.4141 4.8284 2.1311
5.2399 5.0231 2.1311
5.0589 5.2118 2.1311
4.8714 5.3942 2.1311
4.6775 5.5701 2.1311
4.4775 5.7393 2.1311
4.2716 5.9016 2.1311
4.0599 6.0567 2.1311
3.8428 6.2044 2.1311
3.6205 6.3447 2.1311
3.3933 6.4771 2.1311
3.1613 6.6018 2.1311
2.9249 6.7183 2.1311
2.6843 6.8266 2.1311
2.4398 6.9265 2.1311
2.1916 7.0179 2.1311
1.9402 7.1006 2.1311
1.6857 7.1745 2.1311
1.4285 7.2395 2.1311
1.1688 7.2955 2.1311
0.9070 7.3423 2.1311
0.6434 7.3800 2.1311
0.3966 7.7667 2.2341
0.1174 7.7865 2.2341
-0.1627 7.7965 2.2341
-0.4433 7.7966 2.2341
-0.7241 7.7866 2.2341
-1.0047 7.7667 2.2341
-1.2848 7.7368 2.2341
-1.5641 7.6968 2.2341
-1.8421 7.6468 2.2341
-2.1186 7.5869 2.2341
-2.3931 7.5170 2.2341
-2.6652 7.4372 2.2341
-2.9348 7.3475 2.2341
-3.2012 7.2482 2.2341
-3.4643 7.1391 2.2341
-3.7237 7.0205 2.2341
-3.9789 6.8924 2.2341
-4.2297 6.7550 2.2341
-4.4757 6.6084 2.2341
-4.7165 6.4528 2.2341
-4.9518 6.2884 2.2341
-5.1813 6.1153 2.2341
-5.4046 5.9337 2.2341
-5.6215 5.7439 2.2341
-5.8315 5.5461 2.2341
-6.0344 5.3405 2.2341
-6.2299 5.1274 2.2341
-6.4177 4.9070 2.2341
-6.5974 4.6796 2.2341
-6.7689 4.4455 2.2341
-6.8916 4.1806 2.2212
-6.7878 3.7918 2.1401
-6.9032 3.5380 2.1328
-7.0271 3.2892 2.1311
-7.1477 3.0385 2.1311
-7.2590 2.7833 2.1311
-7.3609 2.5239 2.1311
-7.4532 2.2607 2.1311
-6.8920 1.8238 1.9490
-7.6084 1.7244 2.1311
-7.6710 1.4520 2.1311
-7.7236 1.1773 2.1311
-7.7659 0.9006 2.1311
-7.7979 0.6224 2.1311
-7.8196 0.3431 2.1311
-7.8309 0.0630 2.1311
-7.8317 -0.2175 2.1311
-7.8221 -0.4979 2.1311
-7.8020 -0.7778 2.1311
-7.7716 -1.0569 2.1311
-7.7307 -1.3347 2.1311
-7.6794 -1.6108 2.1311
-7.6179 -1.8849 2.1311
-7.5462 -2.1565 2.1311
-7.4645 -2.4253 2.1311
-7.3727 -2.6908 2.1311
-7.4246 -3.0150 2.1760
-7.5062 -3.3659 2.2341
-7.3801 -3.6320 2.2343
-7.2443 -3.8933 2.2345
-7.0988 -4.1492 2.2347
-6.9440 -4.3995 2.2349
-6.7800 -4.6438 2.2351
-6.6070 -4.8817 2.2353
-6.4254 -5.1130 2.2355
-6.2354 -5.3372 2.2357
-6.0372 -5.5542 2.2359
-5.8312 -5.7635 2.2361
-5.6177 -5.9649 2.2363
-5.3970 -6.1581 2.2365
-5.1693 -6.3429 2.2367
-4.9352 -6.5190 2.2369
-4.6948 -6.6862 2.2371
-4.4483 -6.8438 2.2371
-4.1959 -6.9912 2.2369
-3.9385 -7.1292 2.2367
-3.6764 -7.2574 2.2365
-3.4100 -7.3757 2.2363
-3.1398 -7.4840 2.2361
-2.8661 -7.5822 2.2359
-2.5892 -7.6702 2.2357
-2.3097 -7.7479 2.2355
-2.0279 -7.8152 2.2353
-1.7441 -7.8721 2.2351
-1.4588 -7.9185 2.2349
-1.1724 -7.9545 2.2347
-0.8852 -7.9800 2.2345
-0.5977 -7.9950 2.2343
-0.3102 -7.9996 2.2342
-0.0231 -7.3519 2.2343
0.2402 -7.3378 2.2341
0.4934 -7.1811 2.1933
0.7295 -6.9572 2.1344
0.9809 -6.9430 2.1424
1.2237 -6.8713 2.1354
1.4422 -6.6965 2.0986
1.7094 -6.7505 2.1364
1.9483 -6.6768 2.1367
2.1833 -6.5925 2.1364
2.4148 -6.4996 2.1360
2.6424 -6.3987 2.1356
2.8659 -6.2898 2.1351
3.0851 -6.1731 2.1347
3.2996 -6.0488 2.1342
3.5091 -5.9170 2.1336
3.7135 -5.7779 2.1331
3.9125 -5.6319 2.1325
4.1059 -5.4791 2.1319
4.2934 -5.3197 2.1313
4.4757 -5.1548 2.1311
4.6523 -4.9844 2.1311
4.8226 -4.8081 2.1311
4.9864 -4.6261 2.1311
5.1434 -4.4386 2.1311
5.2937 -4.2460 2.1311
5.4369 -4.0483 2.1311
5.5729 -3.8460 2.1311
5.7016 -3.6392 2.1311
5.8228 -3.4282 2.1311
5.9365 -3.2133 2.1311
6.0425 -2.9948 2.1311
6.1406 -2.7729 2.1311
6.2309 -2.5478 2.1311
6.3132 -2.3199 2.1311
6.3874 -2.0895 2.1311
6.4535 -1.8568 2.1311
6.5361 -1.6283 2.1391
6.5860 -1.3910 2.1391
6.6275 -1.1522 2.1391
6.6606 -0.9123 2.1391
6.6854 -0.6715 2.1391
6.7018 -0.4301 2.1391
6.7097 -0.1885 2.1391
6.7093 0.0533 2.1391
6.7005 0.2947 2.1391
6.6833 0.5357 2.1391
6.6577 0.7758 2.1391
6.6239 1.0148 2.1391
6.5817 1.2525 2.1391
6.5314 1.4885 2.1391
6.5939 1.7548 2.1791
6.5261 1.9911 2.1791
6.4501 2.2248 2.1791
6.3661 2.4558 2.1791
6.2741 2.6838 2.1791
6.1743 2.9084 2.1791
5.9328 3.0604 2.1311
5.8201 3.2729 2.1311
5.7000 3.4813 2.1311
5.5728 3.6856 2.1311
5.4385 3.8853 2.1311
5.2973 4.0804 2.1311
5.1493 4.2704 2.1311
4.9948 4.4554 2.1311
4.8338 4.6349 2.1311
4.6666 4.8088 2.1311
4.4933 4.9769 2.1311
4.3142 5.1390 2.1311
4.1294 5.2948 2.1311
3.9392 5.4441 2.1311
3.7437 5.5869 2.1311
3.5432 5.7228 2.1311
3.3379 5.8518 2.1311
3.1281 5.9736 2.1311
2.9139 6.0881 2.1311
2.6956 6.1951 2.1311
2.4735 6.2945 2.1311
2.2479 6.3861 2.1311
2.0190 6.4698 2.1311
1.7870 6.5455 2.1311
1.5522 6.6131 2.1311
1.3150 6.6724 2.1311
1.0755 6.7234 2.1311
0.8341 6.7659 2.1311
0.6172 7.0993 2.2249
0.3636 7.1555 2.2341
0.1064 7.1731 2.2341
-0.1516 7.1816 2.2341
-0.4101 7.1809 2.2341
-0.6687 7.1710 2.2341
-0.9271 7.1519 2.2341
-1.1849 7.1236 2.2341
-1.4419 7.0860 2.2341
-1.6977 7.0393 2.2341
-1.9520 6.9833 2.2341
-2.2044 6.9182 2.2341
-2.4547 6.8440 2.2341
-2.7025 6.7608 2.2341
-2.9474 6.6686 2.2341
-3.1891 6.5675 2.2341
-3.4273 6.4577 2.2341
-3.6617 6.3392 2.2341
-3.8920 6.2121 2.2341
-4.1178 6.0767 2.2341
-4.3388 5.9330 2.2341
-4.5547 5.7812 2.2341
-4.7652 5.6214 2.2341
-4.9700 5.4540 2.2341
-5.1688 5.2789 2.2341
-5.3613 5.0966 2.2341
-5.5473 4.9072 2.2341
-5.7264 4.7108 2.2341
-5.8984 4.5079 2.2341
-6.0630 4.2986 2.2341
-6.2200 4.0831 2.2341
-6.3691 3.8619 2.2341
-6.5102 3.6351 2.2341
-6.6429 3.4031 2.2341
-6.5763 3.0768 2.1711
-6.5651 2.7895 2.1311
-6.6668 2.5550 2.1311
-6.7599 2.3167 2.1311
-6.8442 2.0749 2.1311
-6.8834 1.8204 2.1199
-6.9858 1.5823 2.1311
-7.0429 1.3322 2.1311
-7.0907 1.0799 2.1311
-7.1292 0.8260 2.1311
-7.1583 0.5706 2.1311
-7.1779 0.3142 2.1311
-7.1879 0.0572 2.1311
-7.1885 -0.2001 2.1311
-7.1794 -0.4574 2.1311
-7.1608 -0.7143 2.1311
-7.1327 -0.9703 2.1311
-7.0950 -1.2252 2.1311
-7.0479 -1.4785 2.1311
-6.9914 -1.7300 2.1311
-6.9256 -1.9792 2.1311
-6.8928 -2.2396 2.1442
-7.1151 -2.5967 2.2409
-6.9962 -2.8409 2.2342
-6.8897 -3.0893 2.2344
-6.7740 -3.3335 2.2345
-6.6494 -3.5732 2.2347
-6.5160 -3.8080 2.2348
-6.3740 -4.0377 2.2350
-6.2236 -4.2620 2.2352
-6.0650 -4.4805 2.2354
-5.8985 -4.6928 2.2355
-5.7243 -4.8988 2.2357
-5.5426 -5.0980 2.2359
-5.3538 -5.2904 2.2361
-5.1580 -5.4755 2.2363
-4.9557 -5.6531 2.2365
-4.7470 -5.8230 2.2366
-4.5323 -5.9850 2.2368
-4.3120 -6.1389 2.2370
-4.0862 -6.2844 2.2372
-3.8549 -6.4207 2.2371
-3.6188 -6.5478 2.2369
-3.3784 -6.6661 2.2367
-3.1340 -6.7753 2.2365
-2.8861 -6.8755 2.2363
-2.6349 -6.9663 2.2361
-2.3808 -7.0478 2.2359
-2.1242 -7.1199 2.2357
-1.8654 -7.1825 2.2355
-1.6048 -7.2355 2.2353
-1.3427 -7.2790 2.2351
-1.0796 -7.3128 2.2350
-0.8157 -7.3370 2.2348
-0.5514 -7.3516 2.2346
-0.2871 -7.3565 2.2344
-0.0231 -6.7985 2.2345
0.2204 -6.7861 2.2344
0.4630 -6.7649 2.2342
0.7044 -6.7352 2.2341
0.9231 -6.5464 2.1839
1.1308 -6.3596 2.1365
1.3651 -6.3468 2.1500
1.5798 -6.2456 2.1363
1.8003 -6.1757 2.1359
2.0178 -6.0981 2.1355
2.2321 -6.0128 2.1351
2.4428 -5.9200 2.1346
2.6499 -5.8197 2.1342
2.8529 -5.7123 2.1337
3.0516 -5.5977 2.1332
3.2459 -5.4763 2.1327
3.4354 -5.3482 2.1322
3.6200 -5.2136 2.1317
3.7994 -5.0727 2.1311
3.9743 -4.9268 2.1311
4.1440 -4.7751 2.1311
4.3079 -4.6177 2.1311
4.4660 -4.4547 2.1311
4.6181 -4.2865 2.1311
4.7640 -4.1131 2.1311
4.9036 -3.9349 2.1311
5.0366 -3.7520 2.1311
5.1631 -3.5648 2.1311
5.2827 -3.3734 2.1311
5.3955 -3.1780 2.1311
5.5012 -2.9791 2.1311
5.5998 -2.7767 2.1311
5.6911 -2.5711 2.1311
5.7752 -2.3626 2.1311
5.8518 -2.1515 2.1311
5.9209 -1.9380 2.1311
5.9825 -1.7223 2.1311
6.0365 -1.5047 2.1311
6.0828 -1.2856 2.1311
6.1214 -1.0650 2.1311
6.1523 -0.8434 2.1311
6.1754 -0.6210 2.1311
6.1907 -0.3980 2.1311
6.1983 -0.1747 2.1311
6.1981 0.0487 2.1311
6.1901 0.2718 2.1311
6.1743 0.4945 2.1311
6.1508 0.7164 2.1311
6.1196 0.9373 2.1311
6.0807 1.1569 2.1311
6.0343 1.3750 2.1311
5.9803 1.5914 2.1311
5.9188 1.8057 2.1311
5.8499 2.0178 2.1311
5.7736 2.2273 2.1311
5.6901 2.4341 2.1311
5.5995 2.6379 2.1311
5.5018 2.8384 2.1311
5.3972 3.0354 2.1311
5.2857 3.2287 2.1311
5.1676 3.4181 2.1311
5.0429 3.6033 2.1311
4.9118 3.7841 2.1311
4.7744 3.9603 2.1311
4.6309 4.1317 2.1311
4.4814 4.2980 2.1311
4.3262 4.4591 2.1311
4.1653 4.6148 2.1311
3.9990 4.7649 2.1311
3.8275 4.9091 2.1311
3.6509 5.0474 2.1311
3.4695 5.1795 2.1311
3.2834 5.3052 2.1311
3.0929 5.4245 2.1311
2.8981 5.5370 2.1311
2.6994 5.6428 2.1311
2.4969 5.7416 2.1311
2.2910 5.8334 2.1311
2.0817 5.9179 2.1311
1.8693 5.9950 2.1311
1.6542 6.0647 2.1311
1.4366 6.1268 2.1311
1.2195 6.1955 2.1359
0.9947 6.2280 2.1311
0.8025 6.5219 2.2178
0.5724 6.6026 2.2341
0.3351 6.6267 2.2341
0.0968 6.6424 2.2341
-0.1421 6.6497 2.2341
-0.3814 6.6485 2.2341
-0.6208 6.6387 2.2341
-0.8599 6.6204 2.2341
-1.0985 6.5936 2.2341
-1.3363 6.5582 2.2341
-1.5729 6.5143 2.2341
-1.8081 6.4620 2.2341
-2.0416 6.4011 2.2341
-2.2729 6.3319 2.2341
-2.5019 6.2543 2.2341
-2.7283 6.1684 2.2341
-2.9516 6.0744 2.2341
-3.1717 5.9722 2.2341
-3.3882 5.8620 2.2341
-3.6008 5.7440 2.2341
-3.8092 5.6182 2.2341
-4.0132 5.4849 2.2341
-4.2125 5.3440 2.2341
-4.4067 5.1959 2.2341
-4.5956 5.0406 2.2341
-4.7789 4.8784 2.2341
-4.9564 4.7095 2.2341
-5.1278 4.5340 2.2341
-5.2929 4.3522 2.2341
-5.4514 4.1644 2.2341
-5.6030 3.9707 2.2341
-5.7476 3.7713 2.2341
-5.8850 3.5667 2.2341
-6.0148 3.3569 2.2341
-6.1370 3.1424 2.2341
-6.2513 2.9233 2.2341
-6.3576 2.7000 2.2341
-6.3882 2.4470 2.2108
-6.3475 2.1742 2.1666
-6.3208 1.9152 2.1311
-6.3900 1.6890 2.1311
-6.4508 1.4602 2.1311
-6.5032 1.2292 2.1311
-6.5471 0.9963 2.1311
-6.5823 0.7619 2.1311
-6.6089 0.5261 2.1311
-6.6267 0.2895 2.1311
-6.6358 0.0522 2.1311
-6.6361 -0.1853 2.1311
-6.6275 -0.4227 2.1311
-6.6102 -0.6597 2.1311
-6.5841 -0.8960 2.1311
-6.5493 -1.1312 2.1311
-6.5318 -1.3705 2.1396
-6.6214 -1.6386 2.1865
-6.7111 -1.9180 2.2372
-6.6294 -2.1540 2.2342
-6.5483 -2.3898 2.2343
-6.4586 -2.6225 2.2344
-6.3603 -2.8517 2.2346
-6.2536 -3.0771 2.2347
-6.1387 -3.2984 2.2349
-6.0156 -3.5152 2.2350
-5.8846 -3.7272 2.2352
-5.7459 -3.9343 2.2353
-5.5997 -4.1360 2.2355
-5.4461 -4.3321 2.2356
-5.2855 -4.5223 2.2358
-5.1179 -4.7064 2.2359
-4.9438 -4.8841 2.2361
-4.7633 -5.0552 2.2363
-4.5767 -5.2194 2.2364
-4.3843 -5.3765 2.2366
-4.1863 -5.5263 2.2368
-3.9830 -5.6687 2.2370
-3.7748 -5.8034 2.2371
-3.5617 -5.9299 2.2372
-3.3439 -6.0478 2.2370
-3.1221 -6.1575 2.2368
-2.8966 -6.2589 2.2366
-2.6678 -6.3518 2.2364
-2.4359 -6.4363 2.2362
-2.2014 -6.5122 2.2361
-1.9645 -6.5793 2.2359
-1.7255 -6.6377 2.2357
-1.4848 -6.6873 2.2355
-1.2427 -6.7280 2.2353
-0.9996 -6.7598 2.2352
-0.7557 -6.7828 2.2350
-0.5114 -6.7969 2.2348
-0.2671 -6.8021 2.2347
-0.0230 -6.3160 2.2347
0.2032 -6.3050 2.2346
0.4286 -6.2858 2.2344
0.6529 -6.2586 2.2343
0.8759 -6.2233 2.2342
1.0972 -6.1803 2.2341
1.2713 -5.9184 2.1572
1.4660 -5.8023 2.1353
1.6709 -5.7379 2.1349
1.8732 -5.6663 2.1345
2.0725 -5.5876 2.1341
2.2686 -5.5018 2.1337
2.4612 -5.4092 2.1333
2.6501 -5.3098 2.1328
2.8351 -5.2039 2.1324
3.0160 -5.0915 2.1319
3.1925 -4.9729 2.1314
3.3646 -4.8485 2.1311
3.5326 -4.7190 2.1311
3.6957 -4.5838 2.1311
3.8538 -4.4430 2.1311
4.0066 -4.2969 2.1311
4.1540 -4.1455 2.1311
4.2958 -3.9893 2.1311
4.4319 -3.8282 2.1311
4.5621 -3.6626 2.1311
4.6862 -3.4926 2.1311
4.8042 -3.3185 2.1311
4.9159 -3.1406 2.1311
5.0211 -2.9590 2.1311
5.1199 -2.7739 2.1311
5.2119 -2.5856 2.1311
5.2973 -2.3943 2.1311
5.3758 -2.2003 2.1311
5.4474 -2.0039 2.1311
5.5120 -1.8051 2.1311
5.5696 -1.6043 2.1311
5.6201 -1.4018 2.1311
5.6635 -1.1977 2.1311
5.6997 -0.9924 2.1311
5.7286 -0.7860 2.1311
5.7503 -0.5789 2.1311
5.7648 -0.3712 2.1311
5.7720 -0.1632 2.1311
5.7719 0.0449 2.1311
5.7646 0.2527 2.1311
5.7500 0.4601 2.1311
5.7282 0.6669 2.1311
5.6993 0.8727 2.1311
5.6631 1.0773 2.1311
5.6199 1.2805 2.1311
5.5696 1.4820 2.1311
5.5123 1.6817 2.1311
5.4481 1.8792 2.1311
5.3771 2.0745 2.1311
5.2993 2.2671 2.1311
5.2148 2.4569 2.1311
5.1237 2.6436 2.1311
5.0262 2.8271 2.1311
4.9223 3.0072 2.1311
4.8122 3.1835 2.1311
4.6959 3.3559 2.1311
4.5737 3.5243 2.1311
4.4456 3.6883 2.1311
4.3118 3.8478 2.1311
4.1724 4.0026 2.1311
4.0277 4.1525 2.1311
3.8777 4.2974 2.1311
3.7227 4.4370 2.1311
3.5628 4.5711 2.1311
3.3982 4.6997 2.1311
3.2291 4.8224 2.1311
3.0557 4.9393 2.1311
2.8782 5.0500 2.1311
2.6967 5.1546 2.1311
2.5116 5.2528 2.1311
0.8500 1.9556 0.7798
2.1310 5.4295 2.1311
1.9361 5.5078 2.1311
1.7384 5.5793 2.1311
1.5381 5.6438 2.1311
1.3491 5.7599 2.1530
1.1307 5.7515 2.1311
0.9625 6.0353 2.2196
0.7505 6.1124 2.2341
0.5309 6.1422 2.2341
0.3101 6.1642 2.2341
0.0885 6.1784 2.2341
-0.1338 6.1847 2.2341
-0.3563 6.1830 2.2341
-0.5789 6.1735 2.2341
-0.8013 6.1560 2.2341
-1.0231 6.1306 2.2341
-1.2441 6.0972 2.2341
-1.4640 6.0559 2.2341
-1.6825 6.0067 2.2341
-1.8993 5.9497 2.2341
-2.1142 5.8848 2.2341
-2.3269 5.8122 2.2341
-0.8656 1.9557 0.7623
-0.9353 1.9236 0.7614
-2.9486 5.5487 2.2341
-3.1495 5.4459 2.2341
-3.3468 5.3358 2.2341
-3.5402 5.2185 2.2341
-3.7294 5.0942 2.2341
-3.9141 4.9630 2.2341
-4.0942 4.8250 2.2341
-4.2693 4.6804 2.2341
-4.4393 4.5295 2.2341
-4.6037 4.3723 2.2341
-4.7626 4.2090 2.2341
-4.9155 4.0400 2.2341
-5.0622 3.8653 2.2341
-5.2026 3.6852 2.2341
-5.3365 3.5000 2.2341
-5.4636 3.3098 2.2341
-5.5838 3.1149 2.2341
-5.6968 2.9156 2.2341
-5.8025 2.7122 2.2341
-5.9011 2.5049 2.2342
-5.9917 2.2939 2.2342
-6.0745 2.0796 2.2342
-6.1494 1.8622 2.2341
-6.2164 1.6421 2.2341
-6.2084 1.4044 2.2103
-6.1718 1.1657 2.1797
-6.1357 0.9330 2.1525
-6.1505 0.7112 2.1462
-6.1697 0.4905 2.1444
-6.1886 0.2698 2.1452
-6.2072 0.0483 2.1488
-6.2254 -0.1743 2.1550
-6.2433 -0.3986 2.1641
-6.2611 -0.6252 2.1759
-6.3328 -0.8621 2.2096
-6.3690 -1.1003 2.2341
-6.3267 -1.3276 2.2342
-6.2761 -1.5533 2.2342
-6.2172 -1.7769 2.2343
-6.1501 -1.9982 2.2344
-6.0749 -2.2170 2.2345
-5.9916 -2.4327 2.2346
-5.9004 -2.6453 2.2347
-5.8015 -2.8543 2.2349
-5.6949 -3.0596 2.2350
-5.5809 -3.2607 2.2351
-5.4595 -3.4574 2.2353
-5.3309 -3.6495 2.2354
-5.1954 -3.8367 2.2356
-5.0531 -4.0187 2.2357
-4.9042 -4.1952 2.2359
-4.7489 -4.3661 2.2360
-4.5875 -4.5310 2.2362
-4.4203 -4.6899 2.2363
-4.2473 -4.8424 2.2365
-4.0689 -4.9883 2.2366
-3.8854 -5.1275 2.2368
-3.6970 -5.2598 2.2369
-3.5040 -5.3850 2.2371
-3.3066 -5.5030 2.2372
-3.1047 -5.6127 2.2371
-2.8990 -5.7149 2.2369
-2.6900 -5.8094 2.2367
-2.4778 -5.8960 2.2365
-2.2627 -5.9748 2.2363
-2.0452 -6.0457 2.2362
-1.8253 -6.1084 2.2360
-1.6036 -6.1631 2.2358
-1.3802 -6.2096 2.2356
-1.1556 -6.2479 2.2355
-0.9299 -6.2780 2.2353
-0.7035 -6.2998 2.2352
-0.4767 -6.3134 2.2350
-0.2497 -6.3188 2.2349
-0.0230 -5.8911 2.2349
0.1880 -5.8813 2.2348
0.3983 -5.8639 2.2346
0.6076 -5.8388 2.2345
0.8156 -5.8063 2.2344
1.0221 -5.7664 2.2342
1.2269 -5.7192 2.2341
1.3988 -5.5428 2.1860
1.5571 -5.3524 2.1340
1.7614 -5.3331 2.1526
1.9319 -5.2130 2.1332
2.1150 -5.1334 2.1329
2.2949 -5.0474 2.1325
2.4714 -4.9551 2.1321
2.6443 -4.8567 2.1316
2.8133 -4.7522 2.1312
2.9787 -4.6426 2.1311
3.1401 -4.5276 2.1311
3.2972 -4.4069 2.1311
3.4497 -4.2810 2.1311
3.5976 -4.1498 2.1311
3.7405 -4.0135 2.1311
3.8785 -3.8725 2.1311
4.0112 -3.7267 2.1311
4.1385 -3.5765 2.1311
4.2604 -3.4220 2.1311
4.3766 -3.2634 2.1311
4.4871 -3.1010 2.1311
4.5917 -2.9348 2.1311
4.6903 -2.7653 2.1311
4.7827 -2.5925 2.1311
4.8690 -2.4167 2.1311
4.9490 -2.2380 2.1311
5.0226 -2.0568 2.1311
5.0898 -1.8733 2.1311
5.1504 -1.6876 2.1311
5.2044 -1.5000 2.1311
5.2518 -1.3108 2.1311
5.2926 -1.1201 2.1311
5.3265 -0.9282 2.1311
5.3538 -0.7353 2.1311
5.3742 -0.5416 2.1311
5.3879 -0.3475 2.1311
5.3947 -0.1530 2.1311
5.3948 0.0415 2.1311
5.3881 0.2358 2.1311
5.3745 0.4297 2.1311
5.3542 0.6230 2.1311
5.3272 0.8154 2.1311
5.2935 1.0068 2.1311
5.2531 1.1968 2.1311
5.2061 1.3852 2.1311
5.1526 1.5719 2.1311
5.0925 1.7566 2.1311
5.0261 1.9391 2.1311
4.9533 2.1192 2.1311
4.8743 2.2966 2.1311
4.7891 2.4712 2.1311
4.6979 2.6428 2.1311
4.6007 2.8111 2.1311
4.4976 2.9759 2.1311
4.3888 3.1370 2.1311
4.2745 3.2944 2.1311
4.1546 3.4476 2.1311
4.0294 3.5966 2.1311
3.8991 3.7413 2.1311
3.7636 3.8813 2.1311
3.6233 4.0165 2.1311
3.4783 4.1469 2.1311
3.3287 4.2721 2.1311
3.1747 4.3921 2.1311
3.0166 4.5066 2.1311
2.8544 4.6156 2.1311
2.6883 4.7190 2.1311
2.5186 4.8164 2.1311
0.8577 1.7948 0.7793
0.7927 1.8247 0.7788
0.7266 1.8523 0.7782
0.6595 1.8775 0.7776
0.5916 1.9002 0.7770
0.5229 1.9205 0.7763
0.4535 1.9383 0.7757
0.3836 1.9536 0.7750
0.9034 5.6736 2.2341
0.6995 5.7083 2.2341
0.4943 5.7357 2.2341
0.2881 5.7559 2.2341
0.0811 5.7687 2.2341
-0.1264 5.7742 2.2341
-0.3342 5.7723 2.2341
-0.5420 5.7630 2.2341
-0.7495 5.7463 2.2341
-0.9565 5.7221 2.2341
-0.3992 1.9536 0.7670
-0.4691 1.9384 0.7662
-0.5385 1.9205 0.7655
-0.6072 1.9002 0.7647
-0.6751 1.8775 0.7639
-0.7422 1.8524 0.7632
-0.8083 1.8248 0.7624
-0.8734 1.7949 0.7616
-0.9373 1.7626 0.7609
-2.9394 5.0793 2.2341
-3.1232 4.9763 2.2341
-3.3033 4.8665 2.2341
-3.4795 4.7503 2.2341
-3.6516 4.6276 2.2341
-3.8192 4.4986 2.2341
-3.9823 4.3635 2.2341
-4.1404 4.2225 2.2341
-4.2935 4.0756 2.2341
