ply
format ascii 1.0
element vertex 2089
property float32 x
property float32 y
property float32 z
end_header
7.4248 4.1688 -0.3394
7.4248 4.5268 -0.3468
7.4248 4.9008 -0.3550
7.0133 4.9996 -0.3439
6.7855 5.2145 -0.3419
6.5289 5.4009 -0.3387
6.1949 5.5109 -0.3316
6.0908 5.8232 -0.3372
6.0749 6.2405 -0.3487
6.0749 6.7061 -0.3625
15.9964 18.9860 -0.9951
17.0637 21.7948 -1.1100
15.6550 21.5464 -1.0685
14.3474 21.3158 -1.0312
1.8869 3.0330 -0.1434
11.9832 20.8989 -0.9676
10.9058 20.7089 -0.9404
10.3981 21.5912 -0.9632
10.1910 23.2622 -1.0211
9.9014 25.0074 -1.0816
9.4908 26.7367 -1.1412
9.1076 28.9097 -1.2195
8.5183 30.8645 -1.2885
7.7165 32.4614 -1.3429
6.8132 34.0512 -1.3979
5.7985 35.5752 -1.4511
4.7285 37.4285 -1.5190
3.5107 39.0064 -1.5770
2.1524 39.9254 -1.6100
0.7292 40.6123 -1.6356
-0.7445 41.4631 -1.6699
-2.2907 42.4905 -1.7134
-3.8864 43.1803 -1.7456
-4.9416 39.1154 -1.5873
-6.1493 37.7273 -1.5387
-7.5999 37.9830 -1.5590
-9.0917 38.2461 -1.5820
-10.6305 38.5174 -1.6076
-12.2228 38.7981 -1.6362
-13.8758 39.0896 -1.6681
-15.5974 39.3932 -1.7033
-17.0474 38.9126 -1.7074
-18.1644 37.7175 -1.6820
-20.0368 38.0476 -1.7271
-21.9296 38.2456 -1.7700
-24.0254 38.6183 -1.8253
-26.3870 39.2029 -1.8957
-28.7090 39.5129 -1.9585
-29.3621 37.5030 -1.9090
-32.0767 38.0714 -1.9943
-34.9416 38.5721 -2.0839
-38.0943 39.1324 -2.1855
-41.0729 39.2678 -2.2728
-42.4705 37.7810 -2.2723
-46.3833 38.3695 -2.4050
-51.1759 39.3273 -2.5770
-28.6285 18.8964 -1.3679
-28.9710 17.6630 -1.3522
-84.7506 47.5843 -3.8710
-33.7447 17.3837 -1.5108
-33.9040 15.9528 -1.4903
-89.2476 38.1430 -3.8575
-41.8124 16.1206 -1.7798
-42.7546 14.7440 -1.7949
-43.0650 13.1414 -1.7857
-39.2937 10.4645 -1.6115
-35.4928 8.0998 -1.4417
-35.9199 6.8509 -1.4470
-49.0371 7.5396 -1.9618
-49.4220 5.7916 -1.9661
-49.3095 3.9905 -1.9532
-67.0404 3.0085 -2.6476
-30.6834 0.2744 -1.2097
-47.9890 -1.2941 -1.8911
-51.6771 -3.2529 -2.0382
-37.2987 -3.6959 -1.4742
-52.1151 -7.0612 -2.0670
-46.6752 -8.0398 -1.8601
-32.6031 -6.8291 -1.3072
-92.6310 -30.1009 -3.8139
-88.9876 -32.4925 -3.7068
-78.4544 -31.8825 -3.3113
-78.4969 -35.2336 -3.3620
-78.4543 -38.6557 -3.4151
-87.8939 -47.3010 -3.8948
-49.9260 -29.2264 -2.2559
-48.4318 -30.7376 -2.2354
-42.5903 -29.2263 -2.0116
-42.5424 -31.4979 -2.0602
-37.1318 -29.6131 -1.8474
-34.5136 -29.6131 -1.7679
-29.8761 -27.5564 -1.5791
-28.3444 -28.0924 -1.5496
-28.5026 -30.3535 -1.6160
-28.5026 -32.6252 -1.6805
-28.5026 -35.0917 -1.7528
-7.2958 -9.6722 -0.4695
-20.3890 -29.1505 -1.3780
-18.8679 -29.1505 -1.3445
-17.4989 -29.2892 -1.3205
-16.1096 -29.3043 -1.2938
-14.7654 -29.3042 -1.2691
-13.4660 -29.2975 -1.2467
-13.6345 -32.7099 -1.3698
-12.9850 -34.5994 -1.4281
-12.3705 -36.9423 -1.5051
-10.9112 -36.9382 -1.4877
-9.9014 -38.5644 -1.5375
-9.9138 -45.3075 -1.7907
-11.9177 -65.6736 -2.5768
6.3718 -88.5832 -1.4263
6.1681 -57.0445 -0.9216
6.0467 -41.8140 -0.6788
6.6220 -36.4907 -0.5961
6.2933 -28.7607 -0.4734
1.9130 -7.4509 -0.1237
6.8832 -23.3018 -0.3911
7.6315 -22.7897 -0.3871
8.0215 -21.3735 -0.3679
6.6051 -15.8458 -0.2769
7.0666 -15.3743 -0.2731
6.5985 -13.0954 -0.2369
6.7125 -12.2101 -0.2253
7.0921 -11.8704 -0.2238
7.4522 -11.5132 -0.2222
7.9749 -11.4016 -0.2256
7.9384 -10.5238 -0.2140
8.0312 -9.8876 -0.2070
7.9748 -9.1281 -0.1972
8.0312 -8.5525 -0.1912
8.0312 -7.9596 -0.1845
7.9748 -7.3554 -0.1772
6.5177 -5.5921 -0.1405
6.6249 -5.2833 -0.1388
6.6249 -4.9048 -0.1352
6.6268 -4.5473 -0.1321
6.7583 -4.2891 -0.1317
7.0436 -4.1231 -0.1345
7.3066 -3.9320 -0.1370
7.4628 -3.6769 -0.1376
8.0847 -3.6287 -0.1468
6.8684 -2.7911 -0.1230
6.2263 -2.2733 -0.1102
6.0736 -1.9735 -0.1063
6.0750 -1.7355 -0.1054
6.0750 -1.5019 -0.1046
6.0750 -1.2724 -0.1039
5.9535 -1.0254 -0.1013
6.0798 -0.8237 -0.1030
6.1872 -0.6130 -0.1046
6.4894 -0.4084 -0.1096
6.7993 -0.1832 -0.1148
7.2895 0.0653 -0.1233
7.4249 0.3333 -0.1259
7.4249 0.6010 -0.1265
7.4249 0.8702 -0.1271
7.3827 1.1353 -0.1272
7.4812 1.4270 -0.1300
7.4812 1.7074 -0.1312
7.4812 1.9925 -0.1326
7.3876 2.2545 -0.1325
7.4248 2.5606 -0.1349
7.3835 2.8468 -0.1362
7.4812 3.1975 -0.1402
7.4812 3.5203 -0.1427
7.4812 3.8541 -0.1455
7.4248 4.1689 -0.1474
7.4248 4.5269 -0.1508
7.4248 4.9010 -0.1545
7.0132 4.9997 -0.1498
6.7854 5.2145 -0.1490
6.5288 5.4009 -0.1477
6.1948 5.5109 -0.1448
6.0908 5.8233 -0.1473
6.0749 6.2406 -0.1524
6.0749 6.7063 -0.1585
15.9961 18.9860 -0.4355
17.0632 21.7948 -0.4860
15.6546 21.5464 -0.4681
14.3470 21.3158 -0.4521
1.8867 3.0327 -0.0629
11.9829 20.8989 -0.4246
10.9055 20.7089 -0.4128
10.3981 21.5915 -0.4230
10.1285 23.1201 -0.4458
9.8282 24.8230 -0.4719
9.4907 26.7370 -0.5017
9.1075 28.9101 -0.5363
8.5182 30.8647 -0.5668
7.6814 32.3141 -0.5882
6.7784 33.8781 -0.6120
5.7984 35.5754 -0.6387
4.7284 37.4286 -0.6686
3.5107 39.0065 -0.6942
2.1453 39.7948 -0.7065
0.7292 40.6123 -0.7201
-0.7441 41.4454 -0.7348
-2.2808 42.3087 -0.7510
-3.8864 43.1804 -0.7684
-4.9416 39.1158 -0.6986
-6.1492 37.7273 -0.6771
-7.5783 37.8759 -0.6840
-9.0658 38.1380 -0.6939
-10.6148 38.4612 -0.7059
-12.2226 38.7981 -0.7193
-13.8755 39.0895 -0.7331
-15.5527 39.2811 -0.7462
-17.0472 38.9132 -0.7499
-18.1640 37.7174 -0.7384
-20.0363 38.0475 -0.7578
-22.0157 38.3965 -0.7794
-24.0056 38.5873 -0.7995
-26.3591 39.1623 -0.8297
-28.7702 39.5981 -0.8594
-29.4248 37.5840 -0.8372
-32.0405 38.0293 -0.8712
-34.7977 38.4141 -0.9071
-38.0513 39.0891 -0.9535
-41.0728 39.2687 -0.9920
-42.4191 37.7363 -0.9899
-46.1791 38.2018 -1.0435
-51.0944 39.2659 -1.1205
-14.6286 10.4287 -0.3119
-26.1838 17.2834 -0.5440
-84.0997 51.2757 -1.7053
-84.7503 47.5860 -1.6802
-85.3847 43.9880 -1.6578
-86.0051 40.4695 -1.6380
-89.1302 38.0946 -1.6677
-76.2368 20.3044 -1.3484
-74.5902 17.0237 -1.3054
-88.7777 16.9339 -1.5394
-92.4998 10.8415 -1.5808
-81.2640 6.5780 -1.3814
-78.7820 3.5370 -1.3338
-47.4218 0.4250 -0.8007
-80.9939 -5.0968 -1.3653
-14.0449 -3.4723 -0.2413
-92.5093 -30.0595 -1.6165
-88.9925 -32.4925 -1.5717
-78.4218 -31.8677 -1.4019
-78.3827 -35.1807 -1.4206
-78.3583 -38.6068 -1.4420
-78.1178 -42.0382 -1.4621
-49.9273 -29.2261 -0.9520
-46.0517 -29.2260 -0.8962
-42.5913 -29.2260 -0.8474
-42.5424 -31.4969 -0.8671
-37.1415 -29.6200 -0.7771
-34.5146 -29.6131 -0.7429
-32.1068 -29.6131 -0.7126
-29.8795 -29.6130 -0.6854
-26.9933 -28.7455 -0.6417
-28.5026 -32.6244 -0.7041
-28.5917 -35.2006 -0.7362
-7.2945 -9.6703 -0.1964
-21.1958 -30.3034 -0.5990
-20.4108 -31.5335 -0.6078
-19.5430 -32.7099 -0.6160
-17.9822 -32.7099 -0.6029
-16.4818 -32.7099 -0.5911
-15.0191 -32.6759 -0.5799
-13.6347 -32.7099 -0.5711
-12.9850 -34.5988 -0.5951
-12.3708 -36.9423 -0.6270
-10.9113 -36.9378 -0.6196
-9.9014 -38.5637 -0.6402
-9.9141 -45.3080 -0.7454
-11.9202 -65.6862 -1.0726
2.0810 -28.9306 0.1874
6.1683 -57.0443 0.3706
5.9785 -41.3419 0.2696
6.5871 -36.2978 0.2379
6.2934 -28.7606 0.1897
1.9126 -7.4491 0.0495
6.8522 -23.1963 0.1554
7.6317 -22.7897 0.1542
8.0239 -21.3796 0.1463
6.6052 -15.8456 0.1098
7.0667 -15.3742 0.1080
6.6250 -13.1478 0.0938
6.7125 -12.2100 0.0885
7.1123 -11.9040 0.0879
7.4523 -11.5131 0.0867
7.9749 -11.4013 0.0877
7.9383 -10.5235 0.0829
7.2368 -8.9094 0.0720
7.9748 -9.1279 0.0757
6.9573 -7.4087 0.0633
7.9177 -7.8469 0.0692
7.9748 -7.3552 0.0671
6.5177 -5.5919 0.0529
6.6249 -5.2831 0.0520
6.6249 -4.9047 0.0504
6.6268 -4.5472 0.0489
6.7584 -4.2890 0.0485
7.0437 -4.1230 0.0493
7.3068 -3.9319 0.0499
7.4630 -3.6768 0.0498
8.0851 -3.6287 0.0528
6.8685 -2.7910 0.0440
6.2262 -2.2732 0.0391
6.0735 -1.9734 0.0375
6.0750 -1.7354 0.0369
6.0750 -1.5018 0.0364
6.0750 -1.2723 0.0359
5.9535 -1.0253 0.0348
6.0799 -0.8236 0.0351
6.1872 -0.6129 0.0354
6.4895 -0.4083 0.0368
6.7994 -0.1831 0.0383
7.2905 0.0655 0.0409
7.4249 0.3335 0.0414
7.4249 0.6011 0.0413
7.4014 0.8676 0.0411
7.3827 1.1354 0.0410
7.3677 1.4055 0.0409
7.4812 1.7076 0.0417
7.4812 1.9926 0.0418
7.3876 2.2546 0.0415
6.9066 2.3820 0.0390
6.7349 2.5969 0.0384
7.4812 3.1977 0.0430
7.4812 3.5204 0.0435
7.4812 3.8543 0.0440
7.4248 4.1691 0.0443
6.7428 4.1113 0.0409
7.4248 4.9011 0.0459
7.0130 4.9997 0.0442
6.7852 5.2146 0.0437
6.5287 5.4010 0.0431
6.1947 5.5110 0.0420
6.0907 5.8234 0.0425
6.0749 6.2408 0.0437
6.0749 6.7065 0.0452
15.9958 18.9861 0.1237
17.0628 21.7947 0.1374
15.6542 21.5463 0.1317
14.3467 21.3157 0.1266
1.8864 3.0324 0.0175
11.9827 20.8988 0.1180
10.9053 20.7089 0.1143
10.1803 21.1397 0.1143
9.9164 22.6362 0.1201
9.6224 24.3034 0.1267
9.4907 26.7373 0.1373
9.1075 28.9104 0.1464
8.5181 30.8649 0.1544
7.6813 32.3143 0.1599
6.7783 33.8782 0.1661
5.7984 35.5755 0.1731
4.7283 37.4288 0.1811
3.5106 39.0065 0.1879
2.1453 39.7948 0.1911
0.7292 40.6123 0.1948
-0.7444 41.4631 0.1989
-2.2831 42.3514 0.2034
-3.8955 43.2823 0.2086
-4.9415 39.1161 0.1894
-6.1491 37.7272 0.1838
-7.5783 37.8764 0.1860
-9.0941 38.2579 0.1896
-10.6146 38.4611 0.1927
-12.2223 38.7980 0.1968
-13.8752 39.0895 0.2011
-15.5530 39.2825 0.2053
-17.0471 38.9138 0.2070
-10.4375 21.6738 0.1175
-20.0358 38.0474 0.2106
-22.0152 38.3964 0.2175
-24.0460 38.6532 0.2244
-26.3583 39.1622 0.2335
-12.9757 17.8596 0.1096
-13.5911 17.3602 0.1098
-32.0396 38.0292 0.2487
-17.2944 19.0923 0.1294
-17.3607 17.8347 0.1255
-15.2127 14.5449 0.1066
-15.5804 13.8608 0.1061
-13.7513 11.3761 0.0912
-13.5518 10.4148 0.0877
-13.7890 9.8305 0.0874
-14.3980 9.5041 0.0894
-18.9622 11.5617 0.1157
-19.6131 11.0129 0.1178
-83.3553 42.9443 0.4934
-86.0048 40.4712 0.5027
-88.7467 37.9325 0.5131
-57.1903 22.0518 0.3276
-63.2085 21.8000 0.3593
-82.5284 21.9816 0.4638
-74.4217 16.9867 0.4168
-88.7572 16.9318 0.4960
-81.3851 6.5893 0.4555
-26.0580 1.1704 0.1463
-25.4518 0.2286 0.1435
-25.8312 -0.6956 0.1465
-30.0803 -1.8923 0.1718
-22.0886 -2.1880 0.1272
-21.7552 -2.9468 0.1264
-14.0175 -2.4140 0.0823
-13.4278 -2.8121 0.0798
-13.2057 -3.2645 0.0795
-13.3074 -3.8014 0.0813
-19.0775 -6.1986 0.1184
-18.7729 -6.8539 0.1185
-19.2907 -7.8386 0.1241
-78.4543 -35.2113 0.5148
-14.2490 -7.0201 0.0955
-13.8428 -7.4491 0.0949
-13.7052 -8.0223 0.0963
-46.0533 -29.2260 0.3322
-42.5926 -29.2260 0.3159
-42.6126 -31.5479 0.3255
-34.9276 -27.8536 0.2753
-34.5156 -29.6131 0.2813
-32.1077 -29.6131 0.2712
-29.8803 -29.6130 0.2621
-10.4461 -11.1239 0.0954
-28.5026 -32.6236 0.2716
-28.5026 -35.0901 0.2843
-7.2932 -9.6683 0.0764
-7.0778 -10.1188 0.0781
-20.4108 -31.5328 0.2381
-19.5390 -32.7026 0.2421
-17.9825 -32.7099 0.2378
-16.4821 -32.7099 0.2338
-15.0633 -32.7713 0.2307
-13.6350 -32.7099 0.2271
-12.9850 -34.5981 0.2372
-12.3286 -36.8157 0.2495
-10.8754 -36.8157 0.2471
-9.7876 -38.1201 0.2536
-9.8539 -45.0319 0.2973
-11.8866 -65.4999 0.4297
-7.2360 -50.0377 0.3266
0.0001 -77.1441 2.2367
2.6417 -73.5438 2.1336
5.1497 -71.5892 2.0808
6.1684 -57.0441 1.6632
6.0469 -41.8139 1.2245
5.8258 -32.1016 0.9454
6.3072 -28.8230 0.8548
1.9922 -7.7589 0.2320
6.8523 -23.1962 0.7003
6.7305 -20.0982 0.6135
6.9591 -18.5419 0.5730
6.6053 -15.8455 0.4965
7.0669 -15.3741 0.4892
6.6250 -13.1475 0.4254
6.7126 -12.2098 0.4024
7.0252 -11.7579 0.3954
6.8864 -10.6386 0.3656
7.3792 -10.5494 0.3712
7.9382 -10.5232 0.3798
7.1672 -8.8235 0.3273
7.7103 -8.8249 0.3372
6.9573 -7.4085 0.2923
7.3706 -7.3045 0.2982
7.9185 -7.3031 0.3093
6.4609 -5.5430 0.2442
6.4461 -5.1404 0.2363
6.4933 -4.8071 0.2314
6.6269 -4.5471 0.2300
6.7585 -4.2889 0.2289
6.9086 -4.0438 0.2287
7.1394 -3.8417 0.2314
7.4632 -3.6768 0.2372
7.8952 -3.5433 0.2465
6.5273 -2.6522 0.2005
6.2262 -2.2730 0.1884
6.0734 -1.9732 0.1814
5.9396 -1.6966 0.1753
5.9020 -1.4589 0.1723
5.9196 -1.2396 0.1712
5.9535 -1.0252 0.1709
6.0799 -0.8234 0.1734
6.1873 -0.6128 0.1755
6.2890 -0.3955 0.1777
6.5094 -0.1752 0.1834
7.2914 0.0656 0.2051
7.4249 0.3336 0.2089
7.4249 0.6013 0.2091
6.4898 0.7609 0.1833
6.4909 0.9984 0.1840
7.4812 1.4273 0.2131
7.4812 1.7077 0.2145
7.4812 1.9928 0.2162
7.3876 2.2548 0.2155
6.5451 2.2575 0.1930
6.4899 2.5025 0.1937
7.4812 3.1978 0.2263
7.4812 3.5206 0.2298
7.4812 3.8544 0.2336
7.0954 3.9843 0.2257
6.5320 3.9828 0.2120
7.3292 4.8381 0.2431
7.0128 4.9997 0.2382
6.6527 5.1129 0.2319
6.4060 5.2997 0.2296
6.1946 5.5111 0.2288
6.0907 5.8235 0.2323
5.9439 6.1064 0.2348
5.8493 6.4575 0.2398
6.0651 7.1992 0.2589
17.0623 21.7946 0.7609
15.6538 21.5462 0.7316
14.3463 21.3156 0.7054
1.8862 3.0320 0.0980
11.9824 20.8988 0.6607
10.9051 20.7088 0.6415
10.3980 21.5922 0.6566
10.1284 23.1207 0.6913
9.8281 24.8236 0.7309
9.4906 26.7377 0.7764
9.0906 28.8575 0.8277
8.5180 30.8651 0.8757
7.6812 32.3144 0.9081
6.7782 33.8784 0.9444
5.7983 35.5756 0.9851
4.7229 37.3865 1.0298
3.5106 39.0065 1.0701
2.1452 39.7948 1.0889
0.7292 40.6123 1.1098
-0.7444 41.4631 1.1331
-2.2810 42.3137 1.1579
-3.8954 43.2822 1.1875
-4.9414 39.1165 1.0776
-6.1490 37.7272 1.0449
-7.5994 37.9830 1.0591
-9.0911 38.2460 1.0751
-10.6143 38.4611 1.0915
-12.2239 38.8038 1.1133
-13.8748 39.0894 1.1355
-15.5964 39.3930 1.1603
-17.0471 38.9144 1.1640
-10.3047 21.3985 0.6510
-20.0353 38.0474 1.1793
-22.0204 38.4064 1.2148
-24.0898 38.7245 1.2522
-14.7635 21.9356 0.7265
-28.7686 39.5977 1.3455
-17.0031 21.7189 0.7588
-32.0386 38.0290 1.3689
-31.0944 34.3278 1.2760
-21.1416 21.7194 0.8357
-22.7648 21.7661 0.8690
-42.4160 37.7357 1.5677
-46.3142 38.3158 1.6613
-51.2600 39.3956 1.7883
-25.6119 18.2599 0.8708
-26.9992 17.8228 0.8965
-67.1581 40.9494 2.1817
-38.7638 21.7670 1.2343
-68.2514 35.1643 2.1336
-46.8028 22.0249 1.4389
-50.8096 21.7183 1.5386
-56.3223 21.7182 1.6825
-62.9674 21.7181 1.8584
-71.3058 21.7633 2.0822
-67.4935 17.9783 1.9528
-67.3680 15.3780 1.9339
-73.5045 14.0235 2.0965
-73.4018 11.2900 2.0829
-72.8184 8.5375 2.0585
-70.0044 5.6692 1.9740
-27.8899 1.2532 0.7855
-47.3663 0.4263 1.3342
-78.5876 -2.1149 2.2167
-66.7857 -4.2002 1.8888
-64.5234 -6.3900 1.8321
-64.0360 -8.6727 1.8278
-74.2581 -12.7867 2.1336
-53.4915 -11.2015 1.5491
-76.5257 -18.9162 2.2367
-39.2148 -11.2014 1.1584
-34.7633 -11.2944 1.0392
-30.7755 -11.2354 0.9324
-72.3355 -29.3916 2.2243
-24.9587 -11.2013 0.7801
-22.7843 -11.2248 0.7249
-14.7080 -7.9143 0.4772
-19.1366 -11.2012 0.6340
-46.0548 -29.2260 1.5610
-42.5941 -29.2260 1.4796
-15.1303 -11.2012 0.5397
-34.8534 -27.7935 1.2790
-10.3113 -8.8465 0.3901
-30.1356 -27.7935 1.1781
-28.1066 -27.8545 1.1379
-10.3114 -10.9802 0.4335
-27.3195 -31.2687 1.1957
-22.6147 -27.8408 1.0336
-7.2919 -9.6664 0.3491
-7.0776 -10.1183 0.3563
-20.4108 -31.5322 1.0843
-19.5039 -32.6432 1.0983
-17.9829 -32.7099 1.0787
-16.4824 -32.7099 1.0590
-15.0636 -32.7713 1.0432
-13.6353 -32.7099 1.0254
-12.9850 -34.5974 1.0697
-12.3288 -36.8157 1.1242
-10.8756 -36.8157 1.1119
-9.7889 -38.1242 1.1403
-9.8533 -45.0287 1.3357
-11.9205 -65.6858 1.9349
-10.5339 -72.8410 2.1334
-7.9114 -73.1640 2.1334
-5.5350 -76.9475 2.2367
-2.7692 -77.0941 2.2367
0.0000 -43.3873 2.2367
1.4893 -41.4601 2.1387
2.9697 -41.2836 2.1336
4.4501 -41.1530 2.1336
5.0788 -35.1189 1.8289
5.7854 -31.8788 1.6697
6.2936 -28.7604 1.5171
1.9922 -7.7589 0.4127
5.9628 -20.1845 1.0842
6.2098 -18.5428 1.0071
6.9736 -18.5802 1.0219
6.6054 -15.8453 0.8838
7.0197 -15.2712 0.8650
6.4635 -12.8266 0.7391
6.7127 -12.2097 0.7167
7.0253 -11.7578 0.7044
6.8283 -10.5486 0.6460
7.3792 -10.5492 0.6616
6.6525 -8.8185 0.5675
7.1673 -8.8234 0.5838
7.7103 -8.8246 0.6016
6.8245 -7.2669 0.5115
7.3709 -7.3046 0.5323
7.9189 -7.3032 0.5523
6.5176 -5.5915 0.4401
6.6249 -5.2828 0.4340
6.6249 -4.9044 0.4220
6.6270 -4.5469 0.4113
6.7585 -4.2887 0.4094
6.9087 -4.0437 0.4092
7.3070 -3.9317 0.4240
7.4633 -3.6767 0.4249
8.0860 -3.6287 0.4524
6.5270 -2.6519 0.3594
6.2261 -2.2729 0.3379
6.0733 -1.9731 0.3254
5.9396 -1.6965 0.3146
5.9019 -1.4588 0.3094
5.9196 -1.2395 0.3077
5.9535 -1.0250 0.3071
6.0800 -0.8233 0.3117
6.1873 -0.6126 0.3157
6.2892 -0.3954 0.3198
6.5095 -0.1751 0.3303
7.2923 0.0658 0.3697
7.4243 0.3337 0.3765
7.4236 0.6013 0.3771
6.4895 0.7610 0.3306
6.4907 0.9985 0.3321
7.4812 1.4274 0.3849
7.4812 1.7079 0.3876
7.4812 1.9929 0.3908
7.3876 2.2549 0.3897
6.5445 2.2574 0.3491
6.4896 2.5026 0.3505
7.4812 3.1980 0.4098
7.4812 3.5207 0.4163
7.4812 3.8546 0.4235
7.1638 4.0229 0.4132
6.5316 3.9828 0.3845
6.2278 4.1113 0.3749
7.0126 4.9998 0.4325
6.7850 5.2147 0.4295
6.5284 5.4012 0.4251
6.1946 5.5112 0.4158
6.0906 5.8236 0.4224
6.0749 6.2411 0.4364
6.0749 6.7068 0.4532
15.9951 18.9862 1.2429
17.0618 21.7945 1.3852
15.6534 21.5461 1.3323
14.3459 21.3156 1.2850
1.8859 3.0317 0.1785
11.9821 20.8987 1.2040
10.9048 20.7088 1.1694
10.3979 21.5925 1.1972
10.1284 23.1211 1.2606
9.8281 24.8239 1.3331
9.4905 26.7380 1.4163
9.0905 28.8578 1.5101
8.5179 30.8652 1.5978
7.6811 32.3146 1.6573
6.7781 33.8785 1.7237
5.6660 34.7644 1.7571
4.7229 37.3867 1.8797
3.4590 38.4343 1.9248
2.1452 39.7948 1.9877
0.7174 39.9550 1.9931
-0.7444 41.4630 2.0684
-2.2809 42.3137 2.1136
-3.8485 42.7625 2.1417
-4.8481 38.3782 1.9297
-6.1488 37.7272 1.9071
-7.6174 38.0735 1.9374
-9.1159 38.3509 1.9672
-10.4478 37.8584 1.9602
-12.0127 38.1344 1.9959
-13.8745 39.0894 2.0711
-15.6388 39.5010 2.1217
-16.7064 38.1376 2.0799
-10.3043 21.3981 1.1867
-20.0348 38.0473 2.1492
-21.2263 37.0222 2.1336
-22.5343 36.2249 2.1336
-12.2693 18.2302 1.0994
-25.0578 34.4910 2.1336
-17.0025 21.7187 1.3809
-14.0413 16.6671 1.0915
-19.7014 21.7506 1.4704
-17.0399 17.5060 1.2246
-18.6410 17.8237 1.2933
-17.5426 15.6073 1.1780
-26.2514 21.7185 1.7101
-21.3367 16.3987 1.3514
-16.1031 11.4810 0.9936
-26.1829 17.2845 1.5770
-18.5684 11.3224 1.0938
-27.3482 15.3574 1.5783
-20.8508 10.7432 1.1809
-39.8174 18.7385 2.2167
-40.4421 17.2876 2.2167
-41.0139 15.8161 2.2167
-39.5568 13.6444 2.1113
-38.9356 11.8843 2.0552
-39.4853 10.5185 2.0641
-41.8359 9.5506 2.1689
-35.8105 6.8328 1.8437
-35.7956 5.5064 1.8327
-37.5551 4.4038 1.9145
-42.6527 3.4550 2.1680
-27.8097 1.2501 1.4112
-37.5275 0.3385 1.9036
-25.4677 -0.6849 1.2930
-32.0769 -2.0167 1.6322
-29.7122 -2.9420 1.5171
-43.2049 -5.8507 2.2167
-21.4783 -3.6980 1.1087
-42.6243 -8.9250 2.2167
-29.4286 -7.2738 1.5439
-21.2040 -6.0564 1.1238
-34.4789 -11.2014 1.8485
-30.6840 -11.2013 1.6664
-27.5689 -11.2013 1.5190
-24.9599 -11.2013 1.3972
-22.7846 -11.2244 1.2979
-14.7081 -7.9141 0.8539
-19.1373 -11.2012 1.1342
-36.9026 -23.4173 2.2367
-34.4404 -23.6306 2.1386
-15.1308 -11.2012 0.9644
-32.5477 -25.9541 2.1334
-10.3473 -8.8771 0.6990
-30.1364 -27.7935 2.1028
-28.0487 -27.7964 2.0264
-10.3473 -11.0181 0.7759
-27.3202 -31.2687 2.1318
-22.6147 -27.8401 1.8427
-7.2907 -9.6645 0.6222
-7.0775 -10.1180 0.6348
-19.8201 -30.6189 1.8757
-18.8701 -31.5818 1.8925
-17.6381 -32.0821 1.8838
-16.1664 -32.0821 1.8490
-14.7471 -32.0821 1.8178
-10.4915 -25.1678 1.4041
-12.9850 -34.5968 1.9032
-13.4180 -40.0674 2.1767
-8.4066 -28.4573 1.5288
-7.3786 -28.7365 1.5288
-8.8495 -40.4405 2.1334
-7.3913 -40.7278 2.1334
-6.2107 -42.9459 2.2367
-4.6647 -43.1385 2.2367
-3.1130 -43.2764 2.2367
-1.5575 -43.3593 2.2367
0.0000 -30.1595 2.2367
1.0827 -30.1405 2.2367
2.0643 -28.6966 2.1336
3.0933 -28.6053 2.1336
4.1185 -28.4774 2.1336
5.1385 -28.3133 2.1336
6.1724 -28.2057 2.1406
1.9922 -7.7589 0.5938
5.4782 -18.5439 1.4333
6.2228 -18.5813 1.4523
6.9738 -18.5802 1.4706
6.6054 -15.8452 1.2719
7.0671 -15.3740 1.2534
6.4635 -12.8264 1.0638
6.7127 -12.2095 1.0318
6.2841 -10.5170 0.9070
6.8285 -10.5487 0.9301
6.2323 -8.9094 0.8046
6.6561 -8.8230 0.8177
7.1677 -8.8237 0.8408
6.4779 -7.4139 0.7280
6.8607 -7.3053 0.7408
7.3712 -7.3047 0.7669
7.9192 -7.3033 0.7959
6.5176 -5.5913 0.6342
6.6249 -5.2827 0.6256
6.6249 -4.9042 0.6084
6.6270 -4.5468 0.5930
6.7586 -4.2886 0.5904
7.0440 -4.1228 0.6018
7.3071 -3.9316 0.6116
7.4635 -3.6766 0.6130
8.0863 -3.6287 0.6528
6.8686 -2.7906 0.5458
6.2260 -2.2727 0.4878
6.0733 -1.9729 0.4698
6.0750 -1.7350 0.4646
6.0750 -1.5014 0.4600
6.0750 -1.2719 0.4561
5.9536 -1.0249 0.4437
6.0801 -0.8232 0.4505
6.1874 -0.6125 0.4563
6.4900 -0.4079 0.4770
6.7999 -0.1827 0.4988
7.2933 0.0659 0.5346
7.4243 0.3339 0.5445
7.4236 0.6015 0.5455
6.4893 0.7611 0.4783
6.4904 0.9985 0.4806
7.4812 1.4276 0.5571
7.4812 1.7080 0.5611
7.4812 1.9931 0.5659
7.3876 2.2551 0.5643
6.5441 2.2574 0.5056
6.4894 2.5026 0.5078
6.0748 2.5969 0.4821
7.4812 3.5209 0.6032
7.4812 3.8548 0.6137
7.1632 4.0227 0.5989
6.5313 3.9828 0.5575
6.1369 4.0514 0.5357
7.0125 4.9998 0.6272
6.7849 5.2148 0.6230
6.5283 5.4012 0.6166
6.1945 5.5113 0.6032
6.0906 5.8237 0.6129
6.0749 6.2413 0.6333
6.0749 6.7070 0.6578
15.9246 18.9030 1.7962
17.0614 21.7944 2.0109
15.6530 21.5461 1.9344
14.3456 21.3155 1.8658
1.8857 3.0314 0.2592
11.9818 20.8987 1.7486
10.9045 20.7087 1.6985
10.2637 21.3142 1.7165
10.1283 23.1214 1.8313
9.3887 23.7146 1.8501
9.4905 26.7384 2.0577
8.8735 28.1693 2.1417
7.8575 28.4728 2.1417
6.8311 28.7392 2.1417
5.7956 28.9683 2.1417
4.7524 29.1596 2.1417
3.7029 29.3128 2.1417
2.6384 29.3168 2.1336
1.5845 29.3932 2.1336
0.5284 29.4313 2.1336
-0.5287 29.4502 2.1350
-1.5958 29.6049 2.1490
-2.7648 30.7221 2.2360
-3.8677 30.6178 2.2372
-4.9651 30.4652 2.2377
-6.0565 30.2725 2.2383
-7.1402 30.0400 2.2389
-8.2146 29.7669 2.2393
-9.2783 29.4545 2.2397
-10.3257 29.0917 2.2392
-11.3545 28.6803 2.2378
-12.3701 28.2391 2.2370
-10.2837 21.3559 1.7202
-8.8779 16.8599 1.3831
-12.4505 21.7163 1.8174
-13.5101 21.7185 1.8574
-12.3444 18.3421 1.6059
-14.0206 19.2992 1.7331
-13.8526 17.6956 1.6331
-14.1053 16.7435 1.5914
-19.6717 21.7184 2.1306
-15.6712 16.1004 1.6341
-15.8692 15.1738 1.5974
-15.2864 13.6005 1.4891
-23.4607 19.4103 2.2167
-13.8409 10.6380 1.2713
-14.0972 10.0512 1.2613
-25.3857 16.7588 2.2167
-18.5917 11.3370 1.5874
-24.3025 13.6476 2.0326
-23.8253 12.2762 1.9553
-23.8612 11.2298 1.9246
-24.1096 10.3065 1.9142
-27.7630 10.7067 2.1732
-28.1439 9.7083 2.1752
-28.0861 8.5733 2.1464
-27.0712 7.2121 2.0485
-25.6487 5.8558 1.9245
-25.2603 4.8202 1.8819
-25.5043 3.9238 1.8891
-26.2234 3.0755 1.9338
-26.4197 2.1406 1.9421
-27.5213 1.2377 2.0194
-28.7180 0.2596 2.1060
-28.0212 -0.7530 2.0564
-29.5166 -1.8552 2.1705
-29.4114 -2.9116 2.1700
-29.2104 -3.9550 2.1651
-13.2215 -2.2761 0.9858
-29.0400 -6.0801 2.1810
-28.7832 -7.1137 2.1804
-19.3277 -5.5201 1.4788
-19.0061 -6.1743 1.4707
-20.3126 -7.4148 1.5920
-18.5491 -7.5362 1.4746
-16.1381 -7.2420 1.3033
-13.6535 -6.7259 1.1219
-14.7083 -7.9138 1.2315
-15.6992 -9.1885 1.3417
-17.6523 -11.2012 1.5426
-16.3787 -11.2375 1.4661
-15.1312 -11.2012 1.3900
-23.6775 -18.8803 2.2367
-10.3473 -8.8768 1.0072
-22.2483 -20.5180 2.2367
-11.3927 -11.2899 1.1857
-10.3473 -11.0178 1.1177
-19.8968 -22.7719 2.2367
-19.0617 -23.4655 2.2367
-7.2894 -9.6626 0.8957
-7.0778 -10.1182 0.9140
-15.6602 -24.1919 2.1336
-14.7784 -24.7331 2.1336
-13.8781 -25.2425 2.1335
-12.9605 -25.7195 2.1335
-12.0267 -26.1635 2.1335
-10.4652 -25.1043 2.0155
-10.1152 -26.9501 2.1334
-9.1403 -27.2931 2.1335
-8.1539 -27.6014 2.1336
-7.1670 -27.9119 2.1365
-6.4487 -29.4687 2.2367
-5.3863 -29.6790 2.2367
-4.3171 -29.8515 2.2367
-3.2426 -29.9860 2.2367
-2.1639 -30.0822 2.2367
-1.0826 -30.1400 2.2367
0.0000 -23.0948 2.2367
0.8291 -23.0802 2.2367
1.5808 -21.9743 2.1336
2.3687 -21.9042 2.1336
3.1537 -21.8060 2.1336
3.9347 -21.6800 2.1336
4.7108 -21.5262 2.1336
1.9923 -7.7588 0.7756
5.4898 -18.5827 1.8758
6.0988 -18.2106 1.8590
6.9739 -18.5802 1.9209
6.6055 -15.8450 1.6613
7.0672 -15.3739 1.6373
6.6250 -13.1467 1.4243
5.8492 -10.6386 1.1744
6.3027 -10.5480 1.1885
6.8287 -10.5487 1.2152
6.1445 -8.7837 1.0364
6.6563 -8.8231 1.0684
7.1679 -8.8237 1.0987
6.3501 -7.2675 0.9326
6.8609 -7.3053 0.9682
7.3715 -7.3048 1.0024
7.9196 -7.3034 1.0403
6.6150 -5.6747 0.8414
6.5061 -5.1877 0.8031
6.5403 -4.8414 0.7852
6.6271 -4.5467 0.7753
6.7586 -4.2885 0.7720
6.9088 -4.0435 0.7718
7.1954 -3.8713 0.7876
7.5216 -3.7051 0.8080
8.0867 -3.6287 0.8539
6.5266 -2.6515 0.6784
6.2259 -2.2725 0.6381
6.0732 -1.9728 0.6146
6.0750 -1.7349 0.6079
6.0750 -1.5013 0.6019
6.0750 -1.2718 0.5968
5.9536 -1.0248 0.5807
6.0801 -0.8231 0.5896
6.1875 -0.6124 0.5973
6.4901 -0.4078 0.6246
6.8001 -0.1826 0.6531
7.2942 0.0661 0.7001
7.4243 0.3340 0.7131
7.4236 0.6016 0.7144
6.6302 0.7777 0.6401
6.0784 0.9353 0.5895
7.4812 1.4277 0.7299
7.4812 1.7082 0.7352
7.4812 1.9932 0.7415
7.3877 2.2552 0.7395
6.6560 2.2961 0.6739
6.0454 2.3315 0.6200
6.0364 2.5806 0.6280
7.4812 3.5210 0.7907
7.4812 3.8549 0.8046
7.1626 4.0224 0.7852
6.5949 4.0216 0.7381
6.0322 3.9824 0.6905
5.8041 4.1384 0.6808
6.6978 5.1480 0.8066
6.4459 5.3331 0.7986
6.2332 5.5458 0.7962
6.0905 5.8238 0.8040
5.9890 6.1531 0.8191
5.9724 6.5939 0.8485
14.4713 17.1782 2.1417
13.8481 17.6900 2.1417
13.2067 18.1791 2.1417
12.5479 18.6447 2.1417
1.8855 3.0311 0.3401
11.1816 19.5032 2.1417
10.4759 19.8949 2.1417
9.7564 20.2609 2.1417
9.0240 20.6008 2.1417
8.2797 20.9138 2.1417
7.5245 21.1998 2.1417
6.7593 21.4583 2.1417
5.9853 21.6889 2.1417
5.1837 21.8086 2.1336
4.3978 21.9819 2.1336
3.6061 22.1267 2.1336
2.8097 22.2428 2.1336
2.0096 22.3300 2.1336
1.2652 23.4698 2.2367
0.4220 23.5061 2.2372
-0.4221 23.5126 2.2379
-1.2661 23.4885 2.2385
-2.1089 23.4339 2.2391
-2.9494 23.3487 2.2398
-3.7843 23.2202 2.2392
-4.6138 23.0618 2.2386
-5.4367 22.8736 2.2380
-6.2521 22.6558 2.2374
-7.0587 22.4087 2.2368
-7.4951 21.1173 2.1336
-8.2473 20.8322 2.1336
-8.9886 20.5201 2.1336
-9.7180 20.1815 2.1336
-10.2836 19.5300 2.1027
-11.5711 20.1830 2.2167
-12.2861 19.7513 2.2167
-12.9848 19.2941 2.2167
-13.6664 18.8121 2.2167
-13.6200 17.3988 2.1069
-14.9748 17.7761 2.2167
-15.5995 17.2230 2.2166
-16.2045 16.6487 2.2167
-15.8581 15.1637 2.0939
-17.3490 15.4361 2.2167
-17.8875 14.7997 2.2167
-18.3752 14.1235 2.2134
-13.5474 9.6595 1.5894
-18.9855 12.5340 2.1738
-19.5764 11.9379 2.1916
-20.0021 11.2331 2.1932
-20.3489 10.4854 2.1892
-20.5382 9.6663 2.1714
-20.7129 8.8549 2.1555
-20.9715 8.0880 2.1514
-21.1181 7.2851 2.1389
-19.6907 6.0110 1.9718
-19.6683 5.2402 1.9500
-19.6591 4.4887 1.9325
-19.8127 3.7811 1.9336
-20.1620 3.1023 1.9561
-21.1205 2.4775 2.0398
-21.0572 1.7065 2.0271
-20.8108 0.9363 1.9995
-20.6784 0.1873 1.9855
-20.2441 -0.5436 1.9450
-20.3519 -1.2788 1.9591
-21.5128 -2.1293 2.0776
-22.1885 -3.0038 2.1525
-13.2944 -2.2884 1.2972
-22.1113 -4.6290 2.1731
-21.8309 -5.3950 2.1638
-19.3014 -5.5122 1.9321
-12.8953 -4.1888 1.3054
-20.3175 -7.4162 2.0830
-21.1058 -8.5745 2.1947
-15.8394 -7.1076 1.6730
-13.7026 -6.7498 1.4724
-15.7451 -8.4714 1.7239
-14.2021 -8.3120 1.5871
-17.6529 -11.2012 2.0169
-16.3263 -11.2012 1.9105
-15.1317 -11.2012 1.8171
-14.0477 -11.2012 1.7346
-10.3473 -8.8766 1.3165
-12.1131 -11.1707 1.5915
-11.2727 -11.1707 1.5332
-10.3473 -11.0175 1.4605
-15.2270 -17.4268 2.2367
-14.5887 -17.9587 2.2367
-7.2881 -9.6607 1.1701
-7.0781 -10.1184 1.1941
-12.5666 -19.4126 2.2367
-11.8597 -19.8480 2.2367
-11.1379 -20.2580 2.2367
-10.4020 -20.6418 2.2367
-9.6530 -20.9992 2.2367
-8.8919 -21.3296 2.2367
-8.1196 -21.6327 2.2367
-7.3370 -21.9081 2.2367
-6.5452 -22.1554 2.2367
-5.7452 -22.3744 2.2367
-4.9379 -22.5647 2.2367
-4.1245 -22.7261 2.2367
-3.3058 -22.8585 2.2367
-2.4830 -22.9617 2.2367
-1.6571 -23.0356 2.2367
-0.8291 -23.0800 2.2367
0.0000 -18.6962 2.2367
0.6712 -18.6844 2.2367
1.3416 -18.6486 2.2367
1.9176 -17.7321 2.1336
2.5530 -17.6525 2.1336
3.1853 -17.5502 2.1336
3.8135 -17.4256 2.1336
1.9923 -7.7588 0.9581
5.0547 -17.1093 2.1336
5.6848 -16.9740 2.1406
6.2910 -16.7604 2.1406
6.6056 -15.8449 2.0525
7.0233 -15.2781 2.0102
5.3729 -10.6616 1.4271
5.7778 -10.5085 1.4333
6.3030 -10.5481 1.4685
5.7676 -8.9094 1.2682
6.1717 -8.8223 1.2863
6.6565 -8.8231 1.3202
6.0287 -7.4211 1.1419
6.3839 -7.3060 1.1586
6.8611 -7.3053 1.1966
7.3716 -7.3047 1.2388
7.9200 -7.3036 1.2858
6.5175 -5.5909 1.0246
6.5060 -5.1875 0.9927
6.5403 -4.8413 0.9706
6.6271 -4.5466 0.9584
6.7587 -4.2884 0.9543
6.9552 -4.0704 0.9606
7.1955 -3.8713 0.9737
7.5218 -3.7050 0.9990
8.0871 -3.6287 1.0558
8.9325 -3.6287 1.1482
6.2258 -2.2724 0.7891
6.0731 -1.9726 0.7601
5.9395 -1.6961 0.7351
5.9019 -1.4584 0.7233
5.9196 -1.2392 0.7194
5.9536 -1.0247 0.7184
6.0802 -0.8230 0.7294
6.1875 -0.6123 0.7390
6.2895 -0.3951 0.7488
6.5099 -0.1747 0.7736
7.2951 0.0662 0.8664
7.4243 0.3342 0.8824
7.4237 0.6018 0.8841
6.6288 0.7777 0.7920
5.7889 0.8908 0.6949
7.4812 1.4279 0.9034
7.4812 1.7083 0.9100
7.4812 1.9934 0.9179
7.3877 2.2554 0.9155
6.6562 2.2963 0.8343
5.9047 2.2774 0.7497
5.8938 2.5197 0.7592
7.4812 3.5212 0.9791
7.4812 3.8551 0.9963
7.1621 4.0224 0.9722
6.5947 4.0217 0.9140
6.0906 4.0211 0.8634
5.8031 4.1378 0.8430
6.6977 5.1481 0.9990
6.4458 5.3332 0.9892
6.2331 5.5459 0.9863
6.0905 5.8239 0.9960
5.9438 6.1069 1.0070
5.9088 6.5239 1.0399
11.6749 13.8591 2.1406
11.1717 14.2715 2.1406
10.6539 14.6655 2.1406
10.1221 15.0406 2.1406
1.8852 3.0308 0.4214
9.0193 15.7322 2.1406
8.4541 16.0556 2.1417
7.8732 16.3505 2.1417
7.2820 16.6243 2.1417
6.6813 16.8765 2.1417
6.0718 17.1070 2.1417
5.4336 17.2499 2.1336
4.8113 17.4350 2.1336
4.1826 17.5975 2.1336
3.5485 17.7371 2.1336
2.9097 17.8538 2.1336
2.2671 17.9473 2.1336
1.6215 18.0175 2.1336
1.0208 18.9372 2.2367
0.3404 18.9617 2.2367
-0.3404 18.9617 2.2367
-1.0207 18.9369 2.2367
-1.6997 18.8877 2.2367
-2.3765 18.8138 2.2367
-3.0501 18.7157 2.2367
-3.7197 18.5932 2.2367
-4.3844 18.4466 2.2367
-5.0433 18.2761 2.2367
-5.6956 18.0819 2.2367
-6.3404 17.8642 2.2367
-6.6553 16.8112 2.1336
-7.2537 16.5598 2.1336
-7.8425 16.2869 2.1336
-8.4210 15.9930 2.1336
-8.9885 15.6784 2.1336
-9.5441 15.3436 2.1336
-10.0873 14.9890 2.1336
-11.0307 15.1843 2.2167
-11.5667 14.7763 2.2167
-12.0179 14.2664 2.2039
-12.4304 13.7245 2.1881
-12.7869 13.1378 2.1668
-13.1108 12.5371 2.1444
-13.4217 11.9421 2.1241
-13.8754 11.4805 2.1297
-14.2986 10.9905 2.1332
-14.6161 10.4218 2.1237
-15.0167 9.9143 2.1293
-15.5969 9.5116 2.1622
-16.0238 8.9992 2.1757
-16.4084 8.4553 2.1857
-16.6245 7.8247 2.1762
-16.6745 7.1288 2.1483
-16.6539 6.4232 2.1151
-16.2388 5.6023 2.0360
-15.8065 4.8256 1.9593
-15.5585 4.1456 1.9093
-15.6065 3.5637 1.8988
-15.8918 3.0331 1.9195
-16.2580 2.5019 1.9521
-16.7772 1.9683 2.0052
-18.0367 1.4620 2.1486
-17.7001 0.7967 2.1043
-17.3114 0.1571 2.0566
-17.0841 -0.4585 2.0307
-16.9342 -1.0637 2.0167
-16.8319 -1.6657 2.0108
-17.0048 -2.3018 2.0406
-13.3439 -2.2967 1.6105
-13.4243 -2.8101 1.6318
-17.6028 -4.3498 2.1578
-13.2018 -3.7700 1.6343
-12.9155 -4.1952 1.6168
-17.3557 -6.3347 2.2003
-17.2122 -6.9923 2.2130
-16.1483 -7.2459 2.1089
-15.1832 -7.4788 2.0171
-15.7328 -8.4645 2.1296
-14.2023 -8.3118 1.9620
-15.6953 -9.9587 2.2167
-15.3244 -10.5135 2.2167
-14.9341 -11.0546 2.2167
-14.0481 -11.2012 2.1440
-10.3473 -8.8763 1.6271
-10.3473 -9.5421 1.6802
-10.3473 -10.2534 1.7392
-10.3473 -11.0173 1.8049
-11.7535 -13.4512 2.1334
-11.2612 -13.8623 2.1334
-7.2868 -9.6587 1.4455
-7.0784 -10.1186 1.4755
-10.1709 -15.7114 2.2367
-9.5990 -16.0643 2.2367
-9.0151 -16.3965 2.2367
-8.4196 -16.7077 2.2367
-7.8136 -16.9974 2.2367
-7.1976 -17.2652 2.2367
-6.5726 -17.5109 2.2367
-5.9393 -17.7342 2.2367
-5.2984 -17.9346 2.2367
-4.6509 -18.1122 2.2367
-3.9974 -18.2665 2.2367
-3.3389 -18.3974 2.2367
-2.6762 -18.5047 2.2367
-2.0101 -18.5883 2.2367
-1.3415 -18.6482 2.2367
-0.6711 -18.6842 2.2367
0.0000 -15.6915 2.2367
0.5634 -15.6815 2.2367
1.1260 -15.6514 2.2367
1.6094 -14.8822 2.1336
2.1427 -14.8153 2.1336
2.6733 -14.7294 2.1336
3.2005 -14.6246 2.1336
1.9923 -7.7588 1.1416
4.2422 -14.3589 2.1336
4.7553 -14.1983 2.1336
5.2623 -14.0195 2.1336
5.7817 -13.8683 2.1406
6.2764 -13.6530 2.1406
5.4227 -10.7603 1.7164
5.7991 -10.5471 1.7143
5.4130 -9.0586 1.5028
5.7108 -8.8215 1.4964
6.1720 -8.8225 1.5330
5.5858 -7.4039 1.3203
5.9046 -7.2682 1.3329
6.3841 -7.3060 1.3808
6.8613 -7.3053 1.4262
7.3717 -7.3046 1.4765
7.9203 -7.3037 1.5326
6.5175 -5.5907 1.2213
6.6249 -5.2822 1.2049
6.6249 -4.9037 1.1719
6.6272 -4.5465 1.1425
6.7588 -4.2883 1.1377
7.0444 -4.1225 1.1599
7.3075 -3.9313 1.1790
7.4639 -3.6763 1.1819
8.0875 -3.6287 1.2589
6.5261 -2.6510 1.0002
6.2257 -2.2722 0.9409
6.0730 -1.9725 0.9063
5.9945 -1.7117 0.8847
5.9565 -1.4718 0.8705
5.9704 -1.2497 0.8652
6.0047 -1.0334 0.8641
6.0802 -0.8229 0.8700
6.1876 -0.6122 0.8814
6.3585 -0.3993 0.9029
6.5994 -0.1770 0.9354
7.2961 0.0664 1.0336
7.4243 0.3343 1.0526
7.4238 0.6019 1.0547
6.6269 0.7776 0.9446
5.6630 0.8716 0.8110
6.9330 1.3234 0.9988
6.8794 1.5710 0.9984
6.8169 1.8165 0.9979
6.7457 2.0595 0.9975
6.6560 2.2964 0.9956
5.8508 2.2567 0.8865
5.6077 2.3976 0.8620
5.5949 2.6335 0.8738
6.7305 3.4684 1.0697
6.7292 3.7794 1.0902
6.5945 4.0217 1.0909
6.0904 4.0211 1.0305
5.6543 4.0319 0.9804
6.7846 5.2151 1.2079
6.5280 5.4014 1.1958
6.1982 5.5150 1.1706
6.0904 5.8240 1.1889
6.0749 6.2418 1.2287
6.0749 6.7075 1.2764
9.7790 11.6088 2.1406
9.3573 11.9540 2.1406
8.9234 12.2837 2.1406
8.4778 12.5976 2.1406
1.8850 3.0305 0.5031
7.5538 13.1762 2.1406
7.0768 13.4402 2.1406
6.5904 13.6868 2.1406
6.0955 13.9158 2.1406
5.5925 14.1267 2.1406
5.0655 14.2724 2.1336
4.5503 14.4460 2.1336
4.0291 14.6008 2.1336
3.5026 14.7367 2.1336
2.9716 14.8536 2.1336
2.4366 14.9512 2.1336
1.8985 15.0294 2.1336
1.4234 15.8172 2.2367
0.8548 15.8583 2.2367
0.2851 15.8788 2.2367
-0.2850 15.8787 2.2367
-0.8547 15.8581 2.2367
-1.4233 15.8169 2.2367
-1.9901 15.7552 2.2367
-2.5542 15.6730 2.2367
-3.1150 15.5706 2.2367
-3.6716 15.4480 2.2367
-4.2235 15.3053 2.2367
-4.7698 15.1429 2.2367
-5.3098 14.9609 2.2367
-5.8429 14.7595 2.2367
-6.3683 14.5390 2.2367
-6.5977 13.7022 2.1432
-7.0527 13.3947 2.1336
-7.5281 13.1315 2.1336
-7.9937 12.8514 2.1336
-8.4488 12.5546 2.1336
-8.8928 12.2417 2.1336
-9.3252 11.9131 2.1336
-9.7455 11.5691 2.1336
-10.1530 11.2102 2.1336
-10.5472 10.8369 2.1336
-11.2821 10.7887 2.2028
-11.5752 10.2995 2.1868
-11.8815 9.8311 2.1769
-12.2094 9.3850 2.1741
-12.5047 8.9167 2.1687
-12.8018 8.4522 2.1666
-13.1561 8.0234 2.1767
-13.3894 7.5200 2.1697
-13.6115 7.0143 2.1639
-13.8421 6.5154 2.1623
-14.0274 5.9974 2.1567
-14.1960 5.4755 2.1514
-14.2836 4.9280 2.1369
-14.0854 4.3004 2.0832
-14.1327 3.7660 2.0693
-14.2209 3.2476 2.0643
-14.3948 2.7477 2.0743
-14.6081 2.2483 2.0925
-14.7738 1.7335 2.1064
-14.9888 1.2153 2.1299
-14.9190 0.6718 2.1157
-15.1157 0.1375 2.1419
-15.0541 -0.4037 2.1343
-15.1136 -0.9491 2.1467
-15.1276 -1.4967 2.1554
-15.0652 -2.0389 2.1560
-13.9909 -2.4078 2.0138
-13.8790 -2.9050 2.0118
-15.0075 -3.7082 2.1937
-14.8578 -4.2426 2.1932
-14.6927 -4.7722 2.1932
-14.5717 -5.3183 2.2026
-14.4188 -5.8572 2.2103
-14.2194 -6.3801 2.2139
-13.9960 -6.8937 2.2167
-13.7369 -7.3903 2.2167
-13.4603 -7.8773 2.2167
-13.1664 -8.3539 2.2167
-12.8558 -8.8196 2.2167
-12.5287 -9.2738 2.2167
-12.1857 -9.7159 2.2167
-10.3473 -8.8761 1.9393
-10.3473 -9.5418 2.0026
-10.3473 -10.2531 2.0729
-10.2624 -10.9266 2.1334
-9.8621 -11.2864 2.1334
-9.4493 -11.6316 2.1334
-7.2268 -9.5789 1.7084
-7.0787 -10.1188 1.7585
-8.1410 -12.5754 2.1334
-8.0553 -13.4805 2.2367
-7.5654 -13.7596 2.2367
-7.0658 -14.0209 2.2367
-6.5573 -14.2643 2.2367
-6.0405 -14.4893 2.2367
-5.5161 -14.6957 2.2367
-4.9846 -14.8833 2.2367
-4.4468 -15.0517 2.2367
-3.9034 -15.2008 2.2367
-3.3550 -15.3305 2.2367
-2.8023 -15.4404 2.2367
-2.2461 -15.5306 2.2367
-1.6871 -15.6009 2.2367
-1.1259 -15.6512 2.2367
-0.5633 -15.6814 2.2367
0.0000 -13.5068 2.2367
0.4850 -13.4982 2.2367
0.9692 -13.4723 2.2367
1.4523 -13.4290 2.2367
1.8444 -12.7524 2.1336
2.3012 -12.6784 2.1336
2.7549 -12.5881 2.1336
1.9924 -7.7588 1.3263
3.6515 -12.3592 2.1336
4.0931 -12.2209 2.1336
4.5295 -12.0669 2.1336
4.9601 -11.8973 2.1336
5.3844 -11.7125 2.1336
5.5958 -11.1035 2.0578
5.7993 -10.5472 1.9918
5.4243 -9.0773 1.7497
5.7108 -8.8213 1.7386
6.1722 -8.8226 1.7813
5.5131 -7.3072 1.5141
5.9360 -7.3066 1.5570
6.3843 -7.3060 1.6045
6.8615 -7.3054 1.6572
7.3720 -7.3046 1.7158
7.9207 -7.3038 1.7811
6.5174 -5.5906 1.4193
6.5981 -5.2606 1.3946
6.6249 -4.9036 1.3619
6.6273 -4.5464 1.3278
6.7588 -4.2882 1.3222
7.0445 -4.1224 1.3480
7.3012 -3.9278 1.3690
7.4641 -3.6763 1.3737
8.0878 -3.6287 1.4633
6.8688 -2.7901 1.2236
6.2257 -2.2721 1.0936
6.0729 -1.9723 1.0535
5.9395 -1.6959 1.0189
5.9018 -1.4582 1.0027
5.9360 -1.2423 1.0000
5.9779 -1.0287 1.0000
6.0803 -0.8228 1.0114
6.1876 -0.6121 1.0247
6.2897 -0.3948 1.0384
6.5101 -0.1744 1.0729
7.2970 0.0665 1.2020
7.4243 0.3344 1.2239
7.4240 0.6021 1.2264
6.6250 0.7775 1.0981
5.6897 0.8758 0.9475
6.6943 1.2779 1.1215
6.6431 1.5172 1.1212
6.5834 1.7544 1.1208
6.5619 2.0035 1.1284
6.5629 2.2644 1.1417
5.9511 2.2955 1.0487
5.6263 2.4056 1.0059
5.5168 2.5969 1.0022
6.5604 3.3808 1.2128
6.5591 3.6840 1.2360
6.5095 3.9700 1.2526
6.0902 4.0211 1.1987
5.5838 3.9817 1.1263
5.3484 4.1113 1.1077
6.4973 5.3762 1.3846
6.1996 5.5165 1.3623
6.0904 5.8241 1.3831
6.0749 6.2419 1.4294
6.0749 6.7076 1.4850
8.4054 9.9784 2.1406
8.0428 10.2748 2.1406
7.6696 10.5580 2.1406
7.2865 10.8276 2.1406
1.8848 3.0302 0.5852
6.4922 11.3246 2.1406
6.0821 11.5514 2.1406
5.6640 11.7632 2.1406
5.2214 11.9206 2.1336
4.7905 12.1011 2.1336
4.3534 12.2660 2.1336
3.9105 12.4151 2.1336
3.4626 12.5481 2.1336
3.0101 12.6648 2.1336
2.5537 12.7651 2.1336
2.0940 12.8490 2.1336
1.6315 12.9161 2.1336
1.2233 13.5931 2.2367
0.7346 13.6284 2.2367
0.2450 13.6460 2.2367
-0.2449 13.6460 2.2367
-0.7345 13.6282 2.2367
-1.2232 13.5929 2.2367
-1.7102 13.5399 2.2367
-2.1950 13.4694 2.2367
-2.6769 13.3814 2.2367
-3.1554 13.2761 2.2367
-3.6296 13.1537 2.2367
-4.0992 13.0142 2.2367
-4.5633 12.8578 2.2367
-5.0215 12.6849 2.2367
-5.4732 12.4956 2.2367
-5.9176 12.2901 2.2367
-6.3544 12.0687 2.2367
-6.5938 11.5019 2.1743
-6.8704 11.0458 2.1336
-7.2617 10.7910 2.1336
-7.6435 10.5222 2.1336
-8.0153 10.2399 2.1336
-8.3767 9.9444 2.1336
-8.7271 9.6361 2.1336
-9.0661 9.3155 2.1336
-9.3927 8.9821 2.1334
-9.7077 8.6380 2.1334
-10.0100 8.2828 2.1334
-10.2993 7.9170 2.1334
-10.5752 7.5411 2.1334
-11.0668 7.3070 2.1786
-11.2947 6.8884 2.1737
-11.4671 6.4406 2.1613
-11.6661 6.0121 2.1571
-11.9108 5.6066 2.1641
-12.0987 5.1731 2.1634
-12.2941 4.7422 2.1669
-12.4410 4.2925 2.1646
-12.5570 3.8340 2.1598
-12.6501 3.3711 2.1540
-12.7429 2.9103 2.1510
-12.8337 2.4500 2.1505
-12.7299 1.9595 2.1203
-12.4549 1.4617 2.0648
-12.3657 1.0028 2.0431
-12.4542 0.5610 2.0535
-12.5275 0.1142 2.0640
-12.5854 -0.3373 2.0745
-12.6178 -0.7921 2.0836
-12.5837 -1.2448 2.0844
-12.5354 -1.6963 2.0856
-12.8409 -2.2096 2.1486
-13.0397 -2.7291 2.1972
-12.8793 -3.1821 2.1885
-12.7019 -3.6267 2.1794
-12.4791 -4.0529 2.1652
-12.2098 -4.4560 2.1452
-11.9740 -4.8639 2.1335
-11.8374 -5.3111 2.1421
-11.6948 -5.7600 2.1527
-11.6209 -6.2517 2.1794
-11.5398 -6.7531 2.2086
-11.3069 -7.1738 2.2123
-11.0565 -7.5849 2.2155
-10.3762 -7.6802 2.1334
-10.0923 -8.0466 2.1334
-9.7956 -8.4025 2.1334
-9.4863 -8.7476 2.1334
-9.1650 -9.0813 2.1334
-8.8319 -9.4033 2.1334
-8.4876 -9.7131 2.1334
-8.1325 -10.0104 2.1334
-7.2181 -9.5672 1.9827
-7.0790 -10.1190 2.0432
-7.0068 -10.8232 2.1334
-6.9332 -11.6023 2.2367
-6.5116 -11.8427 2.2367
-6.0817 -12.0678 2.2367
-5.6441 -12.2774 2.2367
-5.1993 -12.4713 2.2367
-4.7479 -12.6491 2.2367
-4.2905 -12.8106 2.2367
-3.8276 -12.9557 2.2367
-3.3599 -13.0842 2.2367
-2.8879 -13.1958 2.2367
-2.4122 -13.2906 2.2367
-1.9334 -13.3682 2.2367
-1.4522 -13.4288 2.2367
-0.9692 -13.4721 2.2367
-0.4849 -13.4981 2.2367
0.0000 -11.8453 2.2367
0.4253 -11.8377 2.2367
0.8500 -11.8149 2.2367
1.2737 -11.7770 2.2367
1.6176 -11.1836 2.1336
2.0181 -11.1186 2.1336
2.4161 -11.0394 2.1336
1.9924 -7.7588 1.5123
3.2023 -10.8385 2.1336
3.5895 -10.7171 2.1336
3.9722 -10.5820 2.1336
4.3498 -10.4332 2.1336
4.7219 -10.2710 2.1336
5.0880 -10.0956 2.1336
5.4476 -9.9073 2.1336
5.4358 -9.0962 1.9995
5.7110 -8.8214 1.9828
6.0052 -8.5838 1.9764
5.5133 -7.3073 1.7268
5.9099 -7.2743 1.7678
6.0154 -6.8837 1.7241
6.4656 -6.8837 1.7810
7.3722 -7.3047 1.9569
7.9210 -7.3039 2.0314
6.5174 -5.5904 1.6187
6.6249 -5.2818 1.5970
6.6249 -4.9034 1.5533
6.6273 -4.5463 1.5144
6.7589 -4.2880 1.5081
7.0446 -4.1223 1.5376
7.3077 -3.9311 1.5630
7.4643 -3.6762 1.5670
8.0882 -3.6287 1.6693
6.8689 -2.7900 1.3958
6.2256 -2.2719 1.2475
6.0729 -1.9722 1.2018
6.0750 -1.7344 1.1889
6.0750 -1.5008 1.1774
6.0750 -1.2713 1.1676
5.9537 -1.0244 1.1363
6.0803 -0.8227 1.1539
6.1877 -0.6120 1.1691
6.4908 -0.4073 1.2227
6.8008 -0.1821 1.2788
7.2980 0.0667 1.3716
7.4243 0.3346 1.3965
7.4241 0.6022 1.3994
6.6239 0.7775 1.2528
5.5693 0.8574 1.0583
6.5506 1.2506 1.2523
6.5010 1.4848 1.2520
6.4430 1.7171 1.2517
6.3831 1.9491 1.2527
6.3841 2.2028 1.2674
5.9509 2.2955 1.1968
5.5003 2.3519 1.1223
5.4840 2.5815 1.1369
6.3822 3.2891 1.3466
6.3810 3.5841 1.3724
6.3560 3.8765 1.3959
6.0901 4.0211 1.3681
5.6379 4.0204 1.2980
5.3464 4.1098 1.2639
6.5278 5.4016 1.5878
6.2010 5.5179 1.5551
6.0903 5.8242 1.5788
6.0749 6.2421 1.6317
6.0749 6.7078 1.6951
7.3634 8.7415 2.1406
7.0456 9.0011 2.1406
6.7186 9.2491 2.1406
6.3829 9.4852 2.1406
1.8845 3.0298 0.6680
5.6870 9.9203 2.1406
5.3102 10.0856 2.1336
4.9452 10.2704 2.1336
4.5737 10.4420 2.1336
4.1962 10.6001 2.1336
3.8133 10.7444 2.1336
3.4253 10.8749 2.1336
3.0330 10.9913 2.1336
2.6366 11.0935 2.1336
2.2368 11.1814 2.1336
1.8341 11.2547 2.1336
1.4594 11.5539 2.1789
1.0715 11.9065 2.2367
0.6435 11.9374 2.2367
0.2146 11.9528 2.2367
-0.2145 11.9528 2.2367
-0.6434 11.9373 2.2367
-1.0714 11.9063 2.2367
-1.4980 11.8599 2.2367
-1.9226 11.7982 2.2367
-2.3448 11.7212 2.2367
-2.7638 11.6291 2.2367
-3.1793 11.5219 2.2367
-3.5906 11.3998 2.2367
-3.9972 11.2629 2.2367
-4.3986 11.1115 2.2367
-4.7942 10.9458 2.2367
-5.1836 10.7659 2.2367
-5.5663 10.5721 2.2367
-5.9416 10.3646 2.2367
-6.3093 10.1438 2.2367
-6.5892 9.7918 2.2100
-6.6958 9.2178 2.1336
-7.0211 8.9700 2.1334
-7.3377 8.7113 2.1334
-7.6448 8.4413 2.1334
-7.9420 8.1606 2.1334
-8.2288 7.8693 2.1334
-8.5049 7.5680 2.1334
-8.7699 7.2569 2.1334
-9.0235 6.9365 2.1334
-9.2654 6.6073 2.1334
-9.4953 6.2696 2.1334
-9.7128 5.9239 2.1334
-9.9178 5.5707 2.1334
-10.1099 5.2103 2.1334
-10.2888 4.8433 2.1334
-10.4544 4.4702 2.1334
-10.8583 4.1886 2.1841
-11.0093 3.7988 2.1859
-11.1323 3.3993 2.1850
-11.2369 2.9948 2.1834
-11.3279 2.5874 2.1820
-11.4053 2.1775 2.1808
-11.3366 1.7452 2.1546
-11.2197 1.3170 2.1224
-11.1889 0.9076 2.1094
-11.1883 0.5042 2.1048
-11.1921 0.1022 2.1039
-11.2084 -0.3001 2.1079
-11.2293 -0.7047 2.1156
-11.2603 -1.1137 2.1280
-11.2613 -1.5237 2.1375
-11.1812 -1.9238 2.1344
-11.0184 -2.3058 2.1181
-11.0141 -2.7210 2.1350
-10.8739 -3.1045 2.1284
-10.7136 -3.4793 2.1205
-10.5618 -3.8544 2.1168
-10.4393 -4.2402 2.1217
-10.3035 -4.6227 2.1268
-10.1115 -4.9800 2.1230
-9.8911 -5.3209 2.1158
-9.6611 -5.6535 2.1090
-9.5089 -6.0328 2.1220
-9.3348 -6.4036 2.1334
-9.0977 -6.7337 2.1334
-8.8490 -7.0551 2.1334
-8.5889 -7.3673 2.1334
-8.3179 -7.6700 2.1334
-8.0363 -7.9627 2.1334
-7.7443 -8.2451 2.1334
-7.4425 -8.5169 2.1334
-7.1312 -8.7777 2.1334
-6.8108 -9.0272 2.1334
-6.5837 -9.4108 2.1670
-6.4418 -9.9502 2.2367
-6.0799 -10.1742 2.2367
-5.7103 -10.3851 2.2367
-5.3333 -10.5826 2.2367
-4.9496 -10.7665 2.2367
-4.5596 -10.9366 2.2367
-4.1638 -11.0926 2.2367
-3.7627 -11.2344 2.2367
-3.3567 -11.3617 2.2367
-2.9466 -11.4744 2.2367
-2.5326 -11.5724 2.2367
-2.1155 -11.6555 2.2367
-1.6956 -11.7237 2.2367
-1.2736 -11.7768 2.2367
-0.8499 -11.8148 2.2367
-0.4252 -11.8376 2.2367
0.0000 -10.5379 2.2367
0.3784 -10.5311 2.2367
0.7562 -10.5109 2.2367
1.1331 -10.4771 2.2367
1.4680 -10.1496 2.1766
1.7954 -9.8913 2.1336
2.1494 -9.8208 2.1336
1.9925 -7.7587 1.7000
2.8488 -9.6420 2.1336
3.1933 -9.5340 2.1336
3.5337 -9.4137 2.1336
3.8696 -9.2813 2.1336
4.2006 -9.1369 2.1336
4.5262 -8.9808 2.1336
4.8461 -8.8132 2.1336
5.1598 -8.6342 2.1336
5.4669 -8.4440 2.1336
5.7860 -8.2702 2.1406
5.5137 -7.3077 1.9413
5.5957 -6.8875 1.8817
6.0156 -6.8837 1.9383
6.4658 -6.8837 2.0022
7.1733 -7.1075 2.1406
7.4247 -6.8461 2.1406
6.5174 -5.5902 1.8198
6.6249 -5.2817 1.7954
6.5984 -4.8837 1.7394
6.6274 -4.5461 1.7027
6.7589 -4.2879 1.6956
7.0077 -4.1005 1.7197
7.2664 -3.9087 1.7474
7.4644 -3.6761 1.7619
8.0886 -3.6287 1.8770
6.8689 -2.7899 1.5695
6.2255 -2.2718 1.4027
6.0728 -1.9720 1.3513
6.0750 -1.7343 1.3369
6.0750 -1.5007 1.3239
6.0750 -1.2712 1.3130
5.9537 -1.0243 1.2778
6.0804 -0.8226 1.2976
6.1878 -0.6118 1.3148
6.4628 -0.4055 1.3690
6.8010 -0.1820 1.4381
7.2989 0.0668 1.5427
7.4243 0.3347 1.5705
7.4243 0.6024 1.5739
6.6230 0.7775 1.4088
5.4530 0.8396 1.1654
6.3801 1.2182 1.3718
6.3811 1.4576 1.3822
6.3821 1.7010 1.3945
6.3205 1.9301 1.3951
6.2470 2.1557 1.3949
5.9506 2.2956 1.3461
5.3787 2.3000 1.2344
5.3608 2.5236 1.2502
5.3425 2.7534 1.2680
6.1974 3.4811 1.4994
6.1962 3.7792 1.5308
6.0664 4.0057 1.5331
5.6378 4.0205 1.4601
5.1787 3.9810 1.3772
5.0175 4.1520 1.3729
6.2025 5.5193 1.7500
6.0902 5.8243 1.7761
6.0749 6.2423 1.8357
6.0749 6.7080 1.9070
6.5450 7.7703 2.1406
6.2625 8.0009 2.1406
5.9718 8.2212 2.1406
5.6734 8.4310 2.1406
1.8843 3.0295 0.7515
5.0381 8.7887 2.1336
4.7198 8.9644 2.1336
4.3952 9.1285 2.1336
4.0650 9.2809 2.1336
3.7295 9.4213 2.1336
3.3891 9.5496 2.1336
3.0443 9.6655 2.1336
2.6956 9.7689 2.1335
2.3433 9.8596 2.1335
1.9880 9.9376 2.1335
1.6301 10.0028 2.1335
1.3315 10.5412 2.2367
0.9523 10.5823 2.2367
0.5719 10.6098 2.2367
0.1907 10.6235 2.2367
-0.1907 10.6235 2.2367
-0.5718 10.6097 2.2367
-0.9522 10.5822 2.2367
-1.3314 10.5410 2.2367
-1.7088 10.4862 2.2367
-2.0840 10.4178 2.2367
-2.4564 10.3359 2.2367
-2.8257 10.2407 2.2367
-3.1913 10.1322 2.2367
-3.5527 10.0107 2.2367
-3.9095 9.8762 2.2367
-4.2611 9.7289 2.2367
-4.6073 9.5691 2.2367
-4.9474 9.3969 2.2367
-5.2811 9.2126 2.2367
-5.6079 9.0164 2.2367
-5.9274 8.8086 2.2367
-6.2392 8.5894 2.2367
-6.5429 8.3592 2.2367
-6.5758 7.8069 2.1509
-6.7954 7.5036 2.1334
-7.0596 7.2541 2.1334
-7.3146 6.9953 2.1334
-7.5602 6.7275 2.1334
-7.7959 6.4511 2.1334
-8.0214 6.1664 2.1334
-8.2366 5.8738 2.1334
-8.4411 5.5737 2.1334
-8.6346 5.2665 2.1334
-8.8169 4.9525 2.1334
-8.9878 4.6322 2.1334
-9.1471 4.3061 2.1334
-9.2945 3.9744 2.1334
-9.4298 3.6378 2.1334
-9.5530 3.2965 2.1334
-9.6638 2.9510 2.1334
-9.7621 2.6019 2.1334
-9.8478 2.2495 2.1334
-9.9207 1.8943 2.1334
-9.9808 1.5367 2.1334
-10.0281 1.1773 2.1334
-10.0624 0.8164 2.1334
-10.0837 0.4546 2.1334
-10.0921 0.0924 2.1334
-10.0874 -0.2699 2.1334
-10.0697 -0.6318 2.1334
-10.0390 -0.9927 2.1334
-9.9955 -1.3522 2.1334
-9.9390 -1.7099 2.1334
-9.8698 -2.0653 2.1334
-9.7879 -2.4179 2.1334
-9.6934 -2.7673 2.1334
-9.5865 -3.1131 2.1334
-9.4673 -3.4547 2.1334
-9.3358 -3.7918 2.1334
-9.1925 -4.1240 2.1334
-9.0373 -4.4507 2.1334
-8.8703 -4.7716 2.1334
-8.6924 -5.0864 2.1334
-8.5031 -5.3945 2.1334
-8.3030 -5.6956 2.1334
-8.0922 -5.9893 2.1334
-7.8711 -6.2752 2.1334
-7.6398 -6.5530 2.1334
-7.3989 -6.8223 2.1334
-7.1484 -7.0828 2.1334
-6.8888 -7.3341 2.1334
-6.6205 -7.5760 2.1334
-6.5637 -8.0790 2.2075
-6.3519 -8.4187 2.2367
-6.0450 -8.6405 2.2367
-5.7305 -8.8513 2.2367
-5.4086 -9.0506 2.2367
-5.0798 -9.2383 2.2367
-4.7445 -9.4141 2.2367
-4.4032 -9.5778 2.2367
-4.0563 -9.7292 2.2367
-3.7042 -9.8680 2.2367
-3.3474 -9.9942 2.2367
-2.9863 -10.1075 2.2367
-2.6214 -10.2078 2.2367
-2.2531 -10.2950 2.2367
-1.8820 -10.3690 2.2367
-1.5085 -10.4297 2.2367
-1.1330 -10.4769 2.2367
-0.7561 -10.5107 2.2367
-0.3783 -10.5311 2.2367
0.0000 -9.4813 2.2367
0.3404 -9.4753 2.2367
0.6804 -9.4570 2.2367
1.0195 -9.4266 2.2367
1.3574 -9.3841 2.2367
1.6154 -8.8996 2.1336
1.9339 -8.8361 2.1336
1.9925 -7.7587 1.8894
2.5632 -8.6751 2.1336
2.8731 -8.5779 2.1336
3.1794 -8.4696 2.1336
3.4816 -8.3504 2.1336
3.7794 -8.2205 2.1336
4.0723 -8.0800 2.1336
4.3601 -7.9291 2.1336
4.6423 -7.7680 2.1336
4.9185 -7.5969 2.1336
5.1885 -7.4160 2.1336
5.4518 -7.2255 2.1336
5.5957 -6.8873 2.0916
5.9769 -6.8393 2.1406
6.2192 -6.6210 2.1406
6.4535 -6.3940 2.1406
6.6795 -6.1588 2.1406
6.5173 -5.5900 2.0228
6.6249 -5.2815 1.9958
6.6249 -4.9031 1.9413
6.6274 -4.5460 1.8927
6.7590 -4.2878 1.8849
7.0449 -4.1221 1.9218
7.3080 -3.9310 1.9536
7.4646 -3.6760 1.9587
8.0890 -3.6287 2.0867
6.8690 -2.7897 1.7448
6.2254 -2.2716 1.5594
6.0727 -1.9719 1.5022
6.0750 -1.7342 1.4862
6.0750 -1.5006 1.4719
6.0750 -1.2711 1.4597
5.9537 -1.0241 1.4206
6.0805 -0.8224 1.4427
6.1878 -0.6117 1.4618
6.4911 -0.4071 1.5288
6.8011 -0.1818 1.5990
7.2999 0.0670 1.7155
7.4244 0.3349 1.7463
7.4244 0.6025 1.7500
6.6220 0.7775 1.5662
5.3404 0.8223 1.2691
5.3344 1.0187 1.2754
6.1970 1.4157 1.4926
6.1979 1.6520 1.5060
6.1989 1.8931 1.5215
6.1711 2.1296 1.5323
5.9504 2.2956 1.4968
5.2750 2.2558 1.3463
5.0597 2.3820 1.3121
5.0385 2.5969 1.3298
6.0066 3.3741 1.6161
6.0055 3.6630 1.6499
5.9538 3.9314 1.6733
5.6378 4.0206 1.6238
5.2287 4.0196 1.5464
4.8629 4.0242 1.4798
6.2040 5.5208 1.9469
6.0902 5.8244 1.9753
5.9817 6.1466 2.0102
5.9090 6.5249 2.0630
5.8848 6.9866 2.1406
5.6307 7.1939 2.1406
5.3517 7.3677 2.1336
5.0842 7.5556 2.1336
1.8840 3.0292 0.8357
4.5297 7.9019 2.1336
4.2435 8.0599 2.1336
3.9517 8.2075 2.1336
3.6548 8.3445 2.1336
3.3531 8.4707 2.1336
