ply
format ascii 1.0
element vertex 2039
property float32 x
property float32 y
property float32 z
end_header
7.6511 13.3133 -1.2322
7.3637 13.9489 -1.2728
7.1306 14.7678 -1.3308
6.5742 14.9644 -1.3339
6.0208 15.1600 -1.3387
5.4689 15.3551 -1.3453
4.9170 15.5501 -1.3537
4.3638 15.7457 -1.3639
3.7969 15.8962 -1.3719
3.2476 16.1402 -1.3898
2.5904 15.7845 -1.3578
1.9580 15.3636 -1.3221
1.3887 15.2423 -1.3137
0.8496 15.4463 -1.3351
0.3026 15.8863 -1.3787
-0.2957 17.5325 -1.5297
-0.8834 16.7234 -1.4687
-1.4656 16.4829 -1.4588
-2.0654 16.4908 -1.4727
-2.7183 16.7898 -1.5148
-3.6905 18.5461 -1.6925
-4.4520 18.8151 -1.7390
-5.2486 19.0935 -1.7895
-6.0870 19.3901 -1.8452
-6.9727 19.7049 -1.9065
-7.8048 19.7683 -1.9471
-8.3874 19.1951 -1.9275
-9.1247 18.9924 -1.9470
-10.1516 19.3197 -2.0249
-11.6118 20.2930 -2.1778
-12.2998 19.8088 -2.1802
-13.4562 20.0281 -2.2645
-16.3035 22.4773 -2.6152
-18.0529 23.0956 -2.7703
-19.2185 22.8451 -2.8305
-20.2347 22.3696 -2.8688
-32.2978 33.2239 -4.4200
-32.6720 31.2773 -4.3266
-36.0883 32.1439 -4.6353
-39.0033 32.3034 -4.8695
-42.4962 32.6947 -5.1675
-45.1646 32.2320 -5.3592
-47.8938 31.6455 -5.5556
-50.5519 30.8510 -5.7421
-52.6716 29.6011 -5.8680
-54.4181 28.0586 -5.9553
-9.8379 4.6328 -1.0591
-58.7030 25.1082 -6.2259
-37.0764 14.3048 -3.8790
-55.5918 19.1831 -5.7449
-56.6330 17.2912 -5.7883
-57.7497 15.3864 -5.8449
-58.8522 13.4350 -5.9055
-58.0425 11.0719 -5.7813
-58.9177 9.0579 -5.8320
-60.0607 7.0348 -5.9150
-61.1155 4.9397 -5.9951
-62.4441 2.7933 -6.1082
-63.5518 0.5566 -6.2060
-29.5113 -0.8026 -2.8802
-28.4443 -1.7982 -2.7775
-27.6005 -2.7436 -2.6996
-27.7119 -3.7646 -2.7181
-33.8213 -5.8393 -3.3305
-32.4510 -6.8120 -3.2119
-28.1134 -6.9649 -2.8002
-27.4604 -7.8606 -2.7557
-29.6582 -9.6554 -3.0024
-27.8339 -10.1815 -2.8460
-38.5537 -15.6953 -3.9870
-32.9492 -14.8152 -3.4508
-30.6685 -15.1371 -3.2574
-31.4816 -16.9713 -3.3960
-32.2156 -18.8913 -3.5349
-23.7617 -15.1066 -2.6562
-23.3587 -16.0570 -2.6647
-26.1607 -19.4030 -3.0509
-21.0041 -16.7808 -2.5088
-20.8089 -17.8865 -2.5506
-20.0492 -18.5265 -2.5273
-19.3996 -19.2633 -2.5206
-18.8344 -20.0962 -2.5285
-20.7919 -23.8464 -2.8918
-25.7750 -31.7986 -3.7245
-24.2080 -32.1612 -3.6459
-23.4866 -33.6535 -3.6994
-22.7030 -35.1566 -3.7544
-21.3512 -35.8236 -3.7229
-26.1745 -47.7346 -4.8356
-30.6373 -60.9691 -6.0300
-35.1080 -76.6040 -7.4083
-4.7017 -43.9398 -3.6985
-2.7133 -38.3137 -3.1966
-1.0469 -30.0653 -2.4895
0.0167 -20.8844 -1.2459
0.7717 -21.0208 -1.2451
1.5456 -21.2558 -1.2517
2.4229 -22.2468 -1.3042
3.2783 -22.5491 -1.3177
4.1667 -22.8631 -1.3337
3.9515 -17.9949 -1.0492
4.3465 -16.8781 -0.9850
4.7014 -15.8741 -0.9287
4.6396 -13.8231 -0.8118
5.5552 -14.7715 -0.8722
6.2751 -15.0260 -0.8935
7.0433 -15.2975 -0.9175
7.4832 -14.8281 -0.8985
7.8344 -14.2304 -0.8728
8.0866 -13.5168 -0.8406
8.3242 -12.8444 -0.8115
8.5491 -12.2082 -0.7852
8.7627 -11.6038 -0.7613
6.5020 -7.9967 -0.5364
9.1613 -10.4759 -0.7201
9.3486 -9.9461 -0.7024
9.5290 -9.4356 -0.6864
9.7034 -8.9422 -0.6720
10.0346 -8.6027 -0.6699
11.1223 -8.8631 -0.7175
12.7647 -9.4436 -0.7977
13.9686 -9.5785 -0.8475
14.1746 -8.9898 -0.8368
14.3773 -8.4107 -0.8276
14.5772 -7.8398 -0.8198
14.7749 -7.2754 -0.8134
21.9602 -9.8512 -1.1859
8.0404 -1.9872 -0.4051
84.3489 -14.5256 -4.1846
70.1735 -9.5069 -3.4631
61.6835 -6.1130 -3.0332
57.6886 -3.6335 -2.8312
46.6916 -1.2621 -2.2907
46.1967 0.4091 -2.2694
38.9385 1.7430 -1.9185
38.7889 3.1336 -1.9198
31.6302 3.7013 -1.5752
30.9383 4.7508 -1.5528
30.7548 5.8589 -1.5582
28.8420 6.5747 -1.4775
24.6003 6.5444 -1.2764
23.6408 7.2065 -1.2443
23.4857 8.0908 -1.2562
20.7738 8.0012 -1.1311
19.9423 8.5145 -1.1072
19.7226 9.2708 -1.1186
19.3519 9.9592 -1.1232
18.4382 10.3420 -1.0972
17.4535 10.6302 -1.0669
16.6455 10.9756 -1.0473
15.7652 11.2269 -1.0230
13.7074 10.5225 -0.9194
12.9582 10.7076 -0.9003
12.6510 11.2415 -0.9126
12.3940 11.8357 -0.9305
12.6804 13.0104 -0.9935
13.4249 14.8016 -1.1007
13.9093 16.4877 -1.1968
14.7166 18.7719 -1.3333
9.2619 12.7297 -0.8866
8.6166 12.7828 -0.8748
8.0302 12.8878 -0.8683
7.6481 13.3165 -0.8849
7.4373 14.0981 -0.9256
7.1261 14.7694 -0.9596
6.5548 14.9320 -0.9617
6.0423 15.2271 -0.9737
5.4511 15.3194 -0.9740
4.9009 15.5150 -0.9822
4.3781 15.8152 -0.9983
3.7944 15.9066 -1.0025
3.2430 16.1418 -1.0171
2.5878 15.7979 -0.9965
1.9453 15.3001 -0.9673
1.3842 15.2431 -0.9672
0.8511 15.5555 -0.9917
0.2980 15.8911 -1.0192
-0.3012 17.5552 -1.1340
-0.8958 16.8659 -1.0987
-1.4703 16.4823 -1.0840
-2.0843 16.6034 -1.1037
-2.7278 16.8183 -1.1314
-3.7084 18.6091 -1.2684
-4.4627 18.8375 -1.3025
-5.2729 19.1620 -1.3457
-6.0976 19.4060 -1.3859
-7.0026 19.7733 -1.4379
-7.8384 19.8389 -1.4708
-8.4172 19.2505 -1.4570
-9.1586 19.0513 -1.4741
-10.3202 19.6293 -1.5548
-11.6157 20.2891 -1.6477
-12.3043 19.8065 -1.6516
-13.2779 19.7537 -1.6941
-16.2509 22.3952 -1.9786
-18.0631 23.0992 -2.1062
-19.1501 22.7551 -2.1454
-20.2412 22.3687 -2.1850
-32.2995 33.2141 -3.3687
-32.6849 31.2795 -3.3016
-36.1021 32.1462 -3.5400
-39.6902 32.8626 -3.7858
-42.9371 33.0246 -3.9918
-45.5948 32.5303 -4.1392
-48.4434 32.0005 -4.3019
-51.1382 31.2014 -4.4493
-53.5143 30.0678 -4.5690
-45.7042 23.5606 -3.8349
-9.8366 4.6314 -0.8123
-58.7066 25.1052 -4.7774
-37.0741 14.3016 -2.9771
-55.5879 19.1790 -4.4102
-56.6556 17.2960 -4.4465
-57.5946 15.3437 -4.4768
-58.6577 13.3898 -4.5208
-58.0421 11.0717 -4.4406
-58.8628 9.0499 -4.4753
-59.8486 7.0110 -4.5269
-61.1160 4.9415 -4.6040
-62.4427 2.7958 -4.6899
-63.5576 0.5599 -4.7644
-29.6004 -0.8032 -2.2170
-30.6639 -1.9363 -2.2972
-27.4891 -2.7303 -2.0620
-27.6277 -3.7506 -2.0773
-34.7260 -5.9919 -2.6201
-32.7482 -6.8705 -2.4822
-28.0182 -6.9377 -2.1358
-31.7735 -9.0907 -2.4388
-38.1211 -12.4047 -2.9496
-48.9617 -17.9016 -3.8236
-36.1941 -14.7280 -2.8564
-34.1822 -15.3627 -2.7297
-31.9063 -15.7410 -2.5817
-32.4927 -17.5086 -2.6677
-36.6305 -21.4707 -3.0560
-28.6198 -18.1871 -2.4300
-26.4999 -18.2082 -2.2936
-26.5261 -19.6651 -2.3443
-26.3761 -21.0630 -2.3846
-8.3479 -7.1722 -0.7735
-21.1269 -19.5130 -2.0106
-19.9637 -19.8137 -1.9557
-19.5337 -20.8319 -1.9744
-21.5079 -24.6549 -2.2489
-24.8994 -30.7021 -2.7010
-24.0630 -31.9510 -2.7163
-23.4043 -33.5163 -2.7587
-29.3794 -45.4679 -3.6298
-28.0794 -47.0828 -3.6518
-26.6747 -48.6142 -3.6692
-36.0570 -71.7036 -5.2746
-39.9857 -87.1809 -6.2597
-26.9869 -80.8111 -5.4423
-6.2443 -28.6503 -1.8318
-12.6267 -69.9076 -4.4043
-10.1753 -70.7740 -4.3993
-3.9973 -37.2523 -2.2876
-1.8635 -26.2043 -1.5916
-0.8900 -25.3472 -1.5248
0.0137 -27.0199 -1.0020
0.7359 -20.2067 -0.7405
1.4831 -20.4768 -0.7425
2.2491 -20.7057 -0.7438
3.2860 -22.6464 -0.8069
4.1597 -22.8606 -0.8091
3.9483 -18.0039 -0.6337
4.3438 -16.8863 -0.5920
4.6990 -15.8813 -0.5553
4.6350 -13.8215 -0.4827
5.5503 -14.7698 -0.5160
6.2700 -15.0241 -0.5260
7.0379 -15.2956 -0.5374
7.4779 -14.8262 -0.5237
7.8327 -14.2351 -0.5064
8.0851 -13.5210 -0.4853
8.3228 -12.8483 -0.4663
8.5478 -12.2118 -0.4490
8.7615 -11.6071 -0.4334
6.5013 -7.9988 -0.3039
9.2067 -10.5317 -0.4083
9.3477 -9.9486 -0.3945
9.5282 -9.4380 -0.3839
9.7026 -8.9443 -0.3744
10.0327 -8.6036 -0.3717
11.1166 -8.8611 -0.3966
12.7580 -9.4412 -0.4393
13.9679 -9.5805 -0.4655
14.1740 -8.9915 -0.4582
14.3767 -8.4124 -0.4519
14.5766 -7.8412 -0.4465
14.7743 -7.2766 -0.4420
21.9601 -9.8530 -0.6431
8.0395 -1.9871 -0.2183
84.5453 -14.5591 -2.2595
69.5495 -9.4214 -1.8494
58.4042 -5.7866 -1.5483
56.7202 -3.5705 -1.5019
46.6947 -1.2601 -1.2374
46.2084 0.4117 -1.2278
38.9493 1.7460 -1.0397
38.8586 3.1422 -1.0440
39.4942 4.6250 -1.0700
31.0619 4.7729 -0.8502
30.8526 5.8809 -0.8548
28.8480 6.5796 -0.8104
24.7798 6.5955 -0.7073
23.6394 7.2096 -0.6869
23.4864 8.0948 -0.6960
20.7753 8.0054 -0.6290
19.9408 8.5177 -0.6181
19.7221 9.2746 -0.6270
19.3469 9.9610 -0.6322
18.3605 10.3029 -0.6178
17.4486 10.6319 -0.6058
16.6505 10.9837 -0.5978
15.7605 11.2285 -0.5863
13.7031 10.5240 -0.5294
12.9630 10.7166 -0.5214
12.6498 11.2456 -0.5308
12.3871 11.8348 -0.5437
12.6839 13.0204 -0.5839
13.4293 14.8138 -0.6502
13.9145 16.5025 -0.7106
14.7231 18.7903 -0.7957
9.2562 12.7289 -0.5312
8.6125 12.7843 -0.5269
8.0265 12.8898 -0.5256
7.6450 13.3198 -0.5383
7.4290 14.0920 -0.5655
7.1217 14.7710 -0.5895
6.5503 14.9333 -0.5937
6.0327 15.2157 -0.6034
5.4467 15.3212 -0.6070
4.8963 15.5164 -0.6149
4.3599 15.7674 -0.6259
3.7899 15.9084 -0.6334
3.2383 16.1434 -0.6454
2.5837 15.8022 -0.6352
1.9404 15.2978 -0.6190
1.3798 15.2440 -0.6216
0.8466 15.5570 -0.6400
0.2935 15.8958 -0.6605
-0.3060 17.5415 -0.7369
-0.9005 16.8627 -0.7171
-1.4750 16.4817 -0.7102
-2.0892 16.6051 -0.7259
-2.7336 16.8244 -0.7469
-3.7141 18.6111 -0.8399
-4.4978 18.9626 -0.8710
-5.2790 19.1641 -0.8969
-6.1471 19.5456 -0.9331
-7.0091 19.7756 -0.9641
-7.8418 19.8327 -0.9886
-8.4652 19.3472 -0.9873
-9.1639 19.0506 -0.9965
-10.3550 19.6845 -1.0568
-11.6253 20.2952 -1.1198
-12.3148 19.8137 -1.1252
-13.4822 20.0485 -1.1736
-16.3224 22.4840 -1.3588
-18.0732 23.1028 -1.4439
-19.1946 22.7993 -1.4762
-20.2607 22.3821 -1.5042
-32.3011 33.2044 -2.3211
-32.6978 31.2816 -2.2794
-36.1158 32.1485 -2.4477
-39.5260 32.7170 -2.6097
-42.9468 33.0228 -2.7675
-45.6044 32.5285 -2.8732
-48.4530 31.9988 -2.9895
-51.1476 31.1996 -3.0952
-53.4224 30.0094 -3.1755
-45.6919 23.5493 -2.6716
-9.8354 4.6299 -0.5663
-58.7101 25.1021 -3.3338
-37.0719 14.2984 -2.0784
-55.5944 19.1785 -3.0809
-56.6338 17.2872 -3.1057
-57.7511 15.3839 -3.1374
-58.8530 13.4335 -3.1708
-58.0416 11.0714 -3.1044
-58.9172 9.0588 -3.1315
-60.0595 7.0369 -3.1754
-61.1136 4.9431 -3.2173
-62.4413 2.7982 -3.2764
-63.5633 0.5631 -3.3275
-62.4475 -1.6906 -3.2646
-30.7180 -1.9375 -1.6052
-30.5070 -3.0275 -1.5951
-40.5639 -5.5030 -2.1243
-34.7431 -5.9912 -1.8242
-33.0500 -6.9300 -1.7415
-32.1276 -7.9511 -1.7007
-42.8747 -12.2607 -2.2825
-48.9102 -17.8745 -2.6421
-45.6202 -18.5553 -2.4867
-35.6953 -16.0356 -1.9657
-34.8083 -17.1651 -1.9389
-35.7472 -19.2538 -2.0168
-36.8884 -21.6123 -2.1108
-32.8753 -20.8821 -1.9107
-26.9204 -18.4889 -1.5915
-38.5686 -28.5801 -2.3232
-38.0827 -30.3977 -2.3411
-8.2738 -7.1052 -0.5201
-21.1044 -19.4831 -1.3590
-31.2690 -31.0193 -2.0672
-45.6412 -48.6504 -3.1048
-30.1788 -34.5770 -2.1177
-25.4460 -31.3595 -1.8470
-24.0552 -31.9231 -1.8115
-35.1573 -50.3185 -2.7558
-29.3554 -45.4036 -2.4040
-28.1696 -47.2043 -2.4201
-33.5269 -61.0618 -3.0359
-36.8869 -73.3021 -3.5395
-39.5497 -86.1652 -4.0464
-21.9127 -85.5344 -3.5637
-6.2470 -28.6219 -1.1686
-12.6468 -69.9005 -2.8003
-10.1955 -70.7669 -2.7849
-4.0131 -37.2963 -1.4435
-2.5271 -35.3883 -1.3486
-1.0666 -30.1251 -1.1318
0.0059 -27.0171 -0.3930
0.7025 -19.4421 -0.2741
1.4205 -19.6906 -0.2691
2.1610 -19.9475 -0.2644
3.2792 -22.6439 -0.2913
4.1527 -22.8581 -0.2855
3.9451 -18.0128 -0.2185
4.3411 -16.8945 -0.1992
1.8289 -6.1872 -0.0710
4.6305 -13.8199 -0.1542
5.5453 -14.7681 -0.1605
6.2648 -15.0223 -0.1591
7.0326 -15.2937 -0.1580
7.4726 -14.8244 -0.1495
7.8311 -14.2398 -0.1404
8.0836 -13.5253 -0.1305
8.3215 -12.8522 -0.1214
8.5465 -12.2154 -0.1132
8.7604 -11.6104 -0.1058
6.5005 -8.0010 -0.0717
9.2057 -10.5344 -0.0932
9.3468 -9.9512 -0.0870
9.5273 -9.4403 -0.0818
9.7019 -8.9465 -0.0771
10.0308 -8.6045 -0.0740
11.1108 -8.8591 -0.0763
12.7514 -9.4389 -0.0818
13.8582 -9.5077 -0.0833
14.0644 -8.9242 -0.0795
14.2673 -8.3503 -0.0761
14.4674 -7.7842 -0.0731
14.6652 -7.2243 -0.0705
16.0960 -7.2233 -0.0739
8.0386 -1.9870 -0.0318
84.5568 -14.5609 -0.3270
70.1721 -9.5048 -0.2708
61.6521 -6.1069 -0.2388
57.7004 -3.6302 -0.2255
46.6958 -1.2580 -0.1852
46.2089 0.4143 -0.1869
38.9481 1.7485 -0.1614
38.8596 3.1453 -0.1658
39.4954 4.6286 -0.1743
31.0610 4.7758 -0.1423
30.8464 5.8831 -0.1472
28.8493 6.5834 -0.1439
24.7745 6.5974 -0.1297
23.6527 7.2171 -0.1302
23.4872 8.0989 -0.1364
20.7768 8.0097 -0.1275
19.9393 8.5209 -0.1296
19.7216 9.2785 -0.1361
19.3418 9.9628 -0.1419
18.4283 10.3455 -0.1440
17.4437 10.6336 -0.1455
16.6358 10.9790 -0.1483
15.7558 11.2302 -0.1504
13.6989 10.5255 -0.1402
12.9671 10.7248 -0.1425
12.6169 11.2217 -0.1491
12.3803 11.8338 -0.1577
12.6874 13.0304 -0.1744
13.4336 14.8260 -0.1998
13.9198 16.5172 -0.2244
14.7296 18.8087 -0.2580
9.2505 12.7282 -0.1766
8.6237 12.8084 -0.1798
8.0229 12.8918 -0.1834
7.6385 13.3170 -0.1922
7.4264 14.0966 -0.2066
7.1173 14.7725 -0.2200
6.5457 14.9346 -0.2262
6.0282 15.2172 -0.2346
5.4423 15.3230 -0.2405
4.8918 15.5177 -0.2482
4.3652 15.8049 -0.2578
3.7854 15.9102 -0.2648
3.2337 16.1451 -0.2744
2.5796 15.8065 -0.2744
1.9366 15.3039 -0.2715
1.3753 15.2448 -0.2766
0.8421 15.5586 -0.2888
0.2889 15.9006 -0.3022
-0.3109 17.5278 -0.3412
-0.9051 16.8595 -0.3364
-1.4796 16.4810 -0.3372
-2.0942 16.6069 -0.3486
-2.7394 16.8305 -0.3628
-3.7198 18.6131 -0.4121
-4.4998 18.9486 -0.4313
-5.2851 19.1663 -0.4488
-6.1481 19.5311 -0.4708
-7.0156 19.7779 -0.4912
-7.8451 19.8266 -0.5076
-8.4695 19.3442 -0.5111
-9.1692 19.0499 -0.5198
-10.3666 19.6954 -0.5556
-11.6292 20.2915 -0.5923
-8.7305 14.0400 -0.4246
-13.4903 20.0514 -0.6289
-16.2933 22.4343 -0.7307
-18.0833 23.1063 -0.7826
-19.2597 22.8679 -0.8066
-20.2486 22.3607 -0.8227
-32.3027 33.1947 -1.2761
-32.7107 31.2838 -1.2590
-36.1296 32.1508 -1.3575
-39.7195 32.8675 -1.4592
-42.9564 33.0210 -1.5457
-45.6140 32.5267 -1.6099
-48.4625 31.9970 -1.6799
-51.1569 31.1979 -1.7439
-53.5355 30.0662 -1.7969
-45.6895 23.5431 -1.5117
-9.8342 4.6284 -0.3211
-58.6812 25.0852 -1.8923
-37.0693 14.2950 -1.1819
-55.4577 19.1285 -1.7498
-56.5190 17.2501 -1.7663
-57.5613 15.3319 -1.7833
-58.6518 13.3868 -1.8028
-58.0412 11.0712 -1.7713
-58.7175 9.0286 -1.7807
-59.8454 7.0130 -1.8048
-61.0427 4.9392 -1.8320
-62.2792 2.7934 -1.8615
-63.5691 0.5664 -1.8937
-62.3583 -1.6844 -1.8527
-63.8948 -4.0255 -1.8947
-65.1424 -6.4593 -1.9294
-43.9844 -5.9629 -1.3021
-31.2165 -5.3798 -0.9244
-42.7090 -8.9503 -1.2660
-68.8196 -17.0230 -2.0437
-70.4716 -20.1425 -2.0982
-45.9890 -20.6507 -1.3953
-49.5882 -24.4427 -1.5151
-35.7120 -19.2263 -1.0999
-55.7479 -32.6474 -1.7326
-83.3664 -52.9303 -2.6174
-46.3842 -31.8425 -1.4730
-40.0494 -29.6640 -1.2880
-40.5428 -32.3466 -1.3223
-8.2765 -7.1043 -0.2742
-57.3828 -52.9494 -1.9337
-44.5175 -44.1406 -1.5288
-46.0152 -49.0247 -1.6134
-64.6302 -74.0114 -2.3185
-27.7159 -34.1388 -1.0197
-42.7197 -61.1071 -1.6663
-37.3977 -57.8080 -1.5091
-38.3291 -64.1885 -1.6060
-40.0977 -72.9806 -1.7519
-43.5011 -86.3852 -1.9915
-21.9373 -85.5257 -1.5736
-6.2536 -28.6118 -0.5082
-12.6455 -69.7761 -1.1973
-6.3317 -43.8567 -0.7273
-4.0291 -37.3414 -0.5989
-2.5372 -35.3847 -0.5491
-1.0776 -30.1882 -0.4535
-0.0016 -21.7403 0.1733
0.7068 -19.7193 0.1664
1.6184 -22.5240 0.2007
2.4030 -22.2397 0.2090
3.2492 -22.4816 0.2224
4.1458 -22.8557 0.2377
3.9420 -18.0221 0.1968
1.5651 -6.0976 0.0699
1.8281 -6.1906 0.0744
4.6260 -13.8183 0.1740
5.5404 -14.7663 0.1947
6.2597 -15.0205 0.2074
7.0272 -15.2918 0.2210
7.4672 -14.8225 0.2243
7.8294 -14.2445 0.2256
8.0820 -13.5296 0.2244
8.3201 -12.8561 0.2234
8.4983 -12.1517 0.2213
8.7592 -11.6137 0.2218
6.4997 -8.0032 0.1604
9.2048 -10.5372 0.2219
9.3459 -9.9537 0.2205
9.5265 -9.4426 0.2202
9.7011 -8.9486 0.2201
10.0288 -8.6055 0.2236
11.1051 -8.8571 0.2436
12.7447 -9.4366 0.2754
13.8575 -9.5097 0.2953
14.0638 -8.9260 0.2957
14.2667 -8.3519 0.2963
14.4669 -7.7856 0.2969
14.6648 -7.2256 0.2977
16.0891 -7.2215 0.3233
8.0377 -1.9870 0.1547
58.8293 -10.1304 1.1170
65.7339 -8.9028 1.2403
61.6935 -6.1095 1.1574
53.3873 -3.3570 0.9961
46.7970 -1.2586 0.8688
41.7931 0.3770 0.7723
38.9469 1.7510 0.7167
38.8608 3.1483 0.7123
39.3804 4.6186 0.7193
31.0980 4.7845 0.5662
29.9197 5.7097 0.5432
28.3609 6.4754 0.5136
24.4615 6.5173 0.4421
23.6365 7.2157 0.4264
23.4879 8.1029 0.4232
20.5740 7.9351 0.3704
19.9377 8.5240 0.3587
19.7211 9.2824 0.3548
18.8574 9.7176 0.3394
17.2742 9.7019 0.3111
11.2888 6.8847 0.2036
15.5936 10.2957 0.2818
15.7511 11.2319 0.2853
13.5517 10.4171 0.2462
12.9645 10.7276 0.2365
12.5418 11.1601 0.2298
12.3488 11.8094 0.2275
12.6910 13.0404 0.2352
13.1649 14.5368 0.2458
13.9250 16.5320 0.2622
14.7362 18.8272 0.2802
9.2448 12.7274 0.1777
8.5306 12.6775 0.1661
8.0192 12.8938 0.1585
7.6317 13.3137 0.1534
7.3596 13.9794 0.1509
7.1129 14.7741 0.1493
6.5412 14.9359 0.1410
6.0237 15.2188 0.1340
5.4379 15.3248 0.1257
4.8872 15.5191 0.1182
4.3607 15.8065 0.1114
3.7808 15.9121 0.1035
3.2291 16.1467 0.0965
2.5756 15.8108 0.0863
1.9330 15.3115 0.0759
1.3709 15.2456 0.0681
0.8376 15.5602 0.0621
0.2844 15.9054 0.0560
-0.3157 17.5141 0.0535
-0.9098 16.8563 0.0439
-1.4843 16.4804 0.0355
-2.0992 16.6086 0.0283
-2.7451 16.8365 0.0213
-3.7255 18.6151 0.0154
-4.5057 18.9506 0.0073
-5.2912 19.1684 -0.0010
-6.1544 19.5333 -0.0096
-7.0221 19.7802 -0.0185
-7.8484 19.8205 -0.0274
-8.4738 19.3413 -0.0355
-9.1737 19.0477 -0.0436
-10.3713 19.6932 -0.0543
-11.6331 20.2878 -0.0655
-8.7321 14.0356 -0.0522
-13.4984 20.0542 -0.0846
-16.3033 22.4384 -0.1062
-18.0933 23.1099 -0.1217
-19.2644 22.8647 -0.1331
-20.2498 22.3540 -0.1431
-32.3043 33.1850 -0.2327
-32.7236 31.2859 -0.2395
-35.7324 31.7875 -0.2650
-39.1054 32.3498 -0.2932
-42.6538 32.7793 -0.3228
-45.2921 32.2886 -0.3453
-48.4720 31.9952 -0.3717
-51.1662 31.1962 -0.3941
-53.4319 30.0013 -0.4128
-45.6847 23.5357 -0.3536
-9.8329 4.6269 -0.0762
-58.6481 25.0665 -0.4543
-37.0649 14.2910 -0.2868
-55.5741 19.1659 -0.4291
-56.5747 17.2649 -0.4354
-57.7175 15.3720 -0.4425
-58.8181 13.4239 -0.4487
-58.0408 11.0709 -0.4402
-31.3771 4.8249 -0.2363
-35.8550 4.2023 -0.2680
-61.0743 4.9436 -0.4525
-62.3993 2.8013 -0.4579
-17.5834 0.1576 -0.1276
-62.4011 -1.6818 -0.4476
-42.4335 -2.6704 -0.3004
-13.7369 -1.3610 -0.0959
-13.4938 -1.8281 -0.0927
-31.2198 -5.3772 -0.2108
-67.1068 -14.0555 -0.4446
-68.7014 -16.9850 -0.4459
-70.4136 -20.1161 -0.4467
-16.2890 -5.9474 -0.0981
-16.0685 -6.5297 -0.0938
-35.6769 -19.1990 -0.1860
-44.1494 -25.8437 -0.2198
-24.2003 -15.3583 -0.1141
-82.0239 -56.2839 -0.3636
-18.6831 -13.8321 -0.0772
-18.1429 -14.4685 -0.0689
-8.2792 -7.1033 -0.0285
-27.7336 -34.1427 -0.0293
-21.9619 -85.5171 0.4148
-6.2603 -28.6017 0.1513
-12.6654 -69.7691 0.3997
-6.3540 -43.9198 0.2710
-4.0489 -37.4220 0.2475
-1.9653 -27.2966 0.1927
-0.8710 -24.2002 0.1818
-0.0098 -27.0116 0.8238
0.7017 -19.7339 0.6114
1.6131 -22.5392 0.7099
2.3964 -22.2374 0.7128
3.2512 -22.5395 0.7360
4.1388 -22.8532 0.7609
3.9389 -18.0313 0.6127
1.5631 -6.0969 0.2117
1.8262 -6.1899 0.2198
4.6215 -13.8167 0.5022
5.5355 -14.7646 0.5499
6.2546 -15.0187 0.5739
7.0219 -15.2899 0.6001
7.4619 -14.8206 0.5981
7.8277 -14.2492 0.5920
8.0805 -13.5339 0.5797
8.3187 -12.8601 0.5686
8.4970 -12.1553 0.5556
8.7580 -11.6170 0.5497
6.4990 -8.0054 0.3928
9.2038 -10.5400 0.5373
9.3450 -9.9563 0.5282
9.5257 -9.4450 0.5226
9.7004 -8.9507 0.5176
10.0269 -8.6064 0.5214
11.0994 -8.8551 0.5636
12.7381 -9.4342 0.6326
13.8568 -9.5117 0.6741
14.0632 -8.9278 0.6712
14.2662 -8.3535 0.6689
14.4664 -7.7870 0.6672
14.6644 -7.2268 0.6662
16.0858 -7.2214 0.7207
48.3102 -19.6351 2.1368
48.8051 -17.8222 2.1336
49.3280 -16.0301 2.1336
52.2159 -14.9180 2.2368
8.0369 -1.9869 0.3413
53.0765 -11.1157 2.2368
53.4363 -9.2015 2.2368
51.2720 -6.9434 2.1338
51.5255 -5.1013 2.1338
51.9045 -3.2621 2.1408
43.1221 -1.1578 1.7730
41.6844 0.3783 1.7100
38.9457 1.7536 1.5954
38.8619 3.1514 1.5912
39.4980 4.6358 1.6178
29.5053 4.5424 1.2101
27.9570 5.3382 1.1491
26.6093 6.0788 1.0971
24.5709 6.5498 1.0172
23.6851 7.2340 0.9855
23.4887 8.1070 0.9833
20.6336 7.9617 0.8699
19.9839 8.5476 0.8494
18.4508 8.6884 0.7916
18.8587 9.7226 0.8176
16.9594 9.5292 0.7439
11.3855 6.9467 0.5060
15.6305 10.3246 0.7046
15.7452 11.2327 0.7211
13.6904 10.5285 0.6380
12.9618 10.7304 0.6157
12.6461 11.2581 0.6133
12.3664 11.8319 0.6135
12.6946 13.0505 0.6456
13.2593 14.6485 0.6928
13.9303 16.5468 0.7497
14.7427 18.8457 0.8195
9.2391 12.7267 0.5320
8.6156 12.8113 0.5157
8.0155 12.8958 0.5006
7.6249 13.3105 0.4990
7.4155 14.0951 0.5110
7.1080 14.7748 0.5186
6.5367 14.9372 0.5083
6.0193 15.2204 0.5028
5.4336 15.3266 0.4920
4.8826 15.5204 0.4847
4.3561 15.8082 0.4808
3.7763 15.9139 0.4719
3.2243 16.1475 0.4674
2.5715 15.8150 0.4473
1.9294 15.3191 0.4237
1.3664 15.2464 0.4129
0.8245 15.4010 0.4088
0.2798 15.9102 0.4144
-0.3205 17.5007 0.4478
-0.9145 16.8531 0.4240
-1.4890 16.4798 0.4082
-2.0827 16.4413 0.4013
-2.7509 16.8426 0.4057
-3.7309 18.6155 0.4430
-4.2384 17.8049 0.4191
-5.2729 19.0825 0.4449
-5.7874 18.3519 0.4243
-6.9417 19.5377 0.4487
-7.8517 19.8144 0.4526
-8.4781 19.3383 0.4401
-9.1752 19.0393 0.4324
-10.3759 19.6910 0.4470
-11.6371 20.2840 0.4611
-8.7558 14.0669 0.3209
-13.5064 20.0571 0.4600
-15.3810 21.1601 0.4890
-17.0300 21.7429 0.5075
-18.4515 21.8916 0.5173
-20.2511 22.3473 0.5361
-32.3059 33.1753 0.8102
-33.1129 31.6479 0.7893
-36.1570 32.1553 0.8216
-39.5696 32.7243 0.8597
-42.9757 33.0174 0.8954
-45.6332 32.5232 0.9142
-48.4815 31.9935 0.9365
-51.5502 31.4227 0.9627
-53.4367 29.9972 0.9673
-9.2881 4.7840 0.1634
-9.4137 4.4287 0.1614
-58.6153 25.0480 0.9815
-37.0615 14.2874 0.6078
-55.3849 19.0979 0.8918
-56.5757 17.2631 0.8967
-57.5204 15.3181 0.8997
-41.5327 9.4784 0.6426
-42.0535 8.0214 0.6453
-58.6700 9.0222 0.8950
-9.3522 1.0963 0.1422
-61.0251 4.9414 0.9267
-17.0992 0.7683 0.2600
-16.9804 0.1530 0.2592
-17.1273 -0.4606 0.2630
-13.4385 -0.8448 0.2081
-12.9822 -1.2852 0.2032
-12.9168 -1.7487 0.2048
-12.9489 -2.2289 0.2085
-13.3792 -2.8007 0.2192
-68.6956 -16.9748 1.1478
-70.5467 -20.1441 1.2048
-16.2961 -5.2927 0.2851
-15.7104 -5.7335 0.2821
-15.5976 -6.3354 0.2881
-53.4610 -23.9844 1.0178
-76.0828 -37.4691 1.4963
-35.6419 -19.1717 0.7256
-44.1422 -25.8281 0.9323
-77.6912 -49.2834 1.7059
-52.5078 -36.0142 1.2012
-60.8878 -45.0582 1.4546
-13.3393 -10.6329 0.3335
-8.3537 -7.1639 0.2191
-22.8274 -21.0439 0.6297
-14.7427 -14.6038 0.4287
-15.4250 -16.4176 0.4742
-16.1544 -18.4803 0.5265
-27.7514 -34.1466 0.9617
-18.0960 -23.9753 0.6690
-19.4380 -27.7728 0.7694
-21.4815 -33.1657 0.9138
-24.3255 -40.6861 1.1170
-26.9086 -48.9108 1.3401
-31.6331 -62.7292 1.7180
-35.8038 -77.8283 2.1338
-33.9576 -81.3885 2.2368
-30.4614 -81.0822 2.2368
-27.0460 -80.6747 2.2368
-22.6179 -76.4708 2.1336
-10.5072 -40.8642 1.1486
-6.2669 -28.5916 0.8106
-12.6672 -69.6620 1.9940
-6.3764 -43.9831 1.2725
-4.0711 -37.5239 1.0984
-1.9882 -27.5022 0.8153
-0.8828 -24.3309 0.7313
-0.0142 -21.6830 1.1505
0.6965 -19.7486 1.0576
1.5654 -21.9616 1.1885
2.3898 -22.2351 1.2173
3.2444 -22.5371 1.2496
4.1318 -22.8508 1.2847
3.9358 -18.0406 1.0297
1.5612 -6.0962 0.3536
1.8242 -6.1892 0.3653
4.6170 -13.8151 0.8308
5.5306 -14.7628 0.9056
6.2495 -15.0169 0.9409
7.0165 -15.2880 0.9796
7.4566 -14.8187 0.9724
7.8261 -14.2539 0.9592
8.0790 -13.5382 0.9357
8.3173 -12.8640 0.9145
8.5427 -12.2261 0.8954
8.7569 -11.6202 0.8783
6.4982 -8.0076 0.6257
9.2028 -10.5428 0.8533
9.3441 -9.9588 0.8366
9.5249 -9.4473 0.8255
9.6996 -8.9529 0.8157
10.0249 -8.6073 0.8197
11.0937 -8.8530 0.8838
12.7315 -9.4319 0.9901
13.8561 -9.5137 1.0536
14.0626 -8.9296 1.0473
14.2656 -8.3551 1.0422
14.4659 -7.7884 1.0383
14.6639 -7.2281 1.0354
16.0859 -7.2228 1.1189
31.0974 -12.6414 2.1336
31.4877 -11.5002 2.1336
31.8447 -10.3500 2.1336
33.7251 -9.6362 2.2368
8.0360 -1.9868 0.5282
34.2984 -7.1833 2.2368
34.5321 -5.9462 2.2368
34.7305 -4.7028 2.2368
34.8933 -3.4538 2.2368
35.0205 -2.1997 2.2368
33.4937 -0.8978 2.1338
33.5467 0.3063 2.1338
33.5651 1.5135 2.1338
25.0846 2.0361 1.5954
33.6086 3.9475 2.1408
27.7425 4.2738 1.7717
26.2339 5.0121 1.6814
26.6106 6.0823 1.7136
24.7583 6.6031 1.6036
23.7136 7.2462 1.5466
23.4894 8.1111 1.5445
20.7812 8.0224 1.3792
19.9347 8.5304 1.3370
18.5018 8.7162 1.2556
16.9838 8.7598 1.1678
16.9613 9.5345 1.1834
15.4067 9.4043 1.0922
15.6323 10.3304 1.1278
15.7407 11.2345 1.1576
13.5970 10.4614 1.0210
12.9592 10.7331 0.9955
12.5786 11.2033 0.9903
12.3938 11.8638 1.0022
12.6981 13.0606 1.0571
13.1735 14.5609 1.1317
13.9355 16.5617 1.2387
14.7493 18.8642 1.3605
9.2334 12.7259 0.8867
8.5532 12.7260 0.8582
8.0392 12.9418 0.8461
7.6360 13.3384 0.8467
7.3994 14.0741 0.8689
7.1036 14.7764 0.8885
6.5321 14.9385 0.8761
6.0148 15.2220 0.8720
5.4292 15.3284 0.8588
4.4265 14.0849 0.7729
4.3516 15.8098 0.8507
3.7718 15.9157 0.8409
3.2197 16.1492 0.8388
2.5565 15.7523 0.8054
1.9257 15.3267 0.7723
1.3620 15.2472 0.7582
0.8201 15.4034 0.7568
0.2753 15.9150 0.7735
-0.3253 17.4871 0.8418
-0.9110 16.6999 0.7973
-1.4936 16.4792 0.7813
-2.0875 16.4422 0.7751
-2.7567 16.8487 0.7908
-3.7367 18.6178 0.8712
-4.1907 17.5833 0.8214
-5.2757 19.0730 0.8908
-5.6682 17.9575 0.8398
-6.9442 19.5290 0.9158
-7.3205 18.4603 0.8694
-8.4404 19.2395 0.9115
-9.1869 19.0519 0.9095
-11.2279 21.2957 1.0262
-11.6675 20.3265 0.9905
-12.3609 19.8491 0.9799
-13.4078 19.9015 0.9974
-15.2446 20.9635 1.0688
-16.7214 21.3404 1.1093
-18.3866 21.8063 1.1583
-20.2523 22.3406 1.2157
-32.3075 33.1656 1.8537
-33.1259 31.6500 1.8221
-35.7613 31.7936 1.8910
-38.5768 31.8938 1.9662
-42.5206 32.6586 2.0942
-44.8973 31.9902 2.1418
-46.2449 30.5098 2.1418
-47.5270 28.9635 2.1418
-48.7392 27.3541 2.1418
-9.2885 4.7832 0.3989
-9.4140 4.4280 0.3958
-51.7237 22.0990 2.1338
-37.0009 14.2616 1.5005
-52.9915 18.2699 2.1165
-54.1390 16.5176 2.1338
-41.0028 10.9183 1.5976
-41.5157 9.4739 1.6020
-42.0307 8.0169 1.6092
-11.5966 1.7834 0.4413
-9.3523 1.0965 0.3544
-9.3461 0.7571 0.3533
-44.1621 1.9861 1.6678
-33.9199 0.3073 1.2822
-34.4633 -0.9247 1.3062
-42.5822 -2.6737 1.6210
-41.6993 -4.1246 1.5971
-10.0964 -1.3660 0.3897
-31.2264 -5.3718 1.2169
-48.4463 -10.1358 1.9092
-49.1546 -12.1398 1.9624
-10.6726 -3.0460 0.4324
-10.8327 -3.5166 0.4462
-51.5040 -18.7876 2.1604
-26.4414 -10.7351 1.1315
-11.4347 -5.1277 0.5001
-49.4970 -24.3654 2.2168
-35.6070 -19.1445 1.6361
-12.1297 -7.0941 0.5729
-41.9872 -26.6228 2.0425
-12.7178 -8.7191 0.6385
-13.2925 -9.8323 0.6902
-13.3949 -10.6724 0.7209
-37.2588 -31.9373 2.0833
-22.8444 -21.0495 1.3302
-14.8022 -14.6556 0.8999
-15.4203 -16.4044 0.9815
-16.1481 -18.4637 1.0791
-27.7692 -34.1504 1.9544
-18.0867 -23.9499 1.3451
-19.4260 -27.7399 1.5321
-21.1628 -32.6542 1.7772
-23.5116 -39.3001 2.1117
-22.1045 -40.1519 2.1338
-20.4522 -40.5286 2.1338
-19.7115 -42.8155 2.2368
-17.9887 -43.0797 2.2368
-16.2743 -43.2806 2.2368
-14.5705 -43.4198 2.2368
-12.8796 -43.4989 2.2368
-10.6872 -41.5133 2.1337
-6.2611 -28.5250 1.4674
-7.5386 -41.3883 2.1336
-6.1140 -42.0855 2.1768
-4.0801 -37.5042 1.9488
-1.9771 -27.2370 1.4235
-0.8829 -24.1411 1.2705
-0.0205 -21.7009 1.6421
0.6921 -19.7877 1.5074
1.5137 -21.3215 1.6372
2.2068 -20.5873 1.5953
2.2924 -15.9558 1.2493
3.8366 -21.2519 1.6833
3.9326 -18.0499 1.4480
1.5611 -6.1024 0.4965
1.8222 -6.1885 0.5112
4.6125 -13.8135 1.1601
5.5257 -14.7611 1.2620
6.2444 -15.0151 1.3086
7.0112 -15.2861 1.3599
7.4513 -14.8168 1.3475
7.8244 -14.2586 1.3275
8.0775 -13.5425 1.2927
8.3159 -12.8679 1.2614
8.5415 -12.2297 1.2332
8.7557 -11.6236 1.2078
6.4974 -8.0098 0.8593
9.2018 -10.5456 1.1702
9.3432 -9.9614 1.1459
9.5240 -9.4496 1.1293
9.6988 -8.9550 1.1146
10.0230 -8.6082 1.1188
11.0880 -8.8510 1.2047
11.9320 -8.8420 1.2643
13.8554 -9.5157 1.4343
14.0619 -8.9314 1.4246
14.2650 -8.3567 1.4166
14.4654 -7.7899 1.4103
14.6635 -7.2294 1.4057
16.0805 -7.2218 1.5178
22.9271 -9.3217 2.1336
23.2235 -8.4832 2.1336
23.4937 -7.6368 2.1336
23.7379 -6.7834 2.1336
8.0351 -1.9868 0.7156
25.3159 -5.3023 2.2368
25.4889 -4.3889 2.2368
25.6340 -3.4707 2.2368
25.7511 -2.5482 2.2368
25.8400 -1.6222 2.2368
25.9007 -0.6931 2.2368
25.9331 0.2382 2.2368
25.9371 1.1713 2.2368
24.7183 2.0082 2.1338
24.6675 2.8995 2.1338
24.5894 3.7905 2.1338
24.4837 4.6804 2.1338
24.3505 5.5687 2.1338
24.2693 6.4759 2.1408
23.6321 7.2248 2.1009
23.4902 8.1151 2.1073
20.7763 8.0242 1.8832
18.1682 7.7780 1.6660
18.5035 8.7210 1.7189
16.6209 8.5764 1.5664
16.7027 9.3933 1.5992
15.2810 9.3317 1.4887
15.6345 10.3364 1.5524
15.7364 11.2364 1.5951
13.6819 10.5315 1.4183
12.9566 10.7359 1.3763
12.6436 11.2665 1.3789
12.3527 11.8301 1.3862
12.7017 13.0707 1.4701
13.4483 14.8723 1.6093
13.9408 16.5765 1.7296
14.7558 18.8828 1.9038
9.2276 12.7252 1.2421
8.6075 12.8142 1.2132
8.0082 12.8998 1.1866
7.6114 13.3040 1.1911
7.4046 14.0936 1.2300
7.0992 14.7780 1.2593
6.1953 14.1793 1.1814
5.6720 14.3666 1.1722
5.1500 14.5535 1.1644
4.3220 13.7665 1.0816
4.1023 14.9213 1.1527
3.5750 15.1053 1.1489
3.2151 16.1508 1.2111
2.5633 15.8236 1.1714
1.9221 15.3343 1.1220
1.3576 15.2481 1.1042
0.8157 15.4057 1.1055
0.2707 15.9198 1.1336
-0.3301 17.4734 1.2361
-0.9238 16.8466 1.1856
-1.4983 16.4786 1.1552
-2.1141 16.6139 1.1616
-2.7626 16.8549 1.1770
-3.7425 18.6203 1.3005
-4.1937 17.5750 1.2293
-4.6126 16.6586 1.1686
-5.6710 17.9499 1.2648
-6.0928 17.1207 1.2134
-7.3230 18.4532 1.3176
-7.7229 17.5922 1.2675
-9.1783 19.0225 1.3852
-10.3853 19.6865 1.4515
-11.6449 20.2766 1.5163
-12.3380 19.8027 1.5047
-13.5226 20.0628 1.5520
-15.2468 20.9575 1.6539
-15.6150 19.9202 1.6072
-17.0976 20.2698 1.6757
-18.7742 20.7027 1.7578
-23.8603 24.4856 2.1408
-24.8288 23.7149 2.1408
-25.6831 22.8265 2.1338
-26.5872 21.9748 2.1338
-27.4572 21.0830 2.1338
-28.9402 20.6150 2.1827
-30.4923 20.1121 2.2368
-31.2845 19.0606 2.2368
-32.0326 17.9737 2.2368
-32.7347 16.8535 2.2368
-9.8292 4.6224 0.6585
-33.9940 14.5213 2.2368
-32.9557 12.7004 2.1338
-33.4341 11.5254 2.1338
-33.8612 10.3297 2.1338
-35.5693 9.4705 2.2168
-35.8704 8.1851 2.2148
-35.5078 6.7726 2.1756
-11.5213 1.7719 0.7016
-9.3524 1.0967 0.5670
-9.3860 0.7606 0.5673
-36.7240 1.6530 2.2168
-36.6441 0.3338 2.2125
-19.5092 -0.5223 1.1800
-34.5759 -2.1685 2.0984
-33.4059 -3.3015 2.0373
-10.1395 -1.3708 0.6224
-15.3770 -2.6436 0.9515
-33.3858 -6.9810 2.0858
-29.7905 -7.3536 1.8821
-10.7206 -3.0582 0.6860
-22.3162 -7.2410 1.4488
-15.3260 -5.5880 1.0111
-18.0105 -7.3089 1.2096
-11.4336 -5.1249 0.7830
-15.7494 -7.7494 1.1017
-29.9951 -16.1201 2.1470
-12.1282 -7.0901 0.8900
-23.3827 -14.8197 1.7624
-12.7191 -8.7160 0.9867
-13.2838 -9.8214 1.0627
-13.3918 -10.6650 1.1072
-14.0473 -12.0354 1.2031
-22.8599 -21.0539 2.0328
-14.7977 -14.6441 1.3697
-15.4148 -16.3904 1.4891
-16.1415 -18.4467 1.6321
-17.0122 -20.9104 1.8059
-18.0774 -23.9244 2.0213
-18.0507 -25.7613 2.1338
-17.0065 -26.2253 2.1338
-15.9520 -26.6474 2.1338
-14.8892 -27.0278 2.1338
-14.4875 -28.6887 2.2368
-13.3614 -29.0006 2.2368
-12.2319 -29.2696 2.2368
-11.1008 -29.4961 2.2368
-9.9697 -29.6807 2.2368
-8.8401 -29.8240 2.2368
-7.7136 -29.9264 2.2368
-6.2632 -28.4946 2.1254
-5.2228 -28.6262 2.1336
-4.1651 -28.6110 2.1336
-3.1155 -28.5596 2.1336
-1.9872 -27.2657 2.0431
-0.8908 -24.1635 1.8184
-0.0268 -21.7189 2.1363
0.6894 -19.8753 1.9653
1.4664 -20.7404 2.0644
2.3199 -21.7006 2.1768
2.2876 -15.9541 1.6149
3.8367 -21.2861 2.1768
3.9297 -18.0603 1.8683
4.3274 -16.9356 1.7745
4.6845 -15.9251 1.6923
4.6080 -13.8119 1.4905
5.5207 -14.7594 1.6196
6.2392 -15.0133 1.6776
7.0058 -15.2842 1.7415
7.4459 -14.8149 1.7238
7.8227 -14.2633 1.6973
8.0760 -13.5468 1.6512
8.3145 -12.8719 1.6097
8.5402 -12.2333 1.5724
8.7545 -11.6269 1.5386
6.4966 -8.0120 1.0937
9.2008 -10.5484 1.4884
9.3423 -9.9639 1.4564
9.5232 -9.4520 1.4344
9.6981 -8.9572 1.4147
10.0210 -8.6092 1.4190
11.0823 -8.8490 1.5266
11.9257 -8.8398 1.6012
16.6036 -11.4061 2.1768
16.9737 -10.7834 2.1768
17.3229 -10.1504 2.1768
17.6514 -9.5077 2.1768
17.9587 -8.8558 2.1768
17.8824 -8.0325 2.1336
18.1420 -7.3774 2.1336
18.3804 -6.7151 2.1336
18.5976 -6.0461 2.1336
18.7947 -5.3714 2.1337
8.0342 -1.9867 0.9037
20.0456 -4.1986 2.2368
20.1828 -3.4752 2.2368
20.2971 -2.7479 2.2368
20.3884 -2.0171 2.2368
20.4565 -1.2835 2.2368
20.5015 -0.5477 2.2368
20.5232 0.1897 2.2368
20.5215 0.9281 2.2368
20.4964 1.6668 2.2368
20.4479 2.4053 2.2368
20.3758 3.1430 2.2368
19.3456 3.7003 2.1338
19.2319 4.4005 2.1338
19.0958 5.0980 2.1338
18.9372 5.7923 2.1338
18.7560 6.4827 2.1338
18.5524 7.1686 2.1338
18.1690 7.7819 2.1154
17.8283 8.4065 2.1043
16.6226 8.5812 1.9918
16.2718 9.1550 1.9824
14.7100 8.9870 1.8250
14.9744 9.9045 1.8949
15.7320 11.2384 2.0341
13.6776 10.5330 1.8103
12.9539 10.7387 1.7585
12.6105 11.2423 1.7593
12.3461 11.8295 1.7741
12.7053 13.0808 1.8850
13.4432 14.8741 2.0644
13.4305 15.9781 2.1408
12.9003 16.5172 2.1408
9.2219 12.7244 1.5985
8.6034 12.8156 1.5635
8.0045 12.9018 1.5313
7.6046 13.3008 1.5384
7.3991 14.0929 1.5911
5.9712 12.4390 1.3729
6.0457 13.8478 1.4966
5.5347 14.0308 1.4869
5.0249 14.2133 1.4791
4.2084 13.4184 1.3732
4.0018 14.5725 1.4685
3.4868 14.7521 1.4658
3.2104 16.1527 1.5847
2.5591 15.8279 1.5353
1.9184 15.3419 1.4731
1.3531 15.2489 1.4514
0.8197 15.5666 1.4705
0.2662 15.9246 1.4950
-0.3349 17.4598 1.6311
-0.9285 16.8434 1.5678
-1.5030 16.4780 1.5302
-2.1191 16.6157 1.5415
-2.7684 16.8610 1.5648
-3.7483 18.6227 1.7312
-4.1967 17.5666 1.6381
-4.5743 16.5029 1.5458
-5.6144 17.7545 1.6730
-6.0296 16.9294 1.6072
-7.2045 18.1413 1.7377
-7.6710 17.4624 1.6904
-9.1799 19.0141 1.8631
-10.3900 19.6843 1.9557
-11.6489 20.2728 2.0458
-12.3426 19.8004 2.0332
-13.3645 19.8191 2.0748
-14.5699 20.0184 2.1408
-15.2850 19.4913 2.1338
-16.0314 18.9985 2.1338
-16.7599 18.4747 2.1338
-17.4690 17.9207 2.1338
-18.1573 17.3370 2.1338
-19.4523 17.2834 2.2051
-20.4062 16.8611 2.2368
-21.0534 16.1614 2.2368
-21.6730 15.4342 2.2368
-22.2637 14.6809 2.2368
-22.8241 13.9026 2.2368
-23.3530 13.1006 2.2368
-23.8493 12.2762 2.2368
-9.8280 4.6209 0.9042
-23.5978 10.0785 2.1336
-23.9719 9.2367 2.1336
-24.3110 8.3793 2.1336
-24.6145 7.5079 2.1336
-24.8818 6.6243 2.1336
-25.5069 5.8200 2.1671
-25.6499 4.8923 2.1627
-11.5083 1.7700 0.9644
-9.3525 1.0969 0.7801
-9.3858 0.7608 0.7805
-24.1080 1.0861 2.0016
-9.7982 0.0898 0.8134
-14.7374 -0.3936 1.2251
-12.7731 -0.8002 1.0649
-25.1289 -2.4814 2.1041
-10.1391 -1.3698 0.8540
-15.3477 -2.6370 1.3022
-22.7775 -4.7601 1.9498
-13.2657 -3.2729 1.1474
-10.7210 -3.0568 0.9385
-17.6192 -5.7142 1.5632
-20.0495 -7.3069 1.8059
-17.7532 -7.2012 1.6260
-11.4326 -5.1222 1.0665
-22.9656 -11.2950 2.1858
-12.1127 -6.5068 1.1783
-12.1267 -7.0860 1.2078
-21.0663 -13.3456 2.1524
-12.7205 -8.7131 1.3358
-13.2878 -9.8199 1.4371
-13.3887 -10.6576 1.4944
-13.7982 -11.8164 1.5930
-14.2621 -13.1292 1.7071
-14.7935 -14.6328 1.8403
-15.4099 -16.3771 1.9977
-15.7502 -17.9903 2.1338
-15.0256 -18.4588 2.1338
-14.2870 -18.8977 2.1338
-13.5358 -19.3067 2.1338
-12.7732 -19.6855 2.1338
-12.5805 -21.0021 2.2368
-11.7614 -21.3358 2.2368
-10.9345 -21.6376 2.2368
-10.1011 -21.9076 2.2368
-9.2625 -22.1460 2.2368
-8.4199 -22.3527 2.2368
-7.5745 -22.5280 2.2368
-6.7275 -22.6721 2.2368
-5.8802 -22.7852 2.2368
-5.0335 -22.8678 2.2368
-3.9954 -21.8621 2.1336
-3.1923 -21.8834 2.1336
-2.3930 -21.8765 2.1336
-1.5984 -21.8420 2.1336
-0.8094 -21.7801 2.1336
-0.0269 -17.6109 2.1336
0.6031 -17.5329 2.1336
1.2275 -17.4335 2.1336
1.8621 -17.4657 2.1524
2.4789 -17.3233 2.1524
3.0881 -17.1604 2.1524
3.6892 -16.9774 2.1524
4.3301 -16.9652 2.1768
4.6830 -15.9358 2.0722
4.6035 -13.8103 1.8223
5.3301 -14.2608 1.9121
5.7396 -13.8207 1.8856
6.2128 -13.5630 1.8856
6.8366 -13.6106 1.9310
7.2486 -13.2238 1.9175
7.5687 -12.7024 1.8856
7.8828 -12.2094 1.8584
8.0969 -11.6036 1.8142
8.3783 -11.1319 1.7910
6.4958 -8.0142 1.3294
9.1122 -10.4507 1.7910
9.3414 -9.9665 1.7684
9.5224 -9.4544 1.7409
9.6973 -8.9593 1.7163
10.0191 -8.6101 1.7207
11.0765 -8.8470 1.8497
11.9943 -8.8930 1.9516
13.7052 -9.4174 2.1768
14.0148 -8.9059 2.1768
14.3072 -8.3853 2.1768
14.5821 -7.8562 2.1768
14.5447 -7.1738 2.1336
14.7796 -6.6401 2.1336
14.9969 -6.0996 2.1337
15.1963 -5.5527 2.1337
15.3779 -5.0000 2.1337
15.5414 -4.4421 2.1337
8.0333 -1.9867 1.0927
16.5774 -3.4723 2.2368
16.6911 -2.8739 2.2368
16.7853 -2.2722 2.2368
16.8600 -1.6676 2.2368
16.9151 -1.0607 2.2368
16.9506 -0.4521 2.2368
16.9664 0.1578 2.2368
16.9624 0.7682 2.2368
16.9386 1.3788 2.2368
16.8950 1.9889 2.2368
16.8315 2.5979 2.2368
16.7482 3.2054 2.2368
16.6450 3.8106 2.2368
16.5220 4.4131 2.2368
15.7594 4.8227 2.1522
15.4692 5.3492 2.1338
15.2953 5.9128 2.1338
15.1026 6.4715 2.1338
14.8913 7.0248 2.1338
14.6614 7.5721 2.1338
14.4130 8.1128 2.1338
14.1463 8.6465 2.1338
13.8613 9.1724 2.1338
13.5583 9.6899 2.1338
13.2810 10.2322 2.1408
12.9412 10.7330 2.1408
12.5330 11.1785 2.1321
12.2092 11.7038 2.1408
11.8173 12.1726 2.1408
11.4086 12.6294 2.1408
10.9834 13.0737 2.1408
10.5419 13.5048 2.1408
9.2161 12.7236 1.9565
8.5993 12.8171 1.9154
8.0008 12.9038 1.8775
7.5980 13.2979 1.8870
6.5477 12.4799 1.7300
6.4856 13.5206 1.8340
5.8903 13.5027 1.7949
5.3921 13.6810 1.7848
4.8950 13.8590 1.7770
4.3972 14.0349 1.7713
3.8975 14.2093 1.7675
3.3954 14.3844 1.7659
2.7033 13.6226 1.6528
2.5550 15.8323 1.9009
1.9140 15.3438 1.8254
1.3486 15.2497 1.8001
0.8151 15.5682 1.8256
0.2615 15.9294 1.8582
-0.3398 17.4461 2.0271
-0.9333 16.8401 1.9514
-1.5077 16.4773 1.9068
-2.1241 16.6174 1.9230
-2.7743 16.8672 1.9544
-3.7141 18.4262 2.1408
-3.9755 16.6205 1.9388
-4.5769 16.4951 1.9347
-5.4199 17.1238 2.0223
-6.0319 16.9220 2.0153
-6.9480 17.4825 2.1027
-7.6731 17.4554 2.1236
-8.3630 17.3115 2.1338
-9.0092 17.0587 2.1338
-9.6473 16.7806 2.1338
-10.2761 16.4772 2.1338
-10.8947 16.1490 2.1338
-11.5018 15.7962 2.1338
-12.0964 15.4190 2.1338
-12.6774 15.0180 2.1338
-13.8799 15.2945 2.2362
-14.4609 14.8297 2.2368
-15.0206 14.3373 2.2368
-15.5616 13.8222 2.2368
-16.0829 13.2850 2.2368
-16.5836 12.7266 2.2368
-17.0625 12.1477 2.2368
-17.5189 11.5492 2.2368
-17.9516 10.9321 2.2368
-18.3600 10.2973 2.2368
-18.7431 9.6458 2.2368
-9.8268 4.6194 1.1508
-18.5337 7.9142 2.1336
-18.8227 7.2514 2.1336
-19.0850 6.5771 2.1336
-19.3201 5.8923 2.1336
-19.5274 5.1983 2.1336
-19.9323 4.5477 2.1580
-19.6352 3.7450 2.1097
-11.5084 1.7701 1.2290
-9.3526 1.0970 0.9941
-9.3856 0.7611 0.9944
-20.0807 0.9055 2.1239
-9.7957 0.0902 1.0358
-17.8058 -0.4745 1.8849
-12.8171 -0.8020 1.3604
-19.6783 -1.9416 2.0971
-10.1386 -1.3688 1.0864
-13.7025 -2.3529 1.4785
-19.2143 -4.0133 2.0908
-10.7406 -2.6485 1.1804
-10.7216 -3.0554 1.1918
-19.4148 -6.2935 2.1863
-19.1280 -6.9677 2.1855
-18.6413 -7.5580 2.1644
-11.4314 -5.1193 1.3510
-16.2309 -7.9792 1.9558
-11.9219 -6.4014 1.4672
-12.1248 -7.0818 1.5267
-12.3962 -7.8495 1.6000
-12.6934 -8.6906 1.6826
-13.0214 -9.6187 1.7761
-13.3861 -10.6507 1.8828
-13.7952 -11.8084 2.0053
-14.1709 -13.0390 2.1338
-13.6468 -13.4920 2.1338
-13.1077 -13.9234 2.1338
-12.5545 -14.3327 2.1338
-11.9882 -14.7196 2.1338
-11.4099 -15.0837 2.1338
-10.8204 -15.4247 2.1338
-10.7146 -16.5030 2.2368
-10.0765 -16.8113 2.2368
-9.4299 -17.0949 2.2368
-8.7758 -17.3535 2.2368
-8.1152 -17.5871 2.2368
-7.4490 -17.7956 2.2368
-6.7784 -17.9790 2.2368
-6.1042 -18.1375 2.2368
-5.4275 -18.2711 2.2368
-4.7491 -18.3799 2.2368
-4.0700 -18.4640 2.2368
-3.3910 -18.5236 2.2368
-2.5878 -17.7023 2.1336
-1.9429 -17.7132 2.1336
-1.3007 -17.7014 2.1336
-0.6618 -17.6672 2.1336
-0.0270 -14.8103 2.1337
0.5031 -14.7535 2.1337
1.0293 -14.6784 2.1336
1.5508 -14.5853 2.1336
2.0670 -14.4745 2.1336
2.5185 -14.0177 2.0847
3.0542 -14.0738 2.1144
3.4089 -13.3713 2.0321
4.1518 -14.1420 2.1768
4.6438 -13.9436 2.1768
5.1273 -13.7292 2.1768
5.3388 -12.8649 2.0746
6.0671 -13.2535 2.1768
6.4493 -12.8473 2.1524
6.8894 -12.5755 2.1524
7.1560 -12.0160 2.1045
7.3677 -11.4170 2.0495
7.5680 -10.8505 1.9999
7.9284 -10.5386 1.9981
6.4951 -8.0165 1.5665
8.4826 -9.7323 1.9641
8.6568 -9.2394 1.9299
8.8246 -8.7645 1.8993
9.2287 -8.5291 1.9223
10.0200 -8.6135 2.0246
11.0824 -8.8542 2.1768
11.3773 -8.4379 2.1768
11.6578 -8.0127 2.1768
11.9238 -7.5790 2.1768
12.1749 -7.1373 2.1768
12.1646 -6.5552 2.1336
12.3814 -6.1080 2.1336
12.5831 -5.6543 2.1336
12.7696 -5.1946 2.1337
12.9407 -4.7293 2.1337
8.1730 -2.6578 1.3316
8.3322 -2.3818 1.3432
8.0324 -1.9866 1.2828
14.1199 -2.9577 2.2368
14.2168 -2.4479 2.2368
14.2969 -1.9351 2.2368
14.3600 -1.4200 2.2368
14.4062 -0.9029 2.2368
14.4354 -0.3843 2.2368
14.4476 0.1352 2.2368
14.4426 0.6551 2.2368
14.4205 1.1750 2.2368
14.3812 1.6942 2.2368
14.3248 2.2125 2.2368
14.2513 2.7291 2.2368
14.1606 3.2436 2.2368
14.0528 3.7556 2.2368
13.9280 4.2643 2.2368
13.7862 4.7695 2.2368
13.6274 5.2704 2.2368
13.2905 5.6976 2.2100
12.6483 5.9693 2.1338
12.4489 6.4323 2.1338
12.2337 6.8892 2.1338
12.0029 7.3397 2.1338
11.7566 7.7831 2.1338
11.4950 8.2191 2.1338
11.2183 8.6470 2.1338
10.9265 9.0664 2.1338
10.6200 9.4768 2.1338
10.2990 9.8776 2.1338
9.9636 10.2683 2.1338
9.6143 10.6485 2.1338
9.2511 11.0176 2.1338
8.8745 11.3751 2.1338
8.5127 11.7592 2.1408
8.1088 12.0932 2.1408
7.6924 12.4140 2.1408
7.2638 12.7213 2.1408
6.5439 12.4812 2.0531
6.3718 13.2931 2.1408
5.7393 13.1669 2.0792
5.2535 13.3408 2.0688
4.7688 13.5144 2.0611
4.2834 13.6860 2.0556
2.6927 9.8282 1.4559
3.3066 14.0267 2.0520
2.7022 13.6384 1.9730
2.4071 14.9440 2.1408
1.8756 15.0717 2.1408
1.3380 15.1808 2.1408
0.7950 15.2707 2.1408
0.2474 15.3413 2.1408
-0.3043 15.3923 2.1408
-0.8592 15.4233 2.1408
-1.4167 15.4341 2.1408
-1.9761 15.4245 2.1408
-2.5282 15.3439 2.1338
-3.0870 15.2933 2.1338
-3.6453 15.2218 2.1338
-4.2023 15.1294 2.1338
-4.7572 15.0161 2.1338
-5.3090 14.8818 2.1338
-5.8571 14.7266 2.1338
-6.4004 14.5504 2.1338
-6.9383 14.3534 2.1338
-7.4697 14.1356 2.1338
-7.9939 13.8973 2.1338
-8.5100 13.6386 2.1338
-9.2132 13.6503 2.1802
-9.9740 13.6920 2.2368
-10.4841 13.3584 2.2368
-10.9821 13.0046 2.2368
-11.4671 12.6312 2.2368
-11.9383 12.2385 2.2368
-12.3949 11.8271 2.2368
-12.8359 11.3975 2.2368
-13.2606 10.9504 2.2368
-13.6683 10.4863 2.2368
-14.0581 10.0060 2.2368
-14.4294 9.5100 2.2368
-14.7814 8.9993 2.2368
-15.1135 8.4745 2.2368
-15.4250 7.9365 2.2368
-9.8255 4.6179 1.3985
-15.2464 6.5093 2.1336
-15.4815 5.9633 2.1336
-15.6951 5.4081 2.1336
-15.8867 4.8446 2.1336
-16.0559 4.2738 2.1336
-16.1312 3.6803 2.1242
-16.2174 3.0931 2.1194
-11.2407 1.7290 1.4600
-9.3527 1.0972 1.2091
-9.3855 0.7614 1.2094
-16.9294 0.7641 2.1775
-9.7957 0.0907 1.2594
-14.6026 -0.3882 1.8794
-12.8858 -0.8054 1.6624
-12.6324 -1.2453 1.6360
-10.1379 -1.3678 1.3199
-13.7027 -2.3515 1.7960
-16.6095 -3.4673 2.1948
-13.5707 -3.3446 1.8105
-10.7223 -3.0541 1.4464
-10.8849 -3.5268 1.4870
-11.0429 -4.0207 1.5300
-11.2304 -4.5512 1.5806
-11.4302 -5.1164 1.6368
-11.6441 -5.7217 1.6993
-11.8742 -6.3730 1.7691
-12.1233 -7.0778 1.8471
-12.3944 -7.8449 1.9347
-12.6914 -8.6854 2.0334
-12.9477 -9.5599 2.1336
-12.5631 -9.9913 2.1336
-12.1634 -10.4067 2.1336
-11.7493 -10.8057 2.1336
-11.3216 -11.1876 2.1336
-10.8810 -11.5523 2.1336
-10.4283 -11.8991 2.1336
-9.9649 -12.2288 2.1338
-9.9488 -13.1449 2.2368
-9.4410 -13.4506 2.2368
-8.9238 -13.7364 2.2368
-8.3980 -14.0020 2.2368
-7.8644 -14.2474 2.2368
-7.3239 -14.4723 2.2368
-6.7774 -14.6767 2.2368
-6.2255 -14.8604 2.2368
-5.6691 -15.0234 2.2368
-5.1091 -15.1657 2.2368
-4.5461 -15.2874 2.2368
-3.9810 -15.3883 2.2368
-3.4146 -15.4688 2.2368
-2.8475 -15.5287 2.2368
-2.2806 -15.5682 2.2368
-1.6355 -14.8692 2.1337
-1.0970 -14.8684 2.1337
-0.5606 -14.8487 2.1337
-0.0271 -12.7666 2.1337
0.4301 -12.7232 2.1337
0.8843 -12.6640 2.1337
1.3348 -12.5891 2.1337
1.7812 -12.4987 2.1336
2.2230 -12.3932 2.1336
2.6597 -12.2727 2.1336
3.0908 -12.1375 2.1336
3.5100 -11.9678 2.1300
3.9692 -11.9285 2.1524
4.3845 -11.7494 2.1524
4.7924 -11.5566 2.1524
5.1926 -11.3504 2.1524
5.5845 -11.1312 2.1524
5.9678 -10.8992 2.1524
6.3421 -10.6549 2.1524
6.7833 -10.5165 2.1768
7.1427 -10.2454 2.1768
7.4921 -9.9629 2.1768
6.4943 -8.0187 1.8053
8.1592 -9.3649 2.1768
8.4764 -9.0501 2.1768
8.4394 -8.3848 2.0919
9.0766 -8.3913 2.1768
9.3591 -8.0479 2.1768
9.6295 -7.6957 2.1768
9.8877 -7.3352 2.1768
10.1333 -6.9667 2.1768
10.3661 -6.5906 2.1768
10.5861 -6.2073 2.1768
10.5786 -5.7018 2.1336
10.7684 -5.3134 2.1336
10.9450 -4.9192 2.1336
11.1082 -4.5195 2.1337
7.3973 -2.7038 1.4020
7.4420 -2.4204 1.3936
8.3617 -2.3905 1.5492
7.9571 -1.9681 1.4605
11.7196 -2.4550 2.1338
12.3702 -2.1299 2.2368
12.4398 -1.6836 2.2368
12.4944 -1.2352 2.2368
12.5342 -0.7851 2.2368
12.5589 -0.3338 2.2368
12.5686 0.1183 2.2368
12.5633 0.5707 2.2368
12.5428 1.0230 2.2368
12.5073 1.4746 2.2368
12.4567 1.9252 2.2368
12.3910 2.3743 2.2368
12.3103 2.8213 2.2368
12.2146 3.2660 2.2368
12.1039 3.7077 2.2368
11.9783 4.1460 2.2368
11.8379 4.5805 2.2368
11.6828 5.0107 2.2368
11.5130 5.4360 2.2368
11.3287 5.8561 2.2368
11.1300 6.2705 2.2368
10.7716 6.5897 2.2071
10.2421 6.7835 2.1431
9.9674 7.1301 2.1338
9.7244 7.4990 2.1338
9.4684 7.8602 2.1338
9.1997 8.2133 2.1338
8.9185 8.5578 2.1338
8.6250 8.8932 2.1338
8.3195 9.2192 2.1338
8.0022 9.5352 2.1338
7.6734 9.8410 2.1338
7.3334 10.1359 2.1338
6.9825 10.4197 2.1338
6.6210 10.6919 2.1338
6.2494 10.9520 2.1338
5.8679 11.1997 2.1338
5.4769 11.4347 2.1338
5.0768 11.6564 2.1338
4.6681 11.8646 2.1338
4.2511 12.0588 2.1338
3.8264 12.2387 2.1338
2.6736 9.7702 1.6807
2.9554 12.5542 2.1338
2.5102 12.6892 2.1338
2.0591 12.8085 2.1338
1.6028 12.9120 2.1338
1.1418 12.9993 2.1338
0.6765 13.0702 2.1338
0.2077 13.1245 2.1338
-0.2641 13.1619 2.1338
-0.7383 13.1822 2.1338
-1.2142 13.1853 2.1338
-1.6912 13.1709 2.1338
-2.1687 13.1391 2.1338
-2.6460 13.0897 2.1338
-3.1225 13.0226 2.1338
-3.5973 12.9377 2.1338
-4.0699 12.8350 2.1338
-4.5396 12.7146 2.1338
-5.0057 12.5765 2.1338
-5.4673 12.4208 2.1338
-6.0657 12.5405 2.1848
-6.6828 12.6392 2.2368
-7.1486 12.4211 2.2368
-7.6068 12.1851 2.2368
-8.0568 11.9314 2.2368
-8.4977 11.6603 2.2368
-8.9289 11.3722 2.2368
-9.3496 11.0672 2.2368
-9.7591 10.7459 2.2368
-10.1568 10.4085 2.2368
-10.5418 10.0556 2.2368
-10.9136 9.6876 2.2368
-11.2715 9.3050 2.2368
-11.6149 8.9084 2.2368
-11.9432 8.4983 2.2368
-12.2557 8.0754 2.2368
-12.5520 7.6401 2.2368
-12.8315 7.1933 2.2368
-13.0937 6.7355 2.2368
-9.7621 4.5872 1.6371
-12.9383 5.5228 2.1336
-13.1363 5.0591 2.1336
-13.3162 4.5877 2.1336
-13.4777 4.1095 2.1336
-13.6205 3.6252 2.1336
-13.7444 3.1355 2.1336
-13.8490 2.6414 2.1336
-10.6934 1.6450 1.6373
-9.3527 1.0974 1.4253
-9.3852 0.7616 1.4256
-9.6301 0.4350 1.4600
-9.6688 0.0901 1.4652
-9.7739 -0.2592 1.4824
-9.8796 -0.6168 1.5019
-10.0025 -0.9852 1.5262
-10.1373 -1.3667 1.5547
-10.2427 -1.7566 1.5811
-10.3878 -2.1672 1.6163
-10.5394 -2.5961 1.6554
-10.6983 -3.0457 1.6987
-10.8655 -3.5188 1.7466
-11.0421 -4.0185 1.7998
-11.2294 -4.5487 1.8587
-11.4291 -5.1136 1.9242
-11.6429 -5.7185 1.9971
-11.8729 -6.3694 2.0783
-11.9229 -6.9577 2.1336
-11.6418 -7.3653 2.1336
-11.3461 -7.7611 2.1336
-11.0361 -8.1448 2.1336
-10.7126 -8.5156 2.1336
-10.3760 -8.8732 2.1336
-10.0269 -9.2171 2.1336
-9.6661 -9.5470 2.1336
-9.2940 -9.8624 2.1336
-8.9332 -10.1878 2.1388
-8.9309 -10.9539 2.2368
-8.5094 -11.2368 2.2368
-8.0789 -11.5034 2.2368
-7.6400 -11.7531 2.2368
-7.1934 -11.9860 2.2368
-6.7398 -12.2017 2.2368
-6.2798 -12.4001 2.2368
-5.8141 -12.5811 2.2368
-5.3435 -12.7446 2.2368
-4.8686 -12.8905 2.2368
-4.3901 -13.0187 2.2368
-3.9087 -13.1293 2.2368
-3.4249 -13.2222 2.2368
-2.9395 -13.2975 2.2368
-2.4532 -13.3553 2.2368
-1.9664 -13.3955 2.2368
-1.4575 -13.2142 2.2028
-0.9486 -12.8052 2.1337
-0.4868 -12.7940 2.1337
-0.0271 -11.2083 2.1337
0.3744 -11.1739 2.1337
0.7736 -11.1256 2.1337
1.1698 -11.0634 2.1337
1.5626 -10.9875 2.1337
1.9517 -10.8982 2.1337
2.3364 -10.7956 2.1336
2.7165 -10.6799 2.1336
3.0915 -10.5514 2.1336
3.4609 -10.4103 2.1336
3.8245 -10.2568 2.1336
4.2187 -10.1803 2.1524
4.3167 -9.4421 2.0321
4.7735 -9.5204 2.0887
4.9642 -9.0714 2.0321
5.6531 -9.5022 2.1768
5.9801 -9.2758 2.1768
6.2986 -9.0387 2.1768
6.6082 -8.7913 2.1768
6.4935 -8.0210 2.0460
7.1999 -8.2670 2.1768
7.4814 -7.9907 2.1768
7.7529 -7.7054 2.1768
8.0142 -7.4115 2.1768
8.2651 -7.1094 2.1768
8.5053 -6.7993 2.1768
8.7346 -6.4816 2.1768
8.9529 -6.1568 2.1768
9.1598 -5.8251 2.1768
9.1694 -5.3779 2.1336
9.3497 -5.0406 2.1336
9.5183 -4.6976 2.1336
9.6752 -4.3493 2.1337
9.8202 -3.9962 2.1337
7.4081 -2.7082 1.5881
7.4525 -2.4242 1.5785
8.3739 -2.3943 1.7547
7.9492 -1.9664 1.6501
10.3627 -2.1709 2.1337
10.9380 -1.8833 2.2368
10.9995 -1.4885 2.2368
11.0476 -1.0919 2.2368
11.0824 -0.6938 2.2368
11.1038 -0.2946 2.2368
11.1118 0.1052 2.2368
11.1064 0.5053 2.2368
11.0875 0.9051 2.2368
11.0552 1.3044 2.2368
11.0094 1.7026 2.2368
10.9502 2.0994 2.2368
10.8776 2.4944 2.2368
10.7916 2.8870 2.2368
10.6923 3.2769 2.2368
10.5798 3.6637 2.2368
10.4541 4.0469 2.2368
10.3153 4.4262 2.2368
10.1635 4.8010 2.2368
9.9989 5.1711 2.2368
9.8215 5.5359 2.2368
9.6315 5.8950 2.2368
9.4291 6.2480 2.2368
9.2144 6.5945 2.2368
8.9875 6.9340 2.2368
8.7488 7.2662 2.2368
8.3388 7.4483 2.1949
7.9164 7.5999 2.1500
7.5960 7.8362 2.1338
7.3248 8.1211 2.1338
7.0433 8.3972 2.1338
6.7518 8.6639 2.1338
6.4506 8.9209 2.1338
6.1399 9.1679 2.1338
5.8201 9.4045 2.1338
5.4915 9.6303 2.1338
5.1544 9.8450 2.1338
4.8092 10.0482 2.1338
