ply
format ascii 1.0
element vertex 2114
property float32 x
property float32 y
property float32 z
end_header
-59.7981 15.9269 0.3559
-60.0862 13.7141 0.3534
-60.5677 11.5537 0.3524
-60.8517 9.3580 0.3507
-61.3509 7.1914 0.3507
-59.6398 4.8283 0.3386
-60.0151 2.6951 0.3388
-60.3293 0.5414 0.3391
-60.6632 -1.6341 0.3400
-61.1552 -3.8477 0.3421
-15.9940 -1.5844 0.0894
-67.1269 -9.0932 0.3757
-83.8481 -34.0718 0.4906
-78.1486 -35.0748 0.4628
-73.0223 -35.9769 0.4385
-65.2761 -35.1268 0.3981
-59.1542 -34.6265 0.3670
-60.2358 -38.2271 0.3808
-38.5740 -26.4688 0.2490
-60.4192 -44.7314 0.3990
-61.0698 -48.7017 0.4135
-34.1355 -29.2874 0.2375
-60.0822 -55.4148 0.4304
-15.9089 -15.7668 0.1176
-43.5573 -46.3840 0.3334
-60.4117 -69.1470 0.4799
-60.5156 -74.5028 0.5006
-22.0867 -29.2798 0.1911
-38.5503 -55.1142 0.3493
-28.4046 -47.5414 0.2865
-30.7774 -61.0805 0.3527
-27.0543 -64.9030 0.3615
-23.1056 -61.5648 0.3377
-20.6027 -61.5244 0.3328
-24.7755 -96.4943 0.5100
-6.5627 -45.3821 0.2343
-8.9531 -82.7999 0.4254
-6.2968 -87.5399 0.4482
-0.0000 -77.1852 2.1329
2.7705 -77.1328 2.1329
5.5372 -76.9797 2.1329
5.2051 -48.1380 1.3382
6.9611 -48.1374 1.3444
8.0508 -44.3641 1.2465
9.7072 -44.3624 1.2556
2.6723 -10.4082 0.2972
10.1304 -34.2944 0.9891
2.3488 -7.0142 0.2046
10.6917 -28.4885 0.8420
10.2509 -24.5923 0.7375
13.0940 -28.4877 0.8681
14.3541 -28.4873 0.8835
15.6605 -28.4868 0.9006
17.0195 -28.4864 0.9197
18.4381 -28.4859 0.9408
19.9859 -28.5736 0.9671
24.4198 -32.3732 1.1252
24.4423 -30.0922 1.0762
24.8946 -28.4947 1.0508
26.7571 -28.4940 1.0861
28.7185 -28.4624 1.1240
30.8584 -28.4617 1.1676
33.1717 -28.4609 1.2163
38.2291 -30.4874 1.3614
38.2279 -28.3026 1.3250
41.0206 -28.1483 1.3867
44.3515 -28.1471 1.4650
41.7880 -24.4616 1.3512
20.6755 -11.1263 0.6556
7.4913 -3.6909 0.2333
7.4912 -3.3623 0.2295
7.4911 -3.0441 0.2262
7.4909 -2.7351 0.2232
7.4941 -2.4351 0.2207
7.5666 -2.1616 0.2206
7.5665 -1.8706 0.2186
7.5664 -1.5848 0.2169
7.5663 -1.3032 0.2156
7.4911 -1.0148 0.2124
7.4903 -0.7421 0.2117
7.4902 -0.4714 0.2112
7.4901 -0.2018 0.2110
7.4922 0.0671 0.2111
7.4899 0.3363 0.2114
7.4898 0.6063 0.2120
7.4897 0.8778 0.2129
7.4896 1.1517 0.2141
7.4895 1.4286 0.2155
7.4894 1.7093 0.2173
7.4893 1.9947 0.2194
7.4892 2.2855 0.2218
7.4891 2.5828 0.2245
7.4890 2.8875 0.2276
7.4968 3.2042 0.2313
7.4967 3.5275 0.2352
7.4966 3.8621 0.2396
7.4388 4.1768 0.2425
7.4885 4.5657 0.2495
7.4883 4.9429 0.2553
7.4882 5.3383 0.2618
12.8427 9.8695 0.4614
11.9301 9.8692 0.4413
11.0936 9.8690 0.4234
10.3221 9.8687 0.4074
9.6064 9.8685 0.3931
8.9392 9.8682 0.3802
8.3140 9.8680 0.3686
7.7561 9.9068 0.3596
7.8927 10.8632 0.3839
6.6778 9.9214 0.3420
6.1463 9.8798 0.3329
7.8725 13.7301 0.4530
6.1310 11.6423 0.3767
6.1119 12.6913 0.4034
6.1206 13.9713 0.4369
6.1083 15.4277 0.4754
6.1153 17.2279 0.5239
6.1386 19.4857 0.5856
7.7513 28.0859 0.8352
12.8915 54.2321 1.5982
10.8507 54.2316 1.5859
8.8725 54.4358 1.5817
6.9169 54.7519 1.5827
6.6884 74.3128 2.1400
2.9493 54.7098 1.5715
1.0048 55.9674 1.6055
-0.9819 54.6911 1.5689
-2.9481 54.6861 1.5707
-4.9181 54.6442 1.5734
-7.3629 58.2825 1.6846
-8.9262 54.7649 1.5910
-10.9836 54.8953 1.6050
-12.7306 53.5551 1.5779
-10.2700 37.2117 1.1063
-10.3564 32.8744 0.9876
-10.2576 28.8975 0.8784
-21.7977 55.0538 1.6957
-10.4107 23.7643 0.7429
-10.2344 21.2517 0.6752
-14.8387 28.1776 0.9114
-36.1950 63.1259 2.0815
-10.5044 16.8852 0.5687
-10.2322 15.2023 0.5238
-42.6167 58.6557 2.0717
-10.2314 13.0685 0.4741
-48.0564 57.0389 2.1294
-10.1920 11.2512 0.4332
-32.8893 33.7864 1.3449
-54.2798 51.8957 2.1410
-10.1912 9.0662 0.3887
-32.6428 27.0039 1.2066
-15.8303 12.1655 0.5683
-10.1906 7.2649 0.3561
-10.3705 6.8453 0.3533
-6.2617 3.8178 0.2084
-6.5268 3.6647 0.2126
-6.8033 3.5049 0.2172
-10.5504 4.9645 0.3308
-59.7850 25.5524 1.8433
-60.7163 23.4101 1.8438
-28.3813 9.7878 0.8501
-43.4591 13.2624 1.2858
-59.7982 15.9262 1.7500
-59.7474 13.6361 1.7320
-60.5696 11.5534 1.7415
-61.0494 9.3877 1.7433
-43.4563 5.0933 1.2341
-59.6286 4.8267 1.6862
-60.0040 2.6939 1.6919
-59.8838 0.5367 1.6857
-60.7662 -1.6376 1.7100
-43.4538 -2.7345 1.2240
-16.0031 -1.5855 0.4518
-43.6155 -5.9088 1.2357
-76.6108 -13.1948 2.1810
-43.4589 -9.1023 1.2449
-43.4511 -10.7423 1.2541
-72.0481 -20.5828 2.0981
-43.6147 -14.1720 1.2833
-73.2591 -26.7480 2.1810
-56.2374 -22.8529 1.6965
-71.2391 -31.9745 2.1810
-10.4576 -5.1524 0.3254
-64.8129 -34.8783 2.0533
-64.1324 -37.5414 2.0719
-10.3914 -6.5947 0.3430
-10.1858 -6.9895 0.3440
-43.4886 -32.1975 1.5062
-43.4878 -34.6812 1.5475
-10.1852 -8.7388 0.3732
-43.4859 -40.1085 1.6442
-15.9169 -15.7750 0.6225
-10.1845 -10.8456 0.4131
-43.4826 -49.7708 1.8343
-10.2176 -12.5794 0.4496
-22.0780 -29.2687 1.0167
-38.5421 -55.1033 1.8641
-39.5820 -61.1520 2.0186
-28.4359 -47.5945 1.5358
-33.6056 -61.1294 1.9317
-10.1256 -20.0954 0.6230
-10.2769 -22.3587 0.6810
-10.1732 -24.4057 0.7316
-10.0674 -26.8248 0.7926
-10.1806 -30.4019 0.8867
-10.1622 -34.4018 0.9919
-10.1723 -39.6190 1.1309
-10.1535 -46.4018 1.3130
-10.0576 -55.4227 1.5569
-6.5613 -45.3729 1.2670
-8.2971 -76.7333 2.1329
-5.5375 -76.9850 2.1329
-2.7706 -77.1358 2.1329
-0.0000 -44.5516 2.2360
1.5991 -44.5221 2.2360
3.0486 -42.3829 2.1328
4.5677 -42.2443 2.1328
6.1186 -42.3120 2.1460
7.6329 -42.0622 2.1460
9.1371 -41.7577 2.1460
2.6720 -10.4071 0.5395
10.1304 -34.2949 1.7957
10.1247 -30.2354 1.6013
10.6916 -28.4885 1.5284
10.2508 -24.5923 1.3385
13.0939 -28.4877 1.5753
14.3539 -28.4873 1.6030
15.6603 -28.4868 1.6339
17.0193 -28.4864 1.6681
18.4378 -28.4859 1.7061
19.9256 -28.4878 1.7484
21.5468 -28.5648 1.7999
24.4151 -30.0591 1.9485
24.8671 -28.4637 1.9022
26.7276 -28.4631 1.9656
28.7180 -28.4624 2.0360
30.8578 -28.4617 2.1144
32.1266 -27.5648 2.1328
33.0855 -26.3859 2.1328
34.0011 -25.1737 2.1328
35.1806 -24.1414 2.1516
37.4253 -23.7520 2.2360
38.2415 -22.3861 2.2360
20.6755 -11.1266 1.1852
7.4913 -3.6910 0.4217
7.4912 -3.3624 0.4148
7.4911 -3.0442 0.4086
7.4909 -2.7351 0.4031
7.4941 -2.4352 0.3984
7.5666 -2.1617 0.3981
7.5665 -1.8707 0.3944
7.5664 -1.5848 0.3913
7.5663 -1.3032 0.3888
7.4911 -1.0149 0.3829
7.4903 -0.7422 0.3814
7.4902 -0.4714 0.3805
7.4901 -0.2019 0.3800
7.4922 0.0671 0.3801
7.4899 0.3362 0.3805
7.4898 0.6062 0.3815
7.4897 0.8777 0.3830
7.4896 1.1516 0.3850
7.4895 1.4285 0.3875
7.4894 1.7092 0.3906
7.4893 1.9946 0.3942
7.4892 2.2854 0.3984
7.4891 2.5827 0.4032
7.4890 2.8874 0.4087
7.5006 3.2057 0.4155
7.5006 3.5293 0.4223
7.5006 3.8640 0.4300
7.4388 4.1767 0.4350
7.4885 4.5656 0.4473
7.4883 4.9428 0.4577
7.4882 5.3382 0.4693
12.8429 9.8695 0.8268
11.9304 9.8692 0.7906
11.0938 9.8690 0.7583
10.3222 9.8687 0.7296
9.6066 9.8685 0.7038
8.9393 9.8682 0.6806
8.3141 9.8680 0.6597
7.7561 9.9067 0.6434
7.8837 10.8507 0.6860
6.6779 9.9214 0.6118
6.1464 9.8798 0.5954
7.8725 13.7300 0.8100
6.1310 11.6423 0.6735
6.1120 12.6913 0.7211
6.1207 13.9713 0.7810
6.1083 15.4275 0.8497
6.0828 17.1361 0.9313
6.0511 19.2080 1.0315
7.7514 28.0859 1.4925
5.9471 25.0182 1.3173
8.1681 40.8234 2.1329
6.6971 41.0884 2.1329
5.4698 43.2966 2.2360
3.3783 37.5349 1.9310
2.3491 43.5755 2.2360
0.7833 43.6315 2.2360
-0.7834 43.6319 2.2360
-2.3492 43.5767 2.2360
-3.9121 43.4658 2.2360
-5.4702 43.2996 2.2360
-7.0214 43.0778 2.2360
-8.5639 42.8014 2.2360
-9.6295 40.5089 2.1328
-10.2693 37.2089 1.9770
-10.2373 32.4959 1.7448
-10.2361 28.8365 1.5668
-10.4472 26.3859 1.4529
-10.4071 23.7557 1.3276
-10.2339 21.2504 1.2072
-10.4042 19.7566 1.1426
-19.0982 33.3078 1.9644
-10.5048 16.8854 1.0172
-10.2321 15.2019 0.9372
-14.2147 19.5642 1.2365
-10.2313 13.0682 0.8484
-25.0776 29.7645 1.9891
-10.2312 11.2943 0.7786
-26.4614 27.1827 1.9378
-30.5914 29.2472 2.1613
-10.2299 9.1004 0.6990
-19.5157 16.1441 1.2927
-15.8223 12.1591 1.0182
-10.2300 7.2928 0.6408
-10.4148 6.8744 0.6363
-6.2618 3.8178 0.3738
-6.5268 3.6646 0.3814
-6.8034 3.5048 0.3899
-10.3593 4.8744 0.5830
-34.7908 14.8693 1.9261
-40.4783 15.6065 2.2078
-28.3690 9.7832 1.5266
-10.2278 3.1211 0.5438
-42.1227 11.2181 2.2160
-42.5137 9.7023 2.2160
-42.8502 8.1729 2.2160
-43.1318 6.6319 2.2160
-10.2275 1.1986 0.5227
-43.5286 3.5229 2.2160
-43.6432 1.9588 2.2160
-43.4543 0.3889 2.2035
-43.4538 -1.1716 2.2033
-10.2504 -0.6452 0.5204
-10.2271 -1.0134 0.5205
-43.3718 -5.8763 2.2160
-43.1487 -7.4321 2.2160
-42.8698 -8.9795 2.2160
-42.5297 -10.5150 2.2157
-10.2260 -2.9215 0.5377
-41.3589 -13.4395 2.1978
-40.4423 -14.7666 2.1752
-39.4984 -16.0512 2.1532
-10.3015 -4.6238 0.5701
-10.2258 -5.0384 0.5753
-34.4163 -18.5212 1.9719
-33.9285 -19.8613 1.9829
-10.4370 -6.6239 0.6233
-10.2250 -7.0166 0.6251
-33.5372 -24.8303 2.1028
-31.8817 -25.4259 2.0543
-10.2242 -8.7724 0.6785
-28.1340 -25.9494 1.9270
-15.9249 -15.7832 1.1286
-10.2231 -10.8868 0.7515
-25.3255 -28.9884 1.9366
-10.2485 -12.6176 0.8176
-22.0518 -29.2344 1.8414
-24.9130 -35.6185 2.1853
-23.7004 -36.6162 2.1925
-21.1965 -35.4781 2.0770
-20.3915 -37.0931 2.1269
-10.1255 -20.0954 1.1305
-10.2120 -22.2177 1.2283
-10.1731 -24.4057 1.3280
-10.0674 -26.8251 1.4389
-10.0663 -30.0608 1.5918
-10.0649 -34.0730 1.7838
-10.0631 -39.1943 2.0315
-9.0824 -41.5077 2.1329
-7.5872 -41.8095 2.1329
-6.1541 -42.5569 2.1583
-4.7892 -44.2919 2.2360
-3.1963 -44.4365 2.2360
-1.5992 -44.5230 2.2360
-0.0000 -30.7162 2.2360
1.1025 -30.6961 2.2360
2.1018 -29.2214 2.1328
3.1493 -29.1263 2.1328
4.1926 -28.9933 2.1328
5.2303 -28.8227 2.1328
6.2612 -28.6148 2.1328
2.6717 -10.4060 0.7823
8.2968 -28.0878 2.1328
9.2989 -27.7696 2.1328
10.2887 -27.4154 2.1328
10.2507 -24.5924 1.9408
12.2265 -26.6009 2.1328
13.1719 -26.1418 2.1328
14.1000 -25.6489 2.1328
15.0095 -25.1229 2.1328
15.8994 -24.5644 2.1328
16.8956 -24.1562 2.1489
18.2135 -24.1463 2.2052
19.3319 -23.8012 2.2360
20.1703 -23.0879 2.2360
20.9823 -22.3451 2.2360
21.7668 -21.5735 2.2360
22.5229 -20.7743 2.2360
23.2494 -19.9485 2.2360
23.9456 -19.0972 2.2360
24.6105 -18.2215 2.2360
25.2433 -17.3227 2.2360
24.6517 -15.6456 2.1329
25.1918 -14.7473 2.1329
20.6755 -11.1269 1.7160
7.4913 -3.6911 0.6105
7.4912 -3.3625 0.6004
7.4911 -3.0443 0.5914
7.4909 -2.7352 0.5834
7.4941 -2.4353 0.5766
7.5666 -2.1618 0.5760
7.5665 -1.8708 0.5706
7.5664 -1.5849 0.5661
7.5663 -1.3033 0.5624
7.4911 -1.0150 0.5539
7.4903 -0.7423 0.5516
7.4902 -0.4715 0.5501
7.4901 -0.2020 0.5494
7.4922 0.0670 0.5495
7.4899 0.3361 0.5500
7.4898 0.6061 0.5514
7.4897 0.8777 0.5535
7.4896 1.1515 0.5563
7.4895 1.4284 0.5599
7.4894 1.7091 0.5643
7.4893 1.9945 0.5694
7.4892 2.2853 0.5754
7.4891 2.5826 0.5823
7.4890 2.8873 0.5901
7.5044 3.2072 0.6002
7.5045 3.5310 0.6101
7.5045 3.8659 0.6211
7.4388 4.1766 0.6278
7.4885 4.5655 0.6456
7.4883 4.9427 0.6606
7.4882 5.3381 0.6772
12.8432 9.8695 1.1930
11.9306 9.8692 1.1406
11.0940 9.8690 1.0941
10.3224 9.8687 1.0524
9.6067 9.8685 1.0151
8.9395 9.8682 0.9816
8.3142 9.8680 0.9514
7.7440 9.8911 0.9264
7.1865 9.8909 0.9017
6.6780 9.9214 0.8822
6.1465 9.8798 0.8584
6.0850 10.6123 0.9026
6.0847 11.5541 0.9636
6.0534 12.5695 1.0296
6.0530 13.8166 1.1134
6.0525 15.2862 1.2136
6.0519 17.0488 1.3355
6.0511 19.2078 1.4868
7.8409 28.4099 2.1760
5.9472 25.0182 1.8988
5.6668 28.3219 2.1328
4.6464 28.5065 2.1328
3.6200 28.6547 2.1329
2.5891 28.7661 2.1329
1.6299 30.2345 2.2360
0.5435 30.2733 2.2360
-0.5436 30.2735 2.2360
-1.6300 30.2350 2.2360
-2.7144 30.1577 2.2360
-3.7953 30.0419 2.2360
-4.8716 29.8876 2.2360
-5.9416 29.6950 2.2360
-6.6808 28.1038 2.1328
-7.6859 27.8479 2.1328
-8.6812 27.5562 2.1328
-9.6657 27.2292 2.1328
-10.2350 25.8495 2.0520
-10.2342 23.3606 1.8822
-10.2335 21.2492 1.7404
-10.2329 19.4311 1.6203
-10.2324 17.8454 1.5176
-10.4050 16.7249 1.4529
-10.2317 15.2011 1.3514
-14.5994 20.0934 1.8315
-10.2312 13.0678 1.2236
-10.3897 12.3313 1.1886
-10.2307 11.2936 1.1231
-20.6806 21.2440 2.1848
-20.9805 20.0583 2.1385
-10.2298 9.1002 1.0086
-22.3212 18.4645 2.1335
-15.8142 12.1527 1.4685
-10.2296 7.2924 0.9248
-10.4150 6.8744 0.9185
-6.2619 3.8177 0.5397
-6.5269 3.6646 0.5507
-6.8035 3.5048 0.5629
-10.3596 4.8744 0.8419
-10.3910 4.4409 0.8308
-25.8705 9.9741 2.0379
-26.5556 9.1575 2.0641
-10.2277 3.1209 0.7856
-10.3975 2.7689 0.7903
-28.8026 6.5728 2.1692
-28.7397 5.4812 2.1477
-28.9153 4.4457 2.1470
-10.2274 1.1985 0.7555
-29.2942 2.3705 2.1558
-29.4649 1.3221 2.1629
-29.5051 0.2637 2.1632
-29.4774 -0.7951 2.1613
-10.2498 -0.6453 0.7525
-10.2270 -1.0135 0.7529
-29.4323 -3.9880 2.1753
-25.4525 -4.3844 1.8911
-24.4852 -5.1290 1.8313
-23.9124 -5.9124 1.8027
-10.2259 -2.9216 0.7781
-28.3042 -9.1978 2.1769
-27.9658 -10.2114 2.1772
-10.4033 -4.2278 0.8210
-10.3012 -4.6238 0.8253
-10.2256 -5.0384 0.8330
-25.2111 -13.5678 2.0918
-25.1311 -14.7118 2.1271
-10.4368 -6.6239 0.9027
-10.2248 -7.0166 0.9054
-24.0490 -17.8058 2.1843
-23.1791 -18.4859 2.1638
-10.2241 -8.7725 0.9830
-20.3854 -18.8028 2.0233
-15.9330 -15.7914 1.6363
-10.2230 -10.8869 1.0891
-14.6150 -16.7290 1.6198
-10.2483 -12.6176 1.1851
-13.2090 -17.5115 1.5989
-13.1374 -18.7830 1.6706
-16.5233 -25.5282 2.2160
-15.5983 -26.1083 2.2160
-14.6529 -26.6547 2.2160
-10.1254 -20.0954 1.6392
-10.0690 -21.9069 1.7561
-10.0683 -24.1545 1.9059
-10.0674 -26.8254 2.0866
-9.3007 -27.7750 2.1329
-8.2983 -28.0929 2.1329
-7.2851 -28.3745 2.1329
-6.2622 -28.6192 2.1329
-5.4840 -30.2201 2.2360
-4.3958 -30.3986 2.2360
-3.3019 -30.5376 2.2360
-2.2037 -30.6369 2.2360
-1.1026 -30.6965 2.2360
-0.0000 -23.4195 2.2360
0.8406 -23.4042 2.2360
1.6801 -23.3586 2.2360
2.5174 -23.2826 2.2360
3.3514 -23.1766 2.2360
4.1810 -23.0405 2.2360
5.0051 -22.8746 2.2360
2.6714 -10.4049 1.0259
6.6326 -22.4541 2.2360
7.4338 -22.2001 2.2360
8.2253 -21.9175 2.2360
9.0060 -21.6064 2.2360
9.7749 -21.2674 2.2360
10.5310 -20.9009 2.2360
11.2734 -20.5075 2.2360
12.0010 -20.0875 2.2360
12.7129 -19.6416 2.2360
13.4082 -19.1705 2.2360
14.0860 -18.6746 2.2360
14.7454 -18.1547 2.2360
15.3855 -17.6113 2.2360
16.0056 -17.0454 2.2360
15.8391 -15.6987 2.1329
16.3898 -15.1177 2.1329
16.9192 -14.5173 2.1329
17.4264 -13.8982 2.1328
17.9110 -13.2615 2.1328
18.3722 -12.6078 2.1328
18.9705 -12.0402 2.1510
19.3871 -11.3495 2.1510
19.7786 -10.6444 2.1510
7.4913 -3.6912 0.7999
7.4912 -3.3626 0.7866
7.4911 -3.0444 0.7748
7.4909 -2.7353 0.7643
7.4941 -2.4354 0.7553
7.5666 -2.1619 0.7545
7.5665 -1.8709 0.7474
7.5664 -1.5850 0.7414
7.5663 -1.3034 0.7365
7.4911 -1.0151 0.7253
7.4903 -0.7424 0.7223
7.4902 -0.4716 0.7204
7.4901 -0.2021 0.7193
7.4922 0.0669 0.7195
7.4899 0.3360 0.7201
7.4898 0.6060 0.7218
7.4897 0.8776 0.7245
7.4896 1.1514 0.7282
7.4895 1.4283 0.7328
7.4894 1.7090 0.7385
7.4893 1.9944 0.7452
7.4892 2.2852 0.7530
7.4891 2.5825 0.7620
7.4890 2.8872 0.7722
7.5083 3.2088 0.7857
7.5084 3.5328 0.7986
7.5085 3.8679 0.8130
7.4388 4.1765 0.8213
7.4885 4.5654 0.8445
7.4883 4.9426 0.8641
7.4882 5.3380 0.8858
9.9085 7.6142 1.2038
9.2055 7.6148 1.1511
11.0942 9.8690 1.4309
8.8500 8.4608 1.1800
8.8575 9.0987 1.2240
8.9396 9.8682 1.2837
8.3144 9.8680 1.2441
7.7215 9.8622 1.2078
7.1669 9.8638 1.1759
6.6404 9.8654 1.1470
6.1386 9.8670 1.1209
6.0541 10.5582 1.1741
6.0538 11.4952 1.2534
6.0534 12.5694 1.3461
6.0530 13.8164 1.4555
6.0525 15.2860 1.5865
6.0519 17.0486 1.7459
6.0511 19.2076 1.9436
5.8789 21.3006 2.1328
5.1102 21.4970 2.1328
4.3351 21.6658 2.1328
3.5544 21.8068 2.1328
2.7692 21.9198 2.1328
1.9805 22.0048 2.1328
1.2469 23.1295 2.2360
0.4158 23.1593 2.2360
-0.4158 23.1595 2.2360
-1.2470 23.1299 2.2360
-2.0765 23.0706 2.2360
-2.9035 22.9818 2.2360
-3.7267 22.8635 2.2360
-4.5452 22.7159 2.2360
-5.3580 22.5392 2.2360
-6.1640 22.3335 2.2360
-6.6412 21.0803 2.1329
-7.3942 20.8298 2.1329
-8.1377 20.5524 2.1329
-8.8710 20.2486 2.1329
-9.5930 19.9189 2.1329
-10.2328 19.4306 2.1184
-10.2323 17.8449 1.9841
-10.2319 16.4463 1.8681
-10.2315 15.2005 1.7670
-10.2311 14.0811 1.6783
-10.2308 13.0671 1.6000
-10.2305 12.1422 1.5306
-10.2303 11.2929 1.4687
-15.9389 16.3728 2.2021
-16.4699 15.7457 2.1956
-10.2297 9.0999 1.3191
-17.4799 14.4594 2.1853
-15.8062 12.1463 1.9200
-10.2292 7.2920 1.2098
-10.3848 6.8543 1.1981
-6.2620 3.8177 0.7060
-6.5270 3.6645 0.7205
-6.8035 3.5047 0.7365
-10.3599 4.8744 1.1016
-10.3875 4.4393 1.0867
-20.9927 8.0932 2.1640
-21.7850 7.5122 2.2160
-10.2277 3.1208 1.0281
-10.3819 2.7646 1.0328
-22.4418 5.1210 2.2123
-22.5888 4.3079 2.2097
-22.6879 3.4879 2.2053
-10.2274 1.1983 0.9891
-22.7648 1.8419 2.1934
-22.7975 1.0227 2.1911
-10.3919 0.0928 0.9976
-22.7993 -0.6153 2.1890
-10.2493 -0.6453 0.9854
-10.2267 -1.0136 0.9860
-22.8559 -3.0972 2.2124
-22.2404 -3.8313 2.1643
-21.8314 -4.5733 2.1387
-10.3960 -2.5705 1.0266
-10.2258 -2.9217 1.0193
-21.0489 -6.8403 2.1209
-21.2110 -7.7453 2.1635
-10.3953 -4.2247 1.0749
-10.3009 -4.6238 1.0814
-10.2253 -5.0384 1.0916
-20.3554 -10.9549 2.2132
-19.9626 -11.6864 2.2143
-10.4015 -6.6016 1.1791
-10.2245 -7.0164 1.1867
-18.5438 -13.7300 2.2077
-18.0448 -14.3914 2.2080
-10.2237 -8.7723 1.2885
-16.9651 -15.6483 2.2073
-15.9411 -15.7997 2.1462
-10.2228 -10.8869 1.4279
-10.2368 -11.7177 1.4875
-10.2222 -12.5856 1.5498
-10.2219 -13.5516 1.6223
-10.2215 -14.6142 1.7043
-11.5910 -17.9082 2.0384
-11.4384 -19.1457 2.1309
-10.6874 -19.4414 2.1195
-10.0468 -19.9399 2.1329
-9.3254 -20.2893 2.1329
-8.5918 -20.6125 2.1329
-7.8469 -20.9090 2.1329
-7.0918 -21.1785 2.1329
-6.3475 -21.4889 2.1397
-5.8231 -22.6806 2.2360
-5.0055 -22.8760 2.2360
-4.1813 -23.0416 2.2360
-3.3516 -23.1775 2.2360
-2.5175 -23.2833 2.2360
-1.6802 -23.3590 2.2360
-0.8407 -23.4044 2.2360
-0.0000 -18.9084 2.2360
0.6787 -18.8960 2.2360
1.3565 -18.8593 2.2360
2.0325 -18.7981 2.2360
2.7058 -18.7126 2.2360
3.3757 -18.6028 2.2360
4.0411 -18.4690 2.2360
2.6711 -10.4038 1.2704
5.3552 -18.1299 2.2360
6.0022 -17.9250 2.2360
6.6413 -17.6971 2.2360
7.2718 -17.4462 2.2360
7.8928 -17.1727 2.2360
8.5035 -16.8771 2.2360
8.6834 -15.7962 2.1329
9.2440 -15.4729 2.1329
9.7925 -15.1297 2.1329
10.3282 -14.7670 2.1329
10.8504 -14.3852 2.1329
11.3585 -13.9850 2.1328
11.8518 -13.5667 2.1328
12.3297 -13.1309 2.1328
12.7915 -12.6783 2.1328
13.2366 -12.2094 2.1328
13.7815 -11.8253 2.1510
14.1953 -11.3215 2.1510
14.5907 -10.8033 2.1510
14.9671 -10.2712 2.1510
6.6427 -4.2161 0.9324
6.7340 -3.9423 0.9249
15.9778 -8.5992 2.1510
7.4913 -3.6913 0.9902
7.4912 -3.3627 0.9737
7.4911 -3.0445 0.9590
7.4909 -2.7354 0.9459
7.4941 -2.4355 0.9348
7.5666 -2.1620 0.9337
7.5665 -1.8710 0.9250
7.5664 -1.5851 0.9176
7.5663 -1.3035 0.9114
7.4911 -1.0152 0.8975
7.4903 -0.7424 0.8938
7.4902 -0.4717 0.8913
7.4901 -0.2022 0.8900
7.4922 0.0668 0.8901
7.4899 0.3359 0.8909
7.4898 0.6059 0.8930
7.4897 0.8775 0.8963
7.4896 1.1513 0.9008
7.4895 1.4282 0.9065
7.4894 1.7090 0.9135
7.4893 1.9943 0.9218
7.4892 2.2851 0.9314
7.4891 2.5824 0.9425
7.4890 2.8871 0.9550
7.5121 3.2103 0.9722
7.5123 3.5345 0.9882
7.5125 3.8699 1.0060
7.4388 4.1764 1.0157
7.4885 4.5653 1.0443
7.4883 4.9425 1.0685
7.4882 5.3379 1.0953
9.9087 7.6142 1.4885
8.8503 7.3209 1.3684
8.8737 7.8936 1.4151
8.8500 8.4607 1.4590
8.8562 9.0972 1.5131
8.9397 9.8682 1.5870
8.3145 9.8680 1.5381
7.7222 9.8629 1.4933
7.1670 9.8638 1.4537
6.6405 9.8654 1.4179
6.1387 9.8670 1.3857
6.0541 10.5581 1.4514
6.0538 11.4951 1.5494
6.0534 12.5692 1.6639
6.0530 13.8163 1.7992
6.0525 15.2859 1.9611
6.0519 17.0484 2.1581
5.3720 17.0516 2.1328
4.7562 17.2327 2.1328
4.1344 17.3917 2.1328
3.5073 17.5284 2.1328
2.8757 17.6426 2.1328
2.2405 17.7341 2.1328
1.6799 18.6648 2.2360
1.0088 18.7129 2.2360
0.3364 18.7370 2.2360
-0.3364 18.7371 2.2360
-1.0089 18.7132 2.2360
-1.6800 18.6652 2.2360
-2.3490 18.5932 2.2360
-3.0151 18.4974 2.2360
-3.6773 18.3778 2.2360
-4.3348 18.2347 2.2360
-4.9868 18.0681 2.2360
-5.6325 17.8783 2.2360
-6.1686 17.3770 2.1995
-6.5834 16.6265 2.1329
-7.1764 16.3805 2.1329
-7.7604 16.1135 2.1329
-8.3345 15.8257 2.1329
-8.8979 15.5176 2.1329
-9.4501 15.1894 2.1329
-9.9902 14.8417 2.1329
-10.2310 14.0807 2.0748
-10.2307 13.0668 1.9781
-10.2304 12.1419 1.8923
-10.2302 11.2926 1.8158
-10.2299 10.5082 1.7475
-10.2297 9.7797 1.6862
-10.2295 9.0996 1.6310
-10.2293 8.4615 1.5813
-10.2291 7.8604 1.5364
-10.2289 7.2916 1.4959
-10.2659 6.7757 1.4646
-6.2620 3.8176 0.8731
-6.5271 3.6645 0.8910
-6.8036 3.5047 0.9109
-10.3602 4.8744 1.3625
-10.3875 4.4391 1.3441
-17.3806 6.7004 2.2160
-17.6126 6.0732 2.2160
-10.2276 3.1207 1.2717
-10.3820 2.7645 1.2775
-18.1719 4.1464 2.2160
-18.3119 3.4920 2.2160
-18.4284 2.8329 2.2160
-10.2272 1.1982 1.2237
-18.5901 1.5039 2.2160
-18.6351 0.8357 2.2160
-10.3921 0.0926 1.2344
-18.6530 -0.5036 2.2160
-10.2491 -0.6454 1.2194
-10.2264 -1.0136 1.2200
-18.4996 -2.5071 2.2160
-18.4006 -3.1701 2.2160
-18.2778 -3.8291 2.2160
-10.3960 -2.5707 1.2706
-10.2257 -2.9218 1.2616
-17.7684 -5.7745 2.2160
-17.5524 -6.4096 2.2160
-10.3953 -4.2248 1.3305
-10.3006 -4.6238 1.3386
-10.2249 -5.0383 1.3512
-16.4639 -8.8608 2.2160
-16.1375 -9.4473 2.2160
-10.3528 -6.5708 1.4529
-10.2241 -7.0163 1.4691
-10.2239 -7.5700 1.5070
-10.2237 -8.1539 1.5489
-10.2235 -8.7722 1.5954
-10.2232 -9.4299 1.6469
-10.2230 -10.1325 1.7042
-10.2227 -10.8870 1.7681
-10.2224 -11.7014 1.8393
-10.2221 -12.5857 1.9192
-10.2217 -13.5517 2.0090
-10.0720 -14.4007 2.0797
-6.8063 -10.5159 1.4823
-9.2452 -15.4749 2.1329
-8.6844 -15.7980 2.1329
-8.1123 -16.1006 2.1329
-7.5297 -16.3826 2.1329
-6.9372 -16.6433 2.1329
-6.3531 -16.9288 2.1388
-6.0027 -17.9264 2.2360
-5.3556 -18.1311 2.2360
-4.7015 -18.3123 2.2360
-4.0413 -18.4699 2.2360
-3.3759 -18.6036 2.2360
-2.7060 -18.7132 2.2360
-2.0326 -18.7985 2.2360
-1.3565 -18.8596 2.2360
-0.6787 -18.8962 2.2360
-0.0000 -15.8408 2.2360
0.5686 -15.8305 2.2360
1.1364 -15.7997 2.2360
1.7027 -15.7485 2.2360
2.2669 -15.6769 2.2360
2.8280 -15.5850 2.2360
3.3855 -15.4730 2.2360
2.6547 -10.3404 1.5071
4.2795 -14.4882 2.1328
4.7966 -14.3248 2.1328
5.3074 -14.1428 2.1329
5.8113 -13.9425 2.1329
6.3076 -13.7240 2.1328
6.7957 -13.4878 2.1328
7.2749 -13.2342 2.1328
7.7447 -12.9635 2.1328
8.2043 -12.6762 2.1328
8.6533 -12.3725 2.1328
10.4689 -13.8796 2.4560
9.5984 -11.8180 2.1510
10.0155 -11.4648 2.1510
10.4196 -11.0969 2.1510
10.8101 -10.7147 2.1510
11.1866 -10.3187 2.1510
11.5486 -9.9095 2.1510
11.8956 -9.4875 2.1510
12.2272 -9.0535 2.1510
12.5428 -8.6078 2.1510
6.4753 -4.1099 1.0846
6.7730 -3.9652 1.1100
13.3908 -7.2070 2.1510
7.4913 -3.6914 1.1814
7.4912 -3.3628 1.1618
7.4911 -3.0446 1.1442
7.4909 -2.7355 1.1286
7.4941 -2.4356 1.1153
7.4987 -2.1427 1.1040
7.4992 -1.8545 1.0937
7.5379 -1.5792 1.0905
7.5663 -1.3036 1.0873
7.4911 -1.0153 1.0707
7.4903 -0.7425 1.0662
7.4902 -0.4718 1.0632
7.4901 -0.2023 1.0616
7.4922 0.0667 1.0617
7.4899 0.3358 1.0626
7.4898 0.6058 1.0651
7.4897 0.8774 1.0690
7.4960 1.1522 1.0753
7.4956 1.4293 1.0821
7.4894 1.7089 1.0895
7.4893 1.9942 1.0993
7.4892 2.2850 1.1108
7.4891 2.5823 1.1239
7.4912 2.8879 1.1392
7.5160 3.2119 1.1599
7.5163 3.5363 1.1789
7.5165 3.8718 1.2002
7.4388 4.1763 1.2111
7.4885 4.5652 1.2452
7.4883 4.9424 1.2740
7.4882 5.3378 1.3059
9.9089 7.6142 1.7748
8.8503 7.3208 1.6314
11.0946 9.8690 2.1093
8.8500 8.4605 1.7394
8.8564 9.0972 1.8038
8.9399 9.8682 1.8921
8.3146 9.8680 1.8337
7.7228 9.8636 1.7804
7.1674 9.8643 1.7330
6.6406 9.8654 1.6904
6.1388 9.8670 1.6519
6.0541 10.5579 1.7302
6.0538 11.4950 1.8470
6.0534 12.5690 1.9835
6.0530 13.8161 2.1447
5.5219 13.9458 2.1328
5.0175 14.1344 2.1328
4.5067 14.3049 2.1328
3.9901 14.4570 2.1328
2.5133 10.5723 1.5454
2.9424 14.7052 2.1328
2.4126 14.8010 2.1328
1.8884 14.9475 2.1427
1.4094 15.6586 2.2360
0.8463 15.6990 2.2360
0.2822 15.7193 2.2360
-0.2823 15.7193 2.2360
-0.8464 15.6992 2.2360
-1.4095 15.6589 2.2360
-1.9707 15.5985 2.2360
-2.5295 15.5180 2.2360
-3.0850 15.4176 2.2360
-3.6366 15.2974 2.2360
-4.1836 15.1576 2.2360
-4.7252 14.9983 2.2360
-5.2608 14.8197 2.2360
-5.7897 14.6220 2.2360
-6.1675 14.0773 2.1851
-6.5101 13.5172 2.1329
-6.9916 13.2756 2.1329
-7.4642 13.0170 2.1329
-6.5699 10.5598 1.7677
-8.3802 12.4497 2.1329
-8.8224 12.1418 2.1329
-9.2533 11.8183 2.1329
-9.6725 11.4795 2.1329
-10.0793 11.1259 2.1329
-10.2298 10.5080 2.0834
-10.2296 9.7794 2.0103
-10.2294 9.0993 1.9446
-10.2292 8.4613 1.8853
-10.2290 7.8602 1.8319
-10.2288 7.2914 1.7836
-10.2287 6.7510 1.7400
-6.2621 3.8176 1.0411
-6.5271 3.6644 1.0625
-6.8037 3.5046 1.0862
-10.2280 4.8121 1.6040
-10.2279 4.3708 1.5782
-10.2278 3.9428 1.5551
-10.2276 3.5266 1.5346
-10.2275 3.1205 1.5166
-10.2281 2.7234 1.5010
-10.2397 2.3364 1.4893
-10.2496 1.9544 1.4793
-10.2576 1.5767 1.4712
-10.2269 1.1980 1.4594
-10.2685 0.8306 1.4600
-10.2715 0.4605 1.4569
-10.2728 0.0915 1.4555
-10.2724 -0.2774 1.4557
-10.2475 -0.6455 1.4544
-10.2261 -1.0137 1.4554
-10.2614 -1.3908 1.4663
-10.2544 -1.7667 1.4733
-10.2456 -2.1465 1.4819
-10.2350 -2.5310 1.4924
-10.2255 -2.9219 1.5051
-10.2253 -3.3232 1.5215
-10.2252 -3.7340 1.5402
-10.2250 -4.1557 1.5615
-10.2249 -4.5899 1.5854
-10.2247 -5.0384 1.6122
-10.2246 -5.5029 1.6421
-10.2244 -5.9858 1.6754
-10.2242 -6.4894 1.7122
-10.2240 -7.0164 1.7531
-10.2238 -7.5701 1.7983
-10.2236 -8.1540 1.8484
-10.2234 -8.7723 1.9039
-10.2232 -9.4300 1.9655
-10.2229 -10.1326 2.0339
-10.2226 -10.8871 2.1101
-9.9326 -11.3698 2.1329
-9.5189 -11.7200 2.1329
-9.0928 -12.0551 2.1329
-8.6549 -12.3747 2.1329
-6.7943 -10.4975 1.7660
-7.7459 -12.9655 2.1329
-7.2760 -13.2361 2.1329
-6.7966 -13.4895 2.1329
-6.3084 -13.7255 2.1329
-6.0929 -14.6178 2.2360
-5.5645 -14.8278 2.2360
-5.0289 -15.0186 2.2360
-4.4868 -15.1900 2.2360
-3.9388 -15.3417 2.2360
-3.3857 -15.4737 2.2360
-2.8282 -15.5856 2.2360
-2.2670 -15.6773 2.2360
-1.7028 -15.7488 2.2360
-1.1364 -15.7999 2.2360
-0.5686 -15.8306 2.2360
-0.0000 -13.6175 2.2360
0.4887 -13.6086 2.2360
0.9769 -13.5822 2.2360
1.4637 -13.5382 2.2360
1.9487 -13.4767 2.2360
2.4311 -13.3978 2.2360
2.7761 -12.6881 2.1329
2.6520 -10.3300 1.7514
3.6789 -12.4553 2.1329
4.1234 -12.3146 2.1328
4.5626 -12.1581 2.1328
4.9957 -11.9858 2.1328
5.4224 -11.7982 2.1328
5.8421 -11.5952 2.1328
6.2541 -11.3773 2.1328
6.7150 -11.2401 2.1510
7.1136 -10.9911 2.1510
7.5030 -10.7280 2.1510
7.8827 -10.4510 2.1510
8.2521 -10.1606 2.1510
8.6109 -9.8571 2.1510
8.9584 -9.5409 2.1510
9.2943 -9.2124 2.1510
9.6181 -8.8721 2.1510
9.9295 -8.5203 2.1510
10.2280 -8.1577 2.1510
10.5132 -7.7846 2.1510
10.7848 -7.4015 2.1510
6.4753 -4.1100 1.2614
6.7729 -3.9652 1.2909
11.5145 -6.1973 2.1510
7.4913 -3.6915 1.3739
7.4912 -3.3629 1.3510
7.4911 -3.0447 1.3306
7.4909 -2.7356 1.3124
7.4908 -2.4346 1.2964
7.4907 -2.1405 1.2824
7.4906 -1.8524 1.2703
7.4906 -1.5694 1.2600
7.4905 -1.2906 1.2516
7.4904 -1.0153 1.2448
7.4903 -0.7426 1.2397
7.4902 -0.4719 1.2362
7.4901 -0.2024 1.2344
7.4900 0.0666 1.2341
7.4899 0.3357 1.2354
7.4898 0.6057 1.2383
7.4897 0.8773 1.2429
7.4896 1.1512 1.2490
7.4895 1.4281 1.2569
7.4894 1.7088 1.2665
7.4893 1.9941 1.2779
7.4892 2.2849 1.2912
7.4891 2.5822 1.3065
7.4928 2.8884 1.3246
7.5132 3.2106 1.3478
7.5125 3.5344 1.3697
7.5117 3.8693 1.3942
7.4388 4.1762 1.4077
7.4885 4.5651 1.4474
7.4883 4.9423 1.4808
7.4882 5.3377 1.5179
9.9091 7.6142 2.0629
8.8503 7.3207 1.8962
5.2115 4.6357 1.1516
4.8812 4.6663 1.1150
4.7489 4.8780 1.1242
8.8464 9.7649 2.1760
8.3148 9.8680 2.1312
7.7235 9.8643 2.0693
7.1680 9.8649 2.0143
6.6407 9.8655 1.9645
6.1388 9.8670 1.9198
6.0541 10.5578 2.0107
6.0538 11.4948 2.1465
5.6009 11.6294 2.1328
5.1796 11.8224 2.1328
4.7516 12.0002 2.1328
4.3176 12.1626 2.1328
3.8781 12.3093 2.1328
3.4336 12.4402 2.1328
2.5108 10.5618 1.7941
2.5320 12.6539 2.1328
2.0890 12.8156 2.1460
1.6958 13.4224 2.2360
1.2128 13.4745 2.2360
0.7283 13.5093 2.2360
0.2428 13.5267 2.2360
-0.2429 13.5267 2.2360
-0.7283 13.5094 2.2360
-1.2129 13.4747 2.2360
-1.6958 13.4227 2.2360
-2.1767 13.3534 2.2360
-2.6547 13.2669 2.2360
-3.1293 13.1635 2.2360
-3.6000 13.0431 2.2360
-4.0661 12.9059 2.2360
-4.5269 12.7521 2.2360
-4.9820 12.5819 2.2360
-5.4307 12.3956 2.2360
-5.8725 12.1932 2.2360
-6.1667 11.7091 2.1863
-6.4226 11.2004 2.1329
-6.5624 10.5477 2.0521
-7.2107 10.7121 2.1329
-7.5911 10.4471 2.1329
-7.9618 10.1686 2.1329
-8.3223 9.8770 2.1329
-8.6722 9.5726 2.1329
-9.0110 9.2559 2.1329
-9.3383 8.9272 2.1329
-9.6536 8.5870 2.1329
-9.9565 8.2356 2.1329
-10.2289 7.8599 2.1292
-10.2287 7.2911 2.0731
-10.2286 6.7507 2.0224
-6.2622 3.8175 1.2102
-6.5272 3.6644 1.2350
-6.8038 3.5046 1.2626
-10.2280 4.8119 1.8646
-10.2278 4.3706 1.8345
-10.2277 3.9427 1.8077
-10.2276 3.5264 1.7840
-10.2274 3.1203 1.7631
-10.2273 2.7231 1.7449
-10.2272 2.3334 1.7292
-10.2270 1.9500 1.7161
-10.2269 1.5719 1.7053
-10.2268 1.1979 1.6968
-10.2267 0.8271 1.6905
-10.2266 0.4584 1.6865
-10.2264 0.0909 1.6847
-10.2263 -0.2763 1.6850
-10.2262 -0.6443 1.6875
-10.2261 -1.0139 1.6922
-10.2259 -1.3861 1.6991
-10.2258 -1.7619 1.7083
-10.2257 -2.1425 1.7199
-10.2255 -2.5288 1.7338
-10.2254 -2.9220 1.7502
-10.2253 -3.3233 1.7693
-10.2251 -3.7341 1.7911
-10.2250 -4.1558 1.8159
-10.2248 -4.5900 1.8438
-10.2247 -5.0384 1.8750
-10.2245 -5.5030 1.9097
-10.2243 -5.9859 1.9484
-10.2241 -6.4895 1.9913
-10.2239 -7.0165 2.0389
-10.2237 -7.5702 2.0915
-10.1433 -8.0901 2.1329
-9.8473 -8.4498 2.1329
-9.5385 -8.7986 2.1329
-9.2173 -9.1360 2.1329
-8.8841 -9.4617 2.1329
-8.5394 -9.7752 2.1329
-8.1836 -10.0762 2.1329
-7.8173 -10.3642 2.1329
-7.4407 -10.6388 2.1329
-6.7822 -10.4789 2.0506
-6.6591 -11.1466 2.1329
-6.2551 -11.3790 2.1329
-6.1253 -12.1573 2.2360
-5.6853 -12.3699 2.2360
-5.2378 -12.5666 2.2360
-4.7836 -12.7470 2.2360
-4.3232 -12.9110 2.2360
-3.8571 -13.0583 2.2360
-3.3860 -13.1886 2.2360
-2.9105 -13.3020 2.2360
-2.4312 -13.3982 2.2360
-1.9488 -13.4770 2.2360
-1.4638 -13.5384 2.2360
-0.9769 -13.5824 2.2360
-0.4888 -13.6087 2.2360
-0.0000 -11.9305 2.2360
0.4282 -11.9228 2.2360
0.8558 -11.8997 2.2360
1.2824 -11.8611 2.2360
1.7073 -11.8073 2.2360
2.1299 -11.7382 2.2360
2.4322 -11.1166 2.1329
2.6493 -10.3195 1.9970
3.2232 -10.9126 2.1329
3.6127 -10.7894 2.1329
3.9974 -10.6523 2.1328
4.3770 -10.5015 2.1328
4.7509 -10.3371 2.1328
5.1185 -10.1593 2.1328
5.4796 -9.9685 2.1328
5.8335 -9.7648 2.1328
6.2328 -9.6302 2.1510
6.5740 -9.3998 2.1510
6.9067 -9.1572 2.1510
7.2305 -8.9028 2.1510
7.5448 -8.6369 2.1510
7.8494 -8.3599 2.1510
8.1438 -8.0722 2.1510
8.4277 -7.7741 2.1510
8.7006 -7.4660 2.1510
8.9623 -7.1483 2.1510
9.2123 -6.8214 2.1510
9.4504 -6.4858 2.1510
6.4753 -4.1101 1.4395
6.7727 -3.9652 1.4731
10.0901 -5.4309 2.1510
7.4913 -3.6916 1.5679
7.4912 -3.3630 1.5417
7.4911 -3.0448 1.5183
7.4909 -2.7357 1.4976
7.4908 -2.4347 1.4793
7.4907 -2.1406 1.4633
7.4906 -1.8525 1.4495
7.4906 -1.5695 1.4378
7.4905 -1.2907 1.4281
7.4904 -1.0154 1.4203
7.4903 -0.7427 1.4145
7.4902 -0.4720 1.4105
7.4901 -0.2025 1.4084
7.4900 0.0665 1.4080
7.4899 0.3356 1.4095
7.4898 0.6056 1.4128
7.4897 0.8772 1.4180
7.4896 1.1511 1.4250
7.4895 1.4280 1.4340
7.4894 1.7087 1.4449
7.4893 1.9940 1.4579
7.4892 2.2849 1.4731
7.4891 2.5821 1.4905
7.4928 2.8883 1.5110
7.5075 3.2081 1.5364
7.5067 3.5316 1.5613
7.5058 3.8661 1.5892
7.4389 4.1761 1.6058
7.4885 4.5650 1.6510
7.4883 4.9422 1.6892
7.4882 5.3376 1.7315
8.8741 6.8188 2.1073
8.9039 7.3648 2.1760
8.6331 7.6791 2.1760
4.8776 4.6628 1.2709
4.7460 4.8749 1.2815
7.7558 8.5609 2.1760
7.4430 8.8333 2.1760
7.1206 9.0942 2.1760
6.7891 9.3434 2.1760
6.4490 9.5805 2.1760
6.1006 9.8053 2.1760
5.6301 9.8184 2.1328
5.2738 10.0137 2.1328
4.9107 10.1961 2.1328
4.5413 10.3654 2.1328
4.1661 10.5214 2.1328
3.7856 10.6638 2.1328
3.4002 10.7925 2.1328
3.0105 10.9073 2.1328
2.5083 10.5511 2.0442
2.2200 11.0947 2.1328
1.8793 11.5294 2.2020
1.4868 11.7685 2.2360
1.0634 11.8142 2.2360
0.6386 11.8447 2.2360
0.2129 11.8600 2.2360
-0.2130 11.8600 2.2360
-0.6386 11.8448 2.2360
-1.0634 11.8144 2.2360
-1.4869 11.7688 2.2360
-1.9085 11.7080 2.2360
-2.3276 11.6322 2.2360
-2.7438 11.5414 2.2360
-3.1564 11.4358 2.2360
-3.5650 11.3155 2.2360
-3.9691 11.1806 2.2360
-4.3681 11.0313 2.2360
-4.7615 10.8679 2.2360
-5.1488 10.6904 2.2360
-5.5295 10.4992 2.2360
-5.9032 10.2944 2.2360
-6.1661 9.9105 2.1992
-6.3218 9.3915 2.1329
-6.6553 9.1591 2.1329
-6.9803 8.9149 2.1329
-7.2963 8.6591 2.1329
-7.6030 8.3922 2.1329
-7.8999 8.1144 2.1329
-8.1867 7.8262 2.1329
-8.4631 7.5278 2.1329
-8.7286 7.2198 2.1329
-8.9828 6.9023 2.1329
-9.2256 6.5760 2.1329
-9.4566 6.2411 2.1329
-6.2623 3.8175 1.3805
-6.5273 3.6643 1.4089
-6.8039 3.5045 1.4403
-10.2279 4.8117 2.1270
-10.2278 4.3704 2.0928
-10.2276 3.9425 2.0623
-10.2275 3.5262 2.0352
-10.2274 3.1202 2.0114
-10.2272 2.7230 1.9906
-10.2271 2.3332 1.9728
-10.2270 1.9499 1.9578
-10.2269 1.5717 1.9455
-10.2267 1.1978 1.9359
-10.2266 0.8269 1.9288
-10.2265 0.4583 1.9242
-10.2264 0.0908 1.9221
-10.2262 -0.2765 1.9225
-10.2261 -0.6444 1.9254
-10.2260 -1.0140 1.9308
-10.2259 -1.3862 1.9387
-10.2257 -1.7621 1.9493
-10.2256 -2.1426 1.9624
-10.2255 -2.5289 1.9784
-10.2253 -2.9221 1.9972
-10.2252 -3.3234 2.0190
-10.2250 -3.7342 2.0439
-10.2249 -4.1559 2.0722
-10.2247 -4.5901 2.1040
-10.2246 -5.0386 2.1396
-10.0066 -5.3859 2.1329
-9.8077 -5.7421 2.1329
-9.5961 -6.0910 2.1329
-9.3721 -6.4320 2.1329
-9.1359 -6.7649 2.1329
-8.8879 -7.0890 2.1329
-8.6284 -7.4040 2.1329
-8.3577 -7.7096 2.1329
-8.0762 -8.0052 2.1329
-7.7842 -8.2905 2.1329
-7.4822 -8.5651 2.1329
-7.1704 -8.8287 2.1329
-6.8493 -9.0810 2.1329
-6.5193 -9.3215 2.1329
-6.1809 -9.5500 2.1329
-6.1164 -10.2383 2.2360
-5.7453 -10.4517 2.2360
-5.3667 -10.6517 2.2360
-4.9811 -10.8379 2.2360
-4.5891 -11.0102 2.2360
-4.1911 -11.1682 2.2360
-3.7876 -11.3118 2.2360
-3.3793 -11.4407 2.2360
-2.9665 -11.5550 2.2360
-2.5499 -11.6542 2.2360
-2.1300 -11.7385 2.2360
-1.7074 -11.8075 2.2360
-1.2825 -11.8613 2.2360
-0.8559 -11.8998 2.2360
-0.4282 -11.9229 2.2360
-0.0000 -10.6056 2.2360
0.3806 -10.5987 2.2360
0.7608 -10.5782 2.2360
1.1400 -10.5439 2.2360
1.5177 -10.4961 2.2360
1.8934 -10.4346 2.2360
2.1621 -9.8821 2.1329
2.5153 -9.7978 2.1329
2.8653 -9.7009 2.1329
3.2115 -9.5915 2.1329
3.5536 -9.4696 2.1329
3.8910 -9.3356 2.1328
4.2234 -9.1895 2.1328
4.5503 -9.0315 2.1328
4.8712 -8.8619 2.1328
5.1859 -8.6809 2.1328
5.4938 -8.4887 2.1328
5.7946 -8.2855 2.1328
6.1400 -8.1408 2.1510
6.4279 -7.9147 2.1510
6.7074 -7.6784 2.1510
6.9782 -7.4322 2.1510
7.2400 -7.1765 2.1510
7.4924 -6.9115 2.1510
7.7351 -6.6376 2.1510
7.9678 -6.3553 2.1510
8.1902 -6.0647 2.1510
8.4020 -5.7664 2.1510
6.4753 -4.1102 1.6191
6.7725 -3.9652 1.6568
8.9710 -4.8286 2.1510
7.4913 -3.6917 1.7634
7.4912 -3.3631 1.7340
7.4911 -3.0449 1.7077
7.4909 -2.7358 1.6843
7.4908 -2.4348 1.6637
7.4907 -2.1407 1.6457
7.4906 -1.8526 1.6302
7.4906 -1.5696 1.6170
7.4905 -1.2908 1.6061
7.4904 -1.0155 1.5973
7.4903 -0.7428 1.5908
7.4902 -0.4721 1.5863
7.4901 -0.2026 1.5838
7.4900 0.0664 1.5834
7.4899 0.3355 1.5851
7.4898 0.6056 1.5888
7.4897 0.8771 1.5946
7.4896 1.1510 1.6025
7.4895 1.4279 1.6125
7.4894 1.7086 1.6248
7.4893 1.9939 1.6394
7.4892 2.2848 1.6565
7.4891 2.5820 1.6760
7.4928 2.8882 1.6991
7.5018 3.2055 1.7263
7.5009 3.5287 1.7543
7.4999 3.8629 1.7855
7.4416 4.1775 1.8063
7.4885 4.5649 1.8564
7.4883 4.9420 1.8993
7.4882 5.3375 1.9468
8.1496 6.2620 2.1760
7.9190 6.5501 2.1760
7.6782 6.8297 2.1760
4.8860 4.6708 1.4314
4.7545 4.8835 1.4434
6.8981 7.6141 2.1760
6.6199 7.8564 2.1760
6.3333 8.0885 2.1760
6.0385 8.3102 2.1760
5.6220 8.3518 2.1328
5.3183 8.5478 2.1328
5.0077 8.7328 2.1328
4.6908 8.9066 2.1328
4.3679 9.0689 2.1328
4.0393 9.2195 2.1328
3.7056 9.3583 2.1328
3.3672 9.4850 2.1328
3.0244 9.5995 2.1328
2.6778 9.7016 2.1328
2.3277 9.7913 2.1328
1.9747 9.8684 2.1328
1.6975 10.4137 2.2360
1.3225 10.4678 2.2360
0.9458 10.5084 2.2360
0.5680 10.5356 2.2360
0.1894 10.5491 2.2360
-0.1894 10.5492 2.2360
-0.5680 10.5356 2.2360
-0.9459 10.5085 2.2360
-1.3226 10.4679 2.2360
-1.6976 10.4139 2.2360
-2.0704 10.3464 2.2360
-2.4405 10.2656 2.2360
-2.8076 10.1717 2.2360
-3.1710 10.0646 2.2360
-3.5304 9.9446 2.2360
-3.8852 9.8118 2.2360
-4.2351 9.6663 2.2360
-4.5796 9.5085 2.2360
-4.9182 9.3383 2.2360
-5.2506 9.1562 2.2360
-5.5762 8.9622 2.2360
-5.8946 8.7567 2.2360
-6.1656 8.4850 2.2216
-6.2084 7.9289 2.1329
-6.4894 7.7014 2.1329
-6.7622 7.4639 2.1329
-7.0262 7.2168 2.1329
-7.2812 6.9604 2.1329
-7.5269 6.6950 2.1329
-7.7630 6.4210 2.1329
-7.9891 6.1386 2.1329
-8.2049 5.8483 2.1329
-8.4102 5.5504 2.1329
-6.2623 3.8174 1.5523
-6.5274 3.6643 1.5842
-6.8040 3.5045 1.6196
-9.1211 4.2909 2.1329
-9.2700 3.9611 2.1329
-9.4070 3.6260 2.1329
-9.5320 3.2863 2.1329
-9.6447 2.9423 2.1329
-9.7450 2.5944 2.1329
-9.8327 2.2431 2.1329
-9.9078 1.8889 2.1329
-9.9701 1.5322 2.1329
-10.0196 1.1734 2.1329
-10.0562 0.8130 2.1329
-10.0798 0.4516 2.1329
-10.0905 0.0895 2.1329
-10.0881 -0.2728 2.1329
-10.0728 -0.6348 2.1329
-10.0444 -0.9961 2.1329
-10.0031 -1.3561 2.1329
-9.9489 -1.7145 2.1329
-9.8819 -2.0707 2.1329
-9.8020 -2.4243 2.1329
-9.7096 -2.7748 2.1329
-9.6046 -3.1218 2.1329
-9.4871 -3.4649 2.1329
-9.3575 -3.8035 2.1329
-9.2157 -4.1373 2.1329
-9.0620 -4.4658 2.1329
-8.8966 -4.7886 2.1329
-8.7197 -5.1052 2.1329
-8.5315 -5.4153 2.1329
-8.3322 -5.7185 2.1329
-8.1222 -6.0143 2.1329
-7.9017 -6.3025 2.1329
-7.6709 -6.5825 2.1329
-7.4302 -6.8540 2.1329
-7.1799 -7.1168 2.1329
-6.9202 -7.3704 2.1329
-6.6516 -7.6145 2.1329
-6.3744 -7.8488 2.1329
-6.1468 -8.1497 2.1532
-6.0756 -8.6873 2.2360
-5.7602 -8.9002 2.2360
-5.4373 -9.1016 2.2360
-5.1073 -9.2913 2.2360
-4.7707 -9.4691 2.2360
-4.4280 -9.6346 2.2360
-4.0795 -9.7876 2.2360
-3.7256 -9.9281 2.2360
-3.3670 -10.0557 2.2360
-3.0040 -10.1703 2.2360
-2.6371 -10.2718 2.2360
-2.2667 -10.3600 2.2360
-1.8935 -10.4349 2.2360
-1.5177 -10.4963 2.2360
-1.1400 -10.5441 2.2360
-0.7609 -10.5782 2.2360
-0.3807 -10.5988 2.2360
-0.0000 -9.5364 2.2360
0.3422 -9.5302 2.2360
0.6841 -9.5118 2.2360
1.0250 -9.4810 2.2360
1.3646 -9.4380 2.2360
1.7025 -9.3827 2.2360
1.9441 -8.8859 2.1329
2.2618 -8.8102 2.1329
2.5764 -8.7231 2.1329
2.8878 -8.6247 2.1329
3.1954 -8.5152 2.1329
3.4988 -8.3947 2.1329
3.7977 -8.2634 2.1328
4.0916 -8.1214 2.1328
4.3803 -7.9689 2.1328
4.6633 -7.8062 2.1328
4.9402 -7.6334 2.1328
5.2107 -7.4507 2.1328
5.4745 -7.2585 2.1328
5.7311 -7.0569 2.1328
6.0315 -6.9048 2.1510
6.2751 -6.6835 2.1510
6.5106 -6.4535 2.1510
6.7376 -6.2153 2.1510
6.9559 -5.9691 2.1510
7.1652 -5.7152 2.1510
7.3652 -5.4539 2.1510
7.5557 -5.1857 2.1510
6.4753 -4.1103 1.8004
6.7724 -3.9652 1.8423
8.0676 -4.3425 2.1510
7.4913 -3.6918 1.9609
7.4912 -3.3632 1.9281
7.4911 -3.0450 1.8989
7.4909 -2.7359 1.8729
7.4908 -2.4349 1.8500
7.4907 -2.1408 1.8299
7.4906 -1.8527 1.8126
7.4906 -1.5697 1.7979
7.4905 -1.2909 1.7858
7.4904 -1.0156 1.7761
7.4903 -0.7429 1.7687
7.4902 -0.4722 1.7637
7.4901 -0.2027 1.7610
7.4900 0.0663 1.7605
7.4899 0.3355 1.7624
7.4898 0.6055 1.7665
7.4897 0.8770 1.7729
7.4896 1.1509 1.7816
7.4895 1.4278 1.7928
7.4894 1.7085 1.8065
7.4893 1.9938 1.8227
7.4892 2.2847 1.8416
7.4891 2.5819 1.8633
7.4928 2.8881 1.8890
7.4960 3.2030 1.9177
7.4950 3.5259 1.9487
7.4938 3.8597 1.9834
7.4443 4.1789 2.0088
7.4885 4.5648 2.0638
7.4883 4.9419 2.1115
7.5289 5.3664 2.1760
7.3309 5.6328 2.1760
7.1235 5.8920 2.1760
6.9070 6.1435 2.1760
4.8945 4.6788 1.5940
4.7631 4.8923 1.6075
6.2053 6.8493 2.1760
5.8368 6.9268 2.1328
5.5840 7.1315 2.1328
5.3242 7.3270 2.1328
5.0575 7.5131 2.1328
4.7843 7.6894 2.1328
4.5049 7.8559 2.1328
4.2198 8.0123 2.1328
3.9293 8.1583 2.1328
3.6338 8.2938 2.1328
3.3336 8.4187 2.1328
3.0291 8.5327 2.1328
2.7208 8.6357 2.1328
2.4090 8.7277 2.1328
2.0940 8.8083 2.1328
1.8624 9.3075 2.2360
1.5271 9.3682 2.2360
1.1898 9.4169 2.2360
0.8509 9.4535 2.2360
0.5110 9.4779 2.2360
0.1704 9.4902 2.2360
-0.1704 9.4902 2.2360
-0.5110 9.4780 2.2360
-0.8510 9.4536 2.2360
-1.1898 9.4171 2.2360
-1.5272 9.3684 2.2360
-1.8625 9.3077 2.2360
-2.1955 9.2350 2.2360
-2.5257 9.1505 2.2360
-2.8527 9.0541 2.2360
-3.1760 8.9461 2.2360
-3.4952 8.8266 2.2360
-3.8100 8.6958 2.2360
-4.1198 8.5537 2.2360
-4.4244 8.4006 2.2360
-4.7234 8.2367 2.2360
-5.0162 8.0622 2.2360
-5.3027 7.8773 2.2360
-5.5823 7.6822 2.2360
-5.8548 7.4773 2.2360
-6.1198 7.2627 2.2360
-6.1696 6.8097 2.1633
-6.3205 6.4919 2.1329
-6.5498 6.2611 2.1329
-6.7708 6.0224 2.1329
-6.9831 5.7758 2.1329
-7.1864 5.5218 2.1329
-7.3805 5.2606 2.1329
-7.5652 4.9926 2.1329
-7.7401 4.7181 2.1329
-6.5610 3.6831 1.7703
-8.0599 4.1512 2.1329
-8.2043 3.8595 2.1329
-8.3382 3.5628 2.1329
-8.4614 3.2614 2.1329
-8.5737 2.9558 2.1329
-8.6750 2.6464 2.1329
-8.7651 2.3334 2.1329
-8.8440 2.0175 2.1329
-8.9114 1.6988 2.1329
-8.9674 1.3780 2.1329
-9.0119 1.0553 2.1329
-9.0447 0.7311 2.1329
-9.0659 0.4060 2.1329
-9.0754 0.0804 2.1329
-9.0732 -0.2455 2.1329
-9.0593 -0.5711 2.1329
-9.0337 -0.8960 2.1329
-8.9965 -1.2198 2.1329
-8.9476 -1.5420 2.1329
-8.8872 -1.8624 2.1329
-8.8154 -2.1804 2.1329
-8.7322 -2.4956 2.1329
-8.6376 -2.8077 2.1329
-8.5320 -3.1161 2.1329
-8.4153 -3.4206 2.1329
-8.2877 -3.7208 2.1329
-8.1494 -4.0162 2.1329
-8.0006 -4.3064 2.1329
-7.8414 -4.5912 2.1329
-7.6721 -4.8700 2.1329
-7.4929 -5.1426 2.1329
-7.3040 -5.4086 2.1329
-7.1056 -5.6676 2.1329
-6.8981 -5.9194 2.1329
-6.6816 -6.1636 2.1329
-6.4564 -6.3998 2.1329
-6.2229 -6.6278 2.1329
-6.1459 -7.0357 2.1916
-6.0090 -7.3990 2.2360
-5.7399 -7.6103 2.2360
-5.4633 -7.8118 2.2360
-5.1796 -8.0033 2.2360
-4.8892 -8.1843 2.2360
-4.5925 -8.3549 2.2360
-4.2898 -8.5147 2.2360
-3.9816 -8.6635 2.2360
-3.6682 -8.8011 2.2360
-3.3501 -8.9273 2.2360
-3.0276 -9.0420 2.2360
-2.7011 -9.1451 2.2360
-2.3712 -9.2363 2.2360
-2.0382 -9.3156 2.2360
-1.7026 -9.3829 2.2360
-1.3647 -9.4381 2.2360
-1.0251 -9.4811 2.2360
-0.6841 -9.5118 2.2360
-0.3423 -9.5303 2.2360
-0.0000 -8.6546 2.2360
0.3106 -8.6491 2.2360
0.6208 -8.6323 2.2360
0.9302 -8.6044 2.2360
1.2384 -8.5653 2.2360
1.5450 -8.5152 2.2360
1.8496 -8.4541 2.2360
2.0526 -7.9957 2.1329
2.3382 -7.9167 2.1329
2.6208 -7.8274 2.1329
2.8999 -7.7280 2.1329
3.1753 -7.6187 2.1329
3.4466 -7.4995 2.1329
3.7134 -7.3707 2.1329
3.9754 -7.2324 2.1328
4.2322 -7.0847 2.1328
4.4835 -6.9279 2.1328
4.7291 -6.7622 2.1328
4.9685 -6.5877 2.1328
5.2014 -6.4048 2.1328
5.4277 -6.2136 2.1328
2.5384 -2.7036 0.9587
5.8588 -5.8076 2.1328
6.1150 -5.6410 2.1510
6.3131 -5.4176 2.1510
6.5031 -5.1872 2.1510
6.6847 -4.9501 2.1510
6.8576 -4.7067 2.1510
6.4869 -4.1178 1.9872
6.7933 -3.9776 2.0361
7.3224 -3.9415 2.1510
7.5453 -3.7186 2.1760
7.4912 -3.3633 2.1243
7.4911 -3.0451 2.0921
7.4909 -2.7360 2.0634
7.4908 -2.4350 2.0382
7.4907 -2.1409 2.0161
7.4906 -1.8528 1.9970
7.4906 -1.5698 1.9808
7.4905 -1.2910 1.9674
7.4904 -1.0157 1.9567
7.4903 -0.7430 1.9486
7.4902 -0.4723 1.9430
7.4901 -0.2028 1.9400
7.4900 0.0662 1.9395
7.4899 0.3354 1.9415
7.4898 0.6054 1.9460
7.4897 0.8769 1.9531
7.4896 1.1508 1.9627
7.4895 1.4277 1.9750
7.4894 1.7084 1.9900
7.4893 1.9937 2.0079
7.4892 2.2846 2.0287
7.4891 2.5818 2.0526
7.4912 2.8874 2.0804
7.4902 3.2004 2.1108
7.4890 3.5230 2.1450
7.4638 3.8442 2.1760
7.3205 4.1094 2.1760
7.1677 4.3692 2.1760
7.0058 4.6234 2.1760
6.8349 4.8716 2.1760
6.6552 5.1136 2.1760
6.4670 5.3489 2.1760
6.2704 5.5773 2.1760
4.9032 4.6870 1.7589
4.7720 4.9014 1.7740
5.5216 6.0945 2.1328
5.2989 6.2884 2.1328
5.0695 6.4743 2.1328
4.8336 6.6518 2.1328
4.5915 6.8208 2.1328
4.3435 6.9809 2.1328
4.0899 7.1321 2.1328
3.8311 7.2741 2.1328
3.5674 7.4067 2.1328
3.2991 7.5297 2.1328
3.0265 7.6431 2.1328
2.7501 7.7467 2.1328
2.4702 7.8402 2.1328
2.1871 7.9237 2.1328
1.9012 7.9969 2.1328
1.6909 8.4501 2.2360
1.3864 8.5053 2.2360
1.0802 8.5495 2.2360
0.7725 8.5827 2.2360
0.4639 8.6049 2.2360
0.1547 8.6160 2.2360
-0.1547 8.6160 2.2360
-0.4640 8.6049 2.2360
-0.7726 8.5828 2.2360
-1.0802 8.5496 2.2360
-1.3865 8.5054 2.2360
-1.6910 8.4503 2.2360
-1.9933 8.3843 2.2360
-2.2931 8.3075 2.2360
-2.5899 8.2200 2.2360
-2.8834 8.1220 2.2360
-3.1732 8.0134 2.2360
-3.4590 7.8946 2.2360
-3.7403 7.7656 2.2360
-4.0168 7.6266 2.2360
-4.2882 7.4778 2.2360
-4.5541 7.3193 2.2360
-4.8141 7.1514 2.2360
-5.0680 6.9743 2.2360
-5.3154 6.7882 2.2360
-5.5559 6.5933 2.2360
-5.7893 6.3899 2.2360
-6.0153 6.1783 2.2360
-6.1647 5.8929 2.2113
-6.1739 5.4914 2.1423
-6.3561 5.2571 2.1385
-6.5240 5.0127 2.1329
-6.7002 4.7756 2.1329
-6.8677 4.5322 2.1329
-7.0265 4.2830 2.1329
-6.5571 3.6808 1.9489
-7.3167 3.7684 2.1329
-7.4478 3.5035 2.1329
-7.5693 3.2341 2.1329
-7.6811 2.9606 2.1329
-7.7830 2.6831 2.1329
-7.8749 2.4022 2.1329
-7.9566 2.1181 2.1329
-8.0281 1.8312 2.1329
-8.0893 1.5420 2.1329
-8.1401 1.2507 2.1329
-8.1803 0.9578 2.1329
-8.2101 0.6636 2.1329
-8.2292 0.3685 2.1329
-8.2378 0.0728 2.1329
-8.2357 -0.2230 2.1329
-8.2231 -0.5185 2.1329
-8.1998 -0.8134 2.1329
-8.1659 -1.1073 2.1329
-8.1215 -1.3998 2.1329
-8.0667 -1.6905 2.1329
-8.0014 -1.9791 2.1329
-7.9258 -2.2653 2.1329
-7.8400 -2.5485 2.1329
-7.7440 -2.8284 2.1329
-7.6380 -3.1048 2.1329
-7.5222 -3.3772 2.1329
-7.3966 -3.6453 2.1329
-7.2615 -3.9087 2.1329
-7.1170 -4.1671 2.1329
-6.9633 -4.4202 2.1329
-6.8006 -4.6675 2.1329
-6.6291 -4.9089 2.1329
-6.4490 -5.1440 2.1329
-6.2606 -5.3725 2.1329
-6.1448 -5.6686 2.1613
-6.1429 -6.0892 2.2360
-5.9207 -6.3061 2.2360
-5.6908 -6.5148 2.2360
-5.4536 -6.7152 2.2360
-5.2093 -6.9070 2.2360
-4.9583 -7.0898 2.2360
-4.7008 -7.2635 2.2360
-4.4372 -7.4278 2.2360
-4.1679 -7.5826 2.2360
-3.8932 -7.7275 2.2360
-3.6135 -7.8625 2.2360
-3.3290 -7.9874 2.2360
-3.0403 -8.1020 2.2360
-2.7476 -8.2061 2.2360
-2.4514 -8.2996 2.2360
-2.1520 -8.3824 2.2360
-1.8497 -8.4543 2.2360
-1.5451 -8.5154 2.2360
-1.2385 -8.5655 2.2360
-0.9303 -8.6045 2.2360
-0.6209 -8.6323 2.2360
-0.3107 -8.6491 2.2360
-0.0000 -7.9143 2.2360
0.2840 -7.9092 2.2360
0.5677 -7.8939 2.2360
0.8506 -7.8683 2.2360
1.1325 -7.8326 2.2360
1.4129 -7.7868 2.2360
1.6914 -7.7310 2.2360
1.8927 -7.3729 2.1508
2.1382 -7.2395 2.1329
2.3966 -7.1579 2.1329
2.6519 -7.0671 2.1329
2.9037 -6.9671 2.1329
3.1518 -6.8582 2.1329
3.3958 -6.7404 2.1329
3.6354 -6.6139 2.1329
3.8702 -6.4789 2.1328
4.1001 -6.3355 2.1328
4.3247 -6.1840 2.1328
4.5436 -6.0245 2.1328
4.7567 -5.8572 2.1328
4.9636 -5.6824 2.1328
2.5226 -2.6869 1.0419
2.5349 -2.5128 1.0091
2.5301 -2.3341 0.9732
2.5733 -2.2083 0.9587
5.8967 -4.7036 2.1328
6.1132 -4.5270 2.1510
6.2714 -4.3044 2.1510
6.4215 -4.0763 2.1510
6.6040 -3.8668 2.1644
6.7744 -3.6466 2.1760
6.9005 -3.4009 2.1760
7.0176 -3.1508 2.1760
7.1257 -2.8967 2.1760
7.2246 -2.6389 2.1760
7.3142 -2.3777 2.1760
7.3943 -2.1134 2.1760
7.4649 -1.8465 2.1760
7.5258 -1.5773 2.1760
7.5771 -1.3060 2.1760
7.4904 -1.0158 2.1394
7.4903 -0.7431 2.1305
7.4902 -0.4724 2.1245
7.4901 -0.2028 2.1212
7.4900 0.0661 2.1206
7.4899 0.3353 2.1228
7.4898 0.6053 2.1277
7.4897 0.8768 2.1354
7.4896 1.1507 2.1459
7.5474 1.4386 2.1760
7.4904 1.7085 2.1760
7.4237 1.9762 2.1760
7.3475 2.2412 2.1760
7.2618 2.5034 2.1760
7.1668 2.7623 2.1760
7.0625 3.0176 2.1760
6.9492 3.2689 2.1760
6.8270 3.5161 2.1760
6.6959 3.7587 2.1760
6.5563 3.9964 2.1760
6.4082 4.2289 2.1760
6.2519 4.4560 2.1760
6.0875 4.6773 2.1760
5.7978 4.7953 2.1328
5.2584 4.6770 1.9949
4.9121 4.6954 1.9264
4.7815 4.9110 1.9432
5.0507 5.5746 2.1328
4.8471 5.7521 2.1328
4.6373 5.9222 2.1328
4.4215 6.0846 2.1328
4.2000 6.2391 2.1328
3.9732 6.3857 2.1328
3.7412 6.5239 2.1328
3.5045 6.6538 2.1328
3.2632 6.7751 2.1328
3.0178 6.8877 2.1328
2.7685 6.9915 2.1328
2.5157 7.0862 2.1328
2.2596 7.1718 2.1328
2.0006 7.2482 2.1328
1.8233 7.6693 2.2360
1.5468 7.7297 2.2360
1.2682 7.7802 2.2360
0.9881 7.8206 2.2360
0.7067 7.8510 2.2360
0.4244 7.8713 2.2360
0.1415 7.8815 2.2360
-0.1416 7.8815 2.2360
-0.4244 7.8714 2.2360
-0.7067 7.8511 2.2360
-0.9882 7.8207 2.2360
-1.2683 7.7803 2.2360
-1.5469 7.7299 2.2360
-1.8234 7.6695 2.2360
-2.0976 7.5992 2.2360
-2.3691 7.5192 2.2360
-2.6376 7.4295 2.2360
-2.9027 7.3302 2.2360
-3.1641 7.2215 2.2360
-3.4214 7.1035 2.2360
-3.6744 6.9763 2.2360
-3.9226 6.8401 2.2360
-4.1658 6.6951 2.2360
-4.4036 6.5415 2.2360
-4.6358 6.3795 2.2360
-4.8621 6.2092 2.2360
-5.0821 6.0309 2.2360
-5.2956 5.8449 2.2360
-5.5023 5.6513 2.2360
-5.7019 5.4504 2.2360
-5.8942 5.2425 2.2360
-6.0790 5.0278 2.2360
-6.1643 4.7362 2.2033
-6.1722 4.3991 2.1481
-6.2818 4.1455 2.1329
-6.4270 3.9175 2.1329
-6.5532 3.6785 2.1294
-6.6924 3.4467 2.1329
-6.8122 3.2045 2.1329
-6.9233 2.9581 2.1329
-7.0255 2.7078 2.1329
-7.1187 2.4540 2.1329
-7.2027 2.1970 2.1329
-7.2774 1.9372 2.1329
-7.3428 1.6748 2.1329
-7.3987 1.4103 2.1329
-7.4451 1.1438 2.1329
-7.4819 0.8759 2.1329
-7.5090 0.6068 2.1329
-7.5265 0.3369 2.1329
-7.5343 0.0665 2.1329
-7.5324 -0.2040 2.1329
-7.5207 -0.4743 2.1329
-7.4994 -0.7440 2.1329
-7.4684 -1.0128 2.1329
-7.4277 -1.2803 2.1329
-7.3775 -1.5462 2.1329
-7.3178 -1.8101 2.1329
-7.2486 -2.0718 2.1329
-7.1700 -2.3308 2.1329
-7.0822 -2.5868 2.1329
-6.9853 -2.8396 2.1329
-6.8793 -3.0887 2.1329
-6.7644 -3.3338 2.1329
-6.6408 -3.5747 2.1329
-6.5087 -3.8110 2.1329
-6.3681 -4.0424 2.1329
-6.2192 -4.2686 2.1329
-6.1439 -4.5498 2.1616
-6.1442 -4.9010 2.2221
