ply
format ascii 1.0
element vertex 2160
property float32 x
property float32 y
property float32 z
end_header
-5.4404 -18.4224 2.2350
-4.7767 -18.6093 2.2350
-4.1065 -18.7719 2.2350
-3.4307 -18.9098 2.2350
-2.7502 -19.0228 2.2350
-2.0660 -19.1109 2.2350
-1.3789 -19.1738 2.2350
-0.6900 -19.2115 2.2350
-0.0001 -16.0618 2.2350
0.5762 -16.0511 2.2350
1.1518 -16.0193 2.2350
1.7258 -15.9665 2.2350
2.1914 -15.1597 2.1319
2.7336 -15.0694 2.1319
3.2721 -14.9593 2.1319
3.8062 -14.8297 2.1319
4.3350 -14.6807 2.1318
4.8580 -14.5126 2.1318
5.3743 -14.3254 2.1318
5.8834 -14.1197 2.1318
6.5141 -14.1776 2.1750
4.7731 -9.4765 1.4796
4.9959 -9.0913 1.4470
7.4917 -12.5443 2.0388
7.4911 -11.5781 1.9249
2.4217 -3.4638 0.5902
7.4901 -9.9338 1.7379
7.4896 -9.2250 1.6606
7.5183 -8.6094 1.5980
8.0805 -8.6091 1.6515
8.6819 -8.6087 1.7109
8.8518 -8.1684 1.6863
8.8514 -7.5984 1.6340
10.7872 -8.6074 1.9340
8.8508 -6.5566 1.5444
6.0541 -4.1568 1.0303
6.1382 -3.8980 1.0207
6.0847 -3.5642 0.9904
6.0845 -3.2767 0.9711
6.0844 -3.0001 0.9539
6.0842 -2.7331 0.9384
6.0840 -2.4746 0.9246
6.0839 -2.2235 0.9124
6.0837 -1.9790 0.9017
6.0836 -1.7401 0.8924
6.0948 -1.5089 0.8861
6.1411 -1.2884 0.8861
6.1795 -1.0664 0.8861
7.1892 -0.9764 1.0258
7.2139 -0.7172 1.0257
6.1077 -0.3864 0.8664
7.2332 -0.1974 1.0251
6.0769 0.0524 0.8615
7.2127 0.3214 1.0241
6.1071 0.4923 0.8697
7.1527 0.8359 1.0228
6.1627 0.9455 0.8861
6.1209 1.1654 0.8861
6.0816 1.3859 0.8876
6.0815 1.6176 0.8960
6.0813 1.8537 0.9058
6.0812 2.0950 0.9169
6.0810 2.3424 0.9296
6.0809 2.5968 0.9437
6.0807 2.8590 0.9596
6.0805 3.1302 0.9772
6.0803 3.4117 0.9968
6.0928 3.7124 1.0206
6.0490 3.9904 1.0372
6.0488 4.3097 1.0636
6.0486 4.6458 1.0927
6.0484 5.0009 1.1250
6.0482 5.3778 1.1607
9.5400 9.1166 1.8933
8.8783 9.1162 1.8266
8.5559 9.4408 1.8296
6.0724 7.2043 1.3536
8.5577 10.9261 1.9946
8.5579 11.7740 2.0927
8.4466 12.5444 2.1750
7.9881 12.8353 2.1750
6.2065 10.8204 1.7952
5.9534 11.3008 1.8388
6.3676 13.2174 2.1126
5.8768 13.4099 2.1088
5.4489 13.7574 2.1318
4.9504 13.9414 2.1318
4.4458 14.1076 2.1318
3.9357 14.2559 2.1319
3.4208 14.3861 2.1319
2.9017 14.4980 2.1319
2.3790 14.5915 2.1319
1.8677 14.7796 2.1484
1.3895 15.4347 2.2350
0.8344 15.4741 2.2350
0.2782 15.4939 2.2350
-0.2784 15.4941 2.2350
-0.8346 15.4746 2.2350
-1.3898 15.4355 2.2350
-1.9433 15.3769 2.2350
-2.4945 15.2988 2.2350
-3.0426 15.2012 2.2350
-3.5871 15.0844 2.2350
-4.1271 14.9483 2.2350
-4.6621 14.7933 2.2350
-5.1914 14.6195 2.2350
-5.7143 14.4270 2.2350
-6.1843 14.1111 2.2185
-6.4273 13.3409 2.1318
-6.9042 13.1054 2.1318
-7.3727 12.8531 2.1318
-7.8320 12.5843 2.1318
-8.2818 12.2993 2.1318
-8.7213 11.9985 2.1318
-9.1501 11.6822 2.1318
-9.5676 11.3507 2.1318
-9.9732 11.0046 2.1318
-10.2389 10.5131 2.1055
-10.2385 9.7839 2.0309
-10.2381 9.1031 1.9638
-10.2377 8.4646 1.9032
-10.2373 7.8629 1.8485
-10.2370 7.2936 1.7990
-10.2367 6.7528 1.7543
-10.2364 6.2370 1.7138
-10.2361 5.7434 1.6772
-10.2358 5.2693 1.6441
-10.2355 4.8124 1.6143
-10.2352 4.3708 1.5875
-10.2350 3.9425 1.5636
-10.2347 3.5260 1.5423
-10.2345 3.1196 1.5234
-10.2342 2.7221 1.5069
-10.2411 2.3337 1.4937
-10.2515 1.9519 1.4831
-10.2600 1.5742 1.4743
-10.2669 1.1998 1.4672
-10.2331 0.8248 1.4562
-10.2756 0.4578 1.4581
-10.2774 0.0886 1.4560
-10.2776 -0.2804 1.4556
-10.2761 -0.6501 1.4568
-10.2319 -1.0172 1.4539
-10.2682 -1.3946 1.4642
-10.2617 -1.7709 1.4705
-10.2535 -2.1511 1.4785
-10.2435 -2.5360 1.4883
-10.2307 -2.9263 1.4998
-10.2305 -3.3278 1.5154
-10.2302 -3.7389 1.5333
-10.2300 -4.1608 1.5538
-10.2297 -4.5952 1.5768
-10.2294 -5.0438 1.6027
-6.4283 -3.4618 1.0254
-10.2288 -5.9916 1.6640
-10.2285 -6.4954 1.6998
-10.2281 -7.0226 1.7396
-10.2278 -7.5765 1.7838
-10.2274 -8.1606 1.8327
-10.2270 -8.7791 1.8870
-10.2266 -9.4369 1.9472
-10.2261 -10.1397 2.0143
-10.2256 -10.8943 2.0889
-10.0347 -11.4908 2.1319
-9.6198 -11.8484 2.1319
-9.1920 -12.1908 2.1319
-8.7519 -12.5175 2.1319
-8.3000 -12.8280 2.1319
-7.8369 -13.1220 2.1319
-7.3633 -13.3990 2.1319
-6.8797 -13.6586 2.1319
-6.3869 -13.9005 2.1319
-6.1413 -14.7382 2.2246
-5.6360 -15.0225 2.2350
-5.0944 -15.2183 2.2350
-4.5459 -15.3941 2.2350
-3.9912 -15.5499 2.2350
-3.4311 -15.6852 2.2350
-2.8664 -15.8001 2.2350
-2.2978 -15.8943 2.2350
-1.7261 -15.9676 2.2350
-1.1520 -16.0200 2.2350
-0.5765 -16.0514 2.2350
-0.0001 -13.7808 2.2350
0.4944 -13.7716 2.2350
0.9881 -13.7445 2.2350
1.4806 -13.6993 2.2350
1.8940 -13.1032 2.1477
2.3452 -12.9292 2.1318
2.8073 -12.8351 2.1318
3.2656 -12.7244 2.1318
3.7195 -12.5970 2.1318
4.1683 -12.4531 2.1318
4.6116 -12.2931 2.1318
5.0486 -12.1171 2.1318
5.4789 -11.9253 2.1318
4.7844 -9.4995 1.7282
5.0021 -9.1032 1.6881
6.8596 -11.4867 2.1750
7.2652 -11.2297 2.1750
2.4213 -3.4635 0.6874
7.4901 -9.9346 2.0246
7.4896 -9.2257 1.9344
7.5177 -8.6094 1.8613
8.0799 -8.6091 1.9234
8.6812 -8.6087 1.9925
8.8518 -8.1691 1.9638
10.1176 -8.6861 2.1750
10.4182 -8.3137 2.1750
8.8508 -6.5572 1.7983
6.0541 -4.1573 1.1995
6.0539 -3.8449 1.1719
6.0537 -3.5465 1.1470
6.0536 -3.2604 1.1247
6.0534 -2.9852 1.1045
6.0532 -2.7195 1.0866
6.0531 -2.4623 1.0705
6.0529 -2.2126 1.0563
6.0527 -1.9693 1.0438
6.0526 -1.7316 1.0330
6.0525 -1.4988 1.0236
6.0809 -1.2761 1.0206
6.1196 -1.0565 1.0206
6.1504 -0.8357 1.0207
6.1732 -0.6140 1.0207
6.1879 -0.3918 1.0207
6.1946 -0.1694 1.0207
6.0769 0.0521 1.0016
6.1838 0.2752 1.0207
6.1664 0.4967 1.0207
6.1410 0.7173 1.0207
6.1078 0.9368 1.0206
6.0666 1.1547 1.0206
6.0507 1.3785 1.0261
6.0505 1.6090 1.0358
6.0504 1.8439 1.0470
6.0502 2.0840 1.0598
6.0501 2.3301 1.0743
6.0499 2.5832 1.0906
6.0497 2.8441 1.1088
6.0496 3.1139 1.1291
6.0494 3.3939 1.1517
6.0492 3.6854 1.1766
6.0490 3.9900 1.2043
6.0488 4.3093 1.2348
6.0486 4.6454 1.2686
6.0484 5.0005 1.3059
6.0482 5.3773 1.3473
9.4424 9.0226 2.1750
8.8790 9.1162 2.1201
6.1083 6.7396 1.5159
6.0724 7.2038 1.5708
7.9515 10.1513 2.1506
7.5794 10.4269 2.1506
7.1979 10.6891 2.1506
6.8074 10.9375 2.1506
6.4085 11.1718 2.1506
6.0698 11.5212 2.1750
5.5385 11.4958 2.1318
5.1210 11.6848 2.1318
4.6972 11.8588 2.1318
4.2676 12.0178 2.1318
3.8327 12.1613 2.1319
3.3930 12.2894 2.1319
2.9492 12.4019 2.1319
2.5017 12.4986 2.1319
2.0536 12.5949 2.1346
1.6752 13.2554 2.2350
1.1980 13.3064 2.2350
0.7194 13.3404 2.2350
0.2398 13.3575 2.2350
-0.2400 13.3577 2.2350
-0.7196 13.3408 2.2350
-1.1982 13.3070 2.2350
-1.6755 13.2563 2.2350
-2.1506 13.1888 2.2350
-2.6231 13.1044 2.2350
-3.0924 13.0035 2.2350
-3.5579 12.8859 2.2350
-4.0190 12.7519 2.2350
-4.4752 12.6017 2.2350
-4.9258 12.4354 2.2350
-5.3704 12.2532 2.2350
-5.8083 12.0553 2.2350
-6.1829 11.7355 2.2149
-6.3543 11.0770 2.1318
-6.7499 10.8448 2.1318
-7.1378 10.5995 2.1319
-7.5162 10.3397 2.1319
-7.8853 10.0666 2.1319
-8.2446 9.7804 2.1319
-8.5936 9.4816 2.1319
-8.9320 9.1704 2.1319
-9.2592 8.8473 2.1319
-9.5749 8.5127 2.1319
-9.8785 8.1669 2.1319
-10.1699 7.8103 2.1319
-10.2369 7.2929 2.0888
-10.2366 6.7520 2.0370
-10.2363 6.2363 1.9901
-10.2360 5.7427 1.9477
-10.2357 5.2686 1.9095
-10.2354 4.8117 1.8750
-10.2352 4.3701 1.8441
-10.2349 3.9419 1.8164
-10.2347 3.5253 1.7918
-10.2344 3.1190 1.7701
-10.2342 2.7215 1.7510
-10.2339 2.3315 1.7346
-10.2337 1.9479 1.7207
-10.2335 1.5695 1.7091
-10.2332 1.1953 1.6999
-10.2330 0.8243 1.6929
-10.2328 0.4554 1.6881
-10.2326 0.0877 1.6855
-10.2323 -0.2798 1.6851
-10.2321 -0.6479 1.6869
-10.2319 -1.0178 1.6908
-10.2316 -1.3902 1.6970
-10.2314 -1.7663 1.7055
-10.2312 -2.1470 1.7162
-10.2309 -2.5335 1.7294
-10.2307 -2.9269 1.7451
-10.2304 -3.3285 1.7633
-10.2302 -3.7394 1.7843
-10.2299 -4.1614 1.8083
-10.2296 -4.5958 1.8353
-10.2293 -5.0444 1.8656
-6.4270 -3.4615 1.1934
-10.2287 -5.9922 1.9371
-10.2284 -6.4960 1.9791
-10.2280 -7.0233 2.0255
-10.2277 -7.5771 2.0771
-10.2273 -8.1612 2.1342
-9.9215 -8.5176 2.1319
-9.6134 -8.8718 2.1319
-9.2926 -9.2148 2.1319
-8.9594 -9.5460 2.1319
-8.6142 -9.8650 2.1319
-8.2576 -10.1714 2.1319
-7.8900 -10.4647 2.1319
-7.5118 -10.7445 2.1319
-7.1236 -11.0106 2.1319
-6.7258 -11.2624 2.1319
-6.3191 -11.4996 2.1319
-6.1612 -12.2328 2.2249
-5.7458 -12.5058 2.2350
-5.2945 -12.7067 2.2350
-4.8361 -12.8910 2.2350
-4.3712 -13.0586 2.2350
-3.9004 -13.2092 2.2350
-3.4244 -13.3425 2.2350
-2.9438 -13.4584 2.2350
-2.4593 -13.5567 2.2350
-1.9714 -13.6373 2.2350
-1.4809 -13.7001 2.2350
-0.9884 -13.7450 2.2350
-0.4946 -13.7719 2.2350
-0.0001 -12.0561 2.2350
0.4325 -12.0481 2.2350
0.8644 -12.0244 2.2350
1.2952 -11.9850 2.2350
1.7243 -11.9299 2.2350
2.0517 -11.3115 2.1318
2.4559 -11.2294 2.1318
2.8569 -11.1327 2.1318
3.2541 -11.0214 2.1318
3.6468 -10.8959 2.1318
4.0347 -10.7561 2.1318
4.4172 -10.6024 2.1318
4.7938 -10.4349 2.1318
5.1640 -10.2539 2.1318
5.0086 -9.1156 1.9317
5.8831 -9.8522 2.1318
6.3576 -9.8276 2.1750
2.4209 -3.4631 0.7854
7.0419 -9.3408 2.1750
7.3703 -9.0793 2.1750
7.5171 -8.6094 2.1264
7.9971 -8.5216 2.1750
8.2949 -8.2263 2.1750
8.5816 -7.9204 2.1750
8.8569 -7.6045 2.1750
8.8747 -7.0827 2.1164
8.8508 -6.5579 2.0540
6.0541 -4.1577 1.3700
6.0539 -3.8453 1.3384
6.0537 -3.5469 1.3099
6.0536 -3.2608 1.2843
6.0534 -2.9856 1.2613
6.0532 -2.7199 1.2406
6.0531 -2.4627 1.2222
6.0529 -2.2129 1.2059
6.0527 -1.9696 1.1916
6.0526 -1.7320 1.1791
6.0525 -1.4992 1.1684
6.0523 -1.2704 1.1594
6.0522 -1.0452 1.1520
6.0520 -0.8227 1.1462
6.0519 -0.6023 1.1419
6.0518 -0.3836 1.1391
6.0516 -0.1658 1.1378
6.0515 0.0515 1.1379
6.0513 0.2689 1.1395
6.0512 0.4871 1.1426
6.0511 0.7065 1.1472
6.0509 0.9277 1.1533
6.0508 1.1514 1.1610
6.0507 1.3781 1.1702
6.0505 1.6086 1.1812
6.0504 1.8435 1.1939
6.0502 2.0837 1.2084
6.0501 2.3298 1.2249
6.0499 2.5828 1.2434
6.0497 2.8437 1.2641
6.0496 3.1135 1.2872
6.0494 3.3935 1.3128
6.0492 3.6850 1.3412
6.0490 3.9896 1.3726
6.0488 4.3089 1.4073
6.0486 4.6449 1.4457
6.0484 5.0000 1.4882
6.0482 5.3769 1.5352
6.0509 5.7814 1.5882
7.9045 8.1150 2.1506
6.1083 6.7391 1.7272
6.0724 7.2033 1.7897
6.9794 8.9096 2.1506
6.6530 9.1519 2.1506
6.3184 9.3824 2.1506
5.9758 9.6007 2.1506
5.5766 9.7209 2.1318
5.2227 9.9127 2.1318
4.8623 10.0917 2.1318
4.4959 10.2578 2.1318
4.1239 10.4108 2.1318
3.7468 10.5504 2.1318
3.3650 10.6766 2.1318
2.9790 10.7892 2.1318
2.5895 10.8887 2.1319
2.1966 10.9737 2.1319
1.8614 11.4159 2.2036
1.4709 11.6384 2.2350
1.0519 11.6832 2.2350
0.6316 11.7131 2.2350
0.2106 11.7281 2.2350
-0.2108 11.7282 2.2350
-0.6318 11.7134 2.2350
-1.0521 11.6837 2.2350
-1.4712 11.6391 2.2350
-1.8884 11.5796 2.2350
-2.3032 11.5055 2.2350
-2.7152 11.4166 2.2350
-3.1239 11.3132 2.2350
-3.5286 11.1953 2.2350
-3.9291 11.0632 2.2350
-4.3246 10.9169 2.2350
-4.7148 10.7567 2.2350
-5.0991 10.5827 2.2350
-5.4771 10.3951 2.2350
-5.8483 10.1942 2.2350
-6.1750 9.9204 2.2217
-6.2654 9.3034 2.1319
-6.5973 9.0750 2.1319
-6.9210 8.8349 2.1319
-7.2361 8.5834 2.1319
-7.5421 8.3207 2.1319
-7.8387 8.0473 2.1319
-8.1255 7.7634 2.1319
-8.4020 7.4693 2.1319
-8.6681 7.1655 2.1319
-8.9232 6.8523 2.1319
-9.1672 6.5301 2.1319
-9.3996 6.1993 2.1319
-9.6201 5.8602 2.1319
-9.8285 5.5134 2.1319
-10.0245 5.1592 2.1319
-10.2354 4.8111 2.1377
-10.2351 4.3694 2.1026
-10.2348 3.9412 2.0711
-10.2346 3.5247 2.0432
-10.2343 3.1183 2.0185
-10.2341 2.7208 1.9970
-10.2339 2.3309 1.9784
-10.2336 1.9473 1.9626
-10.2334 1.5689 1.9495
-10.2332 1.1947 1.9391
-10.2329 0.8237 1.9313
-10.2327 0.4548 1.9259
-10.2325 0.0871 1.9231
-10.2323 -0.2804 1.9228
-10.2320 -0.6485 1.9249
-10.2318 -1.0183 1.9296
-10.2316 -1.3908 1.9368
-10.2313 -1.7669 1.9465
-10.2311 -2.1476 1.9589
-10.2308 -2.5341 1.9741
-10.2306 -2.9275 1.9921
-10.2303 -3.3290 2.0131
-10.2301 -3.7401 2.0372
-10.2298 -4.1620 2.0647
-10.2295 -4.5964 2.0956
-10.2292 -5.0450 2.1304
-6.4256 -3.4612 1.3626
-9.8568 -5.7750 2.1319
-9.6473 -6.1276 2.1319
-9.4250 -6.4725 2.1319
-9.1903 -6.8093 2.1319
-8.9435 -7.1375 2.1319
-8.6849 -7.4566 2.1319
-8.4148 -7.7663 2.1319
-8.1335 -8.0661 2.1319
-7.8415 -8.3556 2.1319
-7.5391 -8.6344 2.1319
-7.2267 -8.9022 2.1319
-6.9047 -9.1585 2.1319
-6.5735 -9.4030 2.1319
-6.2335 -9.6355 2.1319
-6.1624 -10.3195 2.2323
-5.7965 -10.5492 2.2350
-5.4155 -10.7529 2.2350
-5.0272 -10.9425 2.2350
-4.6322 -11.1180 2.2350
-4.2311 -11.2790 2.2350
-3.8243 -11.4254 2.2350
-3.4123 -11.5568 2.2350
-2.9959 -11.6733 2.2350
-2.5754 -11.7745 2.2350
-2.1514 -11.8604 2.2350
-1.7246 -11.9308 2.2350
-1.2955 -11.9856 2.2350
-0.8647 -12.0248 2.2350
-0.4327 -12.0483 2.2350
-0.0001 -10.7051 2.2350
0.3840 -10.6980 2.2350
0.7675 -10.6770 2.2350
1.1500 -10.6421 2.2350
1.5310 -10.5933 2.2350
1.8836 -10.3854 2.2042
2.1807 -9.9715 2.1318
2.5367 -9.8857 2.1318
2.8894 -9.7871 2.1318
3.2383 -9.6757 2.1318
3.5828 -9.5518 2.1318
3.9225 -9.4155 2.1318
4.2570 -9.2670 2.1318
4.5858 -9.1065 2.1318
4.9086 -8.9341 2.1318
5.2248 -8.7503 2.1318
5.5340 -8.5551 2.1318
2.4205 -3.4628 0.8842
6.2544 -8.2969 2.1750
6.5463 -8.0649 2.1750
6.8295 -7.8225 2.1750
7.1036 -7.5701 2.1750
7.3683 -7.3080 2.1750
7.6233 -7.0366 2.1750
7.8682 -6.7562 2.1750
8.1028 -6.4673 2.1750
8.3267 -6.1701 2.1750
6.0541 -4.1581 1.5420
6.0539 -3.8457 1.5063
6.0537 -3.5473 1.4742
6.0536 -3.2612 1.4453
6.0534 -2.9860 1.4193
6.0532 -2.7203 1.3960
6.0531 -2.4631 1.3753
6.0529 -2.2133 1.3569
6.0527 -1.9700 1.3407
6.0526 -1.7324 1.3266
6.0524 -1.4995 1.3144
6.0523 -1.2708 1.3042
6.0522 -1.0455 1.2958
6.0520 -0.8230 1.2892
6.0519 -0.6027 1.2843
6.0518 -0.3839 1.2811
6.0516 -0.1662 1.2795
6.0515 0.0511 1.2796
6.0513 0.2686 1.2814
6.0512 0.4867 1.2848
6.0511 0.7061 1.2899
6.0509 0.9273 1.2967
6.0508 1.1510 1.3052
6.0507 1.3778 1.3156
6.0505 1.6082 1.3278
6.0504 1.8432 1.3420
6.0502 2.0833 1.3583
6.0501 2.3294 1.3767
6.0499 2.5824 1.3975
6.0497 2.8433 1.4207
6.0496 3.1131 1.4465
6.0494 3.3931 1.4752
6.0492 3.6846 1.5071
6.0490 3.9891 1.5423
6.0488 4.3084 1.5813
6.0486 4.6445 1.6244
6.0484 4.9996 1.6720
6.0482 5.3764 1.7248
6.0507 5.7807 1.7842
6.0512 6.2119 1.8496
6.1083 6.7386 1.9403
6.0724 7.2027 2.0104
6.2133 7.9311 2.1506
5.8711 8.0758 2.1318
5.5760 8.2794 2.1318
5.2738 8.4723 2.1318
4.9651 8.6543 2.1318
4.6501 8.8253 2.1318
4.3293 8.9849 2.1318
4.0032 9.1330 2.1318
3.6720 9.2693 2.1318
3.3362 9.3939 2.1318
2.9963 9.5064 2.1318
2.6527 9.6068 2.1318
2.3057 9.6948 2.1318
1.9558 9.7706 2.1318
1.6812 10.3101 2.2350
1.3098 10.3633 2.2350
0.9367 10.4032 2.2350
0.5625 10.4299 2.2350
0.1875 10.4433 2.2350
-0.1877 10.4434 2.2350
-0.5627 10.4301 2.2350
-0.9369 10.4036 2.2350
-1.3100 10.3638 2.2350
-1.6815 10.3108 2.2350
-2.0509 10.2446 2.2350
-2.4178 10.1654 2.2350
-2.7816 10.0732 2.2350
-3.1420 9.9681 2.2350
-3.4985 9.8503 2.2350
-3.8506 9.7198 2.2350
-4.1980 9.5769 2.2350
-4.5400 9.4218 2.2350
-4.8765 9.2546 2.2350
-5.2068 9.0754 2.2350
-5.5307 8.8846 2.2350
-5.8476 8.6824 2.2350
-6.1572 8.4690 2.2350
-6.1835 7.8929 2.1397
-6.4414 7.6402 2.1319
-6.7136 7.4061 2.1319
-6.9774 7.1625 2.1319
-7.2324 6.9095 2.1319
-7.4783 6.6475 2.1319
-7.7147 6.3768 2.1319
-7.9415 6.0978 2.1319
-8.1583 5.8108 2.1319
-8.3647 5.5162 2.1319
-8.5606 5.2142 2.1319
-8.7456 4.9053 2.1319
-8.9196 4.5900 2.1319
-9.0823 4.2685 2.1319
-9.2334 3.9412 2.1319
-9.3728 3.6086 2.1319
-9.5003 3.2712 2.1319
-9.6156 2.9292 2.1319
-9.7187 2.5832 2.1319
-9.8094 2.2336 2.1319
-9.8875 1.8808 2.1319
-9.9530 1.5253 2.1319
-10.0058 1.1676 2.1319
-10.0456 0.8080 2.1319
-10.0726 0.4471 2.1319
-10.0866 0.0852 2.1319
-10.0876 -0.2770 2.1319
-10.0756 -0.6392 2.1319
-10.0506 -1.0009 2.1319
-10.0126 -1.3616 2.1319
-9.9616 -1.7209 2.1319
-9.8977 -2.0782 2.1319
-9.8210 -2.4331 2.1319
-9.7315 -2.7852 2.1319
-9.6293 -3.1340 2.1319
-9.5146 -3.4790 2.1319
-9.3874 -3.8198 2.1319
-9.2480 -4.1560 2.1319
-9.0965 -4.4870 2.1319
-6.3215 -3.4055 1.5087
-8.7580 -5.1318 2.1319
-8.5715 -5.4449 2.1319
-8.3736 -5.7511 2.1319
-8.1648 -6.0500 2.1319
-7.9452 -6.3413 2.1319
-7.7151 -6.6246 2.1319
-7.4749 -6.8994 2.1319
-7.2248 -7.1654 2.1319
-6.9651 -7.4223 2.1319
-6.6963 -7.6697 2.1319
-6.4185 -7.9073 2.1319
-6.1721 -8.1874 2.1458
-6.1203 -8.7554 2.2350
-5.8036 -8.9716 2.2350
-5.4792 -9.1761 2.2350
-5.1476 -9.3688 2.2350
-4.8091 -9.5494 2.2350
-4.4642 -9.7176 2.2350
-4.1133 -9.8732 2.2350
-3.7571 -10.0160 2.2350
-3.3958 -10.1458 2.2350
-3.0300 -10.2624 2.2350
-2.6601 -10.3656 2.2350
-2.2867 -10.4554 2.2350
-1.9103 -10.5315 2.2350
-1.5313 -10.5940 2.2350
-1.1503 -10.6426 2.2350
-0.7677 -10.6773 2.2350
-0.3842 -10.6982 2.2350
-0.0001 -9.6172 2.2350
0.3449 -9.6109 2.2350
0.6895 -9.5920 2.2350
1.0331 -9.5607 2.2350
1.3753 -9.5169 2.2350
1.7158 -9.4608 2.2350
1.9590 -8.9584 2.1318
2.2789 -8.8815 2.1318
2.5958 -8.7930 2.1318
2.9092 -8.6931 2.1318
3.2187 -8.5819 2.1318
3.5240 -8.4596 2.1318
3.8246 -8.3263 2.1318
4.1201 -8.1822 2.1318
4.4102 -8.0276 2.1318
4.6944 -7.8625 2.1318
4.9724 -7.6874 2.1318
2.4201 -3.4625 0.9839
5.5082 -7.3075 2.1318
5.7654 -7.1034 2.1318
6.1370 -7.0299 2.1750
6.3835 -6.8033 2.1750
6.6216 -6.5679 2.1750
6.8510 -6.3242 2.1750
7.0713 -6.0725 2.1750
7.2824 -5.8130 2.1750
7.4838 -5.5461 2.1750
6.0541 -4.1585 1.7156
6.0539 -3.8462 1.6759
6.0537 -3.5477 1.6401
6.0536 -3.2616 1.6078
6.0534 -2.9864 1.5788
6.0532 -2.7207 1.5529
6.0531 -2.4635 1.5297
6.0529 -2.2137 1.5092
6.0527 -1.9704 1.4911
6.0526 -1.7327 1.4754
6.0525 -1.4999 1.4618
6.0523 -1.2712 1.4504
6.0522 -1.0459 1.4410
6.0520 -0.8234 1.4336
6.0519 -0.6030 1.4281
6.0518 -0.3843 1.4245
6.0516 -0.1665 1.4227
6.0515 0.0508 1.4227
6.0513 0.2682 1.4246
6.0512 0.4864 1.4283
6.0511 0.7057 1.4339
6.0509 0.9270 1.4414
6.0508 1.1507 1.4509
6.0507 1.3774 1.4623
6.0505 1.6079 1.4759
6.0504 1.8428 1.4916
6.0502 2.0829 1.5096
6.0501 2.3290 1.5300
6.0499 2.5820 1.5530
6.0497 2.8429 1.5788
6.0496 3.1127 1.6074
6.0494 3.3927 1.6393
6.0492 3.6842 1.6746
6.0490 3.9887 1.7137
6.0488 4.3080 1.7569
6.0486 4.6440 1.8047
6.0484 4.9991 1.8576
6.0482 5.3759 1.9162
6.0507 5.7803 1.9821
6.0511 6.2113 2.0546
6.0680 6.6936 2.1412
5.7965 6.8749 2.1318
5.5445 7.0769 2.1318
5.2856 7.2698 2.1318
5.0199 7.4533 2.1318
4.7480 7.6271 2.1318
4.4702 7.7912 2.1318
4.1867 7.9452 2.1318
3.8979 8.0891 2.1318
3.6043 8.2226 2.1318
3.3062 8.3455 2.1318
3.0039 8.4577 2.1318
2.6979 8.5591 2.1318
2.3885 8.6496 2.1318
2.0833 8.7591 2.1391
1.8464 9.2233 2.2350
1.5138 9.2831 2.2350
1.1794 9.3310 2.2350
0.8434 9.3670 2.2350
0.5065 9.3911 2.2350
0.1688 9.4032 2.2350
-0.1690 9.4032 2.2350
-0.5067 9.3913 2.2350
-0.8437 9.3674 2.2350
-1.1796 9.3315 2.2350
-1.5141 9.2837 2.2350
-1.8467 9.2240 2.2350
-2.1771 9.1526 2.2350
-2.5046 9.0695 2.2350
-2.8291 8.9747 2.2350
-3.1500 8.8685 2.2350
-3.4670 8.7509 2.2350
-3.7797 8.6221 2.2350
-4.0876 8.4823 2.2350
-4.3904 8.3316 2.2350
-4.6877 8.1701 2.2350
-4.9792 7.9982 2.2350
-5.2644 7.8159 2.2350
-5.5430 7.6236 2.2350
-5.8146 7.4215 2.2350
-6.0790 7.2097 2.2350
-6.1740 6.8103 2.1780
-6.2807 6.4467 2.1319
-6.5100 6.2188 2.1319
-6.7311 5.9828 2.1319
-6.9438 5.7390 2.1319
-7.1476 5.4877 2.1319
-7.3424 5.2292 2.1319
-7.5280 4.9638 2.1319
-7.7040 4.6919 2.1319
-7.8702 4.4138 2.1319
-8.0265 4.1298 2.1319
-8.1726 3.8404 2.1319
-8.3082 3.5458 2.1319
-8.4333 3.2464 2.1319
-8.5477 2.9426 2.1319
-8.6511 2.6349 2.1319
-8.7435 2.3235 2.1319
-8.8247 2.0089 2.1319
-8.8947 1.6914 2.1319
-8.9532 1.3716 2.1319
-9.0002 1.0497 2.1319
-9.0357 0.7262 2.1319
-9.0596 0.4016 2.1319
-9.0718 0.0761 2.1319
-9.0724 -0.2497 2.1319
-9.0612 -0.5754 2.1319
-9.0383 -0.9006 2.1319
-9.0037 -1.2249 2.1319
-8.9575 -1.5479 2.1319
-8.8997 -1.8692 2.1319
-8.8303 -2.1882 2.1319
-8.7495 -2.5047 2.1319
-8.6572 -2.8182 2.1319
-8.5537 -3.1282 2.1319
-8.4391 -3.4345 2.1319
-8.3135 -3.7365 2.1319
-8.1770 -4.0339 2.1319
-6.3144 -3.4020 1.6765
-7.8721 -4.6133 2.1319
-7.7041 -4.8945 2.1319
-7.5260 -5.1695 2.1319
-7.3381 -5.4380 2.1319
-7.1405 -5.6996 2.1319
-6.9335 -5.9539 2.1319
-6.7174 -6.2007 2.1319
-6.4924 -6.4396 2.1319
-6.2589 -6.6703 2.1319
-6.1644 -7.0611 2.1841
-6.0463 -7.4492 2.2350
-5.7765 -7.6633 2.2350
-5.4992 -7.8674 2.2350
-5.2145 -8.0614 2.2350
-4.9229 -8.2450 2.2350
-4.6248 -8.4180 2.2350
-4.3206 -8.5800 2.2350
-4.0107 -8.7310 2.2350
-3.6954 -8.8706 2.2350
-3.3753 -8.9988 2.2350
-3.0507 -9.1153 2.2350
-2.7220 -9.2199 2.2350
-2.3897 -9.3125 2.2350
-2.0543 -9.3931 2.2350
-1.7161 -9.4614 2.2350
-1.3756 -9.5175 2.2350
-1.0333 -9.5611 2.2350
-0.6897 -9.5923 2.2350
-0.3451 -9.6110 2.2350
-0.0001 -8.7216 2.2350
0.3128 -8.7158 2.2350
0.6252 -8.6988 2.2350
0.9368 -8.6704 2.2350
1.2472 -8.6307 2.2350
1.5559 -8.5799 2.2350
1.8625 -8.5179 2.2350
2.0666 -8.0547 2.1318
2.3540 -7.9745 2.1318
2.6383 -7.8840 2.1318
2.9190 -7.7833 2.1318
3.1959 -7.6724 2.1318
3.4685 -7.5517 2.1318
3.7366 -7.4211 2.1318
3.9997 -7.2810 2.1318
4.2576 -7.1314 2.1318
4.5098 -6.9727 2.1318
2.4197 -3.4621 1.0846
4.9960 -6.6285 2.1318
5.2294 -6.4435 2.1318
5.4559 -6.2502 2.1318
5.6752 -6.0489 2.1318
5.8870 -5.8398 2.1318
6.2146 -5.7374 2.1750
6.4147 -5.5091 2.1750
6.6063 -5.2739 2.1750
6.7893 -5.0319 2.1750
6.0541 -4.1590 1.8910
6.0539 -3.8466 1.8472
6.0537 -3.5482 1.8077
6.0536 -3.2620 1.7721
6.0534 -2.9868 1.7401
6.0532 -2.7211 1.7114
6.0531 -2.4639 1.6859
6.0529 -2.2141 1.6632
6.0527 -1.9708 1.6432
6.0526 -1.7331 1.6258
6.0525 -1.5003 1.6108
6.0523 -1.2715 1.5982
6.0522 -1.0462 1.5878
6.0520 -0.8237 1.5795
6.0519 -0.6034 1.5734
6.0518 -0.3847 1.5693
6.0516 -0.1669 1.5673
6.0515 0.0504 1.5673
6.0513 0.2679 1.5693
6.0512 0.4860 1.5734
6.0511 0.7054 1.5795
6.0509 0.9266 1.5877
6.0508 1.1503 1.5981
6.0507 1.3770 1.6106
6.0505 1.6075 1.6255
6.0504 1.8424 1.6428
6.0502 2.0825 1.6625
6.0501 2.3286 1.6850
6.0499 2.5816 1.7102
6.0497 2.8425 1.7385
6.0496 3.1123 1.7700
6.0494 3.3923 1.8051
6.0492 3.6838 1.8439
6.0490 3.9883 1.8869
6.0488 4.3076 1.9344
6.0486 4.6436 1.9870
6.0484 4.9987 2.0452
6.0482 5.3755 2.1097
6.0309 5.7608 2.1750
5.7029 5.8534 2.1318
5.4877 6.0530 2.1318
5.2655 6.2447 2.1318
5.0367 6.4283 2.1318
4.8016 6.6036 2.1318
4.5604 6.7704 2.1318
4.3134 6.9285 2.1318
4.0611 7.0777 2.1318
3.8036 7.2178 2.1318
3.5413 7.3486 2.1318
3.2746 7.4699 2.1318
3.0038 7.5817 2.1318
2.7292 7.6838 2.1318
2.4512 7.7760 2.1318
2.1701 7.8582 2.1318
1.8863 7.9304 2.1318
1.6776 8.3796 2.2350
1.3754 8.4340 2.2350
1.0716 8.4775 2.2350
0.7663 8.5103 2.2350
0.4602 8.5321 2.2350
0.1534 8.5431 2.2350
-0.1536 8.5432 2.2350
-0.4604 8.5323 2.2350
-0.7666 8.5105 2.2350
-1.0718 8.4779 2.2350
-1.3757 8.4344 2.2350
-1.6779 8.3802 2.2350
-1.9780 8.3152 2.2350
-2.2756 8.2396 2.2350
-2.5704 8.1534 2.2350
-2.8619 8.0568 2.2350
-3.1499 7.9499 2.2350
-3.4339 7.8328 2.2350
-3.7136 7.7056 2.2350
-3.9886 7.5686 2.2350
-4.2587 7.4218 2.2350
-4.5234 7.2654 2.2350
-4.7824 7.0998 2.2350
-5.0354 6.9249 2.2350
-5.2820 6.7411 2.2350
-5.5220 6.5486 2.2350
-5.7550 6.3476 2.2350
-5.9808 6.1384 2.2350
-6.1725 5.8959 2.2255
-6.1786 5.4912 2.1545
-6.3068 5.2120 2.1319
-6.4917 4.9836 2.1319
-6.6685 4.7487 2.1319
-6.8368 4.5076 2.1319
-6.9965 4.2605 2.1319
-7.1472 4.0078 2.1319
-7.2889 3.7498 2.1319
-7.4213 3.4869 2.1319
-7.5442 3.2192 2.1319
-7.6576 2.9473 2.1319
-7.7612 2.6714 2.1319
-7.8548 2.3919 2.1319
-7.9385 2.1091 2.1319
-8.0119 1.8234 2.1319
-8.0751 1.5351 2.1319
-8.1280 1.2447 2.1319
-8.1704 0.9524 2.1319
-8.2024 0.6588 2.1319
-8.2237 0.3640 2.1319
-8.2345 0.0686 2.1319
-8.2347 -0.2271 2.1319
-8.2243 -0.5227 2.1319
-8.2032 -0.8179 2.1319
-8.1716 -1.1122 2.1319
-8.1294 -1.4053 2.1319
-8.0766 -1.6968 2.1319
-8.0134 -1.9863 2.1319
-7.9397 -2.2734 2.1319
-7.8558 -2.5578 2.1319
-7.7616 -2.8390 2.1319
-7.6574 -3.1168 2.1319
-7.5431 -3.3908 2.1319
-7.4190 -3.6605 2.1319
-6.3072 -3.3986 1.8457
-7.1420 -4.1859 2.1319
-6.9894 -4.4408 2.1319
-6.8276 -4.6902 2.1319
-6.6569 -4.9336 2.1319
-6.4774 -5.1708 2.1319
-6.2895 -5.4014 2.1319
-6.1706 -5.6965 2.1590
-6.1650 -6.1154 2.2318
-5.9517 -6.3433 2.2350
-5.7216 -6.5544 2.2350
-5.4841 -6.7571 2.2350
-5.2393 -6.9510 2.2350
-4.9876 -7.1360 2.2350
-4.7293 -7.3118 2.2350
-4.4648 -7.4782 2.2350
-4.1944 -7.6349 2.2350
-3.9184 -7.7818 2.2350
-3.6373 -7.9186 2.2350
-3.3513 -8.0451 2.2350
-3.0610 -8.1612 2.2350
-2.7665 -8.2668 2.2350
-2.4685 -8.3616 2.2350
-2.1671 -8.4455 2.2350
-1.8629 -8.5185 2.2350
-1.5562 -8.5804 2.2350
-1.2475 -8.6312 2.2350
-0.9371 -8.6707 2.2350
-0.6254 -8.6990 2.2350
-0.3130 -8.7159 2.2350
-0.0001 -7.9706 2.2350
0.2858 -7.9654 2.2350
0.5713 -7.9498 2.2350
0.8561 -7.9239 2.2350
1.1397 -7.8877 2.2350
1.4219 -7.8413 2.2350
1.7021 -7.7847 2.2350
1.8932 -7.3792 2.1369
2.1513 -7.2882 2.1318
2.4111 -7.2056 2.1318
2.6677 -7.1136 2.1318
2.9208 -7.0124 2.1318
3.1700 -6.9021 2.1318
3.4150 -6.7829 2.1318
3.6555 -6.6549 2.1318
3.8912 -6.5183 2.1318
4.1218 -6.3733 2.1318
2.4193 -3.4618 1.1864
4.5664 -6.0589 2.1318
4.7798 -5.8899 2.1318
4.9869 -5.7134 2.1318
5.1874 -5.5295 2.1318
5.3812 -5.3385 2.1318
5.5678 -5.1407 2.1318
5.7472 -4.9363 2.1318
6.0391 -4.8215 2.1750
6.2065 -4.6005 2.1750
6.0541 -4.1594 2.0685
6.0539 -3.8470 2.0205
6.0537 -3.5486 1.9773
6.0536 -3.2624 1.9383
6.0534 -2.9872 1.9032
6.0532 -2.7215 1.8718
6.0531 -2.4643 1.8438
6.0529 -2.2145 1.8190
6.0527 -1.9712 1.7971
6.0526 -1.7335 1.7780
6.0525 -1.5006 1.7616
6.0523 -1.2719 1.7477
6.0522 -1.0466 1.7362
6.0520 -0.8241 1.7272
6.0519 -0.6038 1.7204
6.0518 -0.3850 1.7159
6.0516 -0.1673 1.7137
6.0515 0.0501 1.7136
6.0513 0.2675 1.7158
6.0512 0.4856 1.7202
6.0511 0.7050 1.7268
6.0509 0.9263 1.7357
6.0508 1.1499 1.7470
6.0507 1.3767 1.7607
6.0505 1.6071 1.7769
6.0504 1.8421 1.7957
6.0502 2.0822 1.8173
6.0501 2.3282 1.8417
6.0499 2.5813 1.8693
6.0497 2.8421 1.9002
6.0496 3.1119 1.9346
6.0494 3.3919 1.9728
6.0492 3.6834 2.0152
6.0490 3.9879 2.0621
6.0488 4.3071 2.1140
6.0486 4.6431 2.1714
5.7691 4.7674 2.1318
5.5927 4.9702 2.1318
5.4093 5.1666 2.1318
5.2190 5.3563 2.1318
5.0221 5.5390 2.1318
4.8189 5.7146 2.1318
4.6096 5.8827 2.1318
4.3945 6.0433 2.1318
4.1738 6.1961 2.1318
3.9478 6.3408 2.1318
3.7169 6.4775 2.1318
3.4813 6.6057 2.1318
3.2413 6.7255 2.1318
2.9972 6.8367 2.1318
2.7494 6.9391 2.1318
2.4981 7.0326 2.1318
2.2436 7.1170 2.1318
1.9863 7.1924 2.1318
1.8102 7.6101 2.2350
1.5356 7.6697 2.2350
1.2590 7.7195 2.2350
0.9808 7.7594 2.2350
0.7015 7.7894 2.2350
0.4212 7.8094 2.2350
0.1404 7.8194 2.2350
-0.1406 7.8195 2.2350
-0.4214 7.8095 2.2350
-0.7017 7.7896 2.2350
-0.9811 7.7597 2.2350
-1.2592 7.7199 2.2350
-1.5358 7.6702 2.2350
-1.8105 7.6107 2.2350
-2.0829 7.5414 2.2350
-2.3527 7.4625 2.2350
-2.6195 7.3740 2.2350
-2.8831 7.2760 2.2350
-3.1430 7.1687 2.2350
-3.3989 7.0523 2.2350
-3.6506 6.9267 2.2350
-3.8977 6.7923 2.2350
-4.1399 6.6491 2.2350
-4.3769 6.4973 2.2350
-4.6084 6.3372 2.2350
-4.8340 6.1689 2.2350
-5.0535 5.9926 2.2350
-5.2667 5.8085 2.2350
-5.4732 5.6170 2.2350
-5.6728 5.4181 2.2350
-5.8652 5.2122 2.2350
-6.0502 4.9995 2.2350
-6.1718 4.7375 2.2150
-6.1771 4.3983 2.1582
-6.2557 4.1240 2.1319
-6.4016 3.8978 2.1319
-6.5394 3.6665 2.1319
-6.6689 3.4304 2.1319
-6.7898 3.1897 2.1319
-6.9021 2.9448 2.1319
-7.0056 2.6959 2.1319
-7.1002 2.4434 2.1319
-7.1857 2.1876 2.1319
-7.2620 1.9289 2.1319
-7.3290 1.6675 2.1319
-7.3866 1.4038 2.1319
-7.4347 1.1381 2.1319
-7.4733 0.8707 2.1319
-7.5023 0.6021 2.1319
-7.5216 0.3325 2.1319
-7.5313 0.0623 2.1319
-7.5312 -0.2082 2.1319
-7.5215 -0.4785 2.1319
-7.5020 -0.7484 2.1319
-7.4728 -1.0176 2.1319
-7.4340 -1.2856 2.1319
-7.3855 -1.5520 2.1319
-7.3275 -1.8167 2.1319
-7.2600 -2.0792 2.1319
-7.1830 -2.3392 2.1319
-7.0967 -2.5963 2.1319
-7.0012 -2.8502 2.1319
-6.8965 -3.1006 2.1319
-6.7829 -3.3471 2.1319
-6.2999 -3.3951 2.0165
-6.5293 -3.8272 2.1319
-6.3896 -4.0602 2.1319
-6.2416 -4.2881 2.1319
-6.1706 -4.5737 2.1618
-6.1658 -4.9225 2.2200
-6.0272 -5.1767 2.2350
-5.8391 -5.3910 2.2350
-5.6433 -5.5983 2.2350
-5.4401 -5.7986 2.2350
-5.2297 -5.9914 2.2350
-5.0125 -6.1765 2.2350
-4.7887 -6.3536 2.2350
-4.5585 -6.5226 2.2350
-4.3224 -6.6832 2.2350
-4.0806 -6.8352 2.2350
-3.8334 -6.9783 2.2350
-3.5811 -7.1124 2.2350
-3.3242 -7.2374 2.2350
-3.0628 -7.3529 2.2350
-2.7974 -7.4590 2.2350
-2.5283 -7.5553 2.2350
-2.2559 -7.6419 2.2350
-1.9805 -7.7186 2.2350
-1.7024 -7.7852 2.2350
-1.4222 -7.8417 2.2350
-1.1400 -7.8881 2.2350
-0.8563 -7.9242 2.2350
-0.5716 -7.9500 2.2350
-0.2860 -7.9655 2.2350
-0.0001 -7.3314 2.2350
0.2629 -7.3266 2.2350
0.5255 -7.3123 2.2350
0.7874 -7.2885 2.2350
1.0483 -7.2552 2.2350
1.3078 -7.2125 2.2350
1.5655 -7.1605 2.2350
1.8212 -7.0992 2.2350
1.9787 -6.7039 2.1318
2.2176 -6.6280 2.1318
2.4537 -6.5434 2.1318
2.6865 -6.4504 2.1318
2.9158 -6.3490 2.1318
3.1412 -6.2394 2.1318
3.3625 -6.1218 2.1318
3.5793 -5.9963 2.1318
3.7915 -5.8630 2.1318
2.4188 -3.4614 1.2895
4.2005 -5.5739 2.1318
4.3969 -5.4186 2.1318
4.5875 -5.2562 2.1318
4.7721 -5.0872 2.1318
4.9504 -4.9116 2.1318
5.1222 -4.7297 2.1318
5.2873 -4.5418 2.1318
5.4455 -4.3480 2.1318
5.5966 -4.1488 2.1318
5.7403 -3.9443 2.1318
5.8766 -3.7348 2.1318
6.0537 -3.5490 2.1490
6.0536 -3.2629 2.1066
6.0534 -2.9876 2.0685
6.0532 -2.7219 2.0343
6.0531 -2.4647 2.0038
6.0529 -2.2149 1.9767
6.0527 -1.9716 1.9529
6.0526 -1.7339 1.9321
6.0525 -1.5010 1.9142
6.0523 -1.2723 1.8991
6.0522 -1.0470 1.8866
6.0520 -0.8245 1.8767
6.0519 -0.6042 1.8693
6.0518 -0.3854 1.8644
6.0516 -0.1676 1.8619
6.0515 0.0497 1.8618
6.0513 0.2671 1.8641
6.0512 0.4853 1.8688
6.0511 0.7047 1.8760
6.0509 0.9259 1.8856
6.0508 1.1496 1.8978
6.0507 1.3763 1.9126
6.0505 1.6068 1.9302
6.0504 1.8417 1.9506
6.0502 2.0818 1.9740
6.0501 2.3279 2.0005
6.0499 2.5808 2.0304
6.0497 2.8417 2.0639
6.0496 3.1115 2.1012
6.0494 3.3915 2.1427
5.8920 3.5872 2.1318
5.7578 3.7955 2.1318
5.6164 3.9988 2.1318
5.4678 4.1968 2.1318
5.3122 4.3894 2.1318
5.1499 4.5763 2.1318
4.9811 4.7572 2.1318
4.8060 4.9320 2.1318
4.6248 5.1003 2.1318
4.4377 5.2621 2.1318
4.2450 5.4170 2.1318
4.0469 5.5650 2.1318
3.8437 5.7057 2.1318
3.6357 5.8391 2.1318
3.4231 5.9650 2.1318
3.2061 6.0832 2.1318
2.9851 6.1936 2.1318
2.7604 6.2961 2.1318
2.5321 6.3904 2.1318
2.3007 6.4766 2.1318
2.0822 6.6047 2.1481
1.8729 6.7811 2.1824
1.6672 7.0086 2.2350
1.4143 7.0635 2.2350
1.1596 7.1094 2.2350
0.9034 7.1462 2.2350
0.6461 7.1738 2.2350
0.3879 7.1923 2.2350
0.1293 7.2015 2.2350
-0.1295 7.2016 2.2350
-0.3881 7.1924 2.2350
-0.6463 7.1740 2.2350
-0.9036 7.1464 2.2350
-1.1598 7.1097 2.2350
-1.4145 7.0639 2.2350
-1.6675 7.0091 2.2350
-1.9184 6.9452 2.2350
-2.1668 6.8725 2.2350
-2.4126 6.7909 2.2350
-2.6553 6.7006 2.2350
-2.8946 6.6018 2.2350
-3.1303 6.4944 2.2350
-3.3621 6.3787 2.2350
-3.5896 6.2548 2.2350
-3.8126 6.1229 2.2350
-4.0308 5.9831 2.2350
-4.2439 5.8355 2.2350
-4.4516 5.6804 2.2350
-4.6537 5.5180 2.2350
-4.8499 5.3484 2.2350
-5.0400 5.1719 2.2350
-5.2237 4.9887 2.2350
-5.4007 4.7990 2.2350
-5.5710 4.6031 2.2350
-5.7341 4.4012 2.2350
-5.8900 4.1935 2.2350
-6.0384 3.9803 2.2350
-6.1712 3.7571 2.2322
-6.1710 3.4596 2.1851
-6.1792 3.1781 2.1456
-6.2511 2.9362 2.1319
-6.3628 2.7143 2.1348
-6.4495 2.4815 2.1319
-6.5364 2.2490 2.1319
-6.6149 2.0135 2.1319
-6.6850 1.7752 2.1319
-6.7465 1.5345 2.1319
-6.7994 1.2917 2.1319
-6.8435 1.0471 2.1319
-6.8789 0.8010 2.1319
-6.9054 0.5538 2.1319
-6.9230 0.3056 2.1319
-6.9317 0.0569 2.1319
-6.9315 -0.1920 2.1319
-6.9223 -0.4408 2.1319
-6.9042 -0.6892 2.1319
-6.8772 -0.9369 2.1319
-6.8413 -1.1835 2.1319
-6.7965 -1.4287 2.1319
-6.7430 -1.6722 2.1319
-6.6807 -1.9137 2.1319
-6.6097 -2.1529 2.1319
-6.5301 -2.3894 2.1319
-6.4421 -2.6230 2.1319
-6.3589 -2.8593 2.1364
-6.2409 -3.0801 2.1319
-6.1746 -3.3280 2.1481
-6.1666 -3.6150 2.1885
-6.1629 -3.9166 2.2350
-6.0200 -4.1363 2.2350
-5.8692 -4.3508 2.2350
-5.7108 -4.5597 2.2350
-5.5449 -4.7628 2.2350
-5.3717 -4.9598 2.2350
-5.1914 -5.1505 2.2350
-5.0044 -5.3346 2.2350
-4.8108 -5.5119 2.2350
-4.6109 -5.6821 2.2350
-4.4049 -5.8450 2.2350
-4.1932 -6.0003 2.2350
-3.9759 -6.1479 2.2350
-3.7535 -6.2876 2.2350
-3.5260 -6.4192 2.2350
-3.2940 -6.5425 2.2350
-3.0576 -6.6574 2.2350
-2.8171 -6.7636 2.2350
-2.5730 -6.8611 2.2350
-2.3255 -6.9496 2.2350
-2.0749 -7.0292 2.2350
-1.8216 -7.0997 2.2350
-1.5658 -7.1609 2.2350
-1.3080 -7.2129 2.2350
-1.0485 -7.2555 2.2350
-0.7876 -7.2887 2.2350
-0.5257 -7.3124 2.2350
-0.2631 -7.3267 2.2350
-0.0001 -6.7801 2.2350
0.2431 -6.7757 2.2350
0.4859 -6.7625 2.2350
0.7281 -6.7405 2.2350
0.9694 -6.7097 2.2350
1.2094 -6.6703 2.2350
1.4477 -6.6222 2.2350
1.6842 -6.5655 2.2350
1.8811 -6.3737 2.1915
2.0508 -6.1298 2.1318
2.2691 -6.0517 2.1318
2.4844 -5.9657 2.1318
2.6965 -5.8720 2.1318
2.9050 -5.7707 2.1318
3.1097 -5.6620 2.1318
3.3103 -5.5459 2.1318
3.5065 -5.4227 2.1318
2.4184 -3.4611 1.3941
3.8849 -5.1556 2.1318
4.0666 -5.0119 2.1318
4.2429 -4.8619 2.1318
4.4137 -4.7055 2.1318
4.5787 -4.5432 2.1318
4.7377 -4.3751 2.1318
4.8905 -4.2013 2.1318
5.0369 -4.0222 2.1318
5.1767 -3.8380 2.1318
5.3098 -3.6489 2.1318
5.4359 -3.4551 2.1318
5.5550 -3.2570 2.1318
5.6668 -3.0548 2.1318
5.7712 -2.8487 2.1318
5.8681 -2.6391 2.1318
6.0531 -2.4651 2.1660
6.0529 -2.2153 2.1367
6.0527 -1.9719 2.1109
6.0526 -1.7343 2.0884
6.0525 -1.5014 2.0690
6.0523 -1.2727 2.0526
6.0522 -1.0474 2.0391
6.0520 -0.8249 2.0284
6.0519 -0.6045 2.0203
6.0518 -0.3858 2.0150
6.0516 -0.1680 2.0122
6.0515 0.0493 2.0121
6.0513 0.2668 2.0145
6.0512 0.4849 2.0196
6.0511 0.7043 2.0272
6.0509 0.9255 2.0376
6.0508 1.1492 2.0508
6.0507 1.3759 2.0667
6.0505 1.6064 2.0856
6.0504 1.8413 2.1076
6.0502 2.0814 2.1329
6.0501 2.3275 2.1615
5.8790 2.5075 2.1318
5.7836 2.7163 2.1318
5.6808 2.9215 2.1318
5.5708 3.1228 2.1318
5.4537 3.3200 2.1318
5.3296 3.5128 2.1318
5.1987 3.7011 2.1318
5.0613 3.8844 2.1318
4.9174 4.0628 2.1318
4.7672 4.2358 2.1318
4.6110 4.4034 2.1318
4.4490 4.5652 2.1318
4.2813 4.7211 2.1318
4.1081 4.8709 2.1318
3.9298 5.0144 2.1318
3.7465 5.1515 2.1318
3.5584 5.2818 2.1318
3.3659 5.4054 2.1318
3.1691 5.5220 2.1318
2.9683 5.6315 2.1318
2.7637 5.7338 2.1318
2.5556 5.8286 2.1318
2.3443 5.9161 2.1318
2.1301 5.9958 2.1318
1.9131 6.0680 2.1318
1.7758 6.4293 2.2350
1.5436 6.4885 2.2350
1.3094 6.5394 2.2350
1.0736 6.5819 2.2350
0.8364 6.6160 2.2350
0.5982 6.6416 2.2350
0.3592 6.6587 2.2350
0.1197 6.6672 2.2350
-0.1199 6.6673 2.2350
-0.3594 6.6588 2.2350
-0.5984 6.6417 2.2350
-0.8366 6.6162 2.2350
-1.0738 6.5822 2.2350
-1.3097 6.5397 2.2350
-1.5439 6.4889 2.2350
-1.7761 6.4298 2.2350
-2.0061 6.3624 2.2350
-2.2336 6.2868 2.2350
-2.4583 6.2032 2.2350
-2.6799 6.1116 2.2350
-2.8981 6.0122 2.2350
-3.1126 5.9050 2.2350
-3.3232 5.7902 2.2350
-3.5296 5.6680 2.2350
-3.7316 5.5385 2.2350
-3.9288 5.4018 2.2350
-4.1210 5.2582 2.2350
-4.3081 5.1077 2.2350
-4.4896 4.9507 2.2350
-4.6655 4.7872 2.2350
-4.8355 4.6176 2.2350
-4.9993 4.4419 2.2350
-5.1568 4.2605 2.2350
-5.3078 4.0735 2.2350
-5.4519 3.8812 2.2350
-5.5892 3.6838 2.2350
-5.7193 3.4816 2.2350
-5.8422 3.2748 2.2350
-5.9576 3.0637 2.2350
-6.0654 2.8486 2.2350
-6.1655 2.6297 2.2350
-6.1703 2.3736 2.2038
-6.1717 2.1231 2.1751
-6.1771 1.8798 2.1512
-6.1866 1.6425 2.1319
-6.2434 1.4197 2.1319
-6.2922 1.1950 2.1319
-6.3329 0.9686 2.1319
-6.3655 0.7409 2.1319
-6.3899 0.5120 2.1319
-6.4060 0.2824 2.1319
-6.4140 0.0523 2.1319
-6.4136 -0.1781 2.1319
-6.4050 -0.4083 2.1319
-6.3881 -0.6381 2.1319
-6.3630 -0.8672 2.1319
-6.3296 -1.0954 2.1319
-6.2881 -1.3222 2.1319
-6.2384 -1.5475 2.1319
-6.1806 -1.7709 2.1319
-6.1743 -2.0115 2.1527
-6.1686 -2.2575 2.1769
-6.1673 -2.5115 2.2063
-6.1540 -2.7676 2.2350
-6.0524 -2.9874 2.2350
-5.9428 -3.2035 2.2350
-5.8256 -3.4156 2.2350
-5.7007 -3.6233 2.2350
-5.5684 -3.8264 2.2350
-5.4289 -4.0247 2.2350
-5.2822 -4.2179 2.2350
-5.1286 -4.4057 2.2350
-4.9684 -4.5879 2.2350
-4.8016 -4.7642 2.2350
-4.6286 -4.9344 2.2350
-4.4494 -5.0982 2.2350
-4.2645 -5.2556 2.2350
-4.0739 -5.4062 2.2350
-3.8781 -5.5498 2.2350
-3.6771 -5.6862 2.2350
-3.4713 -5.8154 2.2350
-3.2609 -5.9370 2.2350
-3.0463 -6.0510 2.2350
-2.8276 -6.1571 2.2350
-2.6053 -6.2553 2.2350
-2.3795 -6.3454 2.2350
-2.1505 -6.4273 2.2350
-1.9188 -6.5008 2.2350
-1.6845 -6.5659 2.2350
-1.4480 -6.6226 2.2350
-1.2096 -6.6706 2.2350
-0.9696 -6.7100 2.2350
-0.7284 -6.7407 2.2350
-0.4861 -6.7626 2.2350
-0.2433 -6.7757 2.2350
-0.0001 -6.2993 2.2350
0.2258 -6.2952 2.2350
0.4514 -6.2829 2.2350
0.6765 -6.2625 2.2350
0.9006 -6.2340 2.2350
1.1235 -6.1974 2.2350
1.3450 -6.1527 2.2350
1.5647 -6.1001 2.2350
1.7823 -6.0396 2.2350
1.9053 -5.6954 2.1318
2.1082 -5.6228 2.1318
2.3082 -5.5430 2.1318
2.5053 -5.4560 2.1318
2.6990 -5.3619 2.1318
2.8892 -5.2609 2.1318
3.0756 -5.1532 2.1318
2.3272 -3.5992 1.5228
2.3656 -3.3858 1.4677
2.5498 -3.3841 1.5059
3.7785 -4.6572 2.1318
3.9424 -4.5178 2.1318
4.1011 -4.3726 2.1318
4.2545 -4.2219 2.1318
4.4023 -4.0657 2.1318
4.5443 -3.9043 2.1318
4.6804 -3.7379 2.1318
4.8104 -3.5668 2.1318
4.9342 -3.3911 2.1318
5.0514 -3.2111 2.1318
5.1621 -3.0271 2.1318
5.2661 -2.8392 2.1318
5.3632 -2.6477 2.1318
5.4534 -2.4529 2.1318
5.5365 -2.2551 2.1318
5.6123 -2.0544 2.1318
5.6809 -1.8512 2.1318
5.7421 -1.6457 2.1318
5.7959 -1.4381 2.1318
5.8422 -1.2289 2.1318
5.8809 -1.0181 2.1318
6.0319 -0.8225 2.1750
6.0519 -0.6049 2.1736
6.0518 -0.3861 2.1678
6.0516 -0.1684 2.1648
6.0515 0.0489 2.1646
6.0513 0.2664 2.1672
6.0512 0.4845 2.1726
6.0351 0.7020 2.1750
5.8849 0.8997 2.1318
5.8472 1.1101 2.1318
5.8020 1.3190 2.1318
5.7493 1.5260 2.1318
5.6893 1.7310 2.1318
5.6220 1.9337 2.1318
5.5475 2.1337 2.1318
5.4658 2.3309 2.1318
5.3772 2.5251 2.1318
5.2818 2.7159 2.1318
5.1796 2.9031 2.1318
5.0708 3.0865 2.1318
4.9555 3.2658 2.1318
4.8339 3.4409 2.1318
4.7061 3.6115 2.1318
4.5724 3.7774 2.1318
4.4328 3.9384 2.1318
4.2877 4.0942 2.1318
4.1370 4.2447 2.1318
3.9811 4.3898 2.1318
3.8202 4.5291 2.1318
3.6544 4.6626 2.1318
3.4840 4.7901 2.1318
3.3091 4.9114 2.1318
3.1301 5.0263 2.1318
2.9471 5.1348 2.1318
2.7604 5.2367 2.1318
2.5701 5.3319 2.1318
0.8578 1.9563 0.7694
2.1802 5.5015 2.1318
1.9809 5.5757 2.1318
1.8654 5.9161 2.2350
1.6515 5.9788 2.2350
1.4355 6.0339 2.2350
1.2177 6.0813 2.2350
0.9984 6.1208 2.2350
0.7778 6.1525 2.2350
0.5563 6.1764 2.2350
0.3340 6.1923 2.2350
0.1113 6.2002 2.2350
-0.1115 6.2003 2.2350
-0.3342 6.1924 2.2350
-0.5565 6.1765 2.2350
-0.7781 6.1527 2.2350
-0.9987 6.1211 2.2350
-1.2180 6.0816 2.2350
-1.4358 6.0343 2.2350
-1.6518 5.9792 2.2350
-1.8657 5.9166 2.2350
-2.0773 5.8462 2.2350
-2.2862 5.7684 2.2350
-0.8579 1.9563 0.7693
-0.9276 1.9242 0.7693
-2.8946 5.4910 2.2350
-3.0904 5.3842 2.2350
-3.2823 5.2705 2.2350
-3.4701 5.1500 2.2350
-3.6534 5.0229 2.2350
-3.8322 4.8892 2.2350
-4.0061 4.7493 2.2350
-4.1748 4.6032 2.2350
-4.3383 4.4511 2.2350
-4.4963 4.2933 2.2350
-4.6486 4.1299 2.2350
-4.7950 3.9611 2.2350
-4.9353 3.7872 2.2350
-5.0692 3.6083 2.2350
-5.1968 3.4247 2.2350
-5.3177 3.2367 2.2350
-5.4318 3.0444 2.2350
-5.5390 2.8481 2.2350
-5.6392 2.6480 2.2350
-5.7321 2.4444 2.2350
-5.8177 2.2376 2.2350
-5.8959 2.0278 2.2350
-5.9665 1.8153 2.2350
-6.0295 1.6003 2.2350
-6.0847 1.3832 2.2350
-6.1321 1.1642 2.2350
-6.1694 0.9432 2.2342
-6.1693 0.7176 2.2228
-6.1691 0.4939 2.2143
-6.1690 0.2715 2.2087
-6.1689 0.0499 2.2059
-6.1687 -0.1716 2.2060
-6.1686 -0.3936 2.2090
-6.1684 -0.6165 2.2148
-6.1683 -0.8411 2.2236
-6.1674 -1.0677 2.2350
-6.1268 -1.2887 2.2350
-6.0783 -1.5082 2.2350
-6.0219 -1.7258 2.2350
-5.9577 -1.9413 2.2350
-5.8858 -2.1544 2.2350
-5.8062 -2.3649 2.2350
-5.7191 -2.5723 2.2350
-5.6245 -2.7766 2.2350
-5.5226 -2.9774 2.2350
-5.4136 -3.1744 2.2350
-5.2974 -3.3674 2.2350
-5.1744 -3.5561 2.2350
-5.0446 -3.7403 2.2350
-4.9083 -3.9197 2.2350
-4.7655 -4.0942 2.2350
-4.6166 -4.2634 2.2350
-4.4615 -4.4271 2.2350
-4.3007 -4.5852 2.2350
-4.1342 -4.7374 2.2350
-3.9623 -4.8836 2.2350
-3.7852 -5.0234 2.2350
-3.6032 -5.1568 2.2350
-3.4164 -5.2835 2.2350
-3.2252 -5.4034 2.2350
-3.0297 -5.5164 2.2350
-2.8302 -5.6222 2.2350
-2.6271 -5.7208 2.2350
-2.4205 -5.8120 2.2350
-2.2107 -5.8957 2.2350
-1.9980 -5.9717 2.2350
-1.7827 -6.0400 2.2350
-1.5650 -6.1004 2.2350
-1.3453 -6.1530 2.2350
-1.1238 -6.1976 2.2350
-0.9008 -6.2342 2.2350
-0.6767 -6.2627 2.2350
-0.4516 -6.2831 2.2350
-0.2260 -6.2953 2.2350
-0.0001 -5.8760 2.2350
0.2106 -5.8721 2.2350
0.4211 -5.8607 2.2350
0.6310 -5.8417 2.2350
0.8400 -5.8150 2.2350
1.0480 -5.7809 2.2350
1.2545 -5.7393 2.2350
1.4595 -5.6902 2.2350
1.6625 -5.6338 2.2350
1.8633 -5.5700 2.2350
1.9664 -5.2451 2.1318
2.1530 -5.1707 2.1318
2.3368 -5.0895 2.1318
2.5176 -5.0018 2.1318
2.6950 -4.9077 2.1318
2.8689 -4.8072 2.1318
2.3227 -3.5925 1.6293
2.3624 -3.3814 1.5712
2.5462 -3.3795 1.6120
3.5247 -4.3448 2.1318
3.6776 -4.2148 2.1318
3.8257 -4.0794 2.1318
3.9689 -3.9388 2.1318
4.1068 -3.7931 2.1318
4.2393 -3.6426 2.1318
4.3664 -3.4875 2.1318
4.4877 -3.3279 2.1318
4.6032 -3.1640 2.1318
4.7127 -2.9961 2.1318
4.8160 -2.8245 2.1318
4.9131 -2.6492 2.1318
5.0038 -2.4706 2.1318
5.0880 -2.2889 2.1318
5.1656 -2.1044 2.1318
5.2365 -1.9172 2.1318
5.3005 -1.7276 2.1318
5.3577 -1.5359 2.1318
5.4080 -1.3423 2.1318
5.4512 -1.1470 2.1318
5.4875 -0.9503 2.1318
5.5166 -0.7526 2.1318
5.5385 -0.5539 2.1318
5.5534 -0.3547 2.1318
5.5610 -0.1551 2.1318
5.5615 0.0446 2.1318
5.5549 0.2442 2.1318
5.5410 0.4433 2.1318
5.5201 0.6418 2.1318
5.4920 0.8393 2.1318
5.4569 1.0357 2.1318
5.4148 1.2306 2.1318
5.3658 1.4239 2.1318
5.3098 1.6152 2.1318
5.2471 1.8044 2.1318
5.1776 1.9911 2.1318
5.1015 2.1752 2.1318
5.0189 2.3565 2.1318
4.9299 2.5346 2.1318
4.8345 2.7094 2.1318
4.7330 2.8806 2.1318
4.6255 3.0480 2.1318
4.5121 3.2115 2.1318
4.3929 3.3708 2.1318
4.2681 3.5257 2.1318
4.1379 3.6760 2.1318
4.0024 3.8215 2.1318
3.8618 3.9621 2.1318
3.7163 4.0975 2.1318
3.5661 4.2276 2.1318
3.4114 4.3523 2.1318
3.2523 4.4713 2.1318
3.0892 4.5846 2.1318
2.9221 4.6919 2.1318
2.7512 4.7933 2.1318
2.5769 4.8884 2.1318
0.8656 1.7955 0.7690
0.8005 1.8254 0.7691
0.7344 1.8530 0.7692
0.6673 1.8782 0.7692
0.5994 1.9009 0.7693
0.5307 1.9212 0.7693
0.4613 1.9390 0.7694
0.3914 1.9543 0.7694
0.9321 5.7140 2.2350
0.7262 5.7436 2.2350
0.5193 5.7659 2.2350
0.3118 5.7807 2.2350
0.1039 5.7882 2.2350
-0.1041 5.7882 2.2350
-0.3120 5.7808 2.2350
-0.5195 5.7660 2.2350
-0.7264 5.7438 2.2350
-0.9324 5.7142 2.2350
-0.3914 1.9543 0.7694
-0.4614 1.9390 0.7693
-0.5308 1.9212 0.7693
-0.5995 1.9009 0.7692
-0.6674 1.8781 0.7692
-0.7344 1.8530 0.7691
-0.8005 1.8254 0.7690
-0.8656 1.7955 0.7689
-0.9296 1.7633 0.7689
-2.8850 5.0260 2.2350
-3.0642 4.9198 2.2350
-3.2394 4.8073 2.2350
-3.4105 4.6885 2.2350
-3.5774 4.5637 2.2350
-3.7396 4.4330 2.2350
-3.8972 4.2966 2.2350
-4.0497 4.1546 2.2350
-4.1972 4.0073 2.2350
-4.3393 3.8547 2.2350
-4.4758 3.6971 2.2350
-4.6067 3.5347 2.2350
-4.7317 3.3677 2.2350
-4.8507 3.1963 2.2350
-4.9635 3.0207 2.2350
-5.0699 2.8412 2.2350
-5.1699 2.6579 2.2350
-5.2633 2.4711 2.2350
-5.3500 2.2811 2.2350
-5.4298 2.0880 2.2350
-5.5026 1.8922 2.2350
-5.5685 1.6938 2.2350
-5.6271 1.4932 2.2350
-5.6786 1.2905 2.2350
-5.7228 1.0861 2.2350
-5.7596 0.8802 2.2350
-5.7890 0.6730 2.2350
-5.8110 0.4649 2.2350
-5.8255 0.2561 2.2350
-5.8325 0.0468 2.2350
-5.8320 -0.1626 2.2350
-5.8239 -0.3720 2.2350
-5.8084 -0.5809 2.2350
-5.7853 -0.7892 2.2350
-5.7548 -0.9966 2.2350
-5.7168 -1.2028 2.2350
-5.6714 -1.4076 2.2350
-5.6187 -1.6106 2.2350
-5.5587 -1.8117 2.2350
-5.4915 -2.0105 2.2350
-5.4172 -2.2068 2.2350
-5.3358 -2.4003 2.2350
-5.2475 -2.5909 2.2350
-5.1524 -2.7781 2.2350
-5.0505 -2.9619 2.2350
-4.9421 -3.1419 2.2350
-4.8273 -3.3179 2.2350
-4.7062 -3.4897 2.2350
-4.5789 -3.6571 2.2350
-4.4457 -3.8197 2.2350
-4.3066 -3.9776 2.2350
-4.1620 -4.1303 2.2350
-4.0119 -4.2777 2.2350
-3.8565 -4.4196 2.2350
-3.6961 -4.5559 2.2350
-3.5309 -4.6863 2.2350
-3.3611 -4.8107 2.2350
-3.1868 -4.9288 2.2350
-3.0084 -5.0406 2.2350
-2.8261 -5.1460 2.2350
-2.6400 -5.2447 2.2350
-2.4505 -5.3366 2.2350
-2.2577 -5.4216 2.2350
-2.0620 -5.4996 2.2350
-1.8636 -5.5705 2.2350
-1.6628 -5.6342 2.2350
-1.4598 -5.6905 2.2350
-1.2548 -5.7396 2.2350
-1.0482 -5.7811 2.2350
-0.8402 -5.8153 2.2350
-0.6312 -5.8418 2.2350
-0.4213 -5.8608 2.2350
-0.2108 -5.8722 2.2350
-0.0001 -5.4999 2.2350
0.1971 -5.4964 2.2350
0.3941 -5.4857 2.2350
0.5905 -5.4678 2.2350
0.7862 -5.4429 2.2350
0.9808 -5.4110 2.2350
1.1742 -5.3721 2.2350
1.3660 -5.3262 2.2350
1.5560 -5.2734 2.2350
1.7440 -5.2137 2.2350
1.8810 -5.0176 2.1787
2.0152 -4.8400 2.1318
2.1872 -4.7641 2.1318
2.3564 -4.6820 2.1318
2.5225 -4.5939 2.1318
2.6853 -4.4999 2.1318
2.3181 -3.5857 1.7372
2.3591 -3.3769 1.6763
2.5425 -3.3750 1.7197
3.2992 -4.0672 2.1318
3.4424 -3.9456 2.1318
3.5811 -3.8189 2.1318
3.7151 -3.6873 2.1318
3.8443 -3.5510 2.1318
3.9684 -3.4102 2.1318
4.0874 -3.2650 2.1318
4.2010 -3.1156 2.1318
4.3091 -2.9622 2.1318
4.4117 -2.8051 2.1318
4.5085 -2.6445 2.1318
4.5994 -2.4804 2.1318
4.6844 -2.3133 2.1318
4.7633 -2.1432 2.1318
4.8360 -1.9704 2.1318
4.9024 -1.7952 2.1318
4.9625 -1.6177 2.1318
5.0161 -1.4383 2.1318
5.0632 -1.2570 2.1318
5.1038 -1.0742 2.1318
5.1378 -0.8901 2.1318
5.1651 -0.7050 2.1318
5.1858 -0.5190 2.1318
5.1997 -0.3325 2.1318
5.2070 -0.1456 2.1318
5.2075 0.0414 2.1318
5.2013 0.2283 2.1318
5.1885 0.4148 2.1318
5.1689 0.6006 2.1318
5.1427 0.7856 2.1318
5.1099 0.9695 2.1318
5.0706 1.1520 2.1318
5.0247 1.3330 2.1318
4.9724 1.5122 2.1318
4.9137 1.6894 2.1318
4.8487 1.8643 2.1318
4.7775 2.0367 2.1318
4.7002 2.2065 2.1318
4.6169 2.3733 2.1318
4.5277 2.5371 2.1318
4.4327 2.6975 2.1318
4.3320 2.8543 2.1318
4.2258 3.0074 2.1318
4.1143 3.1566 2.1318
3.9974 3.3018 2.1318
3.8755 3.4426 2.1318
3.7487 3.5789 2.1318
3.6170 3.7106 2.1318
3.4808 3.8375 2.1318
3.3402 3.9594 2.1318
3.1953 4.0762 2.1318
3.0463 4.1877 2.1318
2.8935 4.2939 2.1318
2.7370 4.3944 2.1318
2.5770 4.4894 2.1318
0.8703 1.6509 0.7687
0.8104 1.6811 0.7687
0.7495 1.7091 0.7688
0.6876 1.7349 0.7689
0.6248 1.7585 0.7689
0.5612 1.7797 0.7690
0.4969 1.7987 0.7690
0.4320 1.8154 0.7691
0.3664 1.8298 0.7691
0.3005 1.8417 0.7691
0.2341 1.8513 0.7691
0.1674 1.8585 0.7691
0.1005 1.8633 0.7692
0.0335 1.8658 0.7692
-0.0336 1.8658 0.7692
-0.1006 1.8634 0.7691
-0.1675 1.8585 0.7691
-0.2342 1.8513 0.7691
-0.3005 1.8417 0.7691
-0.3665 1.8298 0.7691
-0.4320 1.8154 0.7690
-0.4970 1.7987 0.7690
-0.5613 1.7797 0.7689
-0.6249 1.7584 0.7689
-0.6877 1.7349 0.7688
-0.7496 1.7091 0.7687
-0.8105 1.6811 0.7687
-0.8704 1.6509 0.7686
-0.9292 1.6186 0.7685
-2.8701 4.6078 2.2350
-3.0342 4.5024 2.2350
-3.1945 4.3911 2.2350
-3.3507 4.2742 2.2350
-3.5026 4.1517 2.2350
-3.6501 4.0239 2.2350
-3.7930 3.8909 2.2350
-3.9310 3.7528 2.2350
-4.0641 3.6099 2.2350
-4.1920 3.4622 2.2350
-4.3145 3.3101 2.2350
-4.4315 3.1537 2.2350
-4.5429 2.9931 2.2350
-4.6484 2.8286 2.2350
-4.7481 2.6605 2.2350
-4.8417 2.4888 2.2350
-4.9291 2.3138 2.2350
-5.0101 2.1358 2.2350
-5.0848 1.9550 2.2350
-5.1530 1.7716 2.2350
-5.2145 1.5858 2.2350
-5.2694 1.3979 2.2350
-5.3175 1.2081 2.2350
-5.3588 1.0167 2.2350
-5.3932 0.8238 2.2350
-5.4207 0.6298 2.2350
-5.4412 0.4349 2.2350
-5.4547 0.2394 2.2350
-5.4611 0.0435 2.2350
-5.4606 -0.1526 2.2350
-5.4530 -0.3486 2.2350
-5.4383 -0.5443 2.2350
-5.4166 -0.7393 2.2350
-5.3880 -0.9335 2.2350
-5.3523 -1.1265 2.2350
-5.3098 -1.3182 2.2350
-5.2603 -1.5082 2.2350
-5.2041 -1.6964 2.2350
-5.1411 -1.8825 2.2350
-5.0714 -2.0663 2.2350
-4.9952 -2.2475 2.2350
-4.9125 -2.4258 2.2350
-4.8234 -2.6011 2.2350
-4.7280 -2.7731 2.2350
-4.6264 -2.9415 2.2350
-4.5189 -3.1063 2.2350
-4.4054 -3.2671 2.2350
-4.2863 -3.4237 2.2350
-4.1615 -3.5759 2.2350
-4.0313 -3.7236 2.2350
-3.8959 -3.8665 2.2350
-3.7553 -4.0045 2.2350
-3.6099 -4.1373 2.2350
-3.4597 -4.2648 2.2350
-3.3050 -4.3868 2.2350
-3.1460 -4.5032 2.2350
-2.9829 -4.6138 2.2350
-2.8159 -4.7184 2.2350
-2.6452 -4.8169 2.2350
-2.4710 -4.9093 2.2350
-2.2936 -4.9953 2.2350
-2.1132 -5.0748 2.2350
-1.9300 -5.1478 2.2350
-1.7443 -5.2141 2.2350
-1.5563 -5.2737 2.2350
-1.3663 -5.3264 2.2350
-1.1744 -5.3723 2.2350
-0.9811 -5.4112 2.2350
-0.7864 -5.4431 2.2350
-0.5907 -5.4680 2.2350
-0.3943 -5.4857 2.2350
-0.1973 -5.4964 2.2350
-0.0001 -5.1634 2.2350
0.1850 -5.1600 2.2350
0.3699 -5.1500 2.2350
0.5544 -5.1333 2.2350
0.7381 -5.1099 2.2350
0.9208 -5.0800 2.2350
1.1023 -5.0434 2.2350
1.2823 -5.0003 2.2350
1.4607 -4.9508 2.2350
1.6372 -4.8948 2.2350
1.8115 -4.8326 2.2350
1.8925 -4.5457 2.1326
2.0533 -4.4727 2.1318
2.2122 -4.3957 2.1318
2.3681 -4.3131 2.1318
2.5210 -4.2248 2.1318
2.3134 -3.5788 1.8467
2.3557 -3.3724 1.7830
2.5388 -3.3703 1.8291
3.0974 -3.8187 2.1318
3.2319 -3.7046 2.1318
3.3621 -3.5857 2.1318
3.4879 -3.4622 2.1318
3.6092 -3.3343 2.1318
3.7258 -3.2020 2.1318
3.8376 -3.0657 2.1318
3.9443 -2.9255 2.1318
4.0459 -2.7816 2.1318
4.1422 -2.6341 2.1318
4.2332 -2.4833 2.1318
4.3186 -2.3293 2.1318
4.3984 -2.1724 2.1318
4.4725 -2.0127 2.1318
4.5408 -1.8505 2.1318
4.6033 -1.6860 2.1318
4.6597 -1.5194 2.1318
4.7101 -1.3509 2.1318
4.7545 -1.1807 2.1318
4.7926 -1.0091 2.1318
4.8246 -0.8362 2.1318
4.8503 -0.6623 2.1318
4.8698 -0.4877 2.1318
4.8830 -0.3125 2.1318
4.8898 -0.1370 2.1318
4.8904 0.0386 2.1318
4.8847 0.2141 2.1318
4.8727 0.3892 2.1318
4.8544 0.5637 2.1318
4.8298 0.7375 2.1318
4.7991 0.9102 2.1318
4.7622 1.0817 2.1318
4.7192 1.2517 2.1318
