ply
format ascii 1.0
element vertex 2079
property float32 x
property float32 y
property float32 z
end_header
9.1512 12.5962 -0.2296
8.4720 12.5879 -0.2230
7.8303 12.5875 -0.2171
7.4881 13.0605 -0.2198
7.5630 14.3626 -0.2362
7.4864 15.5463 -0.2504
2.6335 6.0118 -0.0950
7.4840 18.9033 -0.2935
7.4825 21.0807 -0.3222
8.3138 26.3921 -0.3978
7.8273 28.3629 -0.4222
2.2279 9.3726 -0.1380
6.1396 30.6872 -0.4478
6.1436 37.6950 -0.5458
9.0147 71.3613 -1.0270
2.4450 27.1676 -0.3892
3.8868 72.1031 -1.0300
1.2912 71.9177 -1.0258
-1.3038 72.6281 -1.0360
-3.9085 72.5083 -1.0359
-6.4623 71.8060 -1.0291
-9.0047 71.2827 -1.0263
-11.8466 72.6869 -1.0530
-14.5309 72.6287 -1.0604
-6.4560 27.1608 -0.4003
-19.5530 70.8520 -1.0556
-22.7037 72.0731 -1.0873
-25.6012 72.1274 -1.1036
-27.9985 70.7195 -1.0994
-35.6505 81.3835 -1.2875
-39.1092 81.2150 -1.3098
-43.8640 83.3002 -1.3721
-43.0514 75.0888 -1.2655
-46.3474 74.5053 -1.2872
-49.8109 74.0105 -1.3133
-52.9938 72.9436 -1.3323
-55.8957 71.4002 -1.3451
-58.7575 69.7453 -1.3583
-61.1527 67.5135 -1.3625
-62.9260 64.6476 -1.3553
-59.7350 57.1161 -1.2471
-60.1673 53.5299 -1.2209
-60.9150 50.3966 -1.2042
-59.5938 45.8020 -1.1505
-60.1109 42.8573 -1.1356
-60.6106 40.0119 -1.1229
-61.0949 37.2538 -1.1121
-59.6229 33.4813 -1.0683
-60.0676 30.9492 -1.0613
-60.3200 28.3873 -1.0528
-28.5454 12.2022 -0.4929
-59.3638 22.8923 -1.0158
-59.7599 20.6131 -1.0149
-59.9679 18.3041 -1.0123
-60.5473 16.1293 -1.0174
-60.9368 13.9112 -1.0206
-61.3377 11.7036 -1.0254
-67.6600 10.4083 -1.1305
-38.3164 4.4932 -0.6407
-70.0079 5.6710 -1.1731
-15.8397 0.7121 -0.2663
-83.9082 -17.5692 -1.4962
-76.4102 -18.8859 -1.3810
-70.0394 -20.0046 -1.2846
-64.5462 -20.9693 -1.2030
-59.7494 -21.8116 -1.1332
-59.7673 -24.2834 -1.1550
-60.0504 -26.9487 -1.1841
-60.7592 -29.9318 -1.2242
-61.2947 -32.9809 -1.2639
-28.3590 -16.5986 -0.5994
-60.0223 -38.0881 -1.3024
-60.6402 -41.6068 -1.3531
-61.3155 -45.3912 -1.4095
-59.5916 -47.5192 -1.4138
-15.7844 -13.5415 -0.3873
-61.1505 -56.3960 -1.5549
-38.7976 -38.4484 -1.0247
-60.2259 -64.1300 -1.6562
-61.0901 -69.9189 -1.7537
-61.3733 -75.5539 -1.8444
-46.5248 -61.6729 -1.4683
-6.4746 -15.5316 -0.3253
-15.6940 -41.8145 -0.8648
-27.6460 -82.5528 -1.6884
-24.8693 -84.1844 -1.7049
-21.1772 -82.4758 -1.6559
-18.4126 -84.1414 -1.6767
-12.1085 -66.7205 -1.3213
-9.6517 -66.7394 -1.3149
-7.2180 -66.7502 -1.3099
2.5830 -71.9114 0.2160
8.6049 -79.5799 0.2415
5.1823 -35.8367 0.1097
5.7372 -31.6147 0.0979
6.9155 -31.6040 0.0992
7.9266 -30.8725 0.0984
8.2596 -27.9611 0.0908
9.3644 -27.9643 0.0927
10.4963 -27.9676 0.0949
10.8686 -26.0738 0.0907
11.0019 -23.9359 0.0856
10.1402 -20.1243 0.0742
10.1390 -18.4430 0.0702
10.1380 -16.9683 0.0669
10.0538 -15.5325 0.0635
10.1362 -14.4916 0.0617
10.2115 -13.5373 0.0601
10.1968 -12.5537 0.0583
10.5247 -12.0467 0.0586
12.9415 -13.7815 0.0705
13.9049 -13.7809 0.0743
14.9406 -13.7801 0.0785
16.0601 -13.7794 0.0833
17.2774 -13.7785 0.0886
18.6092 -13.7776 0.0945
17.5092 -12.0147 0.0883
24.4773 -15.5341 0.1229
24.4261 -14.2984 0.1223
25.5923 -13.7722 0.1280
24.4370 -12.0400 0.1222
30.6331 -13.7492 0.1536
33.5933 -13.6511 0.1690
38.2359 -13.9605 0.1933
38.2887 -12.4413 0.1948
40.8703 -11.6759 0.2095
47.1795 -11.6639 0.2440
57.7925 -12.1044 0.3019
96.2135 -16.5710 0.5082
92.8733 -12.5819 0.4967
38.8622 4.5548 0.2332
29.5786 4.5483 0.1811
23.8240 4.5443 0.1490
20.6757 4.7188 0.1323
5.7234 1.5243 0.0375
5.6505 1.7243 0.0379
5.5778 1.9236 0.0384
5.5052 2.1226 0.0389
5.4325 2.3219 0.0395
20.6722 9.7272 0.1547
20.6716 10.6494 0.1594
20.6709 11.6063 0.1645
20.6702 12.6026 0.1699
20.6695 13.6434 0.1758
20.6687 14.7346 0.1821
20.6679 15.8831 0.1890
15.2224 12.5927 0.1447
14.2944 12.7164 0.1415
13.1697 12.5912 0.1360
12.2563 12.5906 0.1323
11.4048 12.5900 0.1290
10.6069 12.5894 0.1260
9.9534 12.7133 0.1246
9.1519 12.5963 0.1210
8.4726 12.5879 0.1187
7.8308 12.5875 0.1168
7.4881 13.0596 0.1193
7.5630 14.3616 0.1293
7.4864 15.5453 0.1382
2.6334 6.0111 0.0528
7.4840 18.9021 0.1644
7.4825 21.0794 0.1815
8.3143 26.3921 0.2254
7.8278 28.3629 0.2404
2.2280 9.3726 0.0789
6.1014 30.4946 0.2554
11.5792 71.0417 0.5924
9.0152 71.3609 0.5929
2.4449 27.1645 0.2251
2.7548 51.1014 0.4226
1.2912 71.9177 0.5942
-1.2798 71.2806 0.5889
-3.9087 72.5071 0.5995
-6.4628 71.8067 0.5947
-9.0053 71.2827 0.5918
-11.8473 72.6869 0.6056
-10.2768 51.3627 0.4298
-6.4557 27.1577 0.2285
-19.5541 70.8514 0.5997
-6.3852 20.2685 0.1728
-25.6029 72.1274 0.6201
-13.8767 35.0480 0.3041
-35.7022 81.4960 0.7145
-39.1092 81.2095 0.7202
-43.8624 83.2915 0.7481
-18.6895 32.5953 0.2969
-46.3503 74.5048 0.6889
-49.7139 73.8611 0.6944
-52.9966 72.9420 0.6983
-55.8260 71.3058 0.6962
-43.4813 51.6085 0.5147
-61.1465 67.5012 0.6890
-62.8433 64.5573 0.6756
-38.8962 37.1877 0.3999
-60.2926 53.6366 0.5941
-60.9157 50.3925 0.5763
-43.4339 33.3787 0.3952
-60.1116 42.8534 0.5270
-60.5200 39.9477 0.5120
-61.1059 37.2562 0.4996
-59.6339 33.4834 0.4718
-59.9746 30.8973 0.4598
-60.4094 28.4254 0.4493
-28.4826 12.1735 0.2058
-59.3642 22.8887 0.4171
-59.7605 20.6096 0.4088
-60.0599 18.3285 0.4004
-60.5479 16.1258 0.3938
-60.8392 13.8852 0.3865
-61.3385 11.7000 0.3810
-67.6592 10.4041 0.4112
-38.3230 4.4917 0.2282
-72.6547 5.8810 0.4242
-15.8533 0.7117 0.0909
-83.8951 -17.5715 0.4345
-76.3991 -18.8878 0.3917
-59.1468 -16.8971 0.3005
-59.1110 -19.2072 0.2980
-59.7424 -21.8128 0.2994
-59.6583 -24.2429 0.2974
-60.1419 -26.9937 0.2988
-60.7725 -29.9423 0.3013
-61.2954 -32.9854 0.3038
-28.3878 -16.6174 0.1409
-59.9918 -38.0729 0.2985
-60.6541 -41.6206 0.3033
-61.3167 -45.3966 0.3088
-59.4741 -47.4300 0.3022
-15.7729 -13.5329 0.0811
-61.0381 -56.2972 0.3180
-38.7876 -38.4417 0.2055
-60.1613 -64.0663 0.3249
-61.1346 -69.9753 0.3377
-61.0171 -75.1209 0.3459
-46.5173 -61.6675 0.2716
-6.4742 -15.5316 0.0537
-15.6929 -41.8142 0.1411
-27.6910 -82.6921 0.2728
-24.3279 -82.3568 0.2663
-21.3028 -82.9697 0.2636
-14.4912 -66.2253 0.2072
-12.1099 -66.7315 0.2060
-9.5840 -66.2752 0.2025
-7.1690 -66.3005 0.2009
-6.5912 -91.6334 0.2761
-0.0000 -84.4237 2.1550
2.5675 -71.4861 1.8261
4.7222 -65.6529 1.6807
8.4820 -78.4481 2.0155
5.1823 -35.8390 0.9254
5.7368 -31.6147 0.8216
6.9151 -31.6041 0.8279
7.6822 -29.9223 0.7913
8.2234 -27.8402 0.7443
9.3217 -27.8388 0.7536
10.4470 -27.8380 0.7642
10.8602 -26.0554 0.7265
11.0012 -23.9359 0.6790
10.1402 -20.1256 0.5818
10.1390 -18.4443 0.5443
10.1380 -16.9695 0.5122
10.1371 -15.6623 0.4843
10.1362 -14.4927 0.4601
10.2108 -13.5373 0.4420
10.1960 -12.5537 0.4226
10.5247 -12.0476 0.4190
12.9405 -13.7816 0.4963
13.9037 -13.7809 0.5153
14.9393 -13.7802 0.5363
16.0587 -13.7794 0.5599
17.2757 -13.7785 0.5863
18.6074 -13.7776 0.6161
17.5073 -12.0147 0.5667
24.4269 -15.5039 0.7744
20.5123 -12.0087 0.6381
25.5720 -13.7630 0.7821
24.4370 -12.0416 0.7359
26.7060 -11.9883 0.7933
33.8239 -13.7469 0.9926
32.8680 -12.0026 0.9544
38.2320 -12.4253 1.1001
40.6401 -11.6126 1.1605
46.9424 -11.6082 1.3321
57.7910 -12.1076 1.6320
71.7267 -12.3579 2.0185
75.9123 -10.2887 2.1317
76.3412 -7.5679 2.1419
79.6194 -5.0151 2.2350
79.4804 -2.1467 2.2350
75.5848 0.6729 2.1319
75.2598 3.3743 2.1319
65.4228 5.2918 1.8636
38.8821 4.5549 1.1152
29.5901 4.5484 0.8556
23.8316 4.5443 0.6956
20.6757 4.7175 0.6100
5.7235 1.5240 0.1709
5.6506 1.7240 0.1710
5.5779 1.9233 0.1713
5.5053 2.1223 0.1718
5.4326 2.3216 0.1726
19.6612 9.2502 0.6366
20.6716 10.6480 0.6832
20.6709 11.6050 0.6985
20.6702 12.6012 0.7153
20.6695 13.6419 0.7337
20.6687 14.7331 0.7540
20.6679 15.8816 0.7762
15.2238 12.5927 0.5898
14.2957 12.7164 0.5725
13.1708 12.5912 0.5465
12.2573 12.5906 0.5282
11.4057 12.5900 0.5117
10.6077 12.5894 0.4969
9.9541 12.7133 0.4883
9.1527 12.5964 0.4718
8.4732 12.5879 0.4606
7.8314 12.5875 0.4507
7.4881 13.0587 0.4584
7.5630 14.3607 0.4950
7.4864 15.5443 0.5269
2.6332 6.0104 0.2006
7.4840 18.9009 0.6223
7.4825 21.0781 0.6855
8.3148 26.3921 0.8488
7.8283 28.3629 0.9034
6.2865 26.4446 0.8351
6.0746 30.3585 0.9518
6.0731 37.2584 1.1612
7.1250 56.3957 1.7492
2.4448 27.1615 0.8395
3.7276 69.1432 2.1319
1.2429 69.2268 2.1319
-1.2430 69.2284 2.1319
-3.7280 69.1485 2.1319
-6.2095 68.9875 2.1319
-8.6851 68.7444 2.1319
-11.1525 68.4199 2.1319
-10.2550 51.2506 1.6064
-6.4554 27.1547 0.8573
-10.3203 37.3917 1.1905
-6.3855 20.2683 0.6516
-10.3947 29.2816 0.9518
-10.4044 26.2764 0.8647
-10.2581 23.4142 0.7812
-10.3026 21.3918 0.7247
-10.2341 19.4325 0.6694
-10.2328 17.8453 0.6260
-22.7675 36.5945 1.3094
-10.3605 15.3917 0.5627
-41.3932 56.9674 2.1319
-10.4852 13.3916 0.5139
-36.6501 43.4970 1.7153
-10.3079 11.3782 0.4620
-43.4783 44.6604 1.8717
-10.1878 9.7394 0.4223
-43.4742 38.6713 1.7392
-43.4723 35.9590 1.6823
-10.1864 7.8274 0.3821
-10.3288 7.3626 0.3763
-43.4672 28.6885 1.5410
-43.4657 26.4980 1.5022
-10.1850 5.7180 0.3437
-10.4198 5.3673 0.3439
-60.3830 28.4090 1.9525
-28.4200 12.1449 0.9016
-59.3647 22.8851 1.8504
-59.7612 20.6060 1.8329
-59.7259 18.2228 1.8049
-43.4555 11.5709 1.2957
-61.0347 13.9261 1.7981
-61.3392 11.6964 1.7877
-67.6585 10.3999 1.9534
-38.3296 4.4902 1.0976
-43.4500 3.5145 1.2357
-15.8669 0.7114 0.4487
-77.4133 0.6892 2.1800
-77.6487 -2.0972 2.1800
-71.9606 -4.5327 2.0167
-28.2455 -2.8000 0.7912
-43.5050 -5.8964 1.2197
-60.3010 -10.3893 1.6943
-43.5892 -9.1322 1.2290
-43.6023 -10.7823 1.2354
-43.5854 -12.4542 1.2426
-43.4824 -14.1317 1.2492
-43.5620 -15.9078 1.2630
-59.7831 -24.2974 1.7518
-59.6830 -26.7916 1.7702
-43.5894 -21.4792 1.3108
-43.5896 -23.4601 1.3311
-28.4166 -16.6362 0.8828
-60.1371 -38.1693 1.9038
-43.5804 -29.9079 1.4086
-43.4697 -32.1865 1.4373
-10.0279 -7.9979 0.3399
-15.7612 -13.5242 0.5488
-43.4641 -40.0917 1.5585
-10.0271 -9.9385 0.3711
-41.8912 -44.6140 1.6048
-10.3569 -11.8555 0.4118
-10.0255 -12.3438 0.4151
-33.6893 -44.6648 1.4570
-10.0280 -14.3379 0.4547
-10.2809 -15.8846 0.4908
-37.6684 -63.0515 1.9013
-10.0563 -18.2939 0.5394
-10.0552 -19.9569 0.5765
-10.0706 -21.9110 0.6211
-10.0522 -24.1169 0.6720
-10.1729 -27.1077 0.7437
-10.0481 -30.0080 0.8119
-10.0453 -34.0082 0.9087
-10.2399 -39.8845 1.0542
-14.4903 -66.2253 1.7342
-12.0217 -66.2495 1.7212
-9.5834 -66.2752 1.7109
-7.1686 -66.3005 1.7031
-5.9889 -83.2648 2.1313
-2.3583 -65.6579 1.6771
-0.0000 -46.4866 2.2350
1.6683 -46.4542 2.2350
3.1801 -44.2170 2.1317
4.7642 -44.0659 2.1317
5.1823 -35.8413 1.7422
5.7364 -31.6147 1.5463
6.9168 -31.6138 1.5580
7.6819 -29.9229 1.4880
8.2220 -27.8373 1.3988
9.3203 -27.8364 1.4155
10.4452 -27.8352 1.4346
10.4617 -25.1011 1.3132
10.6776 -23.2334 1.2357
10.1402 -20.1270 1.0901
10.1390 -18.4456 1.0190
10.1380 -16.9707 0.9580
10.1371 -15.6634 0.9051
10.1362 -14.4937 0.8590
10.2100 -13.5373 0.8244
10.1581 -12.5081 0.7844
10.4776 -11.9947 0.7763
11.2612 -11.9941 0.8030
12.2159 -12.1090 0.8407
12.9670 -11.9620 0.8634
13.9386 -11.9613 0.9003
14.9949 -11.9606 0.9415
16.1507 -11.9598 0.9880
17.4241 -11.9589 1.0406
18.8379 -11.9579 1.1005
20.5491 -12.0317 1.1764
24.4211 -13.1453 1.3724
24.4242 -12.0369 1.3497
26.5778 -11.9325 1.4466
29.3500 -11.9305 1.5759
32.6584 -11.9282 1.7325
34.4929 -11.2122 1.8106
40.6313 -11.6126 2.1134
41.3018 -10.2159 2.1317
41.5650 -8.7107 2.1317
43.7968 -7.5484 2.2350
43.9576 -5.9604 2.2350
44.0608 -4.3705 2.2350
44.1068 -2.7809 2.2350
44.0958 -1.1936 2.2350
44.0280 0.3893 2.2350
41.8786 1.8752 2.1319
41.7068 3.3710 2.1319
38.9020 4.5549 1.9993
29.6017 4.5484 1.5315
23.8391 4.5443 1.2433
20.6757 4.7163 1.0884
5.7237 1.5237 0.3045
5.6507 1.7237 0.3043
5.5780 1.9230 0.3044
5.5054 2.1220 0.3049
5.4327 2.3213 0.3059
19.2047 9.0342 1.1006
20.6716 10.6467 1.2078
20.6709 11.6036 1.2333
20.6702 12.5997 1.2614
19.1919 12.6654 1.2000
20.6687 14.7316 1.3265
20.6679 15.8801 1.3642
15.2252 12.5927 1.0356
14.2970 12.7164 1.0042
13.1720 12.5912 0.9576
12.2583 12.5906 0.9247
11.4066 12.5900 0.8950
10.6085 12.5894 0.8684
9.9549 12.7133 0.8526
9.1534 12.5965 0.8231
8.4738 12.5879 0.8029
7.8319 12.5875 0.7852
7.4881 13.0579 0.7980
7.5630 14.3598 0.8611
7.4864 15.5433 0.9161
2.6331 6.0097 0.3486
7.4840 18.8998 1.0809
7.4825 21.0768 1.1900
8.3153 26.3921 1.4731
7.2834 26.3871 1.4580
5.0295 21.1553 1.1587
6.0437 30.2026 1.6419
6.0426 37.0690 2.0027
5.0101 39.6539 2.1317
2.4436 27.1473 1.4540
2.1512 39.8998 2.1317
0.7521 41.8843 2.2350
-0.7521 41.8849 2.2350
-2.2555 41.8342 2.2350
-3.7565 41.7321 2.2350
-5.2534 41.5790 2.2350
-6.4335 39.4663 2.1319
-7.8488 39.2228 2.1319
-6.4406 27.0906 1.4835
-10.2450 37.1165 2.0504
-6.3859 20.2681 1.1310
-10.2394 28.8423 1.6280
-10.2373 25.8527 1.4781
-10.2584 23.4134 1.3579
-10.3033 21.3918 1.2603
-10.2343 19.4316 1.1648
-10.2322 17.8430 1.0900
-21.6274 34.7596 2.1674
-10.3612 15.3917 0.9813
-24.1389 33.2186 2.1696
-10.3947 13.2750 0.8898
-26.5838 31.5477 2.1748
-10.3210 11.3917 0.8094
-26.0812 26.7880 1.9662
-10.2269 9.7760 0.7431
-29.0898 25.8738 2.0420
-10.4191 8.6176 0.7082
-31.8757 24.4915 2.1025
-10.3707 7.3917 0.6651
-35.1035 23.1659 2.1933
-36.2304 22.0846 2.2093
-10.2240 5.7392 0.6095
-10.4758 5.3955 0.6116
-38.6799 18.1955 2.2150
-28.3575 12.1164 1.5952
-40.0207 15.4254 2.2150
-10.2225 3.5241 0.5574
-37.7092 11.5030 2.0289
-36.9563 9.8381 1.9646
-38.3291 8.7431 2.0160
-42.5070 8.1028 2.2150
-42.8487 6.5838 2.2150
-10.2208 1.1967 0.5248
-42.9114 3.4683 2.1915
-15.8806 0.7111 0.8077
-41.5162 0.3671 2.1056
-41.8994 -1.1342 2.1217
-38.4137 -2.4219 1.9447
-28.2817 -2.8053 1.4333
-36.9888 -5.0154 1.8790
-43.4429 -7.4875 2.2150
-43.2260 -9.0588 2.2150
-42.9519 -10.6241 2.2150
-42.6207 -12.1812 2.2150
-34.7046 -11.2811 1.8202
-10.0666 -3.6768 0.5336
-41.2852 -16.7821 2.2150
-40.7273 -18.2851 2.2150
-40.1137 -19.7691 2.2150
-34.7510 -18.7055 1.9514
-10.0651 -5.8932 0.5757
-34.1504 -21.6778 1.9934
-36.6054 -25.1238 2.1845
-35.4547 -26.2546 2.1673
-10.0636 -8.0271 0.6314
-15.7493 -13.5152 1.0165
-31.2466 -28.8247 2.0792
-10.0622 -9.9741 0.6920
-28.9589 -30.8436 2.0636
-28.1836 -32.2642 2.0869
-21.7755 -26.8130 1.6805
-25.6896 -34.0615 2.0732
-24.5116 -35.0488 2.0761
-10.2076 -15.7723 0.9110
-23.2171 -38.8648 2.1929
-10.0563 -18.2951 1.0103
-10.0552 -19.9582 1.0805
-10.0701 -21.9114 1.1650
-10.0522 -24.1184 1.2613
-10.1681 -27.0964 1.3961
-10.0481 -30.0098 1.5256
-10.0453 -34.0102 1.7086
-10.0417 -39.1148 1.9446
-9.4659 -43.2645 2.1317
-7.9101 -43.5939 2.1318
-6.3424 -43.8642 2.1319
-4.9955 -46.2049 2.2350
-3.3345 -46.3619 2.2350
-1.6685 -46.4557 2.2350
-0.0001 -31.6216 2.2350
1.1348 -31.6000 2.2350
2.1632 -30.0794 2.1317
3.2409 -29.9785 2.1317
4.3140 -29.8374 2.1317
5.3808 -29.6567 2.1317
6.0337 -27.5796 1.9972
7.5364 -29.3584 2.1450
8.2202 -27.8330 2.0545
9.3178 -27.8305 2.0786
9.7793 -26.0622 1.9723
9.9791 -23.9447 1.8390
10.6769 -23.2334 1.8136
10.1402 -20.1284 1.5996
10.1390 -18.4469 1.4949
10.1380 -16.9719 1.4049
10.1371 -15.6645 1.3269
10.1362 -14.4948 1.2588
10.1307 -13.4331 1.1984
10.1331 -12.4782 1.1458
10.4497 -11.9637 1.1333
11.2312 -11.9632 1.1718
12.0672 -11.9626 1.2145
12.9659 -11.9620 1.2621
13.9373 -11.9613 1.3153
14.9935 -11.9606 1.3750
16.1490 -11.9598 1.4422
17.4222 -11.9589 1.5182
18.8358 -11.9579 1.6047
20.4238 -11.9598 1.7042
24.4222 -13.1474 1.9995
24.4242 -12.0385 1.9653
26.5739 -11.9325 2.1049
27.2953 -11.0970 2.1317
22.0392 -8.0510 1.6996
27.9519 -9.0878 2.1317
28.2247 -8.0685 2.1317
29.8386 -7.3823 2.2350
30.0460 -6.2985 2.2350
30.2140 -5.2093 2.2350
30.3424 -4.1160 2.2350
30.4312 -3.0204 2.2350
30.4805 -1.9236 2.2350
30.4904 -0.8271 2.2350
30.4609 0.2675 2.2350
21.8241 0.9759 1.6049
28.8881 2.3332 2.1319
28.7488 3.3643 2.1319
28.5731 4.3886 2.1319
23.8467 4.5443 1.7925
20.6757 4.7150 1.5678
5.7238 1.5234 0.4384
5.6508 1.7234 0.4379
5.5781 1.9227 0.4378
5.5055 2.1217 0.4384
5.4328 2.3210 0.4394
19.2047 9.0329 1.5804
20.6716 10.6453 1.7335
20.6709 11.6021 1.7692
20.6702 12.5983 1.8087
19.1939 12.6654 1.7201
17.7701 12.6644 1.6338
20.6679 15.8785 1.9535
15.2266 12.5927 1.4824
14.1583 12.5919 1.4229
13.1731 12.5912 1.3697
12.2594 12.5906 1.3221
11.4075 12.5900 1.2793
10.6093 12.5894 1.2407
9.8599 12.5910 1.2061
9.1522 12.5940 1.1750
8.4744 12.5879 1.1461
7.8325 12.5875 1.1205
7.0255 12.2504 1.0680
6.4726 12.2885 1.0510
7.4864 15.5423 1.3062
2.6330 6.0090 0.4970
7.4840 18.8986 1.5405
7.4825 21.0755 1.6957
8.3158 26.3921 2.0989
7.2842 26.3886 2.0772
5.0422 21.2077 1.6545
5.5097 27.5323 2.1317
4.5167 27.7065 2.1317
3.5184 27.8461 2.1317
2.4370 27.0722 2.0647
1.5840 29.3783 2.2350
0.5282 29.4153 2.2350
-0.5283 29.4155 2.2350
-1.5841 29.3793 2.2350
-2.6382 29.3064 2.2350
-3.6892 29.1970 2.2350
-4.7360 29.0513 2.2350
-5.7773 28.8693 2.2350
-6.4346 27.0640 2.1111
-7.4772 27.0874 2.1319
-6.3862 20.2679 1.6116
-9.4090 26.5015 2.1319
-10.2371 25.8505 2.1068
-10.2354 23.3594 1.9315
-10.2340 21.2465 1.7851
-10.2328 19.4273 1.6611
-10.2317 17.8409 1.5549
-10.2637 16.4946 1.4678
-10.3620 15.3917 1.4009
-17.2584 23.7483 2.2150
-10.3953 13.2747 1.2711
-10.4118 12.3550 1.2171
-10.3218 11.3917 1.1570
-20.5473 21.1024 2.2150
-10.2266 9.7749 1.0629
-22.0435 19.6047 2.2144
-10.4025 8.6030 1.0123
-10.2649 7.8862 0.9696
-10.3717 7.3917 0.9532
-24.1433 15.9312 2.1625
-24.4780 14.9191 2.1408
-10.2239 5.7385 0.8746
-10.4772 5.3955 0.8781
-22.8583 10.7513 1.8801
-23.1321 9.8822 1.8700
-23.8050 9.1738 1.8943
-10.2224 3.5235 0.8019
-27.5762 8.4103 2.1355
-28.4220 7.5644 2.1759
-10.3988 2.3714 0.7881
-28.8730 5.5021 2.1690
-28.9144 4.4410 2.1560
-10.2207 1.1961 0.7575
-28.5078 2.3024 2.1025
-15.8943 0.7107 1.1681
-29.1546 0.2561 2.1378
-29.5808 -0.8025 2.1669
-29.5092 -1.8623 2.1624
-28.3192 -2.8107 2.0786
-29.7404 -4.0344 2.1893
-29.9492 -5.1636 2.2140
-26.0180 -5.4541 1.9341
-25.4852 -6.3053 1.9077
-25.3885 -7.2577 1.9164
-26.4244 -8.5912 2.0140
-10.0666 -3.6774 0.7759
-25.7261 -10.4591 2.0080
-24.5531 -11.0250 1.9438
-23.2389 -11.4543 1.8689
-23.8484 -12.8385 1.9514
-10.0651 -5.8939 0.8394
-10.1716 -6.4574 0.8661
-24.8622 -17.0657 2.1654
-24.4458 -18.1042 2.1820
-10.0636 -8.0279 0.9224
-15.7374 -13.5062 1.4845
-21.4435 -19.7831 2.0864
-10.0622 -9.9750 1.0123
-20.3144 -21.6382 2.1185
-19.9235 -22.8100 2.1599
-19.2990 -23.7653 2.1814
-10.1724 -13.4884 1.2028
-17.8100 -25.4683 2.2109
-10.2064 -15.7716 1.3355
-15.9882 -26.7656 2.2148
-10.0563 -18.2963 1.4822
-10.0552 -19.9595 1.5857
-10.0538 -21.8774 1.7073
-10.0522 -24.1200 1.8520
-10.0504 -26.7844 2.0266
-9.5588 -28.5501 2.1319
-8.5313 -28.8861 2.1319
-7.4917 -29.1837 2.1319
-6.4414 -29.4426 2.1319
-5.6422 -31.0967 2.2350
-4.5234 -31.2855 2.2350
-3.3982 -31.4327 2.2350
-2.2682 -31.5378 2.2350
-1.1349 -31.6008 2.2350
-0.0000 -23.9414 2.2350
0.8591 -23.9253 2.2350
1.7171 -23.8776 2.2350
2.4538 -22.6988 2.1317
3.2663 -22.5930 2.1317
4.0743 -22.4573 2.1317
4.8766 -22.2920 2.1317
5.6721 -22.0972 2.1317
6.4998 -22.0094 2.1450
7.2832 -21.7551 2.1450
8.0565 -21.4723 2.1450
8.8185 -21.1612 2.1450
9.5683 -20.8224 2.1450
10.1402 -20.1297 2.1107
10.1390 -18.4481 1.9722
10.1380 -16.9731 1.8532
10.1371 -15.6656 1.7500
10.1362 -14.4959 1.6599
10.1316 -13.4354 1.5801
10.1331 -12.4791 1.5104
10.4489 -11.9637 1.4935
11.2303 -11.9632 1.5438
12.0662 -11.9626 1.5998
12.9647 -11.9620 1.6621
13.9360 -11.9613 1.7317
14.9920 -11.9606 1.8098
16.1474 -11.9598 1.8978
17.4204 -11.9589 1.9973
18.8337 -11.9579 2.1105
19.4275 -11.3777 2.1317
19.8059 -10.6637 2.1317
20.1578 -9.9370 2.1317
20.4828 -9.1987 2.1317
20.7805 -8.4498 2.1317
21.0507 -7.6912 2.1317
22.3243 -7.2595 2.2350
22.5488 -6.4474 2.2350
22.7437 -5.6284 2.2350
22.9087 -4.8037 2.2350
23.0437 -3.9744 2.2350
23.1487 -3.1416 2.2350
23.2235 -2.3064 2.2350
23.2683 -1.4698 2.2350
23.2829 -0.6330 2.2350
23.2675 0.2030 2.2350
21.8032 0.9737 2.0984
22.0794 1.7820 2.1319
21.9796 2.5709 2.1319
21.8517 3.3549 2.1319
21.6961 4.1332 2.1319
20.6757 4.7138 2.0489
5.7239 1.5231 0.5728
5.6509 1.7231 0.5719
5.5782 1.9224 0.5717
5.5056 2.1214 0.5722
5.4329 2.3207 0.5735
20.0251 9.4175 2.1500
19.6568 10.1214 2.1500
19.2642 10.8113 2.1500
18.8478 11.4863 2.1500
18.4082 12.1456 2.1500
17.7555 12.6526 2.1271
17.6647 13.5700 2.1750
15.2280 12.5927 1.9309
14.1596 12.5919 1.8529
13.1742 12.5912 1.7833
12.2604 12.5906 1.7209
11.4084 12.5900 1.6648
10.6102 12.5894 1.6143
9.8589 12.5889 1.5688
9.1489 12.5884 1.5276
8.4750 12.5879 1.4905
7.8330 12.5875 1.4569
7.0260 12.2504 1.3885
6.4726 12.2877 1.3661
7.4864 15.5413 1.6976
2.6328 6.0083 0.6458
7.4840 18.8974 2.0017
7.3869 20.8051 2.1750
6.6332 21.0506 2.1750
5.7547 20.8464 2.1317
5.0014 21.0347 2.1317
2.7596 13.7892 1.3868
3.4777 21.3317 2.1317
2.7092 21.4400 2.1317
1.9374 21.5214 2.1317
1.2197 22.6208 2.2350
0.4067 22.6494 2.2350
-0.4068 22.6496 2.2350
-1.2198 22.6214 2.2350
-2.0314 22.5647 2.2350
-2.8406 22.4798 2.2350
-3.6465 22.3665 2.2350
-4.4480 22.2252 2.2350
-5.2443 22.0559 2.2350
-6.0343 21.8588 2.2350
-6.5027 20.6363 2.1319
-7.2418 20.3959 2.1319
-7.9722 20.1298 2.1319
-8.6931 19.8381 2.1319
-9.4036 19.5212 2.1319
-10.1029 19.1795 2.1319
-10.2316 17.8393 2.0215
-10.2306 16.4403 1.9024
-10.2298 15.1942 1.7986
-10.2290 14.0746 1.7075
-10.2283 13.0605 1.6271
-10.2277 12.1356 1.5557
-10.2348 11.2948 1.4931
-10.3471 10.6257 1.4519
-10.2262 9.7736 1.3838
-16.9320 15.0573 2.2150
-10.4031 8.6027 1.3186
-10.2510 7.8748 1.2617
-10.3728 7.3917 1.2422
-10.3989 6.8611 1.2140
-10.3857 6.3293 1.1842
-10.2237 5.7376 1.1405
-10.4786 5.3955 1.1456
-20.2820 9.5382 2.1766
-20.6470 8.8192 2.1784
-21.1537 8.1507 2.1976
-10.2223 3.5228 1.0472
-21.8371 6.6586 2.2090
-21.9750 5.8472 2.1982
-10.3835 2.3673 1.0285
-22.1694 4.2233 2.1774
-22.2517 3.4163 2.1699
-10.2206 1.1955 0.9909
-22.5541 1.8202 2.1767
-15.9080 0.7104 1.5303
-22.6627 0.1977 2.1758
-22.7610 -0.6188 2.1838
-22.2098 -1.4029 2.1323
-20.9551 -2.0811 2.0157
-14.4684 -1.9635 1.3962
-21.2256 -3.6608 2.0577
-21.4135 -4.4902 2.0881
-21.6653 -5.3615 2.1280
-21.8568 -6.2495 2.1654
-22.1344 -7.1978 2.2150
-10.0666 -3.6780 1.0189
-21.5024 -8.7433 2.2048
-20.9748 -9.4197 2.1820
-20.4966 -10.1040 2.1666
-20.1464 -10.8470 2.1674
-10.0651 -5.8946 1.1039
-10.1711 -6.4578 1.1393
-19.3267 -13.2675 2.2150
-10.1710 -7.5332 1.1949
-10.0636 -8.0286 1.2144
-15.7255 -13.4971 1.9534
-17.2833 -15.9465 2.2150
-10.0622 -9.9758 1.3336
-16.1179 -17.1696 2.2150
-10.1611 -11.6341 1.4519
-10.0619 -12.3914 1.4993
-10.0598 -13.3401 1.5684
-10.0591 -14.3855 1.6468
-10.0583 -15.5438 1.7360
-10.0574 -16.8380 1.8380
-10.0563 -18.2975 1.9557
-10.0552 -19.9608 2.0925
-9.5118 -20.6994 2.1319
-8.7663 -21.0358 2.1319
-8.0087 -21.3447 2.1319
-7.2400 -21.6256 2.1319
-6.4611 -21.8779 2.1319
-5.9477 -23.1703 2.2350
-5.1134 -23.3741 2.2350
-4.2721 -23.5471 2.2350
-3.4249 -23.6889 2.2350
-2.5728 -23.7994 2.2350
-1.7172 -23.8784 2.2350
-0.8592 -23.9258 2.2350
-0.0000 -19.2471 2.2350
0.6906 -19.2342 2.2350
1.3803 -19.1961 2.2350
1.9726 -18.2487 2.1317
2.6259 -18.1642 2.1317
3.2756 -18.0557 2.1317
3.9207 -17.9235 2.1317
4.5605 -17.7678 2.1317
5.1940 -17.5887 2.1317
5.8204 -17.3866 2.1317
6.4787 -17.2684 2.1450
7.0921 -17.0196 2.1450
7.6957 -16.7484 2.1450
8.2888 -16.4555 2.1450
8.8705 -16.1412 2.1450
9.4401 -15.8059 2.1450
9.9969 -15.4501 2.1450
10.1362 -14.4970 2.0628
10.1325 -13.4376 1.9635
10.1333 -12.4804 1.8766
10.4481 -11.9637 1.8551
11.2294 -11.9632 1.9174
12.0651 -11.9626 1.9866
12.9636 -11.9620 2.0637
13.9031 -11.9342 2.1450
14.2248 -11.3496 2.1317
14.6135 -10.8247 2.1317
14.9825 -10.2864 2.1317
15.3315 -9.7354 2.1317
15.6601 -9.1724 2.1317
15.9678 -8.5983 2.1317
16.2543 -8.0139 2.1317
16.9650 -7.6200 2.1892
17.5743 -7.1472 2.2350
17.8059 -6.5069 2.2350
18.0141 -5.8591 2.2350
18.1987 -5.2047 2.2350
18.3593 -4.5445 2.2350
18.4960 -3.8796 2.2350
18.6085 -3.2106 2.2350
18.6968 -2.5386 2.2350
18.7608 -1.8643 2.2350
18.8005 -1.1887 2.2350
18.8158 -0.5127 2.2350
18.8069 0.1629 2.2350
17.9078 0.7986 2.1319
17.8530 1.4398 2.1318
17.7754 2.0780 2.1318
17.6751 2.7126 2.1318
17.5522 3.3427 2.1317
17.4070 3.9675 2.1317
5.7240 1.5227 0.7078
5.6510 1.7228 0.7065
5.5783 1.9220 0.7061
5.5057 2.1211 0.7066
5.4331 2.3203 0.7081
16.2211 7.6275 2.1500
15.9255 8.1991 2.1500
15.6099 8.7594 2.1500
15.2749 9.3078 2.1500
14.9209 9.8436 2.1500
14.5484 10.3662 2.1500
14.1578 10.8749 2.1500
13.7497 11.3692 2.1500
13.3247 11.8485 2.1500
12.8832 12.3121 2.1500
12.2614 12.5906 2.1215
11.4093 12.5900 2.0521
10.6110 12.5894 1.9896
9.8597 12.5889 1.9333
9.1495 12.5884 1.8824
8.4756 12.5879 1.8364
7.8335 12.5875 1.7949
7.0265 12.2504 1.7104
6.4726 12.2869 1.6826
7.4864 15.5403 2.0906
2.6327 6.0076 0.7952
6.6039 16.6741 2.1750
5.8800 16.5597 2.1317
5.2803 16.7563 2.1317
4.6742 16.9312 2.1317
4.0625 17.0849 2.1317
2.7598 13.7892 1.7073
2.8250 17.3272 2.1317
2.2008 17.4156 2.1317
1.6501 18.3288 2.2350
0.9908 18.3753 2.2350
0.3304 18.3987 2.2350
-0.3305 18.3988 2.2350
-0.9909 18.3757 2.2350
-1.6502 18.3294 2.2350
-2.3075 18.2600 2.2350
-2.9621 18.1675 2.2350
-3.6131 18.0521 2.2350
-4.2597 17.9139 2.2350
-4.9012 17.7530 2.2350
-5.5367 17.5696 2.2350
-6.1656 17.3639 2.2350
-6.4740 16.3458 2.1319
-7.0589 16.1078 2.1319
-7.6353 15.8493 2.1319
-8.2024 15.5705 2.1319
-8.7596 15.2719 2.1319
-9.3062 14.9537 2.1319
-9.8414 14.6163 2.1319
-10.2289 14.0734 2.1040
-10.2282 13.0594 2.0050
-10.2276 12.1345 1.9173
-10.2270 11.2853 1.8390
-10.2265 10.5010 1.7689
-10.2260 9.7726 1.7060
-10.2256 9.0926 1.6494
-10.2251 8.4548 1.5984
-10.2247 7.8538 1.5522
-10.2243 7.2851 1.5105
-10.2484 6.7611 1.4762
-10.3185 6.2876 1.4519
-10.2233 5.7367 1.4076
-10.4799 5.3955 1.4143
-16.7172 7.8607 2.2150
-17.0011 7.2608 2.2150
-17.2636 6.6507 2.2150
-10.2219 3.5220 1.2934
-17.7232 5.4030 2.2150
-17.9196 4.7670 2.2150
-10.3833 2.3666 1.2711
-18.2290 3.4715 2.2131
-18.3203 2.8116 2.2088
-10.2204 1.1948 1.2253
-18.3804 1.4823 2.1940
-15.9219 0.7101 1.8947
-14.2101 0.1231 1.6880
-13.4961 -0.3677 1.6025
-13.3622 -0.8449 1.5879
-13.2396 -1.3156 1.5766
-13.2652 -1.8011 1.5851
-13.3674 -2.3063 1.6049
-13.5547 -2.8431 1.6372
-16.3724 -4.0527 1.9923
-18.0426 -5.1600 2.2150
-17.8081 -5.7920 2.2086
-10.0666 -3.6786 1.2631
-17.4232 -7.0857 2.2150
-17.1704 -7.7122 2.2150
-16.8949 -8.3296 2.2150
-16.5971 -8.9371 2.2150
-10.0651 -5.8953 1.3696
-10.1705 -6.4581 1.4136
-10.2076 -7.0081 1.4519
-10.0929 -7.4761 1.4718
-10.0636 -8.0294 1.5076
-10.0631 -8.6379 1.5521
-10.0627 -9.2852 1.6014
-10.0622 -9.9766 1.6563
-10.0617 -10.7191 1.7175
-10.0611 -11.5205 1.7859
-10.0605 -12.3907 1.8626
-10.0598 -13.3411 1.9490
-10.0591 -14.3865 2.0466
-9.9380 -15.3590 2.1319
-9.3844 -15.7125 2.1319
-8.8181 -16.0456 2.1319
-8.2397 -16.3579 2.1319
-7.6500 -16.6489 2.1319
-7.0499 -16.9181 2.1319
-6.4402 -17.1653 2.1319
-6.1031 -18.2310 2.2350
-5.4463 -18.4427 2.2350
-4.7820 -18.6302 2.2350
-4.1111 -18.7932 2.2350
-3.4346 -18.9316 2.2350
-2.7533 -19.0451 2.2350
-2.0683 -19.1334 2.2350
-1.3805 -19.1966 2.2350
-0.6907 -19.2345 2.2350
-0.0000 -16.0780 2.2350
0.5769 -16.0673 2.2350
1.1530 -16.0356 2.2350
1.7275 -15.9828 2.2350
2.1935 -15.1741 2.1317
2.7362 -15.0838 2.1317
3.2753 -14.9738 2.1317
3.8098 -14.8442 2.1317
4.3392 -14.6951 2.1317
4.8627 -14.5269 2.1317
5.3796 -14.3396 2.1317
5.8891 -14.1337 2.1317
6.4304 -13.9958 2.1450
6.9264 -13.7519 2.1450
7.4130 -13.4900 2.1450
7.8896 -13.2107 2.1450
8.3555 -12.9143 2.1450
8.8101 -12.6013 2.1450
9.2528 -12.2719 2.1450
9.6831 -11.9269 2.1450
10.0379 -11.4950 2.1317
10.4391 -11.1222 2.1317
8.1330 -8.0646 1.6014
11.1989 -10.3346 2.1317
11.5566 -9.9209 2.1317
11.8988 -9.4947 2.1317
12.2252 -9.0566 2.1317
12.5353 -8.6071 2.1317
12.8287 -8.1470 2.1317
13.1051 -7.6768 2.1317
14.0115 -7.5458 2.2350
14.2645 -7.0338 2.2350
14.4988 -6.5132 2.2350
14.7139 -5.9849 2.2350
14.9097 -5.4494 2.2350
15.0859 -4.9076 2.2350
15.2423 -4.3601 2.2350
15.3788 -3.8077 2.2350
15.4952 -3.2511 2.2350
15.5915 -2.6910 2.2350
15.6675 -2.1282 2.2350
15.7231 -1.5634 2.2350
15.7584 -0.9973 2.2350
15.7733 -0.4307 2.2350
15.7679 0.1356 2.2350
15.0160 0.6688 2.1319
14.9720 1.2065 2.1318
14.9088 1.7420 2.1318
14.8266 2.2745 2.1318
14.7254 2.8034 2.1318
14.6054 3.3280 2.1317
5.7241 1.5224 0.8435
5.6511 1.7225 0.8418
5.5785 1.9217 0.8413
5.5059 2.1207 0.8418
5.4332 2.3201 0.8434
13.6200 6.4035 2.1500
13.3732 6.8842 2.1500
13.1097 7.3555 2.1500
12.8298 7.8170 2.1500
12.5337 8.2679 2.1500
12.2221 8.7077 2.1500
11.8951 9.1360 2.1500
11.5534 9.5522 2.1500
11.1973 9.9559 2.1500
10.8273 10.3464 2.1500
10.4439 10.7234 2.1500
10.0476 11.0865 2.1500
9.6388 11.4351 2.1500
9.2181 11.7689 2.1500
8.7861 12.0875 2.1500
8.3432 12.3905 2.1500
7.8341 12.5875 2.1347
7.5137 13.0990 2.1750
6.4841 12.3079 2.0043
6.5502 13.5961 2.1750
2.6325 6.0069 0.9454
5.4441 13.7449 2.1317
4.9460 13.9284 2.1317
4.4418 14.0943 2.1318
3.9321 14.2422 2.1318
3.4176 14.3721 2.1318
2.7599 13.7892 2.0296
2.3767 14.5769 2.1319
1.8825 14.8962 2.1674
1.3882 15.4189 2.2350
0.8336 15.4582 2.2350
0.2779 15.4779 2.2350
-0.2780 15.4780 2.2350
-0.8337 15.4585 2.2350
-1.3883 15.4194 2.2350
-1.9413 15.3608 2.2350
-2.4919 15.2827 2.2350
-3.0395 15.1853 2.2350
-3.5833 15.0685 2.2350
-4.1228 14.9327 2.2350
-4.6573 14.7779 2.2350
-5.1861 14.6043 2.2350
-5.7085 14.4121 2.2350
-6.1470 14.0258 2.2073
-6.4213 13.3284 2.1319
-6.8979 13.0932 2.1319
-7.3660 12.8413 2.1319
-7.8251 12.5729 2.1319
-8.2746 12.2884 2.1319
-8.7139 11.9880 2.1319
-9.1424 11.6721 2.1319
-9.5597 11.3412 2.1319
-9.9652 10.9955 2.1319
-10.2264 10.5000 2.1047
-10.2259 9.7716 2.0301
-10.2255 9.0917 1.9629
-10.2250 8.4539 1.9023
-10.2246 7.8529 1.8475
-10.2242 7.2843 1.7980
-10.2239 6.7441 1.7533
-10.2235 6.2290 1.7127
-10.2232 5.7359 1.6761
-10.2229 5.2624 1.6430
-10.2226 4.8061 1.6132
-10.2223 4.3650 1.5864
-10.2220 3.9373 1.5624
-10.2217 3.5213 1.5411
-10.2214 3.1154 1.5222
-10.2211 2.7184 1.5056
-10.2291 2.3308 1.4925
-10.2394 1.9494 1.4819
-10.2480 1.5721 1.4730
-10.2201 1.1942 1.4609
-15.8682 1.2787 2.2587
-12.8575 0.5726 1.8248
-12.6044 0.1084 1.7860
-12.5525 -0.3428 1.7780
-12.4913 -0.7905 1.7710
-12.4819 -1.2411 1.7736
-12.4965 -1.6975 1.7820
-12.5838 -2.1719 1.8032
-12.7729 -2.6799 1.8417
-13.1128 -3.2467 1.9050
-13.9776 -3.9983 2.0489
-14.2752 -4.6438 2.1142
-10.0666 -3.6793 1.5085
-10.0663 -4.0945 1.5286
-10.0660 -4.5219 1.5512
-10.0657 -4.9633 1.5766
-10.0654 -5.4206 1.6051
-10.0651 -5.8960 1.6367
-10.0647 -6.3917 1.6720
-10.0644 -6.9105 1.7110
-10.0640 -7.4554 1.7544
-10.0636 -8.0302 1.8024
-10.0631 -8.6387 1.8558
-10.0627 -9.2860 1.9150
-10.0622 -9.9775 1.9808
-10.0617 -10.7200 2.0542
-10.0409 -11.4983 2.1319
-9.6260 -11.8565 2.1319
-9.1982 -12.1994 2.1319
-8.7580 -12.5266 2.1319
-8.3060 -12.8377 2.1319
-7.8428 -13.1322 2.1319
-7.3690 -13.4097 2.1319
-6.8852 -13.6699 2.1319
-6.3921 -13.9122 2.1319
-6.1330 -14.7187 2.2197
-5.6409 -15.0359 2.2350
-5.0989 -15.2320 2.2350
-4.5499 -15.4083 2.2350
-3.9948 -15.5644 2.2350
-3.4342 -15.7002 2.2350
-2.8690 -15.8154 2.2350
-2.2999 -15.9098 2.2350
-1.7277 -15.9834 2.2350
-1.1531 -16.0360 2.2350
-0.5770 -16.0675 2.2350
-0.0000 -13.7927 2.2350
0.4948 -13.7836 2.2350
0.9890 -13.7565 2.2350
1.4819 -13.7113 2.2350
1.9272 -13.3326 2.1833
2.3473 -12.9405 2.1317
2.8098 -12.8464 2.1317
3.2684 -12.7355 2.1317
3.7227 -12.6079 2.1317
4.1719 -12.4639 2.1317
4.6155 -12.3037 2.1317
5.0529 -12.1274 2.1317
5.4834 -11.9354 2.1317
5.9066 -11.7279 2.1317
6.3218 -11.5051 2.1317
6.7286 -11.2675 2.1317
7.1263 -11.0152 2.1317
7.5144 -10.7488 2.1317
7.8925 -10.4685 2.1317
8.2600 -10.1748 2.1317
8.6165 -9.8680 2.1317
8.9614 -9.5486 2.1317
8.1212 -8.0536 1.8626
9.6150 -8.8737 2.1317
9.9228 -8.5191 2.1317
10.2174 -8.1538 2.1317
10.4985 -7.7782 2.1317
11.1020 -7.6238 2.1983
11.5522 -7.3372 2.2350
11.8020 -6.9143 2.2350
12.0363 -6.4829 2.2350
12.2547 -6.0436 2.2350
12.4570 -5.5969 2.2350
12.6430 -5.1434 2.2350
12.8123 -4.6837 2.2350
12.9649 -4.2185 2.2350
13.1005 -3.7483 2.2350
13.2191 -3.2738 2.2350
13.3203 -2.7956 2.2350
13.4043 -2.3143 2.2350
13.4709 -1.8306 2.2350
13.5200 -1.3451 2.2350
13.5516 -0.8585 2.2350
13.5657 -0.3713 2.2350
13.5623 0.1159 2.2350
12.9168 0.5745 2.1319
12.8802 1.0372 2.1318
12.8270 1.4980 2.1318
12.7575 1.9563 2.1318
12.6716 2.4116 2.1318
12.5695 2.8633 2.1318
5.7242 1.5221 0.9800
5.6513 1.7221 0.9780
5.5786 1.9214 0.9773
5.5060 2.1204 0.9778
5.4333 2.3197 0.9796
11.7274 5.5129 2.1500
11.5159 5.9273 2.1500
11.2899 6.3337 2.1500
11.0496 6.7316 2.1500
10.7955 7.1205 2.1500
10.5279 7.4999 2.1500
10.2470 7.8694 2.1500
9.9533 8.2285 2.1500
9.6472 8.5769 2.1500
9.3291 8.9139 2.1500
8.9993 9.2394 2.1500
8.6583 9.5528 2.1500
8.3065 9.8538 2.1500
7.9445 10.1420 2.1500
7.5725 10.4172 2.1500
7.1912 10.6788 2.1500
6.8010 10.9268 2.1500
6.4023 11.1607 2.1500
5.9958 11.3802 2.1500
5.5345 11.4870 2.1317
2.6324 6.0062 1.0966
4.6936 11.8494 2.1318
4.2643 12.0080 2.1318
3.8297 12.1513 2.1318
3.3903 12.2791 2.1318
2.9468 12.3913 2.1318
2.4996 12.4878 2.1318
2.0494 12.5684 2.1319
1.6738 13.2438 2.2350
1.1970 13.2945 2.2350
0.7188 13.3285 2.2350
0.2397 13.3455 2.2350
-0.2398 13.3455 2.2350
-0.7189 13.3287 2.2350
-1.1971 13.2949 2.2350
-1.6739 13.2442 2.2350
-2.1486 13.1767 2.2350
-2.6207 13.0925 2.2350
-3.0896 12.9916 2.2350
-3.5547 12.8742 2.2350
-4.0154 12.7404 2.2350
-4.4712 12.5903 2.2350
-4.9214 12.4242 2.2350
-5.3657 12.2423 2.2350
-5.8033 12.0447 2.2350
-6.1468 11.6666 2.2038
-6.3587 11.0844 2.1350
-6.7448 10.8364 2.1319
-7.1319 10.5906 2.1319
-7.5101 10.3311 2.1319
-7.8790 10.0584 2.1319
-8.2382 9.7726 2.1319
-8.5871 9.4741 2.1319
-8.9253 9.1634 2.1319
-9.2525 8.8407 2.1319
-6.8054 6.0502 1.5163
-9.8717 8.1610 2.1319
-10.1631 7.8049 2.1319
-10.2242 7.2835 2.0875
-10.2238 6.7433 2.0356
-10.2235 6.2282 1.9887
-10.2231 5.7352 1.9463
-10.2228 5.2617 1.9081
-10.2225 4.8054 1.8736
-10.2222 4.3643 1.8426
-10.2219 3.9366 1.8149
-10.2216 3.5206 1.7903
-10.2213 3.1148 1.7685
-10.2211 2.7177 1.7494
-10.2208 2.3283 1.7330
-10.2205 1.9452 1.7190
-10.2203 1.5673 1.7074
-10.2200 1.1935 1.6981
-12.0447 0.9699 1.9930
-11.9952 0.5335 1.9792
-11.9208 0.1019 1.9639
-11.8641 -0.3247 1.9541
-11.7942 -0.7471 1.9446
-11.8263 -1.1766 1.9544
-11.8321 -1.6079 1.9625
-11.8585 -2.0474 1.9767
-11.9537 -2.5088 2.0051
-12.0820 -2.9922 2.0421
-12.1802 -3.4850 2.0774
-12.1816 -3.9636 2.0994
-10.0666 -3.6799 1.7555
-10.0663 -4.0951 1.7790
-10.0660 -4.5226 1.8055
-10.0657 -4.9640 1.8353
-10.0654 -5.4213 1.8685
-10.0651 -5.8967 1.9056
-10.0647 -6.3924 1.9467
-10.0644 -6.9112 1.9924
-10.0640 -7.4562 2.0430
-10.0636 -8.0309 2.0991
-9.9257 -8.5216 2.1319
-9.6178 -8.8762 2.1319
-9.2970 -9.2195 2.1319
-8.9639 -9.5511 2.1319
-8.6188 -9.8705 2.1319
-8.2621 -10.1773 2.1319
-7.8945 -10.4711 2.1319
-7.5163 -10.7513 2.1319
-7.1280 -11.0177 2.1319
-6.7301 -11.2699 2.1319
-6.3233 -11.5075 2.1319
-6.1357 -12.1826 2.2141
-5.7498 -12.5150 2.2350
-5.2983 -12.7162 2.2350
-4.8396 -12.9009 2.2350
-4.3744 -13.0688 2.2350
-3.9034 -13.2196 2.2350
-3.4271 -13.3532 2.2350
-2.9461 -13.4694 2.2350
-2.4612 -13.5680 2.2350
-1.9730 -13.6488 2.2350
-1.4821 -13.7117 2.2350
-0.9892 -13.7568 2.2350
-0.4949 -13.7838 2.2350
-0.0000 -12.0653 2.2350
0.4328 -12.0573 2.2350
0.8651 -12.0336 2.2350
1.2963 -11.9942 2.2350
1.7256 -11.9391 2.2350
2.1527 -11.8685 2.2350
2.4778 -11.3293 2.1490
2.8591 -11.1412 2.1317
3.2565 -11.0299 2.1317
3.6496 -10.9041 2.1317
4.0377 -10.7642 2.1317
4.4205 -10.6103 2.1317
4.7973 -10.4426 2.1317
5.1677 -10.2614 2.1317
5.5311 -10.0669 2.1317
5.8872 -9.8593 2.1317
6.2355 -9.6390 2.1317
6.5754 -9.4062 2.1317
6.9065 -9.1614 2.1317
7.2284 -8.9047 2.1317
7.5407 -8.6367 2.1317
7.8429 -8.3576 2.1317
8.1092 -8.0424 2.1250
8.4158 -7.7677 2.1317
8.8874 -7.6309 2.1812
9.3773 -7.4841 2.2350
9.6358 -7.1398 2.2350
9.8816 -6.7865 2.2350
10.1143 -6.4247 2.2350
10.3337 -6.0548 2.2350
10.5395 -5.6775 2.2350
10.7315 -5.2931 2.2350
10.9093 -4.9022 2.2350
11.0729 -4.5054 2.2350
11.2220 -4.1030 2.2350
11.3564 -3.6958 2.2350
11.4759 -3.2842 2.2350
11.5806 -2.8687 2.2350
11.6701 -2.4500 2.2350
11.7445 -2.0285 2.2350
11.8037 -1.6048 2.2350
11.8475 -1.1795 2.2350
11.8761 -0.7531 2.2350
11.8893 -0.3261 2.2350
11.8871 0.1008 2.2350
11.3222 0.5029 2.1319
11.2909 0.9085 2.1319
7.9499 0.9279 1.5071
11.1849 1.7145 2.1318
11.1104 2.1138 2.1318
11.0217 2.5100 2.1318
5.7244 1.5217 1.1176
5.6514 1.7218 1.1153
5.5787 1.9211 1.1144
5.5061 2.1201 1.1149
5.4334 2.3194 1.1169
10.2873 4.8352 2.1500
10.1024 5.1990 2.1500
9.9047 5.5559 2.1500
9.6945 5.9053 2.1500
9.4721 6.2469 2.1500
9.2378 6.5802 2.1500
6.1252 4.7035 1.4645
8.7346 7.2203 2.1500
8.4664 7.5264 2.1500
8.1876 7.8226 2.1500
7.8986 8.1086 2.1500
7.5997 8.3841 2.1500
7.2912 8.6487 2.1500
6.9737 8.9021 2.1500
6.6475 9.1440 2.1500
6.3130 9.3741 2.1500
5.9707 9.5921 2.1500
5.5732 9.7146 2.1317
5.2195 9.9062 2.1317
4.8593 10.0850 2.1317
2.6323 6.0055 1.2489
4.1213 10.4037 2.1318
3.7444 10.5432 2.1318
3.3628 10.6693 2.1318
2.9771 10.7817 2.1318
2.5876 10.8804 2.1318
2.1950 10.9653 2.1319
1.8812 11.5362 2.2285
1.4698 11.6293 2.2350
1.0512 11.6739 2.2350
0.6312 11.7038 2.2350
0.2105 11.7187 2.2350
-0.2105 11.7188 2.2350
-0.6313 11.7039 2.2350
-1.0513 11.6742 2.2350
-1.4699 11.6296 2.2350
-1.8868 11.5702 2.2350
-2.3013 11.4961 2.2350
-2.7130 11.4073 2.2350
-3.1214 11.3040 2.2350
-3.5258 11.1863 2.2350
-3.9260 11.0543 2.2350
-4.3212 10.9082 2.2350
-4.7111 10.7482 2.2350
-5.0952 10.5743 2.2350
-5.4729 10.3870 2.2350
-5.8439 10.1863 2.2350
-6.1475 9.8760 2.2133
-6.2608 9.2964 2.1319
-6.5926 9.0683 2.1319
-6.9162 8.8285 2.1319
-7.2311 8.5772 2.1319
-7.5370 8.3149 2.1319
-7.8335 8.0417 2.1319
-8.1202 7.7581 2.1319
-6.7965 6.0418 1.7256
-8.6628 7.1609 2.1319
-8.9180 6.8480 2.1319
-9.1619 6.5261 2.1319
-9.3944 6.1956 2.1319
-9.6150 5.8568 2.1319
-9.8235 5.5103 2.1319
-10.0196 5.1564 2.1319
-10.2224 4.8047 2.1359
-10.2221 4.3636 2.1007
-10.2218 3.9359 2.0693
-10.2215 3.5199 2.0413
-10.2213 3.1141 2.0166
-10.2210 2.7171 1.9950
-10.2207 2.3276 1.9764
-10.2205 1.9445 1.9606
-10.2202 1.5666 1.9475
-10.2199 1.1929 1.9370
-11.2002 0.9012 2.1142
-11.1987 0.4974 2.1081
-11.1984 0.0950 2.1049
-11.1994 -0.3072 2.1047
-11.2562 -0.7138 2.1178
-11.2899 -1.1240 2.1292
-11.3014 -1.5365 2.1393
-11.3121 -1.9538 2.1521
-11.3539 -2.3836 2.1739
-11.0429 -2.7355 2.1307
-10.8172 -3.0956 2.1061
-10.7167 -3.4876 2.1086
-10.0666 -3.6806 2.0044
-10.0663 -4.0958 2.0313
-10.0660 -4.5232 2.0617
-10.0657 -4.9647 2.0958
-10.0556 -5.4167 2.1319
-9.8592 -5.7767 2.1319
-9.6498 -6.1296 2.1319
-9.4277 -6.4747 2.1319
-9.1932 -6.8118 2.1319
-8.9466 -7.1402 2.1319
-8.6881 -7.4597 2.1319
-8.4180 -7.7697 2.1319
-8.1369 -8.0698 2.1319
-7.8449 -8.3596 2.1319
-7.5425 -8.6387 2.1319
-7.2301 -8.9068 2.1319
-6.9081 -9.1634 2.1319
-6.5768 -9.4083 2.1319
-6.2368 -9.6410 2.1319
-6.1361 -10.2758 2.2215
-5.7998 -10.5557 2.2350
-5.4186 -10.7596 2.2350
-5.0302 -10.9495 2.2350
-4.6351 -11.1253 2.2350
-4.2337 -11.2866 2.2350
-3.8267 -11.4332 2.2350
-3.4146 -11.5649 2.2350
-2.9978 -11.6815 2.2350
-2.5771 -11.7830 2.2350
-2.1529 -11.8690 2.2350
-1.7258 -11.9396 2.2350
-1.2964 -11.9945 2.2350
-0.8652 -12.0338 2.2350
-0.4329 -12.0574 2.2350
-0.0001 -10.7123 2.2350
0.3843 -10.7053 2.2350
0.7681 -10.6843 2.2350
1.1508 -10.6494 2.2350
1.5321 -10.6006 2.2350
1.9112 -10.5379 2.2350
2.2879 -10.4616 2.2350
2.6614 -10.3716 2.2350
3.0314 -10.2681 2.2350
3.3270 -9.9411 2.1887
3.6102 -9.6252 2.1466
3.9250 -9.4218 2.1317
4.2597 -9.2731 2.1317
4.5887 -9.1124 2.1317
4.9116 -8.9399 2.1317
5.2280 -8.7559 2.1317
5.5374 -8.5605 2.1317
5.8394 -8.3541 2.1317
6.1337 -8.1369 2.1317
6.4452 -7.9406 2.1402
6.8150 -7.8061 2.1691
7.2381 -7.7137 2.2149
7.5756 -7.5139 2.2350
7.8376 -7.2347 2.2350
8.0893 -6.9464 2.2350
8.3303 -6.6492 2.2350
8.5604 -6.3436 2.2350
8.7791 -6.0300 2.2350
8.9863 -5.7088 2.2350
9.1817 -5.3805 2.2350
9.3650 -5.0454 2.2350
9.5360 -4.7041 2.2350
9.6946 -4.3570 2.2350
9.8405 -4.0046 2.2350
9.9735 -3.6472 2.2350
10.0934 -3.2855 2.2350
10.2003 -2.9198 2.2350
10.2938 -2.5506 2.2350
10.3740 -2.1785 2.2350
10.4407 -1.8040 2.2350
10.4939 -1.4274 2.2350
10.5335 -1.0493 2.2350
10.5594 -0.6702 2.2350
10.5717 -0.2906 2.2350
10.5704 0.0890 2.2350
10.0686 0.4466 2.1319
10.0414 0.8073 2.1319
7.9404 0.9263 1.6926
9.9482 1.5243 2.1318
9.8825 1.8796 2.1318
9.8041 2.2321 2.1318
5.7245 1.5214 1.2564
5.6515 1.7215 1.2537
5.5788 1.9208 1.2526
5.5062 2.1198 1.2531
5.4335 2.3191 1.2553
9.0760 4.2652 2.1317
8.9895 4.6257 2.1500
8.8141 4.9435 2.1500
8.6274 5.2547 2.1500
8.4299 5.5589 2.1500
8.2218 5.8558 2.1500
6.1074 4.6894 1.6407
7.7746 6.4261 2.1500
7.5362 6.6988 2.1500
7.2883 6.9628 2.1500
7.0313 7.2177 2.1500
6.7654 7.4631 2.1500
6.4911 7.6990 2.1500
6.2086 7.9248 2.1500
5.8682 8.0713 2.1317
5.5731 8.2747 2.1317
5.2711 8.4675 2.1317
4.9624 8.6494 2.1317
4.6476 8.8202 2.1318
4.3270 8.9796 2.1318
2.6321 6.0047 1.4024
3.6700 9.2638 2.1318
3.3344 9.3882 2.1318
2.9946 9.5006 2.1318
2.6512 9.6009 2.1318
2.3044 9.6889 2.1319
1.9547 9.7645 2.1319
1.6802 10.3029 2.2350
1.3090 10.3559 2.2350
0.9361 10.3958 2.2350
0.5621 10.4224 2.2350
0.1874 10.4357 2.2350
-0.1875 10.4358 2.2350
-0.5622 10.4225 2.2350
-0.9362 10.3960 2.2350
-1.3091 10.3562 2.2350
-1.6803 10.3032 2.2350
-2.0494 10.2371 2.2350
-2.4160 10.1579 2.2350
-2.7796 10.0658 2.2350
-3.1398 9.9608 2.2350
-3.4960 9.8431 2.2350
-3.8479 9.7128 2.2350
-4.1950 9.5701 2.2350
-4.5369 9.4151 2.2350
-4.8732 9.2480 2.2350
-5.2033 9.0691 2.2350
-5.5270 8.8785 2.2350
-5.8438 8.6765 2.2350
-6.1481 8.4563 2.2331
-6.1605 7.8632 2.1330
-6.4375 7.6352 2.1319
-6.7096 7.4014 2.1319
-6.9732 7.1580 2.1319
-7.2282 6.9052 2.1319
-6.7875 6.0333 1.9360
-7.7105 6.3731 2.1319
-7.9373 6.0943 2.1319
-8.1541 5.8076 2.1319
-8.3606 5.5131 2.1319
-8.5565 5.2114 2.1319
-8.7416 4.9028 2.1319
-8.9157 4.5877 2.1319
-9.0784 4.2664 2.1319
-9.2297 3.9393 2.1319
-9.3692 3.6070 2.1319
-9.4969 3.2697 2.1319
-9.6124 2.9280 2.1319
-9.7157 2.5821 2.1319
-9.7145 2.2117 2.1119
-9.8111 1.8660 2.1160
-9.9506 1.5247 2.1319
-10.0035 1.1670 2.1319
-10.0436 0.8075 2.1319
-10.0708 0.4467 2.1319
-10.0851 0.0849 2.1319
-10.0863 -0.2773 2.1319
-10.0746 -0.6395 2.1319
-10.0498 -1.0011 2.1319
-10.0121 -1.3618 2.1319
-9.9613 -1.7211 2.1319
-9.8977 -2.0785 2.1319
-9.8212 -2.4335 2.1319
-9.7319 -2.7857 2.1319
-9.6299 -3.1346 2.1319
-9.5154 -3.4797 2.1319
-9.3885 -3.8206 2.1319
-9.2493 -4.1569 2.1319
-9.0980 -4.4880 2.1319
-8.9348 -4.8136 2.1319
-8.7599 -5.1333 2.1319
-8.5734 -5.4465 2.1319
-8.3757 -5.7529 2.1319
-8.1670 -6.0520 2.1319
-7.9475 -6.3435 2.1319
-7.7176 -6.6270 2.1319
-7.4774 -6.9021 2.1319
-7.2274 -7.1684 2.1319
-6.9678 -7.4255 2.1319
-6.6989 -7.6731 2.1319
-6.4212 -7.9109 2.1319
-6.1475 -8.1552 2.1362
-6.1231 -8.7598 2.2350
-5.8063 -8.9762 2.2350
-5.4819 -9.1810 2.2350
-5.1502 -9.3739 2.2350
-4.8115 -9.5547 2.2350
-4.4665 -9.7231 2.2350
-4.1156 -9.8790 2.2350
-3.7591 -10.0220 2.2350
-3.3977 -10.1520 2.2350
-3.0317 -10.2687 2.2350
-2.6616 -10.3721 2.2350
-2.2880 -10.4621 2.2350
-1.9114 -10.5384 2.2350
-1.5322 -10.6009 2.2350
-1.1510 -10.6496 2.2350
-0.7682 -10.6845 2.2350
-0.3844 -10.7054 2.2350
-0.0000 -9.6231 2.2350
0.3452 -9.6168 2.2350
0.6899 -9.5980 2.2350
1.0338 -9.5666 2.2350
1.3762 -9.5228 2.2350
1.7168 -9.4667 2.2350
2.0551 -9.3981 2.2350
2.3907 -9.3174 2.2350
2.7231 -9.2246 2.2350
3.0519 -9.1197 2.2350
3.3766 -9.0030 2.2350
3.6969 -8.8747 2.2350
4.0122 -8.7348 2.2350
4.3221 -8.5836 2.2350
4.6264 -8.4213 2.2350
4.9245 -8.2482 2.2350
5.2160 -8.0643 2.2350
5.5007 -7.8701 2.2350
5.7780 -7.6657 2.2350
6.0477 -7.4515 2.2350
6.3094 -7.2277 2.2350
6.5628 -6.9946 2.2350
6.8075 -6.7526 2.2350
7.0432 -6.5020 2.2350
7.2696 -6.2431 2.2350
7.4865 -5.9762 2.2350
7.6935 -5.7018 2.2350
7.8904 -5.4202 2.2350
8.0769 -5.1317 2.2350
8.2528 -4.8368 2.2350
8.4179 -4.5358 2.2350
8.5720 -4.2292 2.2350
8.7149 -3.9173 2.2350
8.8464 -3.6006 2.2350
8.9664 -3.2795 2.2350
9.0746 -2.9544 2.2350
9.1711 -2.6258 2.2350
9.2556 -2.2940 2.2350
9.3281 -1.9595 2.2350
9.3885 -1.6227 2.2350
9.4367 -1.2842 2.2350
9.4727 -0.9442 2.2350
9.4965 -0.6034 2.2350
9.5080 -0.2620 2.2350
9.5072 0.0795 2.2350
9.4942 0.4205 2.2350
9.0322 0.7256 2.1319
7.9325 0.9249 1.8797
8.9493 1.3707 2.1318
8.8905 1.6904 2.1318
8.8204 2.0076 2.1318
5.7246 1.5211 1.3965
5.6516 1.7211 1.3934
5.5789 1.9204 1.3922
5.5063 2.1195 1.3927
5.4336 2.3188 1.3950
8.1674 3.8377 2.1317
8.0213 4.1269 2.1317
7.8650 4.4106 2.1317
7.7646 4.7286 2.1500
7.5871 5.0026 2.1500
7.4001 5.2700 2.1500
6.1077 4.6891 1.8229
6.0829 5.0274 1.8688
6.7837 6.0294 2.1500
6.5608 6.2672 2.1500
6.3296 6.4968 2.1500
6.0905 6.7180 2.1500
5.7941 6.8717 2.1317
5.5421 7.0735 2.1317
5.2832 7.2662 2.1317
5.0177 7.4495 2.1317
4.7459 7.6233 2.1318
4.4681 7.7872 2.1318
4.1847 7.9411 2.1318
3.8961 8.0848 2.1318
2.5972 5.9247 1.5369
3.3046 8.3410 2.1318
3.0025 8.4531 2.1318
2.6966 8.5544 2.1318
2.3873 8.6448 2.1319
2.0878 8.7778 2.1450
1.8454 9.2175 2.2350
1.5130 9.2772 2.2350
1.1787 9.3250 2.2350
0.8430 9.3609 2.2350
0.5062 9.3849 2.2350
0.1688 9.3969 2.2350
-0.1689 9.3970 2.2350
-0.5063 9.3850 2.2350
-0.8431 9.3611 2.2350
-1.1788 9.3252 2.2350
-1.5131 9.2774 2.2350
-1.8455 9.2178 2.2350
-2.1756 9.1464 2.2350
-2.5030 9.0634 2.2350
-2.8273 8.9687 2.2350
-3.1480 8.8626 2.2350
-3.4648 8.7451 2.2350
-3.7773 8.6165 2.2350
-4.0851 8.4768 2.2350
-4.3877 8.3262 2.2350
-4.6849 8.1649 2.2350
-4.9762 7.9931 2.2350
-5.2613 7.8110 2.2350
-5.5398 7.6189 2.2350
-5.8113 7.4169 2.2350
-6.0756 7.2054 2.2350
-6.1489 6.7823 2.1703
-6.2773 6.4430 2.1319
-6.5066 6.2153 2.1319
-6.7277 5.9795 2.1319
-6.9403 5.7359 2.1319
-7.1442 5.4848 2.1319
-7.3390 5.2265 2.1319
-7.5246 4.9613 2.1319
-7.7006 4.6896 2.1319
-7.8669 4.4117 2.1319
-8.0233 4.1279 2.1319
-8.1694 3.8386 2.1319
-8.3052 3.5442 2.1319
-8.4304 3.2450 2.1319
-8.5449 2.9414 2.1319
-8.6485 2.6338 2.1319
-8.7410 2.3225 2.1319
-8.8224 2.0080 2.1319
-8.8925 1.6907 2.1319
-8.9512 1.3710 2.1319
-8.9984 1.0492 2.1319
-9.0341 0.7258 2.1319
-9.0581 0.4012 2.1319
-9.0705 0.0758 2.1319
-9.0713 -0.2499 2.1319
-9.0603 -0.5756 2.1319
-9.0376 -0.9009 2.1319
-9.0032 -1.2252 2.1319
-8.9572 -1.5482 2.1319
-8.8996 -1.8695 2.1319
-8.8304 -2.1886 2.1319
-8.7498 -2.5051 2.1319
-8.6577 -2.8187 2.1319
-8.5544 -3.1288 2.1319
-8.4400 -3.4352 2.1319
-8.3145 -3.7373 2.1319
-8.1781 -4.0348 2.1319
-8.0311 -4.3273 2.1319
-7.8736 -4.6144 2.1319
-7.7057 -4.8958 2.1319
-7.5277 -5.1710 2.1319
-7.3399 -5.4396 2.1319
-7.1423 -5.7014 2.1319
-6.9354 -5.9560 2.1319
-6.7194 -6.2029 2.1319
-6.4945 -6.4420 2.1319
-6.2610 -6.6729 2.1319
-6.1372 -7.0303 2.1736
-6.0485 -7.4524 2.2350
-5.7788 -7.6666 2.2350
-5.5014 -7.8709 2.2350
-5.2167 -8.0652 2.2350
-4.9250 -8.2490 2.2350
-4.6269 -8.4221 2.2350
-4.3226 -8.5844 2.2350
-4.0126 -8.7355 2.2350
-3.6972 -8.8753 2.2350
-3.3770 -9.0037 2.2350
-3.0522 -9.1203 2.2350
-2.7234 -9.2251 2.2350
-2.3910 -9.3178 2.2350
-2.0553 -9.3985 2.2350
-1.7170 -9.4670 2.2350
-1.3763 -9.5231 2.2350
-1.0339 -9.5668 2.2350
-0.6900 -9.5981 2.2350
-0.3453 -9.6169 2.2350
-0.0000 -8.7264 2.2350
0.3130 -8.7207 2.2350
0.6256 -8.7037 2.2350
0.9374 -8.6753 2.2350
1.2479 -8.6356 2.2350
1.5568 -8.5847 2.2350
1.8636 -8.5227 2.2350
2.1679 -8.4496 2.2350
2.4694 -8.3654 2.2350
2.7675 -8.2705 2.2350
3.0620 -8.1648 2.2350
3.3525 -8.0485 2.2350
3.6384 -7.9218 2.2350
3.9196 -7.7848 2.2350
4.1956 -7.6377 2.2350
4.4660 -7.4808 2.2350
4.7305 -7.3142 2.2350
4.9888 -7.1382 2.2350
5.2404 -6.9531 2.2350
5.4852 -6.7589 2.2350
5.7227 -6.5561 2.2350
5.9526 -6.3449 2.2350
6.1748 -6.1255 2.2350
6.3887 -5.8984 2.2350
6.5943 -5.6637 2.2350
6.7912 -5.4218 2.2350
6.9792 -5.1730 2.2350
7.1580 -4.9176 2.2350
7.3275 -4.6561 2.2350
7.4873 -4.3887 2.2350
7.6374 -4.1158 2.2350
7.7774 -3.8377 2.2350
7.9073 -3.5549 2.2350
8.0269 -3.2676 2.2350
8.1360 -2.9764 2.2350
8.2346 -2.6815 2.2350
8.3224 -2.3833 2.2350
8.3994 -2.0823 2.2350
8.4655 -1.7788 2.2350
8.5206 -1.4733 2.2350
8.5647 -1.1661 2.2350
8.5977 -0.8576 2.2350
8.6196 -0.5482 2.2350
8.6304 -0.2383 2.2350
8.6300 0.0716 2.2350
8.6185 0.3812 2.2350
8.1994 0.6582 2.1319
7.9245 0.9235 2.0685
8.1247 1.2439 2.1318
8.0717 1.5342 2.1318
8.0083 1.8223 2.1318
5.7247 1.5207 1.5380
5.6517 1.7208 1.5346
5.5790 1.9201 1.5332
5.5064 2.1192 1.5337
5.4337 2.3185 1.5362
7.4170 3.4846 2.1317
7.2846 3.7474 2.1317
7.1428 4.0052 2.1317
6.9921 4.2576 2.1317
6.8324 4.5045 2.1317
6.6641 4.7454 2.1317
6.1080 4.6889 2.0070
6.3025 5.2083 2.1317
6.1096 5.4297 2.1317
5.9090 5.6440 2.1317
5.7010 5.8510 2.1317
5.4857 6.0504 2.1317
5.2636 6.2420 2.1317
5.0348 6.4255 2.1317
4.7997 6.6007 2.1318
4.5585 6.7674 2.1318
4.3117 6.9253 2.1318
4.0594 7.0744 2.1318
3.8020 7.2143 2.1318
3.5398 7.3450 2.1318
2.5945 5.9182 1.6898
3.0025 7.5780 2.1318
2.7280 7.6800 2.1318
2.4501 7.7721 2.1318
2.1691 7.8543 2.1319
1.8993 7.9848 2.1476
1.6767 8.3747 2.2350
1.3747 8.4290 2.2350
