ply
format ascii 1.0
element vertex 2166
property float32 x
property float32 y
property float32 z
end_header
0.0001 -13.4897 2.2368
0.4844 -13.4811 2.2368
0.9681 -13.4553 2.2368
1.4506 -13.4122 2.2368
1.9312 -13.3519 2.2368
2.4095 -13.2745 2.2368
2.8846 -13.1801 2.2368
3.3562 -13.0688 2.2368
3.6470 -12.3434 2.1335
4.0881 -12.2055 2.1335
2.4978 -6.6541 1.1780
4.9542 -11.8827 2.1335
5.3782 -11.6983 2.1335
5.7953 -11.4989 2.1335
6.2051 -11.2847 2.1335
6.6016 -11.0469 2.1318
6.9948 -10.8042 2.1318
7.3792 -10.5475 2.1318
7.7542 -10.2772 2.1318
8.1194 -9.9937 2.1318
8.4742 -9.6973 2.1318
8.8183 -9.3883 2.1318
9.1512 -9.0672 2.1318
8.6206 -7.9488 1.9401
6.2211 -5.3360 1.3558
6.6932 -5.3361 1.4157
7.2099 -5.3362 1.4833
7.7793 -5.3363 1.5597
8.4117 -5.3365 1.6466
9.1200 -5.3366 1.7463
9.9211 -5.3368 1.8614
10.8368 -5.3370 1.9955
11.8967 -5.3372 2.1535
12.1017 -4.9153 2.1568
12.2731 -4.4786 2.1568
12.4287 -4.0360 2.1568
12.5684 -3.5881 2.1568
12.6920 -3.1353 2.1568
12.7993 -2.6783 2.1568
12.8901 -2.2176 2.1568
12.9644 -1.7539 2.1568
13.0221 -1.2877 2.1568
13.0630 -0.8196 2.1568
13.0871 -0.3502 2.1568
13.0943 0.1198 2.1568
13.0846 0.5899 2.1568
13.0580 1.0594 2.1568
13.0146 1.5278 2.1568
12.9544 1.9945 2.1568
12.8774 2.4587 2.1568
12.7838 2.9201 2.1568
12.6357 3.3677 2.1503
11.9395 3.6459 2.0524
11.8035 4.0730 2.0524
11.6523 4.4950 2.0524
11.4859 4.9114 2.0524
11.3046 5.3217 2.0524
11.1086 5.7252 2.0524
11.4528 6.4330 2.1568
11.2168 6.8413 2.1568
10.9661 7.2409 2.1568
10.7012 7.6313 2.1568
10.4223 8.0119 2.1568
10.1299 8.3824 2.1568
9.8242 8.7421 2.1568
9.5057 9.0906 2.1568
9.1748 9.4275 2.1568
8.8319 9.7522 2.1568
8.4775 10.0645 2.1568
8.1120 10.3637 2.1568
7.7358 10.6497 2.1568
7.3496 10.9219 2.1568
6.8368 10.9920 2.1205
4.9458 8.6275 1.6289
6.0695 11.5279 2.1337
5.6524 11.7395 2.1337
5.2279 11.9359 2.1337
4.7966 12.1169 2.1337
4.3590 12.2822 2.1337
3.9156 12.4316 2.1337
3.4671 12.5649 2.1337
3.0141 12.6819 2.1337
2.5571 12.7825 2.1337
2.0968 12.8665 2.1337
1.7126 13.5588 2.2368
1.2249 13.6118 2.2368
0.7356 13.6472 2.2368
0.2453 13.6648 2.2368
-0.2452 13.6647 2.2368
-0.7355 13.6470 2.2368
-1.2248 13.6115 2.2368
-1.7125 13.5583 2.2368
-2.1979 13.4876 2.2368
-2.6804 13.3994 2.2368
-3.1594 13.2938 2.2368
-3.6343 13.1710 2.2368
-4.1044 13.0312 2.2368
-4.5690 12.8745 2.2368
-5.0277 12.7011 2.2368
-5.4798 12.5112 2.2368
-5.9247 12.3052 2.2368
-6.0686 11.5264 2.1337
-6.4776 11.2998 2.1337
-6.8781 11.0586 2.1337
-7.2695 10.8031 2.1337
-7.6515 10.5336 2.1336
-8.0234 10.2507 2.1336
-8.3848 9.9545 2.1336
-8.7352 9.6455 2.1336
-9.0747 9.3247 2.1337
-9.4020 8.9915 2.1337
-9.7169 8.6467 2.1337
-6.3895 5.2873 1.3607
-10.5965 8.1459 2.1934
-10.8560 7.7418 2.1885
-11.0986 7.3285 2.1834
-11.3259 6.9080 2.1783
-11.5851 6.5074 2.1823
-11.8385 6.1014 2.1878
-12.0654 5.6799 2.1911
-12.2492 5.2379 2.1893
-12.4050 4.7855 2.1855
-12.5613 4.3345 2.1847
-12.6934 3.8762 2.1826
-12.8344 3.4207 2.1848
-12.9476 2.9575 2.1850
-13.0490 2.4915 2.1861
-9.9317 1.5291 1.6540
-9.9305 1.1658 1.6462
-9.9293 0.8056 1.6405
-9.9282 0.4476 1.6370
-9.9270 0.0908 1.6356
-9.9258 -0.2656 1.6363
-9.9247 -0.6227 1.6391
-9.9235 -0.9813 1.6441
-9.9223 -1.3423 1.6512
-9.9212 -1.7069 1.6605
-9.9200 -2.0758 1.6721
-9.9187 -2.4503 1.6860
-9.9175 -2.8313 1.7024
-9.9162 -3.2202 1.7213
-9.9149 -3.6181 1.7429
-9.9136 -4.0265 1.7673
-9.9123 -4.4469 1.7947
-9.9108 -4.8810 1.8254
-9.9094 -5.3305 1.8596
-9.9079 -5.7977 1.8976
-9.9063 -6.2847 1.9397
-9.9046 -6.7943 1.9862
-9.9029 -7.3295 2.0377
-9.9011 -7.8937 2.0947
-9.7876 -8.3953 2.1335
-9.4783 -8.7398 2.1336
-9.1570 -9.0730 2.1336
-8.8240 -9.3945 2.1336
-8.4799 -9.7038 2.1336
-8.1249 -10.0006 2.1336
-6.3350 -8.3964 1.7419
-7.3845 -10.5551 2.1337
-7.0000 -10.8122 2.1337
-6.6065 -11.0553 2.1337
-6.5044 -11.8293 2.2368
-6.0749 -12.0539 2.2368
-5.6377 -12.2631 2.2368
-5.1933 -12.4565 2.2368
-4.7424 -12.6338 2.2368
-4.2854 -12.7950 2.2368
-3.8231 -12.9398 2.2368
-3.3558 -13.0680 2.2368
-2.8844 -13.1794 2.2368
-2.4092 -13.2739 2.2368
-1.9310 -13.3514 2.2368
-1.4504 -13.4118 2.2368
-0.9679 -13.4550 2.2368
-0.4843 -13.4810 2.2368
0.0000 -11.8320 2.2368
0.4249 -11.8245 2.2368
0.8491 -11.8018 2.2368
1.2723 -11.7640 2.2368
1.6939 -11.7111 2.2368
2.1134 -11.6431 2.2368
2.5302 -11.5603 2.2368
2.8079 -10.9335 2.1335
3.1988 -10.8262 2.1335
3.5856 -10.7051 2.1335
2.4979 -6.6540 1.3431
4.3453 -10.4218 2.1335
4.7171 -10.2600 2.1335
5.0828 -10.0850 2.1335
5.4422 -9.8970 2.1335
5.7899 -9.6883 2.1318
6.1347 -9.4752 2.1318
6.4716 -9.2500 2.1318
6.8004 -9.0128 2.1318
7.1205 -8.7640 2.1318
7.4316 -8.5039 2.1318
7.7332 -8.2327 2.1318
8.0250 -7.9510 2.1318
8.3065 -7.6589 2.1318
6.2213 -5.3360 1.5462
6.6935 -5.3361 1.6146
7.2102 -5.3362 1.6916
7.7796 -5.3363 1.7788
8.4121 -5.3365 1.8781
9.1205 -5.3366 1.9918
9.9216 -5.3368 2.1231
10.2692 -5.0571 2.1568
10.4460 -4.6861 2.1568
10.6096 -4.3089 2.1568
10.7595 -3.9260 2.1568
10.8957 -3.5379 2.1568
11.0178 -3.1452 2.1568
11.1259 -2.7482 2.1568
11.2196 -2.3475 2.1568
11.2990 -1.9436 2.1568
11.3638 -1.5371 2.1568
11.4140 -1.1284 2.1568
11.4495 -0.7181 2.1568
11.4703 -0.3067 2.1568
11.4763 0.1053 2.1568
11.4675 0.5173 2.1568
11.4439 0.9287 2.1568
11.4055 1.3392 2.1568
11.3524 1.7481 2.1568
11.2846 2.1549 2.1568
11.2023 2.5591 2.1568
11.1055 2.9601 2.1568
10.9942 3.3575 2.1568
10.3424 3.5691 2.0524
10.2096 3.9388 2.0524
10.0636 4.3035 2.0524
9.9045 4.6628 2.0524
9.7326 5.0163 2.0524
9.5480 5.3633 2.0524
9.3510 5.7036 2.0524
9.6070 6.3437 2.1568
9.3747 6.6856 2.1568
9.1302 7.0189 2.1568
8.8738 7.3433 2.1568
8.6059 7.6582 2.1568
8.3267 7.9634 2.1568
8.0367 8.2583 2.1568
7.7362 8.5426 2.1568
7.4256 8.8159 2.1568
6.8420 8.7415 2.0769
6.7681 9.3178 2.1544
6.2490 9.2866 2.0937
6.0253 9.6876 2.1337
4.9442 8.6249 1.8591
5.3159 10.0968 2.1337
4.9505 10.2820 2.1337
4.5787 10.4539 2.1337
4.2009 10.6124 2.1337
3.8176 10.7570 2.1337
3.4293 10.8878 2.1337
3.0365 11.0044 2.1337
2.6397 11.1068 2.1337
2.2395 11.1949 2.1337
1.9250 11.8128 2.2368
1.4999 11.8746 2.2368
1.0727 11.9210 2.2368
0.6442 11.9520 2.2368
0.2149 11.9674 2.2368
-0.2148 11.9674 2.2368
-0.6441 11.9518 2.2368
-1.0726 11.9208 2.2368
-1.4997 11.8743 2.2368
-1.9249 11.8124 2.2368
-2.3475 11.7352 2.2368
-2.7670 11.6428 2.2368
-3.1829 11.5354 2.2368
-3.5946 11.4130 2.2368
-4.0016 11.2758 2.2368
-4.4034 11.1241 2.2368
-4.7994 10.9580 2.2368
-5.1891 10.7777 2.2368
-5.5720 10.5835 2.2368
-5.9476 10.3756 2.2368
-6.0244 9.6863 2.1337
-6.3674 9.4628 2.1337
-6.7021 9.2270 2.1337
-7.0281 8.9794 2.1337
-7.3448 8.7202 2.1337
-7.6520 8.4497 2.1337
-7.9492 8.1685 2.1337
-8.2360 7.8767 2.1337
-8.5121 7.5749 2.1337
-6.3043 5.2170 1.5326
-9.0306 6.9424 2.1337
-9.2724 6.6127 2.1337
-9.5021 6.2746 2.1337
-9.7195 5.9284 2.1337
-9.9242 5.5747 2.1337
-10.4154 5.3683 2.1969
-10.5750 4.9785 2.1918
-10.7042 4.5775 2.1835
-10.8270 4.1770 2.1770
-10.9502 3.7789 2.1735
-11.0591 3.3774 2.1701
-11.2025 2.9860 2.1762
-11.3228 2.5867 2.1806
-11.4187 2.1805 2.1830
-9.9317 1.5293 1.8873
-9.9305 1.1660 1.8783
-9.9293 0.8058 1.8718
-9.9282 0.4478 1.8677
-9.9270 0.0911 1.8661
-9.9259 -0.2654 1.8669
-9.9247 -0.6225 1.8700
-9.9235 -0.9811 1.8756
-9.9223 -1.3421 1.8837
-9.9212 -1.7066 1.8943
-9.9200 -2.0756 1.9074
-9.9187 -2.4500 1.9233
-9.9175 -2.8311 1.9419
-9.9162 -3.2199 1.9634
-9.9150 -3.6179 1.9880
-9.9136 -4.0263 2.0158
-9.9123 -4.4467 2.0471
-9.9108 -4.8807 2.0820
-9.9094 -5.3303 2.1209
-9.7676 -5.7153 2.1335
-9.5545 -6.0613 2.1336
-9.3292 -6.3993 2.1336
-9.0920 -6.7290 2.1336
-8.8432 -7.0500 2.1336
-8.5831 -7.3618 2.1336
-8.3120 -7.6641 2.1336
-8.0304 -7.9564 2.1336
-7.7385 -8.2385 2.1336
-7.4368 -8.5099 2.1336
-7.1256 -8.7704 2.1337
-6.3274 -8.3861 1.9838
-6.4764 -9.2570 2.1337
-6.1393 -9.4825 2.1337
-6.0742 -10.1642 2.2368
-5.7048 -10.3747 2.2368
-5.3281 -10.5719 2.2368
-4.9447 -10.7554 2.2368
-4.5550 -10.9252 2.2368
-4.1595 -11.0809 2.2368
-3.7588 -11.2224 2.2368
-3.3533 -11.3494 2.2368
-2.9435 -11.4619 2.2368
-2.5299 -11.5597 2.2368
-2.1132 -11.6426 2.2368
-1.6938 -11.7107 2.2368
-1.2722 -11.7637 2.2368
-0.8490 -11.8016 2.2368
-0.4248 -11.8244 2.2368
0.0001 -10.5274 2.2368
0.3780 -10.5207 2.2368
0.7555 -10.5004 2.2368
1.1321 -10.4668 2.2368
1.5072 -10.4196 2.2368
1.8804 -10.3592 2.2368
2.2512 -10.2854 2.2368
2.4983 -9.7276 2.1335
2.8460 -9.6322 2.1335
3.1902 -9.5243 2.1335
2.4979 -6.6540 1.5096
3.8660 -9.2721 2.1335
4.1968 -9.1281 2.1335
4.5222 -8.9723 2.1335
4.8418 -8.8049 2.1335
5.1553 -8.6262 2.1335
5.4622 -8.4364 2.1335
5.7575 -8.2290 2.1318
6.0499 -8.0179 2.1318
6.3346 -7.7964 2.1318
6.6112 -7.5649 2.1318
6.8795 -7.3236 2.1318
7.1389 -7.0728 2.1318
7.3892 -6.8129 2.1318
6.2215 -5.3360 1.7382
6.6937 -5.3361 1.8152
7.2105 -5.3362 1.9018
7.7800 -5.3363 1.9999
8.4125 -5.3365 2.1115
8.7846 -5.1399 2.1568
8.9649 -4.8220 2.1568
9.1338 -4.4978 2.1568
9.2910 -4.1677 2.1568
9.4362 -3.8321 2.1568
9.5694 -3.4915 2.1568
9.6903 -3.1463 2.1568
9.7987 -2.7969 2.1568
9.8946 -2.4438 2.1568
9.9777 -2.0874 2.1568
10.0481 -1.7282 2.1568
10.1055 -1.3666 2.1568
10.1499 -1.0032 2.1568
10.1813 -0.6383 2.1568
10.1995 -0.2725 2.1568
10.2046 0.0938 2.1568
10.1966 0.4602 2.1568
10.1754 0.8260 2.1568
10.1410 1.1910 2.1568
10.0936 1.5545 2.1568
10.0331 1.9162 2.1568
9.9597 2.2755 2.1568
9.8734 2.6320 2.1568
9.7743 2.9852 2.1568
9.6625 3.3347 2.1568
9.0764 3.5018 2.0524
8.9464 3.8260 2.0524
8.8048 4.1453 2.0524
8.6517 4.4594 2.0524
8.4875 4.7679 2.0524
8.3122 5.0702 2.0524
8.1261 5.3661 2.0524
7.9295 5.6552 2.0524
8.1155 6.2391 2.1568
7.8875 6.5273 2.1568
7.6492 6.8071 2.1568
7.4009 7.0782 2.1568
6.8623 7.0517 2.0720
6.8360 7.5489 2.1443
6.3403 7.5276 2.0720
6.2487 7.9837 2.1342
5.9570 8.2013 2.1335
5.6594 8.4107 2.1335
5.3545 8.6093 2.1335
4.9425 8.6223 2.0912
4.7240 8.9728 2.1335
4.3992 9.1373 2.1335
4.0688 9.2900 2.1335
3.7330 9.4306 2.1335
3.3924 9.5591 2.1335
3.0473 9.6753 2.1335
2.6984 9.7796 2.1337
2.3458 9.8706 2.1337
2.0710 10.3530 2.2204
1.7107 10.4979 2.2368
1.3329 10.5528 2.2368
0.9533 10.5940 2.2368
0.5725 10.6215 2.2368
0.1910 10.6352 2.2368
-0.1909 10.6351 2.2368
-0.5724 10.6213 2.2368
-0.9532 10.5938 2.2368
-1.3327 10.5525 2.2368
-1.7105 10.4975 2.2368
-2.0861 10.4290 2.2368
-2.4589 10.3470 2.2368
-2.8286 10.2515 2.2368
-3.1945 10.1428 2.2368
-3.5562 10.0210 2.2368
-3.9133 9.8863 2.2368
-4.2652 9.7387 2.2368
-4.6116 9.5786 2.2368
-4.9520 9.4061 2.2368
-5.2859 9.2214 2.2368
-5.6129 9.0249 2.2368
-5.9325 8.8167 2.2368
-5.9677 8.2161 2.1377
-6.2464 7.9809 2.1337
-6.5281 7.7507 2.1337
-6.8012 7.5104 2.1337
-7.0654 7.2606 2.1337
-7.3205 7.0014 2.1337
-7.5660 6.7332 2.1337
-6.2944 5.2090 1.7215
-8.0271 6.1713 2.1337
-8.2422 5.8783 2.1337
-8.4466 5.5778 2.1337
-8.6400 5.2702 2.1337
-8.8221 4.9559 2.1337
-8.9928 4.6353 2.1337
-9.1518 4.3088 2.1337
-9.2990 3.9768 2.1337
-9.4341 3.6399 2.1337
-9.5570 3.2983 2.1337
-9.6675 2.9526 2.1337
-9.7655 2.6033 2.1337
-9.8509 2.2506 2.1337
-9.9235 1.8953 2.1337
-9.9317 1.5296 2.1227
-9.9305 1.1663 2.1125
-9.9293 0.8061 2.1051
-9.9282 0.4481 2.1005
-9.9270 0.0913 2.0986
-9.9259 -0.2652 2.0994
-9.9247 -0.6222 2.1029
-9.9235 -0.9808 2.1092
-9.9223 -1.3419 2.1182
-9.9212 -1.7064 2.1300
-9.8680 -2.0644 2.1335
-9.7858 -2.4169 2.1335
-9.6910 -2.7662 2.1336
-9.5838 -3.1117 2.1336
-9.4643 -3.4532 2.1336
-9.3326 -3.7901 2.1336
-9.1890 -4.1220 2.1336
-9.0336 -4.4485 2.1336
-8.8667 -4.7692 2.1336
-8.6884 -5.0836 2.1336
-8.4990 -5.3914 2.1336
-8.2987 -5.6922 2.1336
-8.0879 -5.9856 2.1336
-7.8667 -6.2713 2.1336
-7.6354 -6.5488 2.1336
-7.3944 -6.8178 2.1336
-7.1440 -7.0780 2.1337
-6.8844 -7.3290 2.1337
-6.6161 -7.5705 2.1337
-6.3393 -7.8023 2.1337
-6.0545 -8.0240 2.1337
-5.9778 -8.5440 2.2137
-5.7258 -8.8437 2.2368
-5.4041 -9.0427 2.2368
-5.0755 -9.2301 2.2368
-4.7404 -9.4056 2.2368
-4.3994 -9.5690 2.2368
-4.0527 -9.7201 2.2368
-3.7009 -9.8587 2.2368
-3.3443 -9.9846 2.2368
-2.9835 -10.0977 2.2368
-2.6189 -10.1979 2.2368
-2.2510 -10.2849 2.2368
-1.8802 -10.3588 2.2368
-1.5070 -10.4193 2.2368
-1.1320 -10.4665 2.2368
-0.7554 -10.5003 2.2368
-0.3779 -10.5206 2.2368
0.0000 -9.4728 2.2368
0.3402 -9.4667 2.2368
0.6799 -9.4485 2.2368
1.0187 -9.4182 2.2368
1.3562 -9.3758 2.2368
1.6920 -9.3213 2.2368
2.0257 -9.2549 2.2368
2.2480 -8.7530 2.1335
2.5610 -8.6671 2.1335
2.8707 -8.5700 2.1335
2.4979 -6.6539 1.6777
3.4787 -8.3429 2.1335
3.7763 -8.2132 2.1335
4.0690 -8.0730 2.1335
4.3566 -7.9223 2.1335
4.6386 -7.7615 2.1335
4.9148 -7.5906 2.1335
5.1846 -7.4100 2.1335
5.4479 -7.2198 2.1335
5.7042 -7.0203 2.1335
5.9483 -6.8061 2.1318
6.1896 -6.5890 2.1318
6.4229 -6.3632 2.1318
6.6481 -6.1293 2.1318
6.2218 -5.3360 1.9321
6.6940 -5.3361 2.0177
7.2108 -5.3362 2.1140
7.5485 -5.1774 2.1568
7.7306 -4.9037 2.1568
7.9028 -4.6237 2.1568
8.0649 -4.3376 2.1568
8.2167 -4.0459 2.1568
8.3579 -3.7489 2.1568
8.4884 -3.4470 2.1568
8.6081 -3.1405 2.1568
8.7167 -2.8300 2.1568
8.8141 -2.5156 2.1568
8.9002 -2.1980 2.1568
8.9748 -1.8773 2.1568
9.0379 -1.5542 2.1568
9.0894 -1.2290 2.1568
9.1292 -0.9021 2.1568
9.1572 -0.5739 2.1568
9.1735 -0.2448 2.1568
9.1779 0.0846 2.1568
9.1705 0.4141 2.1568
9.1513 0.7431 2.1568
9.1202 1.0713 2.1568
9.0774 1.3982 2.1568
9.0229 1.7234 2.1568
8.9567 2.0465 2.1568
8.8789 2.3671 2.1568
8.7896 2.6847 2.1568
8.6890 2.9989 2.1568
8.5771 3.3094 2.1568
8.0447 3.4406 2.0524
7.9173 3.7277 2.0524
7.7795 4.0101 2.0524
7.6317 4.2873 2.0524
7.4740 4.5592 2.0524
7.3066 4.8251 2.0524
7.1297 5.0850 2.0524
6.9435 5.3383 2.0524
6.7483 5.5848 2.0524
6.8774 6.1205 2.1568
6.6541 6.3641 2.1568
6.4221 6.5996 2.1568
6.1818 6.8266 2.1568
5.8695 6.9689 2.1335
5.6162 7.1758 2.1335
5.3556 7.3735 2.1335
5.0880 7.5617 2.1335
4.8138 7.7401 2.1335
4.5332 7.9085 2.1335
4.2468 8.0667 2.1335
3.9549 8.2146 2.1335
3.6578 8.3518 2.1335
3.3559 8.4782 2.1335
3.0497 8.5936 2.1335
2.7394 8.6980 2.1335
2.4256 8.7911 2.1335
2.1086 8.8728 2.1335
1.8755 9.3758 2.2368
1.5378 9.4374 2.2368
1.1982 9.4867 2.2368
0.8570 9.5237 2.2368
0.5147 9.5484 2.2368
0.1717 9.5607 2.2368
-0.1715 9.5607 2.2368
-0.5146 9.5483 2.2368
-0.8569 9.5235 2.2368
-1.1981 9.4864 2.2368
-1.5377 9.4371 2.2368
-1.8753 9.3755 2.2368
-2.2105 9.3018 2.2368
-2.5428 9.2160 2.2368
-2.8717 9.1184 2.2368
-3.1969 9.0089 2.2368
-3.5180 8.8878 2.2368
-3.8344 8.7553 2.2368
-4.1458 8.6114 2.2368
-4.4519 8.4564 2.2368
-4.7521 8.2904 2.2368
-5.0461 8.1138 2.2368
-5.3335 7.9267 2.2368
-5.6140 7.7294 2.2368
-5.8872 7.5222 2.2368
-5.9611 7.0778 2.1671
-6.1147 6.7527 2.1337
-6.3524 6.5281 2.1337
-6.5818 6.2951 2.1337
-6.8026 6.0541 2.1337
-6.2843 5.2009 1.9116
-7.2175 5.5490 2.1337
-7.4110 5.2857 2.1337
-7.5948 5.0156 2.1337
-7.7688 4.7391 2.1337
-7.9327 4.4565 2.1337
-8.0864 4.1683 2.1337
-8.2295 3.8748 2.1337
-8.3620 3.5763 2.1337
-8.4836 3.2734 2.1337
-8.5943 2.9663 2.1337
-8.6938 2.6555 2.1337
-8.7821 2.3413 2.1337
-8.8590 2.0243 2.1337
-8.9245 1.7047 2.1337
-8.9779 1.3829 2.1336
-9.0202 1.0596 2.1336
-9.0509 0.7350 2.1336
-9.0699 0.4096 2.1336
-9.0772 0.0837 2.1336
-9.0729 -0.2421 2.1336
-9.0568 -0.5676 2.1336
-9.0291 -0.8922 2.1336
-8.9897 -1.2155 2.1336
-8.9389 -1.5372 2.1336
-8.8765 -1.8568 2.1336
-8.8027 -2.1739 2.1336
-8.7175 -2.4881 2.1336
-8.6212 -2.7990 2.1336
-8.5139 -3.1062 2.1336
-8.3956 -3.4093 2.1336
-8.2665 -3.7080 2.1336
-8.1269 -4.0017 2.1336
-7.9768 -4.2903 2.1336
-7.8165 -4.5733 2.1336
-7.6463 -4.8503 2.1336
-7.4662 -5.1209 2.1336
-7.2766 -5.3850 2.1337
-7.0776 -5.6420 2.1337
-6.8697 -5.8918 2.1337
-6.6529 -6.1339 2.1337
-6.4277 -6.3681 2.1337
-6.1942 -6.5940 2.1337
-5.9674 -6.8281 2.1389
-5.9589 -7.3340 2.2291
-5.7108 -7.5683 2.2368
-5.4348 -7.7677 2.2368
-5.1520 -7.9571 2.2368
-4.8626 -8.1363 2.2368
-4.5669 -8.3049 2.2368
-4.2655 -8.4629 2.2368
-3.9586 -8.6100 2.2368
-3.6467 -8.7460 2.2368
-3.3301 -8.8708 2.2368
-3.0093 -8.9842 2.2368
-2.6846 -9.0860 2.2368
-2.3566 -9.1762 2.2368
-2.0255 -9.2545 2.2368
-1.6919 -9.3210 2.2368
-1.3561 -9.3755 2.2368
-1.0186 -9.4180 2.2368
-0.6798 -9.4484 2.2368
-0.3401 -9.4667 2.2368
0.0000 -8.6019 2.2368
0.3089 -8.5964 2.2368
0.6174 -8.5798 2.2368
0.9251 -8.5523 2.2368
1.2316 -8.5137 2.2368
1.5365 -8.4643 2.2368
1.8395 -8.4039 2.2368
2.0984 -8.1701 2.1931
2.3255 -7.8701 2.1335
2.6067 -7.7819 2.1335
2.4980 -6.6539 1.8476
3.1588 -7.5756 2.1335
3.4290 -7.4578 2.1335
3.6948 -7.3304 2.1335
3.9559 -7.1935 2.1335
4.2120 -7.0474 2.1335
4.4627 -6.8922 2.1335
4.7077 -6.7281 2.1335
4.9467 -6.5554 2.1335
5.1794 -6.3742 2.1335
5.4055 -6.1848 2.1335
5.6246 -5.9873 2.1335
5.8318 -5.7774 2.1318
6.0362 -5.5650 2.1318
6.2220 -5.3360 2.1281
6.4968 -5.1788 2.1568
6.6794 -4.9428 2.1568
6.8534 -4.7004 2.1568
7.0187 -4.4519 2.1568
7.1749 -4.1976 2.1568
7.3220 -3.9379 2.1568
7.4597 -3.6730 2.1568
7.5878 -3.4033 2.1568
7.7062 -3.1291 2.1568
7.8147 -2.8509 2.1568
7.9132 -2.5689 2.1568
8.0015 -2.2835 2.1568
8.0795 -1.9951 2.1568
8.1472 -1.7040 2.1568
8.2043 -1.4107 2.1568
8.2510 -1.1154 2.1568
8.2870 -0.8186 2.1568
8.3123 -0.5207 2.1568
8.3269 -0.2220 2.1568
8.3308 0.0770 2.1568
8.3240 0.3761 2.1568
8.3064 0.6747 2.1568
8.2781 0.9726 2.1568
8.2391 1.2693 2.1568
8.1895 1.5645 2.1568
8.1293 1.8577 2.1568
8.0585 2.1486 2.1568
7.9774 2.4368 2.1568
7.8860 2.7220 2.1568
7.7843 3.0037 2.1568
7.6726 3.2816 2.1568
7.1853 3.3833 2.0524
7.0602 3.6395 2.0524
6.9259 3.8911 2.0524
6.7827 4.1377 2.0524
6.6307 4.3790 2.0524
6.4701 4.6148 2.0524
6.3011 4.8446 2.0524
6.1239 5.0682 2.0524
6.0565 5.3902 2.0931
5.9731 5.7131 2.1335
5.7648 5.9244 2.1335
5.5491 6.1281 2.1335
5.3261 6.3239 2.1335
5.0962 6.5116 2.1335
4.8597 6.6909 2.1335
4.6168 6.8616 2.1335
4.3679 7.0235 2.1335
4.1134 7.1763 2.1335
3.8535 7.3198 2.1335
2.5116 5.2169 1.4932
2.3583 5.3848 1.5160
3.0450 7.6930 2.1335
2.7671 7.7977 2.1335
2.4856 7.8923 2.1335
2.2009 7.9768 2.1335
2.0059 8.4405 2.2368
1.7017 8.5073 2.2368
1.3954 8.5631 2.2368
1.0872 8.6079 2.2368
0.7776 8.6414 2.2368
0.4670 8.6639 2.2368
0.1557 8.6750 2.2368
-0.1557 8.6750 2.2368
-0.4669 8.6638 2.2368
-0.7775 8.6413 2.2368
-1.0871 8.6077 2.2368
-1.3952 8.5629 2.2368
-1.7016 8.5070 2.2368
-2.0057 8.4402 2.2368
-2.3072 8.3624 2.2368
-2.6057 8.2739 2.2368
-2.9008 8.1746 2.2368
-3.1921 8.0647 2.2368
-3.4792 7.9445 2.2368
-3.7618 7.8140 2.2368
-4.0395 7.6734 2.2368
-4.3120 7.5229 2.2368
-4.5788 7.3627 2.2368
-4.8397 7.1930 2.2368
-5.0942 7.0140 2.2368
-5.3422 6.8260 2.2368
-5.5831 6.6292 2.2368
-5.8169 6.4239 2.2368
-5.9575 6.1224 2.2051
-5.9727 5.7128 2.1337
-6.1732 5.4941 2.1337
-6.2743 5.1928 2.1031
-6.5498 5.0359 2.1337
-6.7255 4.7970 2.1337
-6.8924 4.5519 2.1337
-7.0504 4.3010 2.1337
-7.1992 4.0447 2.1337
-7.3388 3.7831 2.1337
-7.4688 3.5168 2.1337
-7.5891 3.2460 2.1337
-7.6996 2.9711 2.1337
-7.8001 2.6924 2.1337
-7.8906 2.4103 2.1337
-7.9708 2.1252 2.1337
-8.0408 1.8375 2.1337
-8.1000 1.5474 2.1336
-8.1490 1.2555 2.1336
-8.1876 0.9620 2.1336
-8.2156 0.6674 2.1336
-8.2330 0.3720 2.1336
-8.2397 0.0762 2.1336
-8.2359 -0.2196 2.1336
-8.2214 -0.5150 2.1336
-8.1964 -0.8097 2.1336
-8.1608 -1.1032 2.1336
-8.1147 -1.3953 2.1336
-8.0581 -1.6854 2.1336
-7.9912 -1.9733 2.1336
-7.9141 -2.2586 2.1336
-7.8268 -2.5409 2.1336
-7.7294 -2.8198 2.1336
-7.6221 -3.0950 2.1336
-7.5051 -3.3662 2.1336
-7.3784 -3.6330 2.1336
-7.2422 -3.8950 2.1337
-7.0968 -4.1520 2.1337
-6.9423 -4.4035 2.1337
-6.7789 -4.6493 2.1337
-6.6068 -4.8891 2.1337
-6.4262 -5.1226 2.1337
-6.2375 -5.3494 2.1337
-6.0407 -5.5692 2.1337
-5.9572 -5.9017 2.1779
-5.8960 -6.2763 2.2368
-5.6663 -6.4833 2.2368
-5.4293 -6.6819 2.2368
-5.1855 -6.8719 2.2368
-4.9349 -7.0531 2.2368
-4.6781 -7.2251 2.2368
-4.4154 -7.3878 2.2368
-4.1470 -7.5410 2.2368
-3.8732 -7.6845 2.2368
-3.5946 -7.8181 2.2368
-3.3114 -7.9417 2.2368
-3.0239 -8.0550 2.2368
-2.7326 -8.1580 2.2368
-2.4378 -8.2505 2.2368
-2.1400 -8.3324 2.2368
-1.8393 -8.4036 2.2368
-1.5364 -8.4640 2.2368
-1.2314 -8.5135 2.2368
-0.9249 -8.5521 2.2368
-0.6173 -8.5797 2.2368
-0.3088 -8.5963 2.2368
0.0001 -7.8698 2.2368
0.2826 -7.8648 2.2368
0.5649 -7.8496 2.2368
0.8464 -7.8244 2.2368
1.1268 -7.7891 2.2368
1.4058 -7.7439 2.2368
1.6830 -7.6886 2.2368
1.9580 -7.6235 2.2368
2.1276 -7.2002 2.1335
2.3849 -7.1195 2.1335
2.4981 -6.6538 2.0195
2.8900 -6.9307 2.1335
3.1372 -6.8229 2.1335
3.3803 -6.7062 2.1335
3.6192 -6.5810 2.1335
3.8535 -6.4473 2.1335
4.0828 -6.3053 2.1335
4.3069 -6.1551 2.1335
4.5255 -5.9970 2.1335
4.7383 -5.8312 2.1335
4.9451 -5.6578 2.1335
5.1456 -5.4772 2.1335
5.3395 -5.2895 2.1335
5.5265 -5.0949 2.1335
5.7065 -4.8937 2.1335
5.8792 -4.6862 2.1335
6.0443 -4.4726 2.1335
6.2693 -4.2996 2.1568
6.4205 -4.0723 2.1568
6.5633 -3.8396 2.1568
6.6978 -3.6020 2.1568
6.8236 -3.3596 2.1568
6.6679 -2.9905 2.0720
6.8339 -2.7747 2.0910
6.8671 -2.5050 2.0720
6.9536 -2.2572 2.0720
7.3188 -2.0885 2.1568
7.3901 -1.8247 2.1568
7.4519 -1.5584 2.1568
7.5041 -1.2901 2.1568
7.5466 -1.0200 2.1568
7.5795 -0.7486 2.1568
7.6026 -0.4761 2.1568
7.6158 -0.2029 2.1568
7.6193 0.0706 2.1568
7.6129 0.3441 2.1568
7.5968 0.6173 2.1568
7.5708 0.8897 2.1568
7.5351 1.1610 2.1568
7.4896 1.4310 2.1568
7.4344 1.6991 2.1568
7.3697 1.9651 2.1568
7.2954 2.2287 2.1568
7.2117 2.4894 2.1568
7.1186 2.7470 2.1568
7.0164 3.0012 2.1568
6.9050 3.2515 2.1568
6.5351 3.3690 2.0774
6.3334 3.5583 2.0524
6.2023 3.7838 2.0524
6.0633 4.0045 2.0524
6.0562 4.3198 2.1009
5.9896 4.6053 2.1335
5.8211 4.8179 2.1335
5.6451 5.0242 2.1335
5.4617 5.2241 2.1335
5.2712 5.4173 2.1335
5.0739 5.6035 2.1335
4.8700 5.7825 2.1335
4.6597 5.9541 2.1335
4.4434 6.1180 2.1335
4.2213 6.2740 2.1335
3.9938 6.4220 2.1335
3.7610 6.5616 2.1335
3.5233 6.6928 2.1335
2.5087 5.2110 1.6313
2.3524 5.3716 1.6540
2.7841 7.0339 2.1335
2.5300 7.1296 2.1335
2.2726 7.2162 2.1335
2.0888 7.5706 2.2146
1.8340 7.7173 2.2368
1.5559 7.7784 2.2368
1.2758 7.8294 2.2368
0.9940 7.8703 2.2368
0.7109 7.9010 2.2368
0.4270 7.9214 2.2368
0.1424 7.9317 2.2368
-0.1423 7.9317 2.2368
-0.4268 7.9214 2.2368
-0.7108 7.9008 2.2368
-0.9939 7.8701 2.2368
-1.2756 7.8292 2.2368
-1.5557 7.7781 2.2368
-1.8338 7.7170 2.2368
-2.1095 7.6460 2.2368
-2.3824 7.5650 2.2368
-2.6522 7.4743 2.2368
-2.9185 7.3739 2.2368
-3.1811 7.2640 2.2368
-3.4395 7.1447 2.2368
-3.6935 7.0162 2.2368
-3.9426 6.8786 2.2368
-4.1866 6.7322 2.2368
-4.4251 6.5771 2.2368
-4.6579 6.4135 2.2368
-4.8847 6.2416 2.2368
-5.1050 6.0618 2.2368
-5.3188 5.8741 2.2368
-5.5256 5.6788 2.2368
-5.7252 5.4763 2.2368
-5.9175 5.2667 2.2368
-5.9577 4.9310 2.1839
-5.9892 4.6051 2.1337
-6.1507 4.3872 2.1340
-6.3026 4.1626 2.1337
-6.4472 3.9332 2.1337
-6.5834 3.6988 2.1337
-6.7110 3.4597 2.1337
-6.8300 3.2162 2.1337
-6.9401 2.9686 2.1337
-7.0413 2.7172 2.1337
-7.1333 2.4624 2.1337
-7.2161 2.2045 2.1337
-7.2895 1.9438 2.1337
-7.3536 1.6807 2.1337
-7.4079 1.4154 2.1336
-7.4529 1.1484 2.1336
-7.4882 0.8800 2.1336
-7.5139 0.6106 2.1336
-7.5299 0.3404 2.1336
-7.5362 0.0699 2.1336
-7.5328 -0.2007 2.1336
-7.5196 -0.4709 2.1336
-7.4968 -0.7404 2.1336
-7.4644 -1.0089 2.1336
-7.4223 -1.2760 2.1336
-7.3707 -1.5414 2.1337
-7.3096 -1.8048 2.1337
-7.2391 -2.0657 2.1337
-7.1593 -2.3240 2.1337
-7.0703 -2.5792 2.1337
-6.9723 -2.8310 2.1337
-6.8653 -3.0790 2.1337
-6.7494 -3.3231 2.1337
-6.6250 -3.5628 2.1337
-6.4920 -3.7979 2.1337
-6.3507 -4.0281 2.1337
-6.2013 -4.2530 2.1337
-6.0439 -4.4724 2.1337
-5.9591 -4.7500 2.1629
-5.9537 -5.1058 2.2263
-5.7932 -5.3408 2.2368
-5.5971 -5.5448 2.2368
-5.3939 -5.7416 2.2368
-5.1838 -5.9310 2.2368
-4.9671 -6.1128 2.2368
-4.7440 -6.2867 2.2368
-4.5148 -6.4524 2.2368
-4.2799 -6.6098 2.2368
-4.0395 -6.7587 2.2368
-3.7940 -6.8990 2.2368
-3.5436 -7.0303 2.2368
-3.2887 -7.1526 2.2368
-3.0296 -7.2656 2.2368
-2.7666 -7.3694 2.2368
-2.5001 -7.4636 2.2368
-2.2304 -7.5483 2.2368
-1.9579 -7.6232 2.2368
-1.6828 -7.6884 2.2368
-1.4056 -7.7436 2.2368
-1.1267 -7.7890 2.2368
-0.8462 -7.8243 2.2368
-0.5647 -7.8495 2.2368
-0.2825 -7.8647 2.2368
0.0001 -7.2453 2.2368
0.2602 -7.2406 2.2368
0.5200 -7.2267 2.2368
0.7792 -7.2034 2.2368
1.0374 -7.1710 2.2368
1.2943 -7.1293 2.2368
1.5494 -7.0784 2.2368
1.8027 -7.0184 2.2368
2.0536 -6.9494 2.2368
2.1957 -6.5543 2.1335
2.4297 -6.4716 2.1335
2.6606 -6.3805 2.1335
2.8882 -6.2812 2.1335
3.1121 -6.1738 2.1335
3.3320 -6.0585 2.1335
3.5476 -5.9353 2.1335
3.7587 -5.8045 2.1335
3.9650 -5.6663 2.1335
4.1662 -5.5207 2.1335
4.3621 -5.3680 2.1335
4.5524 -5.2084 2.1335
4.7370 -5.0420 2.1335
4.9154 -4.8692 2.1335
5.0876 -4.6900 2.1335
5.2532 -4.5048 2.1335
5.4121 -4.3137 2.1335
5.5641 -4.1171 2.1335
5.7089 -3.9151 2.1335
5.8465 -3.7080 2.1335
5.9765 -3.4961 2.1335
6.0989 -3.2797 2.1335
6.2464 -3.0752 2.1449
6.2465 -2.8013 2.1087
6.2511 -2.5379 2.0779
6.3211 -2.3056 2.0720
6.6550 -2.1601 2.1544
6.7292 -1.9200 2.1544
6.7946 -1.6774 2.1544
6.8306 -1.4283 2.1478
6.8343 -1.1747 2.1341
6.8343 -0.9235 2.1221
6.8344 -0.6748 2.1129
6.8344 -0.4278 2.1066
6.8345 -0.1819 2.1029
6.8345 0.0635 2.1020
6.8346 0.3091 2.1038
6.8346 0.5555 2.1083
6.8347 0.8034 2.1156
6.8347 1.0533 2.1257
6.8348 1.3060 2.1386
6.6434 1.5185 2.0942
6.5158 1.7376 2.0720
6.7140 2.0513 2.1568
6.6369 2.2912 2.1568
6.5512 2.5283 2.1568
6.4570 2.7621 2.1568
6.3545 2.9924 2.1568
6.2437 3.2190 2.1568
6.0561 3.4027 2.1326
5.9335 3.6199 2.1335
5.8004 3.8310 2.1335
5.6598 4.0371 2.1335
5.5118 4.2381 2.1335
5.3567 4.4336 2.1335
5.1946 4.6235 2.1335
5.0259 4.8074 2.1335
4.8505 4.9851 2.1335
4.6689 5.1565 2.1335
4.4813 5.3212 2.1335
4.2878 5.4790 2.1335
4.0887 5.6298 2.1335
3.8843 5.7733 2.1335
3.6749 5.9094 2.1335
3.4607 6.0379 2.1335
3.2420 6.1586 2.1335
2.5058 5.2051 1.7708
2.3465 5.3582 1.7930
2.5617 6.4724 2.1335
2.3279 6.5604 2.1335
2.0992 6.6658 2.1419
1.9412 7.0358 2.2368
1.6875 7.1011 2.2368
1.4316 7.1573 2.2368
1.1739 7.2042 2.2368
0.9146 7.2418 2.2368
0.6542 7.2700 2.2368
0.3928 7.2889 2.2368
0.1310 7.2983 2.2368
-0.1309 7.2983 2.2368
-0.3928 7.2888 2.2368
-0.6541 7.2699 2.2368
-0.9145 7.2417 2.2368
-1.1737 7.2040 2.2368
-1.4315 7.1571 2.2368
-1.6873 7.1009 2.2368
-1.9410 7.0355 2.2368
-2.1921 6.9610 2.2368
-2.4404 6.8776 2.2368
-2.6855 6.7852 2.2368
-2.9271 6.6841 2.2368
-3.1649 6.5744 2.2368
-3.3986 6.4562 2.2368
-3.6278 6.3296 2.2368
-3.8523 6.1949 2.2368
-4.0719 6.0522 2.2368
-4.2861 5.9017 2.2368
-4.4948 5.7436 2.2368
-4.6976 5.5781 2.2368
-4.8943 5.4055 2.2368
-5.0847 5.2259 2.2368
-5.2684 5.0395 2.2368
-5.4454 4.8467 2.2368
-5.6152 4.6477 2.2368
-5.7778 4.4427 2.2368
-5.9328 4.2320 2.2368
-5.9579 3.9351 2.1918
-5.9667 3.6403 2.1458
-6.0585 3.4041 2.1337
-6.1760 3.1841 2.1337
-6.2855 2.9600 2.1337
-6.3869 2.7322 2.1337
-6.4801 2.5008 2.1337
-6.5648 2.2664 2.1337
-6.6411 2.0290 2.1337
-6.7088 1.7891 2.1337
-6.7677 1.5469 2.1337
-6.8180 1.3028 2.1337
-6.8594 1.0571 2.1337
-6.8920 0.8101 2.1337
-6.9157 0.5621 2.1337
-6.9305 0.3135 2.1337
-6.9364 0.0645 2.1337
-6.9333 -0.1845 2.1337
-6.9213 -0.4332 2.1337
-6.9004 -0.6813 2.1337
-6.8705 -0.9284 2.1337
-6.8319 -1.1743 2.1337
-6.7844 -1.4187 2.1337
-6.7283 -1.6611 2.1337
-6.6635 -1.9013 2.1337
-6.5901 -2.1390 2.1337
-6.5082 -2.3739 2.1337
-6.4180 -2.6057 2.1337
-6.3196 -2.8341 2.1337
-6.2130 -3.0588 2.1337
-6.0985 -3.2795 2.1337
-5.9761 -3.4960 2.1337
-5.9553 -3.7771 2.1736
-5.9523 -4.0821 2.2248
-5.8326 -4.3158 2.2368
-5.6733 -4.5220 2.2368
-5.5067 -4.7223 2.2368
-5.3331 -4.9165 2.2368
-5.1526 -5.1043 2.2368
-4.9656 -5.2855 2.2368
-4.7722 -5.4599 2.2368
-4.5727 -5.6273 2.2368
-4.3673 -5.7874 2.2368
-4.1564 -5.9400 2.2368
-3.9402 -6.0850 2.2368
-3.7189 -6.2221 2.2368
-3.4928 -6.3512 2.2368
-3.2623 -6.4722 2.2368
-3.0277 -6.5848 2.2368
-2.7891 -6.6889 2.2368
-2.5471 -6.7844 2.2368
-2.3017 -6.8712 2.2368
-2.0534 -6.9492 2.2368
-1.8025 -7.0182 2.2368
-1.5493 -7.0782 2.2368
-1.2941 -7.1291 2.2368
-1.0373 -7.1708 2.2368
-0.7791 -7.2033 2.2368
-0.5199 -7.2266 2.2368
-0.2601 -7.2406 2.2368
0.0000 -6.7056 2.2368
0.2408 -6.7013 2.2368
0.4813 -6.6884 2.2368
0.7212 -6.6669 2.2368
0.9602 -6.6369 2.2368
1.1979 -6.5982 2.2368
1.4341 -6.5512 2.2368
1.6684 -6.4956 2.2368
1.9007 -6.4318 2.2368
2.0934 -6.2488 2.1978
2.2488 -5.9894 2.1335
2.4625 -5.9051 2.1335
2.6731 -5.8132 2.1335
2.8803 -5.7138 2.1335
3.0838 -5.6070 2.1335
3.2833 -5.4930 2.1335
3.4787 -5.3720 2.1335
3.6696 -5.2440 2.1335
3.8558 -5.1092 2.1335
4.0371 -4.9679 2.1335
4.2132 -4.8201 2.1335
4.3839 -4.6661 2.1335
4.5491 -4.5061 2.1335
4.7083 -4.3403 2.1335
4.8616 -4.1688 2.1335
5.0087 -3.9920 2.1335
5.1493 -3.8100 2.1335
5.2833 -3.6230 2.1335
5.4105 -3.4314 2.1335
5.5308 -3.2352 2.1335
5.6440 -3.0349 2.1335
5.7500 -2.8307 2.1335
5.8486 -2.6227 2.1335
5.9397 -2.4113 2.1335
6.0231 -2.1968 2.1335
6.0989 -1.9794 2.1335
6.2340 -1.7786 2.1568
6.2467 -1.5420 2.1404
6.2468 -1.3060 2.1227
6.2468 -1.0736 2.1080
6.2469 -0.8440 2.0962
6.2469 -0.6166 2.0872
6.2471 -0.3909 2.0809
6.2507 -0.1662 2.0785
6.2516 0.0583 2.0779
6.2499 0.2829 2.0791
6.2472 0.5080 2.0827
6.2472 0.7345 2.0899
6.2472 0.9629 2.0999
6.2473 1.1939 2.1127
6.2473 1.4281 2.1284
6.2474 1.6662 2.1472
6.2120 1.8981 2.1568
6.0744 2.0972 2.1335
5.9959 2.3141 2.1335
5.9097 2.5281 2.1335
5.8158 2.7389 2.1335
5.7144 2.9462 2.1335
5.6056 3.1498 2.1335
5.4895 3.3493 2.1335
5.3664 3.5445 2.1335
5.2362 3.7352 2.1335
5.0993 3.9211 2.1335
4.9558 4.1020 2.1335
4.8058 4.2776 2.1335
4.6496 4.4477 2.1335
4.4874 4.6121 2.1335
4.3194 4.7706 2.1335
4.1457 4.9229 2.1335
3.9667 5.0689 2.1335
3.7825 5.2084 2.1335
3.5934 5.3411 2.1335
3.3997 5.4670 2.1335
3.2015 5.5858 2.1335
2.9992 5.6975 2.1335
2.5028 5.1991 1.9119
2.3406 5.3447 1.9332
2.3698 5.9877 2.1335
2.1536 6.0691 2.1335
2.0281 6.4400 2.2368
1.7957 6.5088 2.2368
1.5611 6.5693 2.2368
1.3243 6.6212 2.2368
1.0859 6.6646 2.2368
0.8461 6.6994 2.2368
0.6052 6.7255 2.2368
0.3634 6.7429 2.2368
0.1212 6.7516 2.2368
-0.1211 6.7516 2.2368
-0.3633 6.7429 2.2368
-0.6050 6.7254 2.2368
-0.8460 6.6993 2.2368
-1.0858 6.6645 2.2368
-1.3242 6.6210 2.2368
-1.5609 6.5691 2.2368
-1.7956 6.5086 2.2368
-2.0279 6.4397 2.2368
-2.2576 6.3625 2.2368
-2.4843 6.2771 2.2368
-2.7078 6.1836 2.2368
-2.9278 6.0821 2.2368
-3.1440 5.9728 2.2368
-3.3561 5.8558 2.2368
-3.5638 5.7312 2.2368
-3.7670 5.5992 2.2368
-3.9652 5.4600 2.2368
-4.1582 5.3138 2.2368
-4.3459 5.1607 2.2368
-4.5279 5.0010 2.2368
-4.7040 4.8349 2.2368
-4.8741 4.6625 2.2368
-5.0378 4.4841 2.2368
-5.1950 4.3000 2.2368
-5.3454 4.1104 2.2368
-5.4889 3.9155 2.2368
-5.6253 3.7156 2.2368
-5.7544 3.5110 2.2368
-5.8761 3.3018 2.2368
-5.9581 3.0719 2.2248
-5.9582 2.8060 2.1861
-5.9651 2.5519 2.1538
-5.9956 2.3140 2.1337
-6.0740 2.0971 2.1337
-6.1508 1.8794 2.1358
-6.2073 1.6555 2.1337
-6.2620 1.4315 2.1337
-6.3085 1.2057 2.1337
-6.3469 0.9783 2.1337
-6.3772 0.7498 2.1337
-6.3992 0.5203 2.1337
-6.4129 0.2902 2.1337
-6.4184 0.0598 2.1337
-6.4156 -0.1706 2.1337
-6.4045 -0.4007 2.1337
-6.3852 -0.6303 2.1337
-6.3577 -0.8590 2.1337
-6.3220 -1.0865 2.1337
-6.2781 -1.3126 2.1337
-6.2262 -1.5370 2.1337
-6.1663 -1.7593 2.1337
-6.0984 -1.9793 2.1337
-6.0227 -2.1967 2.1337
-5.9610 -2.4200 2.1415
-5.9541 -2.6701 2.1723
-5.9512 -2.9298 2.2085
-5.9164 -3.1814 2.2368
-5.7977 -3.3914 2.2368
-5.6716 -3.5970 2.2368
-5.5383 -3.7979 2.2368
-5.3978 -3.9939 2.2368
-5.2504 -4.1847 2.2368
-5.0963 -4.3701 2.2368
-4.9356 -4.5499 2.2368
-4.7686 -4.7237 2.2368
-4.5956 -4.8915 2.2368
-4.4166 -5.0529 2.2368
-4.2320 -5.2079 2.2368
-4.0420 -5.3560 2.2368
-3.8468 -5.4973 2.2368
-3.6467 -5.6315 2.2368
-3.4419 -5.7585 2.2368
-3.2327 -5.8780 2.2368
-3.0194 -5.9899 2.2368
-2.8022 -6.0942 2.2368
-2.5814 -6.1906 2.2368
-2.3574 -6.2790 2.2368
-2.1303 -6.3594 2.2368
-1.9005 -6.4315 2.2368
-1.6683 -6.4954 2.2368
-1.4339 -6.5510 2.2368
-1.1978 -6.5981 2.2368
-0.9600 -6.6367 2.2368
-0.7211 -6.6668 2.2368
-0.4812 -6.6884 2.2368
-0.2407 -6.7013 2.2368
0.0000 -6.2343 2.2368
0.2239 -6.2303 2.2368
0.4475 -6.2183 2.2368
0.6705 -6.1983 2.2368
0.8927 -6.1703 2.2368
1.1137 -6.1344 2.2368
1.3333 -6.0906 2.2368
1.5512 -6.0390 2.2368
1.7671 -5.9796 2.2368
1.9808 -5.9125 2.2368
2.1035 -5.6024 2.1466
2.3040 -5.5249 2.1471
2.4852 -5.4045 2.1335
2.6778 -5.3120 2.1335
2.8670 -5.2127 2.1335
3.0525 -5.1067 2.1335
3.2341 -4.9942 2.1335
3.4116 -4.8751 2.1335
3.5847 -4.7498 2.1335
3.7532 -4.6184 2.1335
3.9169 -4.4810 2.1335
4.0757 -4.3378 2.1335
4.2291 -4.1890 2.1335
4.3772 -4.0349 2.1335
4.5197 -3.8754 2.1335
4.6563 -3.7110 2.1335
4.7870 -3.5418 2.1335
4.9116 -3.3679 2.1335
5.0298 -3.1898 2.1335
5.1416 -3.0074 2.1335
5.2468 -2.8212 2.1335
5.3453 -2.6313 2.1335
5.4369 -2.4379 2.1335
5.5215 -2.2414 2.1335
5.5991 -2.0420 2.1335
5.6694 -1.8399 2.1335
5.7325 -1.6353 2.1335
5.7881 -1.4286 2.1335
5.8364 -1.2201 2.1335
5.8771 -1.0099 2.1335
5.9103 -0.7984 2.1335
5.9358 -0.5857 2.1335
5.9537 -0.3723 2.1335
5.9640 -0.1584 2.1335
5.9665 0.0558 2.1335
5.9614 0.2700 2.1335
5.9485 0.4838 2.1335
5.9280 0.6971 2.1335
5.8999 0.9096 2.1335
5.8641 1.1209 2.1335
5.8208 1.3308 2.1335
5.7699 1.5390 2.1335
5.7116 1.7453 2.1335
5.6459 1.9494 2.1335
5.5729 2.1510 2.1335
5.4927 2.3499 2.1335
5.4054 2.5458 2.1335
5.3111 2.7385 2.1335
5.2100 2.9276 2.1335
5.1021 3.1130 2.1335
4.9876 3.2945 2.1335
4.8666 3.4717 2.1335
4.7393 3.6444 2.1335
4.6059 3.8125 2.1335
4.4665 3.9757 2.1335
4.3213 4.1338 2.1335
4.1705 4.2865 2.1335
4.0143 4.4338 2.1335
3.8529 4.5753 2.1335
3.6865 4.7110 2.1335
3.5153 4.8406 2.1335
3.3396 4.9640 2.1335
3.1595 5.0809 2.1335
2.9753 5.1913 2.1335
2.7873 5.2950 2.1335
2.4998 5.1930 2.0548
0.8579 1.9590 0.7624
2.2024 5.5647 2.1335
2.0884 5.8857 2.2263
1.8847 5.9850 2.2368
1.6688 6.0490 2.2368
1.4507 6.1051 2.2368
1.2308 6.1534 2.2368
1.0092 6.1937 2.2368
0.7863 6.2260 2.2368
0.5624 6.2503 2.2368
0.3377 6.2665 2.2368
0.1127 6.2746 2.2368
-0.1126 6.2746 2.2368
-0.3376 6.2665 2.2368
-0.5623 6.2502 2.2368
-0.7862 6.2259 2.2368
-1.0091 6.1936 2.2368
-1.2306 6.1533 2.2368
-1.4506 6.1050 2.2368
-1.6687 6.0488 2.2368
-1.8846 5.9848 2.2368
-2.0980 5.9131 2.2368
-2.3088 5.8337 2.2368
-0.8578 1.9590 0.7625
-0.9276 1.9269 0.7625
-2.9219 5.5510 2.2368
-3.1190 5.4422 2.2368
-3.3121 5.3265 2.2368
-3.5008 5.2038 2.2368
-3.6851 5.0745 2.2368
-3.8645 4.9386 2.2368
-4.0390 4.7964 2.2368
-4.2081 4.6480 2.2368
-4.3718 4.4936 2.2368
-4.5299 4.3334 2.2368
-4.6821 4.1677 2.2368
-4.8282 3.9966 2.2368
-4.9681 3.8204 2.2368
-5.1015 3.6393 2.2368
-5.2283 3.4535 2.2368
-5.3483 3.2633 2.2368
-5.4614 3.0690 2.2368
-5.5675 2.8707 2.2368
-5.6663 2.6687 2.2368
-5.7578 2.4634 2.2368
-5.8418 2.2549 2.2368
-5.9183 2.0435 2.2368
-5.9584 1.8208 2.2260
-5.9584 1.5893 2.2035
-5.9510 1.3606 2.1816
-5.9544 1.1381 2.1667
-5.9573 0.9184 2.1546
-5.9595 0.7008 2.1452
-5.9611 0.4849 2.1384
-5.9622 0.2700 2.1341
-5.9661 0.0558 2.1337
-5.9635 -0.1584 2.1337
-5.9617 -0.3728 2.1367
-5.9604 -0.5882 2.1427
-5.9584 -0.8049 2.1512
-5.9559 -1.0234 2.1624
-5.9527 -1.2444 2.1764
-5.9508 -1.4688 2.1938
-5.9503 -1.6975 2.2149
-5.9430 -1.9287 2.2368
-5.8692 -2.1405 2.2368
-5.7880 -2.3496 2.2368
-5.6993 -2.5556 2.2368
-5.6033 -2.7583 2.2368
-5.5000 -2.9574 2.2368
-5.3898 -3.1526 2.2368
-5.2726 -3.3438 2.2368
-5.1486 -3.5306 2.2368
-5.0181 -3.7128 2.2368
-4.8811 -3.8902 2.2368
-4.7378 -4.0626 2.2368
-4.5885 -4.2297 2.2368
-4.4333 -4.3914 2.2368
-4.2724 -4.5474 2.2368
-4.1061 -4.6975 2.2368
-3.9345 -4.8415 2.2368
-3.7578 -4.9793 2.2368
-3.5763 -5.1107 2.2368
-3.3903 -5.2355 2.2368
-3.1999 -5.3535 2.2368
-3.0055 -5.4647 2.2368
-2.8071 -5.5688 2.2368
-2.6052 -5.6657 2.2368
-2.4000 -5.7553 2.2368
-2.1917 -5.8376 2.2368
-1.9806 -5.9123 2.2368
-1.7670 -5.9794 2.2368
-1.5510 -6.0388 2.2368
-1.3332 -6.0905 2.2368
-1.1136 -6.1343 2.2368
-0.8926 -6.1702 2.2368
-0.6704 -6.1982 2.2368
-0.4474 -6.2182 2.2368
-0.2238 -6.2303 2.2368
0.0001 -5.8186 2.2368
0.2090 -5.8149 2.2368
0.4177 -5.8037 2.2368
0.6258 -5.7850 2.2368
0.8332 -5.7589 2.2368
1.0395 -5.7254 2.2368
1.2444 -5.6845 2.2368
1.4478 -5.6363 2.2368
1.6493 -5.5809 2.2368
1.8487 -5.5182 2.2368
2.0458 -5.4485 2.2368
2.1368 -5.1238 2.1335
2.3195 -5.0440 2.1335
2.4993 -4.9577 2.1335
2.6759 -4.8650 2.1335
2.8490 -4.7661 2.1335
3.0185 -4.6610 2.1335
3.1841 -4.5499 2.1335
3.3457 -4.4329 2.1335
3.5029 -4.3102 2.1335
3.6557 -4.1820 2.1335
3.8038 -4.0483 2.1335
3.9470 -3.9095 2.1335
4.0852 -3.7655 2.1335
4.2181 -3.6167 2.1335
4.3456 -3.4633 2.1335
4.4676 -3.3053 2.1335
4.5838 -3.1431 2.1335
4.6942 -2.9767 2.1335
4.7985 -2.8065 2.1335
4.8966 -2.6327 2.1335
4.9885 -2.4555 2.1335
5.0739 -2.2750 2.1335
5.1529 -2.0916 2.1335
5.2252 -1.9055 2.1335
5.2908 -1.7168 2.1335
5.3496 -1.5260 2.1335
5.4015 -1.3331 2.1335
5.4465 -1.1384 2.1335
5.4845 -0.9423 2.1335
5.5154 -0.7449 2.1335
5.5392 -0.5465 2.1335
5.5559 -0.3473 2.1335
5.5654 -0.1477 2.1335
5.5677 0.0522 2.1335
5.5629 0.2521 2.1335
5.5509 0.4516 2.1335
5.5317 0.6507 2.1335
5.5054 0.8489 2.1335
5.4720 1.0461 2.1335
5.4315 1.2419 2.1335
5.3840 1.4362 2.1335
5.3296 1.6287 2.1335
5.2682 1.8192 2.1335
5.2001 2.0073 2.1335
5.1252 2.1928 2.1335
5.0437 2.3756 2.1335
4.9557 2.5554 2.1335
4.8613 2.7318 2.1335
4.7606 2.9048 2.1335
4.6537 3.0741 2.1335
4.5408 3.2394 2.1335
4.4220 3.4006 2.1335
4.2975 3.5574 2.1335
4.1674 3.7096 2.1335
4.0319 3.8571 2.1335
3.8912 3.9996 2.1335
3.7455 4.1370 2.1335
3.5949 4.2691 2.1335
3.4396 4.3956 2.1335
3.2799 4.5165 2.1335
3.1159 4.6316 2.1335
2.9478 4.7407 2.1335
2.7760 4.8437 2.1335
2.6005 4.9405 2.1335
0.8656 1.7982 0.7626
0.8005 1.8281 0.7626
0.7344 1.8557 0.7626
0.6674 1.8808 0.7625
0.5994 1.9036 0.7625
0.5307 1.9239 0.7625
0.4614 1.9417 0.7625
0.3914 1.9570 0.7625
0.9415 5.7788 2.2368
0.7336 5.8090 2.2368
0.5247 5.8316 2.2368
0.3151 5.8467 2.2368
0.1051 5.8543 2.2368
-0.1050 5.8543 2.2368
-0.3150 5.8467 2.2368
-0.5246 5.8315 2.2368
-0.7335 5.8089 2.2368
-0.9414 5.7787 2.2368
-0.3914 1.9570 0.7625
-0.4613 1.9417 0.7625
-0.5307 1.9239 0.7625
-0.5994 1.9036 0.7625
-0.6673 1.8809 0.7626
-0.7344 1.8557 0.7626
-0.8005 1.8281 0.7626
-0.8656 1.7982 0.7626
-0.9295 1.7660 0.7627
-2.9101 5.0778 2.2368
-3.0902 4.9698 2.2368
-3.2664 4.8554 2.2368
-3.4383 4.7348 2.2368
-3.6057 4.6080 2.2368
-3.7685 4.4753 2.2368
-3.9263 4.3369 2.2368
-4.0791 4.1929 2.2368
-4.2266 4.0434 2.2368
-4.3686 3.8888 2.2368
-4.5050 3.7292 2.2368
-4.6355 3.5648 2.2368
-4.7600 3.3959 2.2368
-4.8783 3.2225 2.2368
-4.9904 3.0451 2.2368
-5.0960 2.8638 2.2368
-5.1949 2.6787 2.2368
-5.2872 2.4903 2.2368
-5.3726 2.2987 2.2368
-5.4511 2.1042 2.2368
-5.5225 1.9070 2.2368
-5.5868 1.7074 2.2368
-5.6438 1.5056 2.2368
-5.6936 1.3019 2.2368
-5.7360 1.0966 2.2368
-5.7711 0.8899 2.2368
-5.7986 0.6821 2.2368
-5.8187 0.4734 2.2368
-5.8313 0.2642 2.2368
-5.8364 0.0547 2.2368
-5.8339 -0.1548 2.2368
-5.8240 -0.3641 2.2368
-5.8065 -0.5728 2.2368
-5.7815 -0.7808 2.2368
-5.7491 -0.9878 2.2368
-5.7093 -1.1934 2.2368
-5.6622 -1.3974 2.2368
-5.6078 -1.5996 2.2368
-5.5462 -1.7997 2.2368
-5.4774 -1.9975 2.2368
-5.4016 -2.1926 2.2368
-5.3188 -2.3849 2.2368
-5.2293 -2.5740 2.2368
-5.1329 -2.7598 2.2368
-5.0301 -2.9421 2.2368
-4.9207 -3.1205 2.2368
-4.8051 -3.2948 2.2368
-4.6833 -3.4649 2.2368
-4.5554 -3.6305 2.2368
-4.4218 -3.7914 2.2368
-4.2824 -3.9474 2.2368
-4.1376 -4.0983 2.2368
-3.9875 -4.2439 2.2368
-3.8322 -4.3840 2.2368
-3.6721 -4.5185 2.2368
-3.5072 -4.6471 2.2368
-3.3379 -4.7698 2.2368
-3.1642 -4.8862 2.2368
-2.9866 -4.9964 2.2368
-2.8051 -5.1002 2.2368
-2.6200 -5.1974 2.2368
-2.4316 -5.2878 2.2368
-2.2400 -5.3715 2.2368
-2.0456 -5.4483 2.2368
-1.8486 -5.5180 2.2368
-1.6492 -5.5807 2.2368
-1.4477 -5.6361 2.2368
-1.2443 -5.6844 2.2368
-1.0394 -5.7253 2.2368
-0.8331 -5.7588 2.2368
-0.6257 -5.7849 2.2368
-0.4176 -5.8036 2.2368
-0.2089 -5.8149 2.2368
0.0001 -5.4490 2.2368
0.1957 -5.4455 2.2368
0.3912 -5.4350 2.2368
0.5861 -5.4175 2.2368
0.7803 -5.3930 2.2368
0.9735 -5.3616 2.2368
1.1654 -5.3233 2.2368
1.3559 -5.2782 2.2368
1.5446 -5.2263 2.2368
1.7313 -5.1676 2.2368
1.9158 -5.1023 2.2368
2.0924 -5.0172 2.2309
2.1722 -4.7235 2.1335
2.3405 -4.6426 2.1335
2.5059 -4.5558 2.1335
2.6680 -4.4632 2.1335
2.8267 -4.3647 2.1335
2.9818 -4.2607 2.1335
3.1331 -4.1511 2.1335
3.2803 -4.0362 2.1335
3.4234 -3.9161 2.1335
3.5621 -3.7909 2.1335
3.6962 -3.6609 2.1335
3.8255 -3.5261 2.1335
3.9500 -3.3867 2.1335
4.0694 -3.2430 2.1335
4.1836 -3.0950 2.1335
4.2924 -2.9431 2.1335
4.3957 -2.7873 2.1335
4.4933 -2.6279 2.1335
4.5852 -2.4652 2.1335
4.6712 -2.2992 2.1335
4.7512 -2.1302 2.1335
4.8251 -1.9584 2.1335
4.8928 -1.7841 2.1335
4.9542 -1.6075 2.1335
5.0093 -1.4287 2.1335
5.0578 -1.2481 2.1335
5.0999 -1.0658 2.1335
5.1354 -0.8822 2.1335
5.1643 -0.6973 2.1335
5.1866 -0.5115 2.1335
5.2022 -0.3251 2.1335
5.2111 -0.1381 2.1335
5.2132 0.0490 2.1335
5.2087 0.2362 2.1335
5.1974 0.4230 2.1335
5.1794 0.6094 2.1335
5.1547 0.7950 2.1335
5.1234 0.9796 2.1335
5.0855 1.1630 2.1335
5.0410 1.3449 2.1335
4.9900 1.5251 2.1335
4.9325 1.7034 2.1335
4.8687 1.8795 2.1335
4.7986 2.0532 2.1335
4.7223 2.2243 2.1335
4.6398 2.3926 2.1335
4.5514 2.5578 2.1335
4.4571 2.7198 2.1335
4.3570 2.8782 2.1335
4.2513 3.0330 2.1335
4.1400 3.1839 2.1335
4.0234 3.3307 2.1335
3.9016 3.4732 2.1335
3.7748 3.6113 2.1335
3.6430 3.7447 2.1335
3.5066 3.8733 2.1335
3.3655 3.9969 2.1335
3.2202 4.1153 2.1335
3.0706 4.2285 2.1335
2.9171 4.3362 2.1335
2.7598 4.4384 2.1335
2.5989 4.5348 2.1335
0.8704 1.6536 0.7628
0.8105 1.6838 0.7627
0.7496 1.7118 0.7627
0.6877 1.7376 0.7627
0.6249 1.7612 0.7627
0.5613 1.7825 0.7626
0.4970 1.8014 0.7626
0.4320 1.8181 0.7626
0.3665 1.8325 0.7626
0.3005 1.8444 0.7626
0.2341 1.8540 0.7626
0.1675 1.8612 0.7626
0.1006 1.8661 0.7626
0.0335 1.8685 0.7626
-0.0335 1.8685 0.7626
-0.1005 1.8661 0.7626
-0.1674 1.8612 0.7626
-0.2341 1.8540 0.7626
-0.3005 1.8444 0.7626
-0.3665 1.8325 0.7626
-0.4320 1.8181 0.7626
-0.4969 1.8014 0.7626
-0.5613 1.7825 0.7627
-0.6248 1.7612 0.7627
-0.6876 1.7376 0.7627
-0.7495 1.7118 0.7627
-0.8105 1.6838 0.7628
-0.8703 1.6536 0.7628
-0.9291 1.6213 0.7628
-2.8930 4.6529 2.2368
-3.0580 4.5458 2.2368
-3.2189 4.4329 2.2368
-3.3757 4.3142 2.2368
-3.5281 4.1900 2.2368
-3.6759 4.0604 2.2368
-3.8189 3.9256 2.2368
-3.9571 3.7857 2.2368
-4.0900 3.6410 2.2368
-4.2177 3.4916 2.2368
-4.3399 3.3377 2.2368
-4.4565 3.1795 2.2368
-4.5673 3.0173 2.2368
-4.6722 2.8511 2.2368
-4.7711 2.6814 2.2368
-4.8638 2.5082 2.2368
-4.9502 2.3318 2.2368
-5.0302 2.1524 2.2368
-5.1037 1.9703 2.2368
-5.1706 1.7856 2.2368
-5.2308 1.5987 2.2368
-5.2843 1.4098 2.2368
-5.3309 1.2191 2.2368
-5.3707 1.0269 2.2368
-5.4035 0.8333 2.2368
-5.4294 0.6388 2.2368
-5.4482 0.4434 2.2368
-5.4600 0.2476 2.2368
-5.4648 0.0514 2.2368
-5.4625 -0.1448 2.2368
-5.4533 -0.3408 2.2368
-5.4369 -0.5362 2.2368
-5.4136 -0.7310 2.2368
-5.3833 -0.9248 2.2368
-5.3461 -1.1173 2.2368
-5.3019 -1.3084 2.2368
-5.2510 -1.4977 2.2368
-5.1933 -1.6851 2.2368
-5.1290 -1.8703 2.2368
-5.0580 -2.0530 2.2368
-4.9806 -2.2331 2.2368
-4.8967 -2.4102 2.2368
-4.8066 -2.5842 2.2368
-4.7103 -2.7549 2.2368
-4.6079 -2.9219 2.2368
-4.4996 -3.0852 2.2368
-4.3856 -3.2445 2.2368
-4.2659 -3.3996 2.2368
-4.1407 -3.5503 2.2368
-4.0103 -3.6964 2.2368
-3.8746 -3.8377 2.2368
-3.7341 -3.9741 2.2368
-3.5887 -4.1053 2.2368
-3.4387 -4.2313 2.2368
-3.2844 -4.3517 2.2368
-3.1258 -4.4666 2.2368
-2.9632 -4.5757 2.2368
-2.7969 -4.6789 2.2368
-2.6269 -4.7761 2.2368
-2.4536 -4.8671 2.2368
-2.2771 -4.9518 2.2368
-2.0977 -5.0302 2.2368
-1.9157 -5.1021 2.2368
-1.7312 -5.1674 2.2368
-1.5444 -5.2261 2.2368
-1.3557 -5.2781 2.2368
-1.1653 -5.3232 2.2368
-0.9733 -5.3615 2.2368
-0.7802 -5.3929 2.2368
-0.5860 -5.4174 2.2368
-0.3911 -5.4349 2.2368
-0.1956 -5.4455 2.2368
0.0001 -5.1178 2.2368
0.1839 -5.1145 2.2368
0.3674 -5.1046 2.2368
0.5505 -5.0882 2.2368
0.7329 -5.0652 2.2368
0.9143 -5.0357 2.2368
1.0946 -4.9998 2.2368
1.2735 -4.9574 2.2368
1.4507 -4.9086 2.2368
1.6261 -4.8535 2.2368
1.7994 -4.7921 2.2368
1.9704 -4.7246 2.2368
2.0940 -4.5533 2.1898
2.1983 -4.3604 2.1335
2.3536 -4.2788 2.1335
2.5058 -4.1918 2.1335
2.6549 -4.0993 2.1335
2.8006 -4.0016 2.1335
2.9426 -3.8987 2.1335
3.0809 -3.7907 2.1335
3.2153 -3.6779 2.1335
3.3455 -3.5603 2.1335
3.4714 -3.4381 2.1335
3.5929 -3.3115 2.1335
3.7098 -3.1806 2.1335
3.8219 -3.0456 2.1335
3.9291 -2.9067 2.1335
4.0313 -2.7639 2.1335
4.1283 -2.6176 2.1335
4.2200 -2.4680 2.1335
4.3063 -2.3151 2.1335
4.3870 -2.1592 2.1335
4.4621 -2.0004 2.1335
4.5315 -1.8391 2.1335
4.5951 -1.6754 2.1335
4.6527 -1.5095 2.1335
4.7044 -1.3416 2.1335
4.7500 -1.1720 2.1335
4.7895 -1.0008 2.1335
4.8228 -0.8283 2.1335
4.8499 -0.6547 2.1335
4.8708 -0.4803 2.1335
4.8854 -0.3051 2.1335
4.8937 -0.1296 2.1335
4.8957 0.0462 2.1335
4.8914 0.2219 2.1335
4.8808 0.3974 2.1335
4.8639 0.5724 2.1335
4.8407 0.7467 2.1335
4.8112 0.9200 2.1335
4.7756 1.0922 2.1335
4.7338 1.2631 2.1335
4.6859 1.4323 2.1335
4.6319 1.5997 2.1335
4.5719 1.7651 2.1335
4.5061 1.9282 2.1335
4.4344 2.0889 2.1335
4.3569 2.2469 2.1335
4.2739 2.4020 2.1335
4.1853 2.5541 2.1335
4.0913 2.7028 2.1335
3.9920 2.8482 2.1335
3.8875 2.9898 2.1335
3.7780 3.1277 2.1335
3.6636 3.2615 2.1335
3.5445 3.3911 2.1335
3.4208 3.5163 2.1335
3.2926 3.6371 2.1335
3.1602 3.7531 2.1335
3.0237 3.8644 2.1335
2.8832 3.9706 2.1335
2.7391 4.0717 2.1335
2.5913 4.1676 2.1335
0.8726 1.5226 0.7629
0.8174 1.5529 0.7629
0.7611 1.5813 0.7628
0.7039 1.6076 0.7628
0.6458 1.6318 0.7628
0.5868 1.6539 0.7628
0.5271 1.6739 0.7627
0.4667 1.6918 0.7627
0.4057 1.7074 0.7627
0.3442 1.7209 0.7627
0.2822 1.7322 0.7627
0.2199 1.7412 0.7627
0.1573 1.7479 0.7627
0.0944 1.7525 0.7627
0.0315 1.7547 0.7627
-0.0315 1.7547 0.7627
-0.0944 1.7525 0.7627
-0.1572 1.7479 0.7627
-0.2198 1.7412 0.7627
-0.2822 1.7322 0.7627
-0.3441 1.7209 0.7627
-0.4057 1.7075 0.7627
-0.4667 1.6918 0.7628
-0.5271 1.6739 0.7628
-0.5868 1.6539 0.7628
-0.6458 1.6318 0.7628
-0.7039 1.6076 0.7628
-0.7611 1.5813 0.7629
-0.8174 1.5529 0.7629
-0.8725 1.5226 0.7629
-0.9266 1.4903 0.7630
-0.9795 1.4561 0.7630
-3.0225 4.1625 2.2368
-3.1697 4.0511 2.2368
-3.3128 3.9345 2.2368
-3.4516 3.8128 2.2368
-3.5860 3.6863 2.2368
-3.7157 3.5549 2.2368
-3.8405 3.4190 2.2368
-3.9605 3.2788 2.2368
-4.0752 3.1343 2.2368
-4.1847 2.9857 2.2368
-4.2888 2.8334 2.2368
-4.3874 2.6774 2.2368
-4.4802 2.5180 2.2368
-4.5673 2.3554 2.2368
-4.6484 2.1898 2.2368
-4.7236 2.0213 2.2368
-4.7926 1.8503 2.2368
-4.8555 1.6769 2.2368
-4.9121 1.5014 2.2368
-4.9623 1.3240 2.2368
-5.0061 1.1450 2.2368
-5.0435 0.9644 2.2368
-5.0743 0.7827 2.2368
-5.0986 0.6000 2.2368
-5.1164 0.4166 2.2368
-5.1275 0.2326 2.2368
-5.1320 0.0484 2.2368
-5.1299 -0.1358 2.2368
-5.1212 -0.3199 2.2368
-5.1059 -0.5034 2.2368
-5.0840 -0.6863 2.2368
-5.0556 -0.8683 2.2368
-5.0206 -1.0492 2.2368
-4.9793 -1.2286 2.2368
-4.9315 -1.4064 2.2368
-4.8773 -1.5824 2.2368
-4.8169 -1.7563 2.2368
-4.7503 -1.9279 2.2368
-4.6776 -2.0971 2.2368
-4.5988 -2.2634 2.2368
-4.5142 -2.4269 2.2368
-4.4238 -2.5872 2.2368
-4.3276 -2.7441 2.2368
-4.2260 -2.8975 2.2368
-4.1188 -3.0471 2.2368
-4.0065 -3.1928 2.2368
-3.8889 -3.3343 2.2368
-3.7664 -3.4715 2.2368
-3.6391 -3.6043 2.2368
-3.5071 -3.7324 2.2368
-3.3706 -3.8556 2.2368
-3.2297 -3.9739 2.2368
-3.0847 -4.0871 2.2368
-2.9358 -4.1950 2.2368
-2.7831 -4.2975 2.2368
-2.6269 -4.3944 2.2368
-2.4673 -4.4857 2.2368
-2.3045 -4.5712 2.2368
-2.1387 -4.6508 2.2368
-1.9703 -4.7244 2.2368
-1.7993 -4.7919 2.2368
-1.6260 -4.8533 2.2368
-1.4506 -4.9084 2.2368
-1.2733 -4.9572 2.2368
-1.0945 -4.9996 2.2368
-0.9142 -5.0356 2.2368
-0.7328 -5.0651 2.2368
-0.5504 -5.0881 2.2368
-0.3673 -5.1046 2.2368
-0.1837 -5.1145 2.2368
0.0000 -4.8190 2.2368
0.1731 -4.8159 2.2368
0.3460 -4.8067 2.2368
0.5184 -4.7912 2.2368
0.6901 -4.7695 2.2368
0.8610 -4.7418 2.2368
1.0308 -4.7079 2.2368
1.1992 -4.6680 2.2368
1.3661 -4.6220 2.2368
1.5312 -4.5701 2.2368
1.6944 -4.5123 2.2368
1.8555 -4.4487 2.2368
2.0141 -4.3794 2.2368
2.0994 -4.1640 2.1638
2.2162 -4.0290 2.1335
2.3596 -3.9470 2.1335
2.4999 -3.8599 2.1335
2.6371 -3.7679 2.1335
2.7709 -3.6709 2.1335
2.9011 -3.5693 2.1335
3.0276 -3.4631 2.1335
3.1502 -3.3523 2.1335
3.2688 -3.2373 2.1335
3.3831 -3.1180 2.1335
3.4932 -2.9948 2.1335
3.5987 -2.8676 2.1335
3.6997 -2.7368 2.1335
3.7959 -2.6024 2.1335
3.8872 -2.4646 2.1335
3.9735 -2.3237 2.1335
4.0547 -2.1797 2.1335
4.1308 -2.0329 2.1335
4.2014 -1.8834 2.1335
4.2668 -1.7315 2.1335
4.3266 -1.5774 2.1335
4.3808 -1.4212 2.1335
4.4294 -1.2631 2.1335
4.4724 -1.1034 2.1335
4.5095 -0.9422 2.1335
4.5409 -0.7798 2.1335
4.5664 -0.6163 2.1335
4.5860 -0.4520 2.1335
4.5997 -0.2872 2.1335
4.6076 -0.1219 2.1335
4.6094 0.0436 2.1335
4.6053 0.2091 2.1335
4.5953 0.3743 2.1335
4.5793 0.5390 2.1335
4.5575 0.7031 2.1335
4.5298 0.8663 2.1335
4.4962 1.0285 2.1335
4.4568 1.1893 2.1335
4.4117 1.3486 2.1335
4.3608 1.5062 2.1335
4.3043 1.6619 2.1335
4.2423 1.8155 2.1335
4.1748 1.9667 2.1335
4.1019 2.1155 2.1335
4.0237 2.2615 2.1335
3.9403 2.4047 2.1335
3.8517 2.5447 2.1335
3.7582 2.6815 2.1335
3.6599 2.8149 2.1335
3.5568 2.9446 2.1335
3.4491 3.0706 2.1335
3.3369 3.1926 2.1335
