ply
format ascii 1.0
element vertex 2168
property float32 x
property float32 y
property float32 z
end_header
-7.4879 -3.0614 1.4507
-10.9498 -4.9438 2.1489
-10.8724 -5.3878 2.1646
-10.7706 -5.8291 2.1786
-10.5845 -6.2307 2.1786
-9.7396 -6.2155 2.0433
-9.6595 -6.6651 2.0690
-9.5767 -7.1296 2.0982
-9.4884 -7.6090 2.1305
-9.2397 -7.9719 2.1305
-8.9779 -8.3275 2.1305
-8.7034 -8.6753 2.1305
-8.4162 -9.0149 2.1305
-8.1166 -9.3458 2.1305
-7.8046 -9.6674 2.1305
-7.4806 -9.9795 2.1305
-7.1448 -10.2814 2.1305
-6.7975 -10.5727 2.1305
-6.4389 -10.8530 2.1305
-6.0693 -11.1218 2.1305
-5.6890 -11.3786 2.1305
-5.2984 -11.6229 2.1305
-4.8979 -11.8544 2.1305
-4.4878 -12.0726 2.1305
-4.0686 -12.2770 2.1305
-3.6405 -12.4672 2.1305
-3.2942 -12.9977 2.1903
-2.8937 -13.4228 2.2336
-2.4205 -13.5749 2.2336
-1.9400 -13.7104 2.2336
-1.4531 -13.8290 2.2336
-0.9602 -13.9302 2.2336
-0.4619 -14.0136 2.2336
0.0408 -12.2849 2.2336
0.4829 -12.3197 2.2336
0.9275 -12.3382 2.2336
1.3740 -12.3403 2.2336
1.8216 -12.3258 2.2336
2.2699 -12.2946 2.2336
2.7181 -12.2464 2.2336
3.1655 -12.1813 2.2336
3.6115 -12.0991 2.2336
4.0554 -11.9998 2.2336
4.4964 -11.8835 2.2336
4.7059 -11.2070 2.1303
5.1191 -11.0635 2.1303
5.5276 -10.9039 2.1303
5.9307 -10.7284 2.1303
6.3277 -10.5369 2.1303
6.7179 -10.3298 2.1303
7.1006 -10.1073 2.1303
7.4752 -9.8695 2.1303
7.8410 -9.6168 2.1303
8.1906 -9.3419 2.1286
8.5365 -9.0606 2.1286
6.7558 -6.6749 1.6209
9.1954 -8.4569 2.1286
9.5073 -8.1353 2.1286
9.8066 -7.8013 2.1286
10.0928 -7.4552 2.1286
10.3654 -7.0977 2.1286
10.6238 -6.7294 2.1286
10.8677 -6.3507 2.1286
9.3716 -5.0356 1.7977
9.4981 -4.6736 1.7876
11.5070 -5.1593 2.1286
11.6881 -4.7458 2.1286
11.8526 -4.3254 2.1286
1.4609 -0.4746 0.2591
1.4831 -0.4238 0.2602
11.5865 -2.8669 2.0143
11.4135 -2.3943 1.9688
11.2480 -1.9423 1.9281
11.0892 -1.5085 1.8917
10.9364 -1.0909 1.8593
10.7887 -0.6875 1.8306
10.6456 -0.2965 1.8054
10.5065 0.0835 1.7834
10.3709 0.4538 1.7645
10.2383 0.8159 1.7484
10.1084 1.1709 1.7351
9.9807 1.5198 1.7245
9.8548 1.8637 1.7165
9.7304 2.2036 1.7109
9.6071 2.5404 1.7078
9.4846 2.8749 1.7071
11.7999 4.0433 2.1536
11.4932 4.4040 2.1303
11.2989 4.8002 2.1303
11.0900 5.1877 2.1303
10.8669 5.5660 2.1303
10.6300 5.9345 2.1303
10.3799 6.2927 2.1303
10.1170 6.6402 2.1303
9.8419 6.9765 2.1303
9.5551 7.3012 2.1303
9.7058 7.9830 2.2336
9.3823 8.2980 2.2336
9.0483 8.5997 2.2336
8.7043 8.8878 2.2336
8.3510 9.1620 2.2336
7.9889 9.4221 2.2336
7.6188 9.6678 2.2336
7.2411 9.8990 2.2336
6.8566 10.1154 2.2336
6.4657 10.3169 2.2336
6.0692 10.5034 2.2336
5.6676 10.6749 2.2336
5.2615 10.8311 2.2336
4.8515 10.9721 2.2336
4.4382 11.0979 2.2336
4.0222 11.2085 2.2336
3.6040 11.3038 2.2336
3.1842 11.3839 2.2336
2.7634 11.4489 2.2336
2.3420 11.4989 2.2336
1.9206 11.5339 2.2336
1.4998 11.5540 2.2336
1.0800 11.5594 2.2336
0.6618 11.5503 2.2336
0.2456 11.5268 2.2336
-0.1682 11.4890 2.2336
-0.5790 11.4372 2.2336
-0.9864 11.3714 2.2336
-1.3900 11.2921 2.2336
-1.7894 11.1993 2.2336
-2.1841 11.0933 2.2336
-2.5737 10.9743 2.2336
-2.9580 10.8425 2.2336
-3.3364 10.6983 2.2336
-3.7087 10.5419 2.2336
-4.0745 10.3735 2.2336
-4.4334 10.1934 2.2336
-4.7852 10.0019 2.2336
-5.1294 9.7992 2.2336
-5.4659 9.5857 2.2336
-5.7944 9.3617 2.2336
-6.1144 9.1274 2.2336
-6.4259 8.8831 2.2336
-6.7284 8.6293 2.2336
-7.0218 8.3660 2.2336
-7.3058 8.0937 2.2336
-7.5803 7.8127 2.2336
-7.8448 7.5232 2.2336
-8.0994 7.2257 2.2336
-8.3436 6.9204 2.2336
-8.5775 6.6077 2.2336
-8.8007 6.2878 2.2336
-9.0130 5.9611 2.2336
-9.2144 5.6280 2.2336
-9.4046 5.2886 2.2336
-9.5835 4.9435 2.2336
-9.7284 4.5824 2.2284
-9.5467 4.0833 2.1524
-9.5869 3.6978 2.1305
-9.7130 3.3497 2.1305
-9.8276 2.9977 2.1305
-9.9307 2.6420 2.1305
-10.0222 2.2831 2.1305
-10.1019 1.9213 2.1305
-10.1698 1.5569 2.1305
-10.2257 1.1903 2.1305
-10.2697 0.8218 2.1305
-10.3016 0.4517 2.1305
-10.3214 0.0804 2.1305
-10.3290 -0.2918 2.1305
-10.3244 -0.6644 2.1305
-10.3075 -1.0373 2.1305
-10.2783 -1.4098 2.1305
-10.2369 -1.7818 2.1305
-10.1831 -2.1529 2.1305
-10.1170 -2.5227 2.1305
-10.0385 -2.8907 2.1305
-9.9477 -3.2567 2.1305
-9.8447 -3.6203 2.1305
-7.4217 -3.0368 1.6252
-9.6017 -4.3386 2.1305
-9.4620 -4.6925 2.1305
-9.3101 -5.0425 2.1305
-9.1462 -5.3880 2.1305
-8.9703 -5.7288 2.1305
-8.7825 -6.0645 2.1305
-8.5830 -6.3945 2.1305
-8.3718 -6.7186 2.1305
-8.1491 -7.0363 2.1305
-7.9150 -7.3472 2.1305
-7.6698 -7.6510 2.1305
-7.4135 -7.9471 2.1305
-7.1463 -8.2352 2.1305
-6.8685 -8.5149 2.1305
-6.5802 -8.7858 2.1305
-6.2818 -9.0475 2.1305
-5.9735 -9.2996 2.1305
-5.6554 -9.5417 2.1305
-5.3280 -9.7733 2.1305
-4.9915 -9.9942 2.1305
-4.6462 -10.2038 2.1305
-4.2925 -10.4019 2.1305
-4.0544 -10.9210 2.1975
-3.7336 -11.2827 2.2336
-3.3386 -11.4516 2.2336
-2.9364 -11.6070 2.2336
-2.5274 -11.7484 2.2336
-2.1122 -11.8754 2.2336
-1.6911 -11.9878 2.2336
-1.2647 -12.0852 2.2336
-0.8335 -12.1674 2.2336
-0.3982 -12.2340 2.2336
0.0407 -10.8861 2.2336
0.4323 -10.9126 2.2336
0.8257 -10.9248 2.2336
1.2205 -10.9224 2.2336
1.6160 -10.9053 2.2336
2.0118 -10.8735 2.2336
2.4073 -10.8269 2.2336
2.8017 -10.7653 2.2336
3.1947 -10.6888 2.2336
3.5855 -10.5973 2.2336
3.9736 -10.4909 2.2336
4.1568 -9.8903 2.1303
4.5199 -9.7604 2.1303
4.8787 -9.6166 2.1303
5.2325 -9.4588 2.1303
5.5808 -9.2872 2.1303
5.9229 -9.1020 2.1303
6.2584 -8.9034 2.1303
6.5865 -8.6917 2.1303
6.9068 -8.4670 2.1303
5.5264 -6.3005 1.6309
5.7425 -6.0926 1.6264
6.3855 -6.3066 1.7406
8.0919 -7.4393 2.1286
8.3647 -7.1552 2.1286
8.6264 -6.8603 2.1286
8.8766 -6.5550 2.1286
9.1150 -6.2399 2.1286
9.3410 -5.9154 2.1286
9.5543 -5.5821 2.1286
9.7544 -5.2403 2.1286
9.7118 -4.7781 2.0795
10.1138 -4.5341 2.1286
10.2725 -4.1708 2.1286
10.4168 -3.8013 2.1286
1.4607 -0.4746 0.2948
1.4829 -0.4238 0.2961
10.7610 -2.6631 2.1286
10.8455 -2.2757 2.1286
10.9147 -1.8855 2.1286
10.9685 -1.4930 2.1286
10.9368 -1.0920 2.1150
8.4030 -0.5364 1.6217
8.4046 -0.2352 1.6209
10.5070 0.0820 2.0279
10.3715 0.4523 2.0061
10.2390 0.8142 1.9875
10.1091 1.1691 1.9720
9.9814 1.5179 1.9595
9.8555 1.8617 1.9499
9.7312 2.2015 1.9432
9.6079 2.5381 1.9392
9.4855 2.8726 1.9378
10.3985 3.5601 2.1536
10.1313 3.8789 2.1303
9.9631 4.2293 2.1303
9.7819 4.5723 2.1303
9.5882 4.9073 2.1303
9.3824 5.2340 2.1303
9.1648 5.5519 2.1303
8.9359 5.8606 2.1303
8.6961 6.1597 2.1303
8.4459 6.4488 2.1303
8.1857 6.7276 2.1303
8.2996 7.3348 2.2336
8.0073 7.6044 2.2336
7.7060 7.8622 2.2336
7.3963 8.1080 2.2336
7.0786 8.3415 2.2336
6.7534 8.5625 2.2336
6.4214 8.7707 2.2336
6.0831 8.9661 2.2336
5.7389 9.1485 2.2336
5.3893 9.3177 2.2336
5.0350 9.4736 2.2336
4.6764 9.6161 2.2336
4.3141 9.7453 2.2336
3.9485 9.8609 2.2336
3.5802 9.9631 2.2336
3.2097 10.0519 2.2336
2.8374 10.1271 2.2336
2.4639 10.1889 2.2336
2.0897 10.2373 2.2336
1.7151 10.2724 2.2336
1.3408 10.2942 2.2336
0.9671 10.3029 2.2336
0.5944 10.2985 2.2336
0.2233 10.2812 2.2336
-0.1458 10.2511 2.2336
-0.5126 10.2084 2.2336
-0.8766 10.1532 2.2336
-1.2375 10.0857 2.2336
-1.5947 10.0061 2.2336
-1.9481 9.9145 2.2336
-2.2971 9.8111 2.2336
-2.6415 9.6963 2.2336
-2.9808 9.5701 2.2336
-3.3149 9.4328 2.2336
-3.6432 9.2846 2.2336
-3.9656 9.1258 2.2336
-4.2816 8.9566 2.2336
-4.5911 8.7773 2.2336
-4.8937 8.5880 2.2336
-5.1892 8.3892 2.2336
-5.4772 8.1810 2.2336
-5.7576 7.9636 2.2336
-6.0300 7.7374 2.2336
-6.2943 7.5027 2.2336
-6.5502 7.2597 2.2336
-6.7975 7.0087 2.2336
-7.0359 6.7500 2.2336
-7.2654 6.4839 2.2336
-7.4856 6.2107 2.2336
-7.6963 5.9306 2.2336
-7.8975 5.6441 2.2336
-8.0889 5.3512 2.2336
-8.2704 5.0525 2.2336
-8.4418 4.7481 2.2336
-8.6029 4.4385 2.2336
-8.7537 4.1238 2.2336
-8.8939 3.8044 2.2336
-9.0235 3.4807 2.2336
-9.1423 3.1529 2.2336
-9.0671 2.7656 2.1894
-8.9360 2.3771 2.1353
-8.9977 2.0493 2.1305
-9.0689 1.7243 2.1305
-9.1294 1.3970 2.1305
-9.1791 1.0676 2.1305
-9.2179 0.7366 2.1305
-9.2458 0.4043 2.1305
-9.2626 0.0709 2.1305
-9.2684 -0.2632 2.1305
-9.2632 -0.5977 2.1305
-9.2468 -0.9322 2.1305
-9.2194 -1.2664 2.1305
-9.1807 -1.6000 2.1305
-9.1309 -1.9326 2.1305
-9.0700 -2.2639 2.1305
-8.9980 -2.5935 2.1305
-8.9148 -2.9212 2.1305
-8.8205 -3.2464 2.1305
-7.4135 -3.0359 1.8123
-8.5989 -3.8885 2.1305
-8.4717 -4.2046 2.1305
-8.3335 -4.5170 2.1305
-8.1846 -4.8252 2.1305
-8.0250 -5.1290 2.1305
-7.8547 -5.4279 2.1305
-7.6740 -5.7216 2.1305
-7.4828 -6.0097 2.1305
-7.2814 -6.2919 2.1305
-7.0700 -6.5678 2.1305
-6.8485 -6.8371 2.1305
-6.6173 -7.0993 2.1305
-6.3766 -7.3542 2.1305
-6.1264 -7.6014 2.1305
-5.8671 -7.8404 2.1305
-5.5988 -8.0711 2.1305
-5.3218 -8.2929 2.1305
-5.0364 -8.5056 2.1305
-4.8169 -8.8449 2.1638
-4.6455 -9.3115 2.2284
-4.3321 -9.5250 2.2336
-4.0005 -9.7062 2.2336
-3.6615 -9.8760 2.2336
-3.3156 -10.0342 2.2336
-2.9632 -10.1804 2.2336
-2.6046 -10.3144 2.2336
-2.2403 -10.4358 2.2336
-1.8707 -10.5444 2.2336
-1.4963 -10.6399 2.2336
-1.1174 -10.7221 2.2336
-0.7347 -10.7907 2.2336
-0.3484 -10.8454 2.2336
0.0406 -9.7641 2.2336
0.3916 -9.7847 2.2336
0.7441 -9.7925 2.2336
1.0976 -9.7873 2.2336
1.4516 -9.7690 2.2336
1.8055 -9.7376 2.2336
2.1590 -9.6929 2.2336
2.5113 -9.6349 2.2336
2.8622 -9.5637 2.2336
3.2109 -9.4791 2.2336
3.5569 -9.3813 2.2336
3.7421 -8.8953 2.1432
4.0431 -8.7235 2.1303
4.3626 -8.5927 2.1303
4.6775 -8.4496 2.1303
4.9874 -8.2944 2.1303
5.2917 -8.1271 2.1303
5.5899 -7.9481 2.1303
5.8816 -7.7574 2.1303
6.1661 -7.5554 2.1303
5.7009 -6.4965 1.8849
5.8490 -6.2029 1.8564
6.6999 -6.6147 2.0470
7.2184 -6.6339 2.1286
7.4604 -6.3796 2.1286
7.6927 -6.1159 2.1286
7.9148 -5.8431 2.1286
8.1263 -5.5617 2.1286
8.3269 -5.2720 2.1286
8.5162 -4.9745 2.1286
8.6939 -4.6698 2.1286
8.8596 -4.3582 2.1286
9.0132 -4.0402 2.1286
9.1543 -3.7164 2.1286
9.2826 -3.3873 2.1286
1.4605 -0.4745 0.3308
1.4826 -0.4237 0.3322
9.5895 -2.3735 2.1286
9.6651 -2.0286 2.1286
9.7273 -1.6810 2.1286
9.7758 -1.3315 2.1286
9.8107 -0.9805 2.1286
8.7796 -0.5614 1.9008
7.6113 -0.2139 1.6466
7.7078 0.0591 1.6685
9.8133 0.4264 2.1286
9.7799 0.7760 2.1286
9.7331 1.1237 2.1286
9.6729 1.4690 2.1286
9.5996 1.8112 2.1286
9.5133 2.1499 2.1286
9.4142 2.4845 2.1286
9.3024 2.8146 2.1286
9.1783 3.1396 2.1286
9.0496 3.4619 2.1303
8.9015 3.7756 2.1303
8.7419 4.0829 2.1303
8.5711 4.3833 2.1303
8.3893 4.6765 2.1303
8.1971 4.9619 2.1303
7.9946 5.2393 2.1303
7.7824 5.5084 2.1303
7.5607 5.7686 2.1303
7.3300 6.0198 2.1303
7.0907 6.2616 2.1303
6.8432 6.4938 2.1303
6.9072 7.0416 2.2336
6.6318 7.2641 2.2336
6.3491 7.4757 2.2336
6.0596 7.6762 2.2336
5.7637 7.8654 2.2336
5.4619 8.0433 2.2336
5.1548 8.2095 2.2336
4.8426 8.3640 2.2336
4.5259 8.5068 2.2336
4.2052 8.6376 2.2336
3.8810 8.7565 2.2336
3.5536 8.8633 2.2336
3.2235 8.9580 2.2336
2.8912 9.0407 2.2336
2.5571 9.1113 2.2336
2.2218 9.1698 2.2336
1.8855 9.2162 2.2336
1.5487 9.2507 2.2336
1.2119 9.2731 2.2336
0.8754 9.2838 2.2336
0.5398 9.2826 2.2336
0.2053 9.2697 2.2336
-0.1277 9.2452 2.2336
-0.4586 9.2093 2.2336
-0.7873 9.1620 2.2336
-1.1133 9.1036 2.2336
-1.4362 9.0341 2.2336
-1.7557 8.9537 2.2336
-2.0715 8.8626 2.2336
-2.3832 8.7609 2.2336
-2.6905 8.6490 2.2336
-2.9931 8.5268 2.2336
-3.2907 8.3948 2.2336
-3.5830 8.2529 2.2336
-3.8697 8.1016 2.2336
-4.1505 7.9409 2.2336
-4.4252 7.7712 2.2336
-4.6935 7.5926 2.2336
-4.9551 7.4054 2.2336
-5.2098 7.2099 2.2336
-5.4574 7.0062 2.2336
-5.6976 6.7946 2.2336
-5.9302 6.5754 2.2336
-6.1550 6.3489 2.2336
-6.3719 6.1153 2.2336
-6.5805 5.8748 2.2336
-6.7808 5.6278 2.2336
-6.9725 5.3745 2.2336
-7.1554 5.1151 2.2336
-7.3295 4.8501 2.2336
-7.4945 4.5795 2.2336
-7.6503 4.3038 2.2336
-7.7968 4.0232 2.2336
-7.9338 3.7380 2.2336
-8.0612 3.4486 2.2336
-8.1788 3.1551 2.2336
-8.2866 2.8579 2.2336
-8.3845 2.5572 2.2336
-8.4723 2.2535 2.2336
-8.5500 1.9470 2.2336
-8.6174 1.6379 2.2336
-8.5357 1.3055 2.1978
-8.4166 0.9782 2.1555
-8.3535 0.6667 2.1305
-8.3781 0.3653 2.1305
-8.3928 0.0631 2.1305
-8.3973 -0.2398 2.1305
-8.3917 -0.5429 2.1305
-8.3760 -0.8459 2.1305
-8.3501 -1.1487 2.1305
-8.3140 -1.4507 2.1305
-8.2678 -1.7518 2.1305
-8.2114 -2.0516 2.1305
-8.1449 -2.3498 2.1305
-8.0683 -2.6461 2.1305
-7.9816 -2.9401 2.1305
-7.4053 -3.0351 2.0009
-7.7781 -3.5202 2.1305
-7.6614 -3.8055 2.1305
-7.5349 -4.0873 2.1305
-7.3986 -4.3652 2.1305
-7.2526 -4.6388 2.1305
-7.0970 -4.9080 2.1305
-6.9320 -5.1723 2.1305
-6.7576 -5.4314 2.1305
-6.5740 -5.6850 2.1305
-6.3813 -5.9327 2.1305
-6.1797 -6.1743 2.1305
-5.9694 -6.4094 2.1305
-5.7505 -6.6376 2.1305
-5.5446 -6.8853 2.1388
-5.4086 -7.2341 2.1792
-5.2718 -7.6065 2.2266
-5.0251 -7.8378 2.2336
-4.7539 -8.0364 2.2336
-4.4752 -8.2259 2.2336
-4.1891 -8.4060 2.2336
-3.8961 -8.5763 2.2336
-3.5964 -8.7367 2.2336
-3.2902 -8.8867 2.2336
-2.9781 -9.0262 2.2336
-2.6603 -9.1547 2.2336
-2.3371 -9.2722 2.2336
-2.0090 -9.3784 2.2336
-1.6764 -9.4729 2.2336
-1.3396 -9.5556 2.2336
-0.9990 -9.6262 2.2336
-0.6552 -9.6847 2.2336
-0.3085 -9.7307 2.2336
0.0405 -8.8432 2.2336
0.3583 -8.8596 2.2336
0.6772 -8.8643 2.2336
0.9969 -8.8573 2.2336
1.3169 -8.8386 2.2336
1.6367 -8.8079 2.2336
1.9559 -8.7653 2.2336
2.2739 -8.7108 2.2336
2.5904 -8.6443 2.2336
2.9049 -8.5659 2.2336
3.2169 -8.4756 2.2336
3.5259 -8.3735 2.2336
3.6543 -7.8779 2.1303
3.9420 -7.7581 2.1303
4.2254 -7.6274 2.1303
4.5042 -7.4858 2.1303
4.7779 -7.3335 2.1303
5.0460 -7.1707 2.1303
5.3082 -6.9975 2.1303
5.5639 -6.8142 2.1303
5.7017 -6.4944 2.0896
5.8527 -6.2043 2.0593
6.2885 -6.2060 2.1303
6.5144 -5.9847 2.1303
6.7264 -5.7500 2.1286
6.9349 -5.5117 2.1286
7.1343 -5.2654 2.1286
7.3242 -5.0114 2.1286
7.5043 -4.7501 2.1286
7.6743 -4.4818 2.1286
7.8339 -4.2071 2.1286
7.9828 -3.9263 2.1286
8.1208 -3.6398 2.1286
8.2477 -3.3481 2.1286
8.3632 -3.0517 2.1286
1.4604 -0.4745 0.3671
1.4824 -0.4237 0.3687
8.6397 -2.1387 2.1286
8.7081 -1.8282 2.1286
8.7644 -1.5152 2.1286
8.8086 -1.2005 2.1286
8.8405 -0.8844 2.1286
8.7793 -0.5624 2.1091
7.8607 -0.2220 1.8868
8.8630 0.0666 2.1286
8.8460 0.3829 2.1286
8.8169 0.6981 2.1286
8.7758 1.0116 2.1286
8.7228 1.3229 2.1286
8.6579 1.6316 2.1286
8.5814 1.9372 2.1286
8.4934 2.2393 2.1286
8.3940 2.5374 2.1286
8.2836 2.8310 2.1286
8.1623 3.1198 2.1286
8.0369 3.4061 2.1303
7.8944 3.6841 2.1303
7.7418 3.9561 2.1303
7.5793 4.2217 2.1303
7.4073 4.4805 2.1303
7.2261 4.7321 2.1303
7.0360 4.9763 2.1303
6.8373 5.2127 2.1303
6.6304 5.4410 2.1303
6.4156 5.6610 2.1303
6.1933 5.8725 2.1303
5.9638 6.0751 2.1303
6.0052 6.5724 2.2336
5.7509 6.7657 2.2336
5.4902 6.9490 2.2336
5.2237 7.1222 2.2336
4.9517 7.2852 2.2336
4.6746 7.4377 2.2336
4.3930 7.5798 2.2336
4.1070 7.7112 2.2336
3.8173 7.8319 2.2336
3.5241 7.9418 2.2336
3.2280 8.0408 2.2336
2.9293 8.1290 2.2336
2.6284 8.2062 2.2336
2.3257 8.2724 2.2336
2.0216 8.3277 2.2336
1.7166 8.3720 2.2336
1.4110 8.4055 2.2336
1.1052 8.4280 2.2336
0.7996 8.4398 2.2336
0.4945 8.4408 2.2336
0.1903 8.4311 2.2336
-0.1126 8.4109 2.2336
-0.4138 8.3801 2.2336
-0.7131 8.3391 2.2336
-1.0101 8.2877 2.2336
-1.3044 8.2262 2.2336
-1.5958 8.1548 2.2336
-1.8838 8.0735 2.2336
-2.1683 7.9825 2.2336
-2.4488 7.8820 2.2336
-2.7252 7.7722 2.2336
-2.9970 7.6532 2.2336
-3.2641 7.5253 2.2336
-3.5262 7.3885 2.2336
-3.7830 7.2432 2.2336
-4.0342 7.0895 2.2336
-4.2797 6.9276 2.2336
-4.5191 6.7578 2.2336
-4.7522 6.5802 2.2336
-4.9789 6.3951 2.2336
-5.1988 6.2028 2.2336
-5.4119 6.0034 2.2336
-5.6178 5.7971 2.2336
-5.8164 5.5843 2.2336
-6.0075 5.3652 2.2336
-6.1910 5.1400 2.2336
-6.3666 4.9090 2.2336
-6.5343 4.6724 2.2336
-6.6937 4.4305 2.2336
-6.8449 4.1835 2.2336
-6.9876 3.9318 2.2336
-7.1217 3.6755 2.2336
-7.2471 3.4150 2.2336
-7.3637 3.1505 2.2336
-7.4713 2.8823 2.2336
-7.5699 2.6107 2.2336
-7.6593 2.3360 2.2336
-7.7395 2.0584 2.2336
-7.8103 1.7782 2.2336
-7.8718 1.4957 2.2336
-7.9237 1.2113 2.2336
-7.9661 0.9251 2.2336
-7.9989 0.6375 2.2336
-8.0221 0.3488 2.2336
-8.0356 0.0593 2.2336
-7.9747 -0.2289 2.2156
-7.8717 -0.5105 2.1886
-7.7707 -0.7863 2.1648
-7.6750 -1.0573 2.1450
-7.5893 -1.3259 2.1305
-7.5462 -1.6007 2.1305
-7.4938 -1.8743 2.1305
-7.4322 -2.1463 2.1305
-7.3612 -2.4164 2.1305
-7.2981 -2.6907 2.1355
-7.2029 -2.9546 2.1338
-7.1061 -3.2186 2.1344
-6.9855 -3.4725 2.1305
-6.8689 -3.7289 2.1305
-6.7434 -3.9817 2.1305
-6.6091 -4.2305 2.1305
-6.4660 -4.4750 2.1305
-6.3364 -4.7315 2.1379
-6.2262 -5.0082 2.1554
-6.1202 -5.2967 2.1784
-6.0113 -5.5932 2.2048
-5.8961 -5.8957 2.2336
-5.6940 -6.1187 2.2336
-5.4838 -6.3351 2.2336
-5.2657 -6.5446 2.2336
-5.0399 -6.7469 2.2336
-4.8065 -6.9416 2.2336
-4.5659 -7.1285 2.2336
-4.3183 -7.3072 2.2336
-4.0638 -7.4776 2.2336
-3.8029 -7.6394 2.2336
-3.5357 -7.7922 2.2336
-3.2626 -7.9358 2.2336
-2.9838 -8.0699 2.2336
-2.6996 -8.1944 2.2336
-2.4105 -8.3090 2.2336
-2.1167 -8.4133 2.2336
-1.8185 -8.5074 2.2336
-1.5164 -8.5908 2.2336
-1.2106 -8.6635 2.2336
-0.9017 -8.7252 2.2336
-0.5899 -8.7759 2.2336
-0.2757 -8.8152 2.2336
0.0404 -8.0730 2.2336
0.3304 -8.0862 2.2336
0.6214 -8.0888 2.2336
0.9129 -8.0807 2.2336
1.2045 -8.0619 2.2336
1.4958 -8.0322 2.2336
1.7865 -7.9918 2.2336
2.0760 -7.9405 2.2336
2.3641 -7.8783 2.2336
2.6501 -7.8054 2.2336
2.9338 -7.7217 2.2336
3.2147 -7.6272 2.2336
3.3383 -7.1905 2.1351
3.5922 -7.0642 2.1303
3.8496 -6.9440 2.1303
4.1027 -6.8141 2.1303
4.3511 -6.6744 2.1303
4.5944 -6.5252 2.1303
4.8322 -6.3667 2.1303
5.0642 -6.1991 2.1303
5.2899 -6.0226 2.1303
5.5090 -5.8374 2.1303
5.7211 -5.6438 2.1303
5.9259 -5.4421 2.1303
6.1231 -5.2324 2.1303
6.3122 -5.0152 2.1303
6.4877 -4.7868 2.1286
6.6599 -4.5556 2.1286
6.8231 -4.3178 2.1286
6.9772 -4.0739 2.1286
7.1219 -3.8240 2.1286
7.2569 -3.5687 2.1286
7.3821 -3.3083 2.1286
7.4972 -3.0432 2.1286
7.6020 -2.7738 2.1286
1.4602 -0.4744 0.4038
1.4822 -0.4237 0.4055
7.8534 -1.9444 2.1286
7.9158 -1.6622 2.1286
7.9672 -1.3780 2.1286
8.0077 -1.0920 2.1286
8.0371 -0.8049 2.1286
8.0555 -0.5169 2.1286
7.8603 -0.2230 2.0751
8.0592 0.0594 2.1286
8.0445 0.3469 2.1286
8.0188 0.6335 2.1286
7.9823 0.9185 2.1286
7.9349 1.2018 2.1286
7.8769 1.4826 2.1286
7.8082 1.7608 2.1286
7.7292 2.0358 2.1286
7.6399 2.3072 2.1286
7.5405 2.5748 2.1286
7.4313 2.8380 2.1286
7.3183 3.0990 2.1303
7.1899 3.3526 2.1303
7.0521 3.6009 2.1303
6.9054 3.8433 2.1303
6.7500 4.0797 2.1303
6.5862 4.3097 2.1303
6.4142 4.5330 2.1303
6.2344 4.7494 2.1303
6.0470 4.9585 2.1303
5.8524 5.1601 2.1303
5.6509 5.3539 2.1303
5.4428 5.5399 2.1303
5.2434 5.7339 2.1364
5.2510 6.1723 2.2336
5.0142 6.3410 2.2336
4.7720 6.5005 2.2336
4.5247 6.6507 2.2336
4.2727 6.7916 2.2336
4.0163 6.9228 2.2336
3.7559 7.0445 2.2336
3.4920 7.1564 2.2336
3.2248 7.2584 2.2336
2.9547 7.3506 2.2336
2.6822 7.4328 2.2336
2.4075 7.5050 2.2336
2.1311 7.5673 2.2336
1.8534 7.6195 2.2336
1.5746 7.6618 2.2336
1.2951 7.6941 2.2336
1.0154 7.7164 2.2336
0.7356 7.7288 2.2336
0.4563 7.7313 2.2336
0.1777 7.7240 2.2336
-0.0999 7.7070 2.2336
-0.3760 7.6803 2.2336
-0.6505 7.6442 2.2336
-0.9230 7.5985 2.2336
-1.1931 7.5436 2.2336
-1.4605 7.4794 2.2336
-1.7251 7.4061 2.2336
-1.9864 7.3239 2.2336
-2.2442 7.2329 2.2336
-2.4983 7.1333 2.2336
-2.7483 7.0252 2.2336
-2.9940 6.9088 2.2336
-3.2351 6.7842 2.2336
-3.4714 6.6517 2.2336
-3.7027 6.5114 2.2336
-3.9286 6.3636 2.2336
-4.1491 6.2083 2.2336
-4.3639 6.0459 2.2336
-4.5727 5.8764 2.2336
-4.7753 5.7002 2.2336
-4.9716 5.5175 2.2336
-5.1614 5.3284 2.2336
-5.3445 5.1332 2.2336
-5.5207 4.9322 2.2336
-5.6898 4.7254 2.2336
-5.8517 4.5133 2.2336
-6.0062 4.2960 2.2336
-6.1532 4.0737 2.2336
-6.2925 3.8468 2.2336
-6.4240 3.6154 2.2336
-6.5476 3.3798 2.2336
-6.6631 3.1402 2.2336
-6.7705 2.8970 2.2336
-6.8696 2.6503 2.2336
-6.9603 2.4005 2.2336
-7.0425 2.1478 2.2336
-7.1162 1.8924 2.2336
-7.1813 1.6346 2.2336
-7.2376 1.3748 2.2336
-7.2852 1.1131 2.2336
-7.3239 0.8498 2.2336
-7.3538 0.5853 2.2336
-7.3747 0.3197 2.2336
-7.3867 0.0534 2.2336
-7.3896 -0.2133 2.2336
-7.3836 -0.4802 2.2336
-7.3685 -0.7469 2.2336
-7.3444 -1.0133 2.2336
-7.3112 -1.2790 2.2336
-7.2690 -1.5437 2.2336
-7.2178 -1.8071 2.2336
-7.1575 -2.0689 2.2336
-7.0883 -2.3290 2.2336
-7.0102 -2.5868 2.2336
-6.9232 -2.8423 2.2336
-6.8274 -3.0950 2.2336
-6.7229 -3.3447 2.2336
-6.6097 -3.5910 2.2336
-6.4879 -3.8338 2.2336
-6.3576 -4.0727 2.2336
-6.2189 -4.3073 2.2336
-6.0719 -4.5375 2.2336
-5.9168 -4.7630 2.2336
-5.7537 -4.9834 2.2336
-5.5826 -5.1984 2.2336
-5.4039 -5.4078 2.2336
-5.2176 -5.6113 2.2336
-5.0239 -5.8086 2.2336
-4.8230 -5.9995 2.2336
-4.6150 -6.1837 2.2336
-4.4003 -6.3608 2.2336
-4.1790 -6.5307 2.2336
-3.9513 -6.6931 2.2336
-3.7175 -6.8477 2.2336
-3.4778 -6.9943 2.2336
-3.2325 -7.1326 2.2336
-2.9819 -7.2624 2.2336
-2.7262 -7.3836 2.2336
-2.4657 -7.4958 2.2336
-2.2008 -7.5989 2.2336
-1.9317 -7.6926 2.2336
-1.6587 -7.7769 2.2336
-1.3822 -7.8514 2.2336
-1.1026 -7.9160 2.2336
-0.8202 -7.9707 2.2336
-0.5353 -8.0151 2.2336
-0.2483 -8.0493 2.2336
0.0403 -7.4188 2.2336
0.3068 -7.4296 2.2336
0.5740 -7.4306 2.2336
0.8415 -7.4218 2.2336
1.1092 -7.4032 2.2336
1.3764 -7.3746 2.2336
1.6430 -7.3362 2.2336
1.9084 -7.2879 2.2336
2.1724 -7.2297 2.2336
2.4344 -7.1615 2.2336
2.6942 -7.0836 2.2336
2.9514 -6.9959 2.2336
3.0573 -6.5796 2.1303
3.2965 -6.4776 2.1303
3.5320 -6.3665 2.1303
3.7635 -6.2465 2.1303
3.9906 -6.1177 2.1303
4.2131 -5.9802 2.1303
4.4304 -5.8343 2.1303
4.6424 -5.6800 2.1303
4.8487 -5.5177 2.1303
5.0488 -5.3476 2.1303
5.2426 -5.1697 2.1303
5.4297 -4.9845 2.1303
5.6098 -4.7921 2.1303
5.7825 -4.5929 2.1303
5.9477 -4.3871 2.1303
6.1050 -4.1750 2.1303
6.2491 -3.9537 2.1286
6.3899 -3.7301 2.1286
6.5220 -3.5013 2.1286
6.6454 -3.2675 2.1286
6.7598 -3.0290 2.1286
6.8650 -2.7864 2.1286
6.9609 -2.5398 2.1286
1.4600 -0.4744 0.4410
1.4820 -0.4237 0.4428
7.1912 -1.7807 2.1286
7.2484 -1.5225 2.1286
7.2957 -1.2623 2.1286
7.3330 -1.0006 2.1286
7.3602 -0.7378 2.1286
7.3775 -0.4743 2.1286
7.3846 -0.2105 2.1286
7.3817 0.0533 2.1286
7.3688 0.3166 2.1286
7.3459 0.5790 2.1286
7.3130 0.8401 2.1286
7.2703 1.0996 2.1286
7.2179 1.3569 2.1286
7.1558 1.6119 2.1286
7.0842 1.8640 2.1286
7.0032 2.1130 2.1286
6.9130 2.3584 2.1286
6.8138 2.5999 2.1286
6.7112 2.8395 2.1303
6.5943 3.0724 2.1303
6.4690 3.3005 2.1303
6.3355 3.5233 2.1303
6.1939 3.7407 2.1303
6.0446 3.9522 2.1303
5.8878 4.1578 2.1303
5.7238 4.3570 2.1303
5.5528 4.5496 2.1303
5.3751 4.7354 2.1303
5.1910 4.9143 2.1303
5.0009 5.0859 2.1303
4.8049 5.2500 2.1303
4.6035 5.4066 2.1303
4.6100 5.8246 2.2336
4.3883 5.9723 2.2336
4.1618 6.1115 2.2336
3.9309 6.2421 2.2336
3.6959 6.3640 2.2336
3.4572 6.4771 2.2336
3.2150 6.5812 2.2336
2.9698 6.6763 2.2336
2.7219 6.7624 2.2336
2.4716 6.8394 2.2336
2.2192 6.9072 2.2336
1.9652 6.9658 2.2336
1.7098 7.0152 2.2336
1.4533 7.0554 2.2336
1.1961 7.0864 2.2336
0.9386 7.1083 2.2336
0.6810 7.1209 2.2336
0.4236 7.1245 2.2336
0.1669 7.1190 2.2336
-0.0890 7.1046 2.2336
-0.3437 7.0812 2.2336
-0.5969 7.0490 2.2336
-0.8483 7.0081 2.2336
-1.0976 6.9585 2.2336
-1.3446 6.9004 2.2336
-1.5890 6.8338 2.2336
-1.8304 6.7590 2.2336
-2.0687 6.6759 2.2336
-2.3035 6.5849 2.2336
-2.5347 6.4860 2.2336
-2.7619 6.3793 2.2336
-2.9850 6.2651 2.2336
-3.2036 6.1434 2.2336
-3.4177 6.0146 2.2336
-3.6269 5.8786 2.2336
-3.8310 5.7357 2.2336
-4.0298 5.5862 2.2336
-4.2232 5.4302 2.2336
-4.4109 5.2678 2.2336
-4.5928 5.0993 2.2336
-4.7686 4.9250 2.2336
-4.9382 4.7449 2.2336
-5.1014 4.5593 2.2336
-5.2581 4.3684 2.2336
-5.4081 4.1725 2.2336
-5.5513 3.9718 2.2336
-5.6875 3.7664 2.2336
-5.8166 3.5567 2.2336
-5.9384 3.3428 2.2336
-6.0529 3.1250 2.2336
-6.1599 2.9035 2.2336
-6.2593 2.6785 2.2336
-6.3510 2.4504 2.2336
-6.4349 2.2194 2.2336
-6.5110 1.9856 2.2336
-6.5791 1.7494 2.2336
-6.6392 1.5109 2.2336
-6.6912 1.2705 2.2336
-6.7350 1.0285 2.2336
-6.7706 0.7850 2.2336
-6.7980 0.5403 2.2336
-6.8170 0.2947 2.2336
-6.8278 0.0484 2.2336
-6.8301 -0.1982 2.2336
-6.8241 -0.4450 2.2336
-6.8097 -0.6916 2.2336
-6.7869 -0.9378 2.2336
-6.7557 -1.1833 2.2336
-6.7161 -1.4279 2.2336
-6.6682 -1.6712 2.2336
-6.6119 -1.9131 2.2336
-6.5473 -2.1532 2.2336
-6.4745 -2.3912 2.2336
-6.3934 -2.6270 2.2336
-6.3042 -2.8601 2.2336
-6.2068 -3.0904 2.2336
-6.1015 -3.3176 2.2336
-5.9882 -3.5413 2.2336
-5.8671 -3.7614 2.2336
-5.7383 -3.9776 2.2336
-5.6018 -4.1895 2.2336
-5.4578 -4.3970 2.2336
-5.3064 -4.5997 2.2336
-5.1478 -4.7974 2.2336
-4.9821 -4.9898 2.2336
-4.8094 -5.1767 2.2336
-4.6300 -5.3578 2.2336
-4.4440 -5.5329 2.2336
-4.2515 -5.7018 2.2336
-4.0529 -5.8641 2.2336
-3.8482 -6.0196 2.2336
-3.6377 -6.1681 2.2336
-3.4217 -6.3094 2.2336
-3.2003 -6.4433 2.2336
-2.9738 -6.5695 2.2336
-2.7424 -6.6879 2.2336
-2.5065 -6.7981 2.2336
-2.2663 -6.9002 2.2336
-2.0220 -6.9937 2.2336
-1.7741 -7.0787 2.2336
-1.5226 -7.1548 2.2336
-1.2681 -7.2220 2.2336
-1.0107 -7.2800 2.2336
-0.7508 -7.3289 2.2336
-0.4888 -7.3684 2.2336
-0.2250 -7.3984 2.2336
0.0403 -6.8557 2.2336
0.2864 -6.8645 2.2336
0.5332 -6.8644 2.2336
0.7802 -6.8552 2.2336
1.0272 -6.8369 2.2336
1.2738 -6.8096 2.2336
1.5197 -6.7731 2.2336
1.7644 -6.7275 2.2336
2.0078 -6.6727 2.2336
2.2493 -6.6090 2.2336
2.4887 -6.5362 2.2336
2.7256 -6.4544 2.2336
2.8228 -6.0696 2.1303
3.0430 -5.9747 2.1303
3.2598 -5.8715 2.1303
3.4728 -5.7601 2.1303
3.6818 -5.6407 2.1303
3.8865 -5.5134 2.1303
4.0864 -5.3783 2.1303
4.2814 -5.2357 2.1303
4.4711 -5.0856 2.1303
4.6551 -4.9284 2.1303
4.8333 -4.7641 2.1303
5.0052 -4.5931 2.1303
5.1708 -4.4156 2.1303
5.3296 -4.2318 2.1303
5.4814 -4.0419 2.1303
5.6260 -3.8464 2.1303
5.7632 -3.6453 2.1303
5.8878 -3.4363 2.1286
6.0093 -3.2254 2.1286
6.1228 -3.0100 2.1286
6.2280 -2.7904 2.1286
4.8164 -1.9547 1.6209
4.8836 -1.7818 1.6209
1.4598 -0.4743 0.4786
1.4818 -0.4236 0.4806
6.6252 -1.6408 2.1286
6.6780 -1.4030 2.1286
6.7217 -1.1635 2.1286
6.7563 -0.9225 2.1286
6.7816 -0.6805 2.1286
6.7978 -0.4378 2.1286
6.8047 -0.1948 2.1286
6.8024 0.0481 2.1286
6.7909 0.2907 2.1286
6.7703 0.5324 2.1286
6.7405 0.7730 2.1286
6.7017 1.0121 2.1286
6.6540 1.2494 2.1286
6.5974 1.4844 2.1286
6.5320 1.7169 2.1286
6.4580 1.9466 2.1286
6.3756 2.1730 2.1286
6.2848 2.3959 2.1286
6.1909 2.6172 2.1303
6.0839 2.8323 2.1303
5.9691 3.0429 2.1303
5.8467 3.2489 2.1303
5.7168 3.4498 2.1303
5.5799 3.6455 2.1303
5.4359 3.8356 2.1303
5.2853 4.0200 2.1303
5.1283 4.1984 2.1303
4.9650 4.3706 2.1303
4.7958 4.5364 2.1303
4.6209 4.6955 2.1303
4.4406 4.8479 2.1303
4.2553 4.9933 2.1303
4.0650 5.1315 2.1303
4.0579 5.5176 2.2336
3.8492 5.6471 2.2336
3.6364 5.7687 2.2336
3.4197 5.8824 2.2336
3.1995 5.9879 2.2336
2.9761 6.0852 2.2336
2.7498 6.1741 2.2336
2.5209 6.2548 2.2336
2.2897 6.3270 2.2336
2.0566 6.3908 2.2336
1.8218 6.4461 2.2336
1.5856 6.4929 2.2336
1.3484 6.5311 2.2336
1.1105 6.5609 2.2336
0.8722 6.5821 2.2336
0.6337 6.5949 2.2336
0.3954 6.5992 2.2336
0.1575 6.5952 2.2336
-0.0796 6.5828 2.2336
-0.3156 6.5621 2.2336
-0.5504 6.5332 2.2336
-0.7836 6.4961 2.2336
-1.0149 6.4511 2.2336
-1.2440 6.3980 2.2336
-1.4708 6.3371 2.2336
-1.6950 6.2685 2.2336
-1.9162 6.1923 2.2336
-2.1344 6.1086 2.2336
-2.3491 6.0175 2.2336
-2.5603 5.9192 2.2336
-2.7676 5.8138 2.2336
-2.9709 5.7015 2.2336
-3.1698 5.5825 2.2336
-3.3644 5.4568 2.2336
-3.5542 5.3247 2.2336
-3.7392 5.1863 2.2336
-3.9191 5.0418 2.2336
-4.0937 4.8914 2.2336
-4.2629 4.7353 2.2336
-4.4265 4.5737 2.2336
-4.5844 4.4067 2.2336
-4.7363 4.2345 2.2336
-4.8821 4.0575 2.2336
-5.0218 3.8756 2.2336
-5.1550 3.6893 2.2336
-5.2818 3.4986 2.2336
-5.4019 3.3039 2.2336
-5.5153 3.1052 2.2336
-5.6218 2.9029 2.2336
-5.7213 2.6971 2.2336
-5.8138 2.4882 2.2336
-5.8991 2.2762 2.2336
-5.9771 2.0615 2.2336
-6.0478 1.8442 2.2336
-6.1110 1.6247 2.2336
-6.1668 1.4031 2.2336
-6.2150 1.1797 2.2336
-6.2556 0.9548 2.2336
-6.2885 0.7285 2.2336
-6.3137 0.5011 2.2336
-6.3312 0.2729 2.2336
-6.3409 0.0441 2.2336
-6.3428 -0.1851 2.2336
-6.3368 -0.4143 2.2336
-6.3231 -0.6434 2.2336
-6.3015 -0.8721 2.2336
-6.2721 -1.1001 2.2336
-6.2349 -1.3271 2.2336
-6.1899 -1.5530 2.2336
-6.1371 -1.7775 2.2336
-6.0766 -2.0003 2.2336
-6.0084 -2.2211 2.2336
-5.9326 -2.4397 2.2336
-5.8491 -2.6559 2.2336
-5.7582 -2.8694 2.2336
-5.6598 -3.0799 2.2336
-5.5541 -3.2872 2.2336
-5.4411 -3.4911 2.2336
-5.3209 -3.6912 2.2336
-5.1936 -3.8873 2.2336
-5.0594 -4.0793 2.2336
-4.9183 -4.2667 2.2336
-4.7706 -4.4495 2.2336
-4.6163 -4.6273 2.2336
-4.4556 -4.7999 2.2336
-4.2886 -4.9671 2.2336
-4.1156 -5.1287 2.2336
-3.9367 -5.2844 2.2336
-3.7520 -5.4339 2.2336
-3.5618 -5.5772 2.2336
-3.3663 -5.7139 2.2336
-3.1657 -5.8439 2.2336
-2.9602 -5.9669 2.2336
-2.7501 -6.0828 2.2336
-2.5355 -6.1914 2.2336
-2.3167 -6.2924 2.2336
-2.0941 -6.3858 2.2336
-1.8678 -6.4713 2.2336
-1.6381 -6.5488 2.2336
-1.4052 -6.6182 2.2336
-1.1696 -6.6792 2.2336
-0.9315 -6.7318 2.2336
-0.6911 -6.7759 2.2336
-0.4488 -6.8113 2.2336
-0.2049 -6.8379 2.2336
0.0402 -6.3654 2.2336
0.2687 -6.3727 2.2336
0.4977 -6.3717 2.2336
0.7268 -6.3623 2.2336
0.9559 -6.3445 2.2336
1.1846 -6.3183 2.2336
1.4125 -6.2836 2.2336
1.6393 -6.2405 2.2336
1.8648 -6.1890 2.2336
2.0885 -6.1291 2.2336
2.3102 -6.0608 2.2336
2.5296 -5.9843 2.2336
2.6193 -5.6269 2.1303
2.8230 -5.5383 2.1303
3.0236 -5.4421 2.1303
3.2208 -5.3384 2.1303
3.4141 -5.2272 2.1303
3.6034 -5.1088 2.1303
3.7883 -4.9832 2.1303
3.9685 -4.8506 2.1303
4.1439 -4.7113 2.1303
4.3140 -4.5652 2.1303
4.4787 -4.4128 2.1303
4.6377 -4.2542 2.1303
4.7906 -4.0895 2.1303
4.9374 -3.9191 2.1303
5.0777 -3.7431 2.1303
5.2114 -3.5619 2.1303
5.3381 -3.3756 2.1303
5.4578 -3.1847 2.1303
5.5703 -2.9892 2.1303
5.6706 -2.7873 2.1286
5.7679 -2.5839 2.1286
4.4604 -1.8101 1.6209
4.5226 -1.6500 1.6209
1.4597 -0.4743 0.5167
1.4815 -0.4236 0.5188
6.1355 -1.5198 2.1286
6.1844 -1.2997 2.1286
6.2250 -1.0780 2.1286
6.2572 -0.8549 2.1286
6.2809 -0.6309 2.1286
6.2961 -0.4063 2.1286
6.3027 -0.1813 2.1286
6.3009 0.0436 2.1286
6.2906 0.2682 2.1286
6.2719 0.4921 2.1286
6.2447 0.7149 2.1286
6.2092 0.9364 2.1286
6.1655 1.1562 2.1286
6.1135 1.3740 2.1286
6.0535 1.5895 2.1286
5.9855 1.8024 2.1286
5.9096 2.0123 2.1286
5.8261 2.2191 2.1286
5.7397 2.4243 2.1303
5.6411 2.6239 2.1303
5.5353 2.8194 2.1303
5.4224 3.0107 2.1303
5.3027 3.1973 2.1303
5.1763 3.3791 2.1303
5.0435 3.5558 2.1303
4.9044 3.7273 2.1303
4.7593 3.8932 2.1303
4.6085 4.0535 2.1303
4.4521 4.2078 2.1303
4.2904 4.3560 2.1303
4.1237 4.4980 2.1303
3.9522 4.6336 2.1303
3.7762 4.7625 2.1303
3.5959 4.8848 2.1303
3.5769 5.2426 2.2336
3.3798 5.3563 2.2336
3.1791 5.4626 2.2336
2.9750 5.5613 2.2336
2.7678 5.6525 2.2336
0.8712 1.9537 0.7608
2.3456 5.8118 2.2336
2.1310 5.8798 2.2336
1.9146 5.9399 2.2336
1.6965 5.9921 2.2336
1.4772 6.0365 2.2336
1.2568 6.0729 2.2336
1.0357 6.1014 2.2336
0.8141 6.1220 2.2336
0.5923 6.1347 2.2336
0.3706 6.1396 2.2336
0.1493 6.1366 2.2336
-0.0713 6.1259 2.2336
-0.2911 6.1074 2.2336
-0.5097 6.0813 2.2336
-0.7268 6.0475 2.2336
-0.9423 6.0063 2.2336
-1.1559 5.9576 2.2336
-1.3672 5.9016 2.2336
-1.5762 5.8384 2.2336
-1.7825 5.7680 2.2336
-1.9859 5.6906 2.2336
-2.1863 5.6063 2.2336
-0.8442 1.9536 0.7911
-0.9139 1.9215 0.7922
-2.7664 5.3134 2.2336
-2.9522 5.2029 2.2336
-3.1338 5.0862 2.2336
-3.3110 4.9634 2.2336
-3.4837 4.8348 2.2336
-3.6517 4.7004 2.2336
-3.8148 4.5605 2.2336
-3.9729 4.4152 2.2336
-4.1257 4.2647 2.2336
-4.2732 4.1092 2.2336
-4.4151 3.9489 2.2336
-4.5514 3.7839 2.2336
-4.6818 3.6145 2.2336
-4.8063 3.4408 2.2336
-4.9248 3.2630 2.2336
-5.0370 3.0814 2.2336
-5.1429 2.8962 2.2336
-5.2424 2.7075 2.2336
-5.3353 2.5155 2.2336
-5.4217 2.3206 2.2336
-5.5013 2.1229 2.2336
-5.5741 1.9225 2.2336
-5.6400 1.7198 2.2336
-5.6990 1.5150 2.2336
-5.7510 1.3082 2.2336
-5.7959 1.0998 2.2336
-5.8337 0.8899 2.2336
-5.8642 0.6787 2.2336
-5.8876 0.4666 2.2336
-5.9037 0.2537 2.2336
-5.9125 0.0402 2.2336
-5.9140 -0.1736 2.2336
-5.9082 -0.3874 2.2336
-5.8951 -0.6010 2.2336
-5.8747 -0.8142 2.2336
-5.8469 -1.0268 2.2336
-5.8118 -1.2385 2.2336
-5.7694 -1.4491 2.2336
-5.7198 -1.6583 2.2336
-5.6630 -1.8659 2.2336
-5.5989 -2.0716 2.2336
-5.5278 -2.2753 2.2336
-5.4495 -2.4766 2.2336
-5.3642 -2.6753 2.2336
-5.2720 -2.8713 2.2336
-5.1730 -3.0642 2.2336
-5.0671 -3.2538 2.2336
-4.9546 -3.4399 2.2336
-4.8355 -3.6223 2.2336
-4.7100 -3.8006 2.2336
-4.5781 -3.9748 2.2336
-4.4399 -4.1445 2.2336
-4.2957 -4.3096 2.2336
-4.1456 -4.4698 2.2336
-3.9896 -4.6249 2.2336
-3.8281 -4.7747 2.2336
-3.6610 -4.9189 2.2336
-3.4887 -5.0575 2.2336
-3.3113 -5.1901 2.2336
-3.1290 -5.3166 2.2336
-2.9419 -5.4368 2.2336
-2.7504 -5.5505 2.2336
-2.5546 -5.6575 2.2336
-2.3547 -5.7576 2.2336
-2.1510 -5.8508 2.2336
-1.9437 -5.9367 2.2336
-1.7331 -6.0154 2.2336
-1.5194 -6.0865 2.2336
-1.3028 -6.1501 2.2336
-1.0838 -6.2059 2.2336
-0.8624 -6.2539 2.2336
-0.6390 -6.2939 2.2336
-0.4139 -6.3259 2.2336
-0.1874 -6.3498 2.2336
0.0402 -5.9342 2.2336
0.2531 -5.9403 2.2336
0.4665 -5.9386 2.2336
0.6800 -5.9292 2.2336
0.8933 -5.9119 2.2336
1.1062 -5.8868 2.2336
1.3184 -5.8538 2.2336
1.5295 -5.8130 2.2336
1.7393 -5.7644 2.2336
1.9475 -5.7080 2.2336
2.1537 -5.6439 2.2336
2.3576 -5.5721 2.2336
2.4408 -5.2387 2.1303
2.6302 -5.1558 2.1303
2.8167 -5.0658 2.1303
2.9999 -4.9688 2.1303
3.1795 -4.8649 2.1303
3.3554 -4.7543 2.1303
3.5271 -4.6371 2.1303
3.6946 -4.5134 2.1303
3.8574 -4.3835 2.1303
4.0154 -4.2474 2.1303
4.1684 -4.1053 2.1303
4.3159 -3.9575 2.1303
4.4580 -3.8042 2.1303
4.5942 -3.6455 2.1303
4.7245 -3.4817 2.1303
4.8486 -3.3130 2.1303
4.9663 -3.1397 2.1303
5.0775 -2.9620 2.1303
5.1819 -2.7802 2.1303
5.2794 -2.5946 2.1303
4.1012 -1.8370 1.6270
4.1491 -1.6836 1.6209
4.2069 -1.5348 1.6209
1.4595 -0.4742 0.5555
1.4813 -0.4236 0.5577
5.7071 -1.4139 2.1286
5.7527 -1.2093 2.1286
5.7906 -1.0032 2.1286
5.8206 -0.7958 2.1286
5.8428 -0.5875 2.1286
5.8571 -0.3787 2.1286
5.8636 -0.1695 2.1286
5.8621 0.0397 2.1286
5.8528 0.2485 2.1286
5.8357 0.4568 2.1286
5.8108 0.6640 2.1286
5.7781 0.8701 2.1286
5.7378 1.0746 2.1286
5.6898 1.2773 2.1286
5.6344 1.4779 2.1286
5.5715 1.6761 2.1286
5.5014 1.8716 2.1286
5.4241 2.0641 2.1286
5.3442 2.2553 2.1303
5.2529 2.4413 2.1303
5.1549 2.6235 2.1303
5.0504 2.8018 2.1303
4.9394 2.9758 2.1303
4.8222 3.1454 2.1303
4.6990 3.3103 2.1303
4.5700 3.4703 2.1303
4.4354 3.6253 2.1303
4.2954 3.7750 2.1303
4.1502 3.9192 2.1303
4.0001 4.0578 2.1303
3.8452 4.1905 2.1303
3.6858 4.3174 2.1303
3.5222 4.4381 2.1303
3.3545 4.5526 2.1303
3.1831 4.6608 2.1303
3.1540 4.9933 2.2336
2.9672 5.0931 2.2336
2.7772 5.1858 2.2336
0.8790 1.7929 0.7597
0.8139 1.8229 0.7610
0.7478 1.8504 0.7623
0.6808 1.8756 0.7637
0.6129 1.8983 0.7650
0.5442 1.9186 0.7664
0.4748 1.9364 0.7677
0.4049 1.9517 0.7690
0.9696 5.6959 2.2336
0.7628 5.7159 2.2336
0.5558 5.7284 2.2336
0.3488 5.7336 2.2336
0.1421 5.7316 2.2336
-0.0640 5.7222 2.2336
-0.2694 5.7056 2.2336
-0.4737 5.6818 2.2336
-0.6767 5.6509 2.2336
-0.8782 5.6129 2.2336
-0.3778 1.9516 0.7829
-0.4478 1.9363 0.7840
-0.5171 1.9185 0.7851
-0.5858 1.8982 0.7862
-0.6537 1.8754 0.7873
-0.7207 1.8502 0.7884
-0.7868 1.8227 0.7894
-0.8519 1.7928 0.7903
-0.9159 1.7605 0.7913
-2.7592 4.8666 2.2336
-2.9293 4.7577 2.2336
-3.0954 4.6432 2.2336
-3.2572 4.5232 2.2336
-3.4147 4.3977 2.2336
-3.5675 4.2671 2.2336
-3.7157 4.1313 2.2336
-3.8589 3.9907 2.2336
-3.9972 3.8454 2.2336
-4.1302 3.6955 2.2336
-4.2579 3.5412 2.2336
-4.3802 3.3827 2.2336
-4.4969 3.2202 2.2336
-4.6079 3.0539 2.2336
-4.7131 2.8840 2.2336
-4.8124 2.7106 2.2336
-4.9056 2.5340 2.2336
-4.9927 2.3543 2.2336
-5.0736 2.1719 2.2336
-5.1482 1.9867 2.2336
-5.2164 1.7992 2.2336
-5.2781 1.6094 2.2336
-5.3333 1.4176 2.2336
-5.3819 1.2240 2.2336
-5.4239 1.0288 2.2336
-5.4591 0.8323 2.2336
-5.4876 0.6346 2.2336
-5.5094 0.4360 2.2336
-5.5243 0.2366 2.2336
-5.5323 0.0368 2.2336
-5.5336 -0.1633 2.2336
-5.5279 -0.3634 2.2336
-5.5154 -0.5634 2.2336
-5.4960 -0.7629 2.2336
-5.4697 -0.9619 2.2336
-5.4365 -1.1599 2.2336
-5.3966 -1.3569 2.2336
-5.3498 -1.5526 2.2336
-5.2962 -1.7467 2.2336
-5.2359 -1.9391 2.2336
-5.1690 -2.1295 2.2336
-5.0954 -2.3176 2.2336
-5.0152 -2.5034 2.2336
-4.9285 -2.6864 2.2336
-4.8354 -2.8666 2.2336
-4.7360 -3.0437 2.2336
-4.6304 -3.2174 2.2336
-4.5186 -3.3876 2.2336
-4.4007 -3.5540 2.2336
-4.2770 -3.7165 2.2336
-4.1474 -3.8748 2.2336
-4.0122 -4.0286 2.2336
-3.8715 -4.1779 2.2336
-3.7253 -4.3224 2.2336
-3.5739 -4.4618 2.2336
-3.4175 -4.5961 2.2336
-3.2561 -4.7250 2.2336
-3.0900 -4.8483 2.2336
-2.9194 -4.9658 2.2336
-2.7444 -5.0775 2.2336
-2.5652 -5.1830 2.2336
-2.3821 -5.2822 2.2336
-2.1953 -5.3751 2.2336
-2.0049 -5.4613 2.2336
-1.8112 -5.5409 2.2336
-1.6144 -5.6135 2.2336
-1.4148 -5.6792 2.2336
-1.2127 -5.7378 2.2336
-1.0082 -5.7892 2.2336
-0.8016 -5.8332 2.2336
-0.5932 -5.8698 2.2336
-0.3832 -5.8989 2.2336
-0.1720 -5.9204 2.2336
0.0401 -5.5517 2.2336
0.2393 -5.5568 2.2336
0.4388 -5.5547 2.2336
0.6384 -5.5452 2.2336
0.8378 -5.5285 2.2336
1.0368 -5.5044 2.2336
1.2350 -5.4731 2.2336
1.4322 -5.4344 2.2336
1.6282 -5.3884 2.2336
1.8226 -5.3352 2.2336
2.0151 -5.2748 2.2336
2.2055 -5.2072 2.2336
2.2921 -4.9150 2.1389
2.4778 -4.8530 2.1461
2.6336 -4.7329 2.1303
2.8045 -4.6420 2.1303
2.9721 -4.5446 2.1303
3.1361 -4.4410 2.1303
3.2963 -4.3312 2.1303
3.4524 -4.2154 2.1303
3.6043 -4.0938 2.1303
3.7516 -3.9665 2.1303
3.8942 -3.8336 2.1303
4.0317 -3.6955 2.1303
4.1641 -3.5521 2.1303
4.2912 -3.4038 2.1303
4.4126 -3.2508 2.1303
4.5283 -3.0933 2.1303
4.6380 -2.9314 2.1303
4.7416 -2.7655 2.1303
4.8389 -2.5957 2.1303
4.9298 -2.4224 2.1303
3.8152 -1.7087 1.6209
3.8743 -1.5720 1.6209
3.9282 -1.4330 1.6209
1.4593 -0.4742 0.5948
1.4811 -0.4235 0.5972
5.3290 -1.3204 2.1286
5.3716 -1.1295 2.1286
5.4070 -0.9371 2.1286
5.4352 -0.7436 2.1286
5.4560 -0.5492 2.1286
5.4695 -0.3543 2.1286
5.4757 -0.1590 2.1286
5.4746 0.0362 2.1286
5.4661 0.2312 2.1286
5.4504 0.4256 2.1286
5.4274 0.6191 2.1286
5.3972 0.8115 2.1286
5.3598 1.0025 2.1286
5.3154 1.1919 2.1286
5.2640 1.3792 2.1286
5.2056 1.5644 2.1286
5.1405 1.7471 2.1286
5.0687 1.9271 2.1286
4.9944 2.1058 2.1303
4.9096 2.2797 2.1303
4.8184 2.4502 2.1303
4.7211 2.6169 2.1303
4.6179 2.7798 2.1303
4.5088 2.9385 2.1303
4.3941 3.0929 2.1303
4.2739 3.2428 2.1303
4.1485 3.3880 2.1303
4.0180 3.5282 2.1303
3.8827 3.6634 2.1303
3.7427 3.7934 2.1303
3.5982 3.9179 2.1303
3.4496 4.0370 2.1303
3.2969 4.1504 2.1303
3.1404 4.2579 2.1303
2.9857 4.3673 2.1341
2.9536 4.6711 2.2336
2.7791 4.7650 2.2336
0.8838 1.6483 0.7587
0.8239 1.6785 0.7600
0.7630 1.7065 0.7612
0.7011 1.7323 0.7625
0.6383 1.7559 0.7637
0.5747 1.7772 0.7650
0.5104 1.7962 0.7662
0.4455 1.8128 0.7675
0.3800 1.8271 0.7687
0.3140 1.8391 0.7700
0.2476 1.8487 0.7712
0.1810 1.8559 0.7724
0.1141 1.8607 0.7736
0.0471 1.8631 0.7748
-0.0200 1.8631 0.7760
-0.0870 1.8607 0.7772
-0.1539 1.8559 0.7783
-0.2205 1.8487 0.7795
-0.2869 1.8390 0.7806
-0.3529 1.8271 0.7817
-0.4184 1.8127 0.7828
-0.4833 1.7960 0.7838
-0.5476 1.7771 0.7849
-0.6112 1.7557 0.7859
-0.6740 1.7322 0.7868
-0.7359 1.7064 0.7878
-0.7968 1.6784 0.7887
-0.8567 1.6482 0.7896
-0.9155 1.6159 0.7904
-2.7467 4.4643 2.2336
-2.9028 4.3571 2.2336
-3.0549 4.2447 2.2336
-3.2028 4.1272 2.2336
-3.3465 4.0048 2.2336
-3.4857 3.8776 2.2336
-3.6204 3.7457 2.2336
-3.7503 3.6094 2.2336
-3.8754 3.4688 2.2336
-3.9955 3.3241 2.2336
-4.1104 3.1754 2.2336
-4.2202 3.0230 2.2336
-4.3245 2.8669 2.2336
-4.4234 2.7074 2.2336
-4.5167 2.5446 2.2336
-4.6043 2.3788 2.2336
-4.6862 2.2101 2.2336
-4.7622 2.0388 2.2336
-4.8323 1.8650 2.2336
-4.8963 1.6888 2.2336
-4.9543 1.5106 2.2336
-5.0061 1.3305 2.2336
-5.0517 1.1487 2.2336
-5.0911 0.9654 2.2336
-5.1241 0.7808 2.2336
-5.1508 0.5951 2.2336
-5.1711 0.4086 2.2336
-5.1849 0.2214 2.2336
-5.1924 0.0338 2.2336
-5.1933 -0.1541 2.2336
-5.1878 -0.3420 2.2336
-5.1758 -0.5298 2.2336
-5.1574 -0.7171 2.2336
-5.1325 -0.9038 2.2336
-5.1011 -1.0897 2.2336
-5.0633 -1.2745 2.2336
-5.0191 -1.4581 2.2336
-4.9685 -1.6403 2.2336
-4.9116 -1.8207 2.2336
-4.8485 -1.9993 2.2336
-4.7791 -2.1757 2.2336
-4.7035 -2.3498 2.2336
-4.6218 -2.5214 2.2336
-4.5341 -2.6902 2.2336
-4.4405 -2.8561 2.2336
-4.3410 -3.0189 2.2336
-4.2358 -3.1783 2.2336
-4.1249 -3.3341 2.2336
-4.0085 -3.4861 2.2336
-3.8866 -3.6342 2.2336
-3.7595 -3.7781 2.2336
-3.6271 -3.9177 2.2336
-3.4898 -4.0528 2.2336
-3.3475 -4.1831 2.2336
-3.2005 -4.3085 2.2336
-3.0490 -4.4288 2.2336
-2.8930 -4.5439 2.2336
-2.7328 -4.6536 2.2336
-2.5686 -4.7577 2.2336
-2.4005 -4.8560 2.2336
-2.2287 -4.9484 2.2336
-2.0534 -5.0348 2.2336
-1.8749 -5.1151 2.2336
-1.6934 -5.1890 2.2336
-1.5090 -5.2564 2.2336
-1.3219 -5.3173 2.2336
-1.1325 -5.3716 2.2336
-0.9410 -5.4190 2.2336
-0.7476 -5.4596 2.2336
-0.5525 -5.4933 2.2336
-0.3560 -5.5199 2.2336
-0.1584 -5.5394 2.2336
0.0401 -5.2098 2.2336
0.2269 -5.2140 2.2336
0.4141 -5.2115 2.2336
0.6013 -5.2022 2.2336
0.7883 -5.1860 2.2336
0.9748 -5.1630 2.2336
1.1606 -5.1331 2.2336
1.3454 -5.0964 2.2336
1.5290 -5.0528 2.2336
1.7111 -5.0025 2.2336
1.8914 -4.9455 2.2336
2.0698 -4.8817 2.2336
2.2458 -4.8114 2.2336
2.3075 -4.5156 2.1303
2.4704 -4.4361 2.1303
2.6304 -4.3505 2.1303
2.7872 -4.2590 2.1303
2.9407 -4.1617 2.1303
3.0906 -4.0586 2.1303
3.2367 -3.9499 2.1303
3.3787 -3.8357 2.1303
3.5165 -3.7162 2.1303
3.6499 -3.5916 2.1303
3.7786 -3.4620 2.1303
3.9025 -3.3277 2.1303
4.0213 -3.1887 2.1303
4.1349 -3.0452 2.1303
4.2431 -2.8976 2.1303
4.3457 -2.7459 2.1303
4.4426 -2.5905 2.1303
4.5337 -2.4315 2.1303
4.6187 -2.2691 2.1303
3.6981 -1.6561 1.6771
3.7473 -1.5203 1.6735
3.7963 -1.3849 1.6721
1.4591 -0.4741 0.6348
1.4808 -0.4235 0.6373
4.9965 -1.2382 2.1303
5.0323 -1.0584 2.1286
5.0656 -0.8783 2.1286
5.0920 -0.6971 2.1286
5.1116 -0.5151 2.1286
5.1244 -0.3326 2.1286
5.1304 -0.1497 2.1286
5.1295 0.0331 2.1286
5.1218 0.2157 2.1286
5.1072 0.3978 2.1286
5.0859 0.5791 2.1286
5.0578 0.7594 2.1286
5.0231 0.9383 2.1286
4.9818 1.1157 2.1286
4.9339 1.2913 2.1286
4.8795 1.4649 2.1286
4.8188 1.6362 2.1286
4.7518 1.8049 2.1286
4.6826 1.9725 2.1303
4.6034 2.1356 2.1303
4.5183 2.2955 2.1303
4.4274 2.4520 2.1303
4.3310 2.6049 2.1303
4.2291 2.7539 2.1303
4.1219 2.8989 2.1303
4.0096 3.0397 2.1303
3.8924 3.1761 2.1303
3.7703 3.3079 2.1303
3.6437 3.4350 2.1303
3.5128 3.5572 2.1303
3.3776 3.6744 2.1303
3.2384 3.7864 2.1303
3.0955 3.8931 2.1303
2.9490 3.9945 2.1303
2.7991 4.0902 2.1303
2.6461 4.1804 2.1303
0.8860 1.5174 0.7579
0.8308 1.5477 0.7591
0.7745 1.5760 0.7602
0.7173 1.6023 0.7614
0.6592 1.6265 0.7626
0.6003 1.6487 0.7638
0.5405 1.6687 0.7649
0.4801 1.6865 0.7661
0.4192 1.7021 0.7673
0.3576 1.7156 0.7685
0.2957 1.7268 0.7696
0.2334 1.7358 0.7708
0.1708 1.7426 0.7719
0.1079 1.7471 0.7731
0.0450 1.7494 0.7742
-0.0179 1.7494 0.7753
-0.0809 1.7471 0.7764
-0.1437 1.7426 0.7775
-0.2063 1.7358 0.7786
-0.2686 1.7268 0.7796
-0.3306 1.7155 0.7806
-0.3921 1.7021 0.7817
-0.4531 1.6864 0.7826
-0.5135 1.6685 0.7836
-0.5732 1.6485 0.7845
-0.6321 1.6264 0.7855
-0.6902 1.6022 0.7863
-0.7475 1.5758 0.7872
-0.8037 1.5475 0.7880
-0.8589 1.5172 0.7888
-0.9129 1.4849 0.7896
-0.9658 1.4506 0.7903
-2.8728 3.9941 2.2336
-3.0122 3.8837 2.2336
-3.1476 3.7687 2.2336
-3.2788 3.6491 2.2336
-3.4057 3.5252 2.2336
-3.5281 3.3970 2.2336
-3.6460 3.2648 2.2336
-3.7592 3.1287 2.2336
-3.8675 2.9888 2.2336
-3.9709 2.8453 2.2336
-4.0693 2.6985 2.2336
-4.1625 2.5483 2.2336
-4.2504 2.3951 2.2336
-4.3330 2.2391 2.2336
-4.4101 2.0803 2.2336
-4.4818 1.9189 2.2336
-4.5478 1.7553 2.2336
-4.6081 1.5894 2.2336
-4.6627 1.4216 2.2336
-4.7114 1.2520 2.2336
-4.7543 1.0808 2.2336
-4.7913 0.9082 2.2336
-4.8224 0.7344 2.2336
-4.8474 0.5595 2.2336
-4.8664 0.3839 2.2336
-4.8794 0.2077 2.2336
-4.8862 0.0310 2.2336
-4.8870 -0.1459 2.2336
-4.8816 -0.3228 2.2336
-4.8702 -0.4995 2.2336
-4.8526 -0.6758 2.2336
-4.8289 -0.8515 2.2336
-4.7992 -1.0265 2.2336
-4.7634 -1.2004 2.2336
-4.7215 -1.3731 2.2336
-4.6737 -1.5445 2.2336
-4.6199 -1.7142 2.2336
-4.5601 -1.8821 2.2336
-4.4946 -2.0480 2.2336
-4.4232 -2.2117 2.2336
-4.3460 -2.3730 2.2336
-4.2632 -2.5317 2.2336
-4.1748 -2.6876 2.2336
-4.0810 -2.8404 2.2336
-3.9817 -2.9901 2.2336
-3.8771 -3.1364 2.2336
-3.7672 -3.2792 2.2336
-3.6523 -3.4181 2.2336
-3.5325 -3.5532 2.2336
-3.4077 -3.6841 2.2336
-3.2783 -3.8107 2.2336
-3.1443 -3.9329 2.2336
-3.0059 -4.0504 2.2336
-2.8631 -4.1632 2.2336
-2.7163 -4.2709 2.2336
-2.5655 -4.3736 2.2336
-2.4110 -4.4709 2.2336
-2.2528 -4.5629 2.2336
-2.0912 -4.6493 2.2336
-1.9264 -4.7300 2.2336
-1.7585 -4.8048 2.2336
-1.5878 -4.8738 2.2336
-1.4145 -4.9366 2.2336
-1.2388 -4.9933 2.2336
-1.0608 -5.0437 2.2336
-0.8809 -5.0878 2.2336
-0.6993 -5.1254 2.2336
-0.5161 -5.1564 2.2336
-0.3317 -5.1809 2.2336
-0.1462 -5.1987 2.2336
0.0401 -4.9019 2.2336
0.2158 -4.9056 2.2336
0.3918 -4.9028 2.2336
0.5679 -4.8936 2.2336
0.7437 -4.8779 2.2336
0.9190 -4.8559 2.2336
1.0936 -4.8274 2.2336
1.2673 -4.7925 2.2336
1.4398 -4.7512 2.2336
1.6109 -4.7035 2.2336
1.7803 -4.6495 2.2336
1.9478 -4.5893 2.2336
2.1131 -4.5228 2.2336
2.1709 -4.2445 2.1303
2.3238 -4.1695 2.1303
2.4740 -4.0889 2.1303
2.6212 -4.0026 2.1303
2.7652 -3.9109 2.1303
2.9059 -3.8138 2.1303
3.0430 -3.7115 2.1303
3.1763 -3.6041 2.1303
3.3056 -3.4917 2.1303
3.4308 -3.3745 2.1303
3.5515 -3.2526 2.1303
3.6677 -3.1263 2.1303
3.7792 -2.9956 2.1303
3.8857 -2.8608 2.1303
3.9872 -2.7221 2.1303
4.0835 -2.5796 2.1303
4.1744 -2.4336 2.1303
4.2599 -2.2842 2.1303
4.3397 -2.1317 2.1303
3.7002 -1.6568 1.7859
3.7475 -1.5202 1.7812
3.7963 -1.3848 1.7797
1.4589 -0.4741 0.6756
1.4806 -0.4235 0.6782
4.6943 -1.1636 2.1303
4.7320 -0.9956 2.1303
4.7632 -0.8263 2.1303
4.7882 -0.6560 2.1303
4.8028 -0.4845 2.1286
4.8149 -0.3131 2.1286
4.8206 -0.1414 2.1286
4.8199 0.0303 2.1286
4.8128 0.2018 2.1286
4.7994 0.3729 2.1286
4.7795 0.5432 2.1286
4.7534 0.7125 2.1286
4.7209 0.8807 2.1286
4.6823 1.0474 2.1286
4.6376 1.2124 2.1286
4.5867 1.3756 2.1286
4.5300 1.5366 2.1286
4.4673 1.6952 2.1286
4.4025 1.8528 2.1303
4.3284 2.0062 2.1303
4.2487 2.1567 2.1303
4.1636 2.3039 2.1303
4.0732 2.4477 2.1303
3.9777 2.5880 2.1303
3.8773 2.7245 2.1303
3.7720 2.8571 2.1303
3.6620 2.9855 2.1303
3.5476 3.1097 2.1303
3.4288 3.2295 2.1303
3.3059 3.3447 2.1303
3.1791 3.4552 2.1303
3.0485 3.5609 2.1303
2.9142 3.6616 2.1303
2.7767 3.7572 2.1303
2.6359 3.8477 2.1303
0.8858 1.3979 0.7572
0.8349 1.4284 0.7583
0.7830 1.4569 0.7594
0.7300 1.4836 0.7605
0.6762 1.5083 0.7616
0.6214 1.5312 0.7627
0.5659 1.5520 0.7638
0.5097 1.5708 0.7649
0.4529 1.5876 0.7660
0.3954 1.6023 0.7671
0.3375 1.6150 0.7682
0.2792 1.6256 0.7693
0.2205 1.6341 0.7704
0.1616 1.6404 0.7715
0.1024 1.6447 0.7726
0.0432 1.6468 0.7736
-0.0161 1.6468 0.7747
-0.0754 1.6447 0.7757
-0.1345 1.6404 0.7767
-0.1934 1.6340 0.7777
-0.2521 1.6255 0.7787
-0.3104 1.6149 0.7797
-0.3684 1.6023 0.7806
-0.4258 1.5875 0.7816
-0.4826 1.5707 0.7825
-0.5389 1.5519 0.7834
-0.5944 1.5310 0.7842
-0.6491 1.5082 0.7851
-0.7030 1.4834 0.7859
-0.7559 1.4568 0.7866
-0.8079 1.4282 0.7874
-0.8588 1.3978 0.7881
-0.9085 1.3655 0.7888
-0.9571 1.3316 0.7895
-2.8395 3.6633 2.2336
-2.9674 3.5549 2.2336
-3.0913 3.4422 2.2336
-3.2112 3.3254 2.2336
-3.3268 3.2046 2.2336
-3.4382 3.0800 2.2336
-3.5451 2.9516 2.2336
-3.6475 2.8197 2.2336
-3.7451 2.6844 2.2336
-3.8380 2.5458 2.2336
-3.9261 2.4042 2.2336
-4.0091 2.2597 2.2336
-4.0871 2.1124 2.2336
-4.1600 1.9626 2.2336
-4.2276 1.8103 2.2336
-4.2899 1.6559 2.2336
-4.3468 1.4993 2.2336
-4.3984 1.3410 2.2336
-4.4444 1.1809 2.2336
-4.4848 1.0193 2.2336
-4.5197 0.8564 2.2336
-4.5489 0.6923 2.2336
-4.5725 0.5273 2.2336
-4.5903 0.3616 2.2336
-4.6025 0.1952 2.2336
-4.6088 0.0285 2.2336
-4.6094 -0.1384 2.2336
-4.6042 -0.3053 2.2336
-4.5933 -0.4721 2.2336
-4.5765 -0.6384 2.2336
-4.5540 -0.8042 2.2336
-4.5258 -0.9692 2.2336
-4.4918 -1.1333 2.2336
-4.4521 -1.2962 2.2336
-4.4067 -1.4577 2.2336
-4.3557 -1.6178 2.2336
-4.2992 -1.7761 2.2336
-4.2371 -1.9324 2.2336
-4.1695 -2.0867 2.2336
-4.0965 -2.2387 2.2336
-4.0181 -2.3882 2.2336
-3.9345 -2.5351 2.2336
-3.8457 -2.6790 2.2336
-3.7518 -2.8200 2.2336
-3.6529 -2.9577 2.2336
-3.5492 -3.0921 2.2336
-3.4406 -3.2228 2.2336
-3.3273 -3.3499 2.2336
-3.2095 -3.4730 2.2336
-3.0873 -3.5921 2.2336
-2.9607 -3.7069 2.2336
-2.8300 -3.8173 2.2336
-2.6953 -3.9232 2.2336
-2.5568 -4.0244 2.2336
-2.4145 -4.1208 2.2336
-2.2687 -4.2121 2.2336
-2.1195 -4.2984 2.2336
-1.9671 -4.3793 2.2336
-1.8118 -4.4549 2.2336
-1.6535 -4.5251 2.2336
-1.4927 -4.5895 2.2336
-1.3294 -4.6483 2.2336
-1.1638 -4.7013 2.2336
-0.9962 -4.7483 2.2336
-0.8268 -4.7893 2.2336
-0.6558 -4.8243 2.2336
-0.4833 -4.8531 2.2336
-0.3097 -4.8757 2.2336
-0.1352 -4.8920 2.2336
0.0400 -4.6231 2.2336
0.2058 -4.6262 2.2336
0.3717 -4.6232 2.2336
0.5376 -4.6142 2.2336
0.7033 -4.5991 2.2336
0.8685 -4.5779 2.2336
1.0331 -4.5507 2.2336
1.1967 -4.5175 2.2336
1.3592 -4.4783 2.2336
1.5203 -4.4330 2.2336
1.6798 -4.3819 2.2336
1.8375 -4.3248 2.2336
1.9932 -4.2619 2.2336
2.0473 -3.9995 2.1303
2.1913 -3.9286 2.1303
2.3326 -3.8524 2.1303
2.4712 -3.7709 2.1303
2.6067 -3.6843 2.1303
2.7391 -3.5927 2.1303
2.8681 -3.4962 2.1303
2.9935 -3.3949 2.1303
3.1151 -3.2889 2.1303
3.2328 -3.1784 2.1303
3.3464 -3.0635 2.1303
3.4557 -2.9444 2.1303
3.5605 -2.8213 2.1303
3.6608 -2.6943 2.1303
3.7562 -2.5636 2.1303
3.8468 -2.4294 2.1303
3.9323 -2.2919 2.1303
4.0127 -2.1512 2.1303
4.0878 -2.0076 2.1303
4.1575 -1.8613 2.1303
3.9693 -1.6101 2.0030
4.0212 -1.4668 2.0014
