ply
format ascii 1.0
element vertex 2166
property float32 x
property float32 y
property float32 z
end_header
1.2204 13.5603 2.2365
0.7329 13.5954 2.2365
0.2444 13.6130 2.2365
-0.2444 13.6130 2.2365
-0.7328 13.5954 2.2365
-1.2203 13.5602 2.2365
-1.7062 13.5075 2.2365
-2.1899 13.4373 2.2365
-2.6708 13.3498 2.2365
-3.1482 13.2450 2.2365
-3.6214 13.1231 2.2365
-4.0900 12.9842 2.2365
-4.5533 12.8286 2.2365
-5.0106 12.6564 2.2365
-5.4614 12.4679 2.2365
-5.9052 12.2633 2.2365
-6.3412 12.0429 2.2365
-6.4571 11.2627 2.1334
-6.8568 11.0230 2.1334
-7.2476 10.7692 2.1334
-7.6290 10.5015 2.1334
-8.0005 10.2202 2.1334
-8.3617 9.9258 2.1334
-8.7120 9.6186 2.1334
-9.0509 9.2990 2.1334
-9.3782 8.9675 2.1334
-9.6933 8.6244 2.1334
-9.9868 8.2628 2.1315
-10.2762 7.8984 2.1315
-10.5522 7.5238 2.1315
-10.8145 7.1396 2.1315
-11.0628 6.7462 2.1315
-11.2968 6.3442 2.1315
-11.5162 5.9340 2.1315
-11.7207 5.5163 2.1315
-11.9100 5.0916 2.1315
-12.0839 4.6603 2.1315
-12.2422 4.2232 2.1315
-12.3847 3.7806 2.1315
-12.5112 3.3333 2.1315
-12.6215 2.8818 2.1315
-12.7155 2.4266 2.1315
-12.7931 1.9684 2.1315
-12.8542 1.5078 2.1315
-12.8987 1.0453 2.1315
-12.9266 0.5815 2.1315
-12.9378 0.1171 2.1315
-12.9323 -0.3473 2.1315
-12.9102 -0.8113 2.1315
-12.8714 -1.2740 2.1315
-12.8161 -1.7351 2.1315
-12.7442 -2.1938 2.1315
-12.6560 -2.6496 2.1315
-12.5515 -3.1019 2.1315
-12.4308 -3.5501 2.1315
-12.2941 -3.9936 2.1315
-12.1417 -4.4319 2.1315
-11.9736 -4.8645 2.1315
-11.7902 -5.2907 2.1315
-11.5916 -5.7100 2.1315
-11.3781 -6.1218 2.1315
-11.1500 -6.5258 2.1315
-10.9076 -6.9212 2.1315
-10.6512 -7.3077 2.1315
-10.3812 -7.6847 2.1315
-10.0978 -8.0517 2.1315
-9.8103 -8.4159 2.1334
-9.5011 -8.7620 2.1334
-9.1798 -9.0968 2.1334
-8.8467 -9.4198 2.1334
-8.5022 -9.7306 2.1334
-8.1469 -10.0289 2.1334
-7.7811 -10.3143 2.1334
-7.4054 -10.5863 2.1334
-7.0202 -10.8447 2.1334
-6.6739 -11.1692 2.1488
-6.3958 -11.6329 2.1925
-6.0936 -12.0923 2.2365
-5.6554 -12.3027 2.2365
-5.2099 -12.4973 2.2365
-4.7577 -12.6758 2.2365
-4.2994 -12.8380 2.2365
-3.8357 -12.9837 2.2365
-3.3670 -13.1127 2.2365
-2.8941 -13.2248 2.2365
-2.4174 -13.3200 2.2365
-1.9376 -13.3980 2.2365
-1.4554 -13.4587 2.2365
-0.9713 -13.5022 2.2365
-0.4859 -13.5283 2.2365
0.0000 -11.8686 2.2365
0.4261 -11.8610 2.2365
0.8516 -11.8381 2.2365
1.2761 -11.8000 2.2365
1.6554 -11.4460 2.1792
2.0218 -11.1401 2.1334
2.4205 -11.0605 2.1334
2.8161 -10.9668 2.1334
3.2080 -10.8589 2.1334
3.5959 -10.7370 2.1334
3.9791 -10.6013 2.1334
4.3573 -10.4520 2.1334
4.7299 -10.2893 2.1334
5.0964 -10.1132 2.1334
5.4564 -9.9242 2.1334
5.8723 -9.8276 2.1565
6.2216 -9.6109 2.1565
6.5630 -9.3819 2.1565
6.8959 -9.1407 2.1565
7.2200 -8.8878 2.1565
7.5349 -8.6234 2.1565
7.8401 -8.3478 2.1565
8.1352 -8.0615 2.1565
8.4199 -7.7648 2.1565
8.6939 -7.4581 2.1565
8.9566 -7.1417 2.1565
9.2079 -6.8161 2.1565
9.4474 -6.4816 2.1565
9.6747 -6.1388 2.1565
9.8896 -5.7880 2.1565
10.0918 -5.4296 2.1565
10.2811 -5.0643 2.1565
10.4571 -4.6923 2.1565
10.6197 -4.3143 2.1565
10.7687 -3.9306 2.1565
10.9038 -3.5419 2.1565
11.0248 -3.1484 2.1565
10.5783 -2.6141 2.0493
10.8905 -2.2799 2.0924
11.2855 -1.9426 2.1533
9.6989 -1.3130 1.8402
9.9889 -0.9886 1.8871
10.2950 -0.6468 1.9391
10.6197 -0.2851 1.9969
11.4646 0.1039 2.1548
9.8702 0.4441 1.8568
10.4379 0.8460 1.9679
10.6700 1.2517 2.0186
10.3495 1.5925 1.9673
11.2756 2.1519 2.1565
11.1921 2.5555 2.1565
11.0941 2.9559 2.1565
10.9818 3.3525 2.1565
10.8553 3.7448 2.1565
10.7148 4.1324 2.1565
10.5605 4.5148 2.1565
10.3925 4.8913 2.1565
10.2110 5.2616 2.1565
10.0164 5.6252 2.1565
9.8088 5.9816 2.1565
9.5885 6.3303 2.1565
9.3558 6.6709 2.1565
9.1110 7.0029 2.1565
8.7124 7.2085 2.1219
8.2312 7.3237 2.0673
7.9847 7.6351 2.0728
7.7311 7.9431 2.0796
7.4667 8.2438 2.0866
7.1916 8.5369 2.0939
2.1668 2.7680 0.6594
6.6140 9.1044 2.1108
6.3100 9.3760 2.1197
2.0428 3.2840 0.7253
5.7191 9.9756 2.1565
5.2999 10.0652 2.1332
4.9354 10.2494 2.1332
4.5645 10.4203 2.1332
4.1877 10.5777 2.1332
3.8054 10.7216 2.1332
3.4182 10.8516 2.1332
3.0266 10.9675 2.1332
2.6310 11.0693 2.1332
2.2321 11.1568 2.1332
1.8330 11.2473 2.1365
1.4950 11.8349 2.2365
1.0692 11.8810 2.2365
0.6421 11.9118 2.2365
0.2141 11.9272 2.2365
-0.2141 11.9272 2.2365
-0.6421 11.9117 2.2365
-1.0692 11.8809 2.2365
-1.4949 11.8347 2.2365
-1.9187 11.7733 2.2365
-2.3400 11.6966 2.2365
-2.7583 11.6049 2.2365
-3.1730 11.4981 2.2365
-3.5835 11.3765 2.2365
-3.9894 11.2402 2.2365
-4.3902 11.0894 2.2365
-4.7852 10.9242 2.2365
-5.1740 10.7450 2.2365
-5.5561 10.5519 2.2365
-5.9310 10.3452 2.2365
-6.2982 10.1252 2.2365
-6.4305 9.5552 2.1603
-6.6846 9.2016 2.1334
-7.0102 8.9553 2.1334
-7.3267 8.6973 2.1334
-7.6337 8.4282 2.1334
-7.9308 8.1483 2.1334
-8.2176 7.8579 2.1334
-8.4938 7.5573 2.1334
-8.7590 7.2470 2.1334
-9.0128 6.9275 2.1334
-9.2550 6.5990 2.1334
-9.4851 6.2621 2.1334
-9.7030 5.9171 2.1334
-9.8995 5.5596 2.1315
-10.0919 5.2003 2.1315
-10.2712 4.8343 2.1315
-10.4372 4.4621 2.1315
-10.5898 4.0842 2.1315
-10.7286 3.7011 2.1315
-10.8536 3.3134 2.1315
-10.9646 2.9214 2.1315
-11.0614 2.5257 2.1315
-11.1439 2.1268 2.1315
-11.2121 1.7253 2.1315
-11.2657 1.3216 2.1315
-11.3049 0.9162 2.1315
-11.3295 0.5098 2.1315
-11.3394 0.1028 2.1315
-11.3348 -0.3043 2.1315
-11.3155 -0.7109 2.1315
-11.2817 -1.1166 2.1315
-11.2333 -1.5207 2.1315
-11.1705 -1.9228 2.1315
-11.0933 -2.3223 2.1315
-11.0018 -2.7188 2.1315
-10.8961 -3.1117 2.1315
-10.7765 -3.5005 2.1315
-10.6430 -3.8848 2.1315
-10.4958 -4.2639 2.1315
-10.3351 -4.6376 2.1315
-10.1611 -5.0052 2.1315
-9.9741 -5.3663 2.1315
-9.7830 -5.7256 2.1334
-9.5704 -6.0726 2.1334
-9.3455 -6.4118 2.1334
-9.1087 -6.7426 2.1334
-8.8601 -7.0648 2.1334
-8.6002 -7.3777 2.1334
-8.3293 -7.6812 2.1334
-8.0476 -7.9748 2.1334
-7.7557 -8.2580 2.1334
-7.4538 -8.5306 2.1334
-7.1423 -8.7922 2.1334
-6.8217 -9.0424 2.1334
-6.4924 -9.2810 2.1334
-6.3876 -9.8674 2.2141
-6.0899 -10.1917 2.2365
-5.7198 -10.4033 2.2365
-5.3424 -10.6015 2.2365
-4.9582 -10.7861 2.2365
-4.5677 -10.9567 2.2365
-4.1713 -11.1133 2.2365
-3.7695 -11.2555 2.2365
-3.3629 -11.3833 2.2365
-2.9520 -11.4964 2.2365
-2.5374 -11.5948 2.2365
-2.1195 -11.6782 2.2365
-1.6988 -11.7466 2.2365
-1.2760 -11.7999 2.2365
-0.8516 -11.8380 2.2365
-0.4261 -11.8609 2.2365
0.0000 -10.5564 2.2365
0.3790 -10.5496 2.2365
0.7575 -10.5293 2.2365
1.1350 -10.4954 2.2365
1.5111 -10.4480 2.2365
1.7983 -9.9084 2.1334
2.1529 -9.8376 2.1334
2.5047 -9.7542 2.1334
2.8533 -9.6582 2.1334
3.1983 -9.5498 2.1334
3.5392 -9.4291 2.1334
3.8755 -9.2962 2.1334
4.2069 -9.1514 2.1334
4.5329 -8.9948 2.1334
4.8530 -8.8267 2.1334
5.1670 -8.6471 2.1334
5.4743 -8.4564 2.1334
5.8371 -8.3442 2.1565
6.1332 -8.1296 2.1565
6.4215 -7.9046 2.1565
6.7014 -7.6694 2.1565
6.9728 -7.4243 2.1565
7.2353 -7.1696 2.1565
7.4884 -6.9057 2.1565
7.7320 -6.6328 2.1565
7.9656 -6.3514 2.1565
8.1890 -6.0617 2.1565
8.4019 -5.7643 2.1565
8.6040 -5.4593 2.1565
8.7951 -5.1473 2.1565
8.9749 -4.8286 2.1565
9.1431 -4.5036 2.1565
9.2995 -4.1728 2.1565
9.4441 -3.8366 2.1565
9.5764 -3.4954 2.1565
9.6965 -3.1496 2.1565
9.8041 -2.7997 2.1565
9.8990 -2.4462 2.1565
9.9813 -2.0894 2.1565
10.0506 -1.7299 2.1565
9.7490 -1.3196 2.0801
10.0418 -0.9937 2.1334
10.1809 -0.6395 2.1565
10.1981 -0.2737 2.1565
10.2022 0.0926 2.1565
9.9413 0.4474 2.1032
10.1709 0.8244 2.1565
10.1356 1.1891 2.1565
10.0872 1.5523 2.1565
10.0258 1.9135 2.1565
9.9514 2.2723 2.1565
9.8642 2.6283 2.1565
9.7643 2.9809 2.1565
9.6518 3.3297 2.1565
9.5268 3.6743 2.1565
9.3894 4.0142 2.1565
9.2400 4.3490 2.1565
9.0786 4.6782 2.1565
8.9054 5.0014 2.1565
8.7208 5.3182 2.1565
8.5249 5.6282 2.1565
8.3179 5.9310 2.1565
8.1002 6.2261 2.1565
7.8720 6.5132 2.1565
7.6336 6.7920 2.1565
7.3853 7.0621 2.1565
7.0156 7.2081 2.1226
6.7063 7.4044 2.1081
6.4588 7.6672 2.1153
2.1665 2.7677 0.7416
5.9349 8.1697 2.1305
5.6587 8.4083 2.1383
2.0428 3.2840 0.8159
5.0295 8.7728 2.1332
4.7115 8.9480 2.1332
4.3875 9.1117 2.1332
4.0577 9.2636 2.1332
3.7227 9.4035 2.1332
3.3829 9.5314 2.1332
3.0387 9.6469 2.1332
2.6906 9.7499 2.1332
2.3389 9.8404 2.1332
1.9842 9.9182 2.1332
1.6318 10.0126 2.1396
1.3290 10.5209 2.2365
0.9505 10.5619 2.2365
0.5708 10.5893 2.2365
0.1904 10.6030 2.2365
-0.1903 10.6030 2.2365
-0.5708 10.5893 2.2365
-0.9505 10.5619 2.2365
-1.3289 10.5208 2.2365
-1.7057 10.4662 2.2365
-2.0802 10.3981 2.2365
-2.4520 10.3165 2.2365
-2.8207 10.2216 2.2365
-3.1857 10.1136 2.2365
-3.5465 9.9924 2.2365
-3.9028 9.8584 2.2365
-4.2540 9.7116 2.2365
-4.5997 9.5524 2.2365
-4.9394 9.3808 2.2365
-5.2727 9.1970 2.2365
-5.5991 9.0015 2.2365
-5.9184 8.7943 2.2365
-6.2299 8.5758 2.2365
-6.4249 8.2076 2.1994
-6.5136 7.7323 2.1334
-6.7866 7.4931 2.1334
-7.0508 7.2442 2.1334
-7.3058 6.9861 2.1334
-7.5514 6.7189 2.1334
-7.7872 6.4431 2.1334
-8.0130 6.1591 2.1334
-8.2283 5.8671 2.1334
-8.4330 5.5676 2.1334
-8.6268 5.2609 2.1334
-8.8095 4.9475 2.1334
-8.9807 4.6278 2.1334
-9.1404 4.3021 2.1334
-6.7064 2.8672 1.5404
-6.9573 2.6833 1.5750
-9.5477 3.2939 2.1334
-9.6590 2.9488 2.1334
-9.7579 2.6000 2.1334
-9.8441 2.2479 2.1334
-9.9088 1.8912 2.1315
-9.9695 1.5342 2.1315
-10.0173 1.1752 2.1315
-10.0522 0.8148 2.1315
-10.0742 0.4534 2.1315
-10.0831 0.0915 2.1315
-10.0791 -0.2705 2.1315
-10.0621 -0.6321 2.1315
-10.0321 -0.9928 2.1315
-9.9892 -1.3521 2.1315
-9.9334 -1.7097 2.1315
-9.8648 -2.0650 2.1315
-9.7923 -2.4198 2.1334
-9.6984 -2.7695 2.1334
-9.5920 -3.1156 2.1334
-9.4732 -3.4577 2.1334
-9.3423 -3.7952 2.1334
-9.1992 -4.1278 2.1334
-9.0446 -4.4551 2.1334
-8.8782 -4.7766 2.1334
-8.7003 -5.0918 2.1334
-8.5114 -5.4005 2.1334
-8.3115 -5.7022 2.1334
-8.1009 -5.9965 2.1334
-7.8799 -6.2830 2.1334
-7.6488 -6.5614 2.1334
-7.4078 -6.8314 2.1334
-7.1574 -7.0925 2.1334
-6.8978 -7.3445 2.1334
-6.6745 -7.6386 2.1480
-6.4121 -7.8931 2.1535
-6.3604 -8.4308 2.2365
-6.0534 -8.6533 2.2365
-5.7386 -8.8647 2.2365
-5.4164 -9.0646 2.2365
-5.0873 -9.2528 2.2365
-4.7517 -9.4292 2.2365
-4.4100 -9.5933 2.2365
-4.0626 -9.7452 2.2365
-3.7101 -9.8844 2.2365
-3.3527 -10.0110 2.2365
-2.9911 -10.1247 2.2365
-2.6257 -10.2253 2.2365
-2.2568 -10.3128 2.2365
-1.8851 -10.3870 2.2365
-1.5110 -10.4479 2.2365
-1.1350 -10.4953 2.2365
-0.7574 -10.5292 2.2365
-0.3790 -10.5496 2.2365
0.0000 -9.4964 2.2365
0.3409 -9.4903 2.2365
0.6814 -9.4720 2.2365
1.0210 -9.4415 2.2365
1.3593 -9.3989 2.2365
1.6522 -9.1034 2.1789
1.9367 -8.8497 2.1334
2.2532 -8.7747 2.1334
2.5668 -8.6883 2.1334
2.8772 -8.5907 2.1334
3.1838 -8.4822 2.1334
3.4863 -8.3626 2.1334
3.7844 -8.2323 2.1334
4.0777 -8.0914 2.1334
4.3657 -7.9401 2.1334
4.6481 -7.7786 2.1334
4.9245 -7.6070 2.1334
5.1947 -7.4256 2.1334
5.4581 -7.2347 2.1334
5.7764 -7.1105 2.1565
6.0283 -6.8989 2.1565
6.2724 -6.6784 2.1565
6.5084 -6.4492 2.1565
6.7361 -6.2118 2.1565
6.9551 -5.9663 2.1565
7.1653 -5.7131 2.1565
7.3662 -5.4525 2.1565
7.5576 -5.1849 2.1565
7.7394 -4.9106 2.1565
7.9112 -4.6299 2.1565
8.0728 -4.3432 2.1565
8.2241 -4.0508 2.1565
8.3647 -3.7533 2.1565
8.4947 -3.4508 2.1565
8.6137 -3.1439 2.1565
8.7216 -2.8328 2.1565
8.8183 -2.5181 2.1565
8.9036 -2.2001 2.1565
8.9775 -1.8792 2.1565
9.0399 -1.5558 2.1565
9.0906 -1.2304 2.1565
9.1295 -0.9034 2.1565
9.1568 -0.5751 2.1565
9.1722 -0.2461 2.1565
9.1758 0.0834 2.1565
9.1676 0.4127 2.1565
9.1475 0.7416 2.1565
9.1157 1.0695 2.1565
9.0721 1.3962 2.1565
9.0168 1.7210 2.1565
8.9499 2.0437 2.1565
8.8714 2.3638 2.1565
8.7814 2.6810 2.1565
8.6801 2.9946 2.1565
8.5676 3.3045 2.1565
8.4441 3.6102 2.1565
8.3096 3.9112 2.1565
8.1644 4.2072 2.1565
8.0087 4.4979 2.1565
7.8426 4.7827 2.1565
7.6663 5.0615 2.1565
7.4802 5.3337 2.1565
7.2843 5.5991 2.1565
7.0791 5.8573 2.1565
6.8646 6.1080 2.1565
6.6413 6.3507 2.1565
6.4094 6.5854 2.1565
6.1692 6.8115 2.1565
5.9211 7.0289 2.1565
2.1662 2.7673 0.8246
5.3438 7.3561 2.1332
5.0765 7.5435 2.1332
2.0428 3.2841 0.9074
4.5226 7.8888 2.1332
4.2367 8.0463 2.1332
3.9453 8.1935 2.1332
3.6488 8.3301 2.1332
3.3476 8.4559 2.1332
3.0420 8.5708 2.1332
2.7324 8.6747 2.1332
2.4194 8.7673 2.1332
2.1032 8.8487 2.1332
1.7842 8.9186 2.1332
1.5338 9.4115 2.2365
1.1950 9.4606 2.2365
0.8547 9.4974 2.2365
0.5133 9.5220 2.2365
0.1712 9.5343 2.2365
-0.1711 9.5343 2.2365
-0.5132 9.5220 2.2365
-0.8547 9.4974 2.2365
-1.1950 9.4605 2.2365
-1.5338 9.4114 2.2365
-1.8705 9.3501 2.2365
-2.2049 9.2768 2.2365
-2.5364 9.1915 2.2365
-2.8646 9.0943 2.2365
-3.1891 8.9855 2.2365
-3.5094 8.8650 2.2365
-3.8253 8.7330 2.2365
-4.1361 8.5898 2.2365
-4.4416 8.4355 2.2365
-4.7413 8.2704 2.2365
-5.0349 8.0945 2.2365
-5.3220 7.9083 2.2365
-5.6022 7.7118 2.2365
-5.8751 7.5054 2.2365
-6.1404 7.2894 2.2365
-6.3978 7.0639 2.2365
-6.4292 6.6057 2.1633
-6.5699 6.2824 2.1334
-6.7908 6.0422 2.1334
-7.0029 5.7943 2.1334
-7.2059 5.5389 2.1334
-7.3996 5.2763 2.1334
-7.5838 5.0070 2.1334
-7.7581 4.7313 2.1334
-7.9224 4.4495 2.1334
-8.0765 4.1619 2.1334
-8.2201 3.8691 2.1334
-6.6992 2.8642 1.7110
-6.9382 2.6761 1.7465
-8.5866 2.9624 2.1334
-8.6868 2.6521 2.1334
-8.7758 2.3384 2.1334
-8.8534 2.0217 2.1334
-8.9196 1.7025 2.1334
-8.9743 1.3811 2.1334
-9.0175 1.0580 2.1334
-9.0490 0.7336 2.1334
-9.0688 0.4083 2.1334
-9.0769 0.0825 2.1334
-9.0734 -0.2434 2.1334
-9.0581 -0.5689 2.1334
-9.0312 -0.8936 2.1334
-8.9926 -1.2171 2.1334
-8.9425 -1.5391 2.1334
-8.8808 -1.8589 2.1334
-8.8077 -2.1764 2.1334
-8.7233 -2.4910 2.1334
-8.6276 -2.8023 2.1334
-8.5209 -3.1100 2.1334
-8.4032 -3.4136 2.1334
-8.2747 -3.7128 2.1334
-8.1352 -4.0071 2.1333
-7.9857 -4.2963 2.1334
-7.8259 -4.5799 2.1334
-7.6560 -4.8577 2.1334
-7.4763 -5.1291 2.1334
-7.2869 -5.3939 2.1334
-7.0882 -5.6516 2.1334
-6.8803 -5.9021 2.1334
-6.6810 -6.1610 2.1390
-6.4384 -6.3799 2.1334
-6.3945 -6.8084 2.1986
-6.2516 -7.1545 2.2365
-5.9904 -7.3740 2.2365
-5.7216 -7.5839 2.2365
-5.4454 -7.7841 2.2365
-5.1623 -7.9743 2.2365
-4.8725 -8.1542 2.2365
-4.5764 -8.3235 2.2365
-4.2745 -8.4822 2.2365
-3.9671 -8.6299 2.2365
-3.6547 -8.7665 2.2365
-3.3375 -8.8918 2.2365
-3.0161 -9.0057 2.2365
-2.6908 -9.1080 2.2365
-2.3620 -9.1985 2.2365
-2.0302 -9.2772 2.2365
-1.6959 -9.3440 2.2365
-1.3593 -9.3988 2.2365
-1.0210 -9.4414 2.2365
-0.6814 -9.4719 2.2365
-0.3409 -9.4903 2.2365
0.0000 -8.6215 2.2365
0.3095 -8.6159 2.2365
0.6187 -8.5993 2.2365
0.9270 -8.5716 2.2365
1.2341 -8.5329 2.2365
1.5397 -8.4832 2.2365
1.7583 -8.0343 2.1334
2.0456 -7.9662 2.1334
2.3303 -7.8878 2.1334
2.6121 -7.7992 2.1334
2.8905 -7.7006 2.1334
3.1651 -7.5920 2.1334
3.4357 -7.4737 2.1334
3.7019 -7.3458 2.1334
3.9634 -7.2084 2.1334
4.2198 -7.0617 2.1334
4.4707 -6.9059 2.1334
4.7160 -6.7412 2.1334
4.9551 -6.5678 2.1334
5.1879 -6.3860 2.1334
5.4141 -6.1959 2.1334
5.6333 -5.9978 2.1334
5.9085 -5.8547 2.1565
6.1152 -5.6391 2.1565
6.3140 -5.4162 2.1565
6.5047 -5.1863 2.1565
6.6871 -4.9498 2.1565
6.8608 -4.7068 2.1565
7.0258 -4.4577 2.1565
7.1817 -4.2029 2.1565
7.3284 -3.9426 2.1565
7.4657 -3.6772 2.1565
7.5933 -3.4070 2.1565
7.7112 -3.1324 2.1565
7.8192 -2.8538 2.1565
7.9171 -2.5714 2.1565
8.0048 -2.2857 2.1565
8.0823 -1.9970 2.1565
8.1493 -1.7057 2.1565
8.2058 -1.4122 2.1565
8.2518 -1.1168 2.1565
8.2871 -0.8199 2.1565
8.3118 -0.5219 2.1565
8.3257 -0.2233 2.1565
8.3289 0.0757 2.1565
8.3214 0.3747 2.1565
8.3032 0.6732 2.1565
8.2742 0.9709 2.1565
8.2346 1.2674 2.1565
8.1843 1.5622 2.1565
8.1235 1.8551 2.1565
8.0522 2.1457 2.1565
7.9706 2.4335 2.1565
7.8786 2.7182 2.1565
7.7764 2.9994 2.1565
7.6642 3.2768 2.1565
7.5422 3.5500 2.1565
7.4103 3.8187 2.1565
7.2689 4.0825 2.1565
7.1181 4.3410 2.1565
6.9581 4.5940 2.1565
6.7891 4.8411 2.1565
6.6113 5.0819 2.1565
6.4250 5.3162 2.1565
6.2304 5.5437 2.1565
6.0277 5.7640 2.1565
5.8172 5.9769 2.1565
5.5388 6.1155 2.1332
5.3159 6.3107 2.1332
2.1660 2.7670 0.9084
4.8499 6.6763 2.1332
4.6073 6.8463 2.1332
2.0428 3.2842 0.9998
4.1046 7.1597 2.1332
3.8451 7.3027 2.1332
3.5806 7.4362 2.1332
3.3115 7.5601 2.1332
3.0381 7.6743 2.1332
2.7608 7.7786 2.1332
2.4798 7.8728 2.1332
2.1957 7.9569 2.1332
1.9087 8.0307 2.1332
1.6302 8.1486 2.1476
1.3920 8.5415 2.2365
1.0846 8.5860 2.2365
0.7757 8.6195 2.2365
0.4658 8.6418 2.2365
0.1554 8.6529 2.2365
-0.1553 8.6529 2.2365
-0.4658 8.6418 2.2365
-0.7756 8.6194 2.2365
-1.0845 8.5860 2.2365
-1.3920 8.5414 2.2365
-1.6976 8.4858 2.2365
-2.0011 8.4193 2.2365
-2.3019 8.3419 2.2365
-2.5998 8.2537 2.2365
-2.8943 8.1549 2.2365
-3.1850 8.0456 2.2365
-3.4717 7.9259 2.2365
-3.7538 7.7959 2.2365
-4.0311 7.6559 2.2365
-4.3031 7.5060 2.2365
-4.5696 7.3465 2.2365
-4.8301 7.1775 2.2365
-5.0844 6.9992 2.2365
-5.3322 6.8119 2.2365
-5.5730 6.6158 2.2365
-5.8066 6.4112 2.2365
-6.0327 6.1984 2.2365
-6.2510 5.9776 2.2365
-6.4243 5.7163 2.2237
-6.4300 5.3204 2.1583
-6.5402 5.0272 2.1334
-6.7160 4.7890 2.1334
-6.8832 4.5446 2.1334
-7.0415 4.2943 2.1334
-7.1907 4.0386 2.1334
-7.3306 3.7776 2.1334
-7.4610 3.5119 2.1334
-6.6919 2.8611 1.8830
-6.9190 2.6687 1.9188
-7.7938 2.6889 2.1334
-7.8847 2.4073 2.1334
-7.9655 2.1226 2.1334
-8.0361 1.8352 2.1334
-8.0962 1.5454 2.1334
-8.1459 1.2537 2.1334
-8.1851 0.9604 2.1334
-8.2138 0.6660 2.1334
-8.2318 0.3707 2.1334
-8.2392 0.0749 2.1334
-8.2361 -0.2209 2.1334
-8.2223 -0.5163 2.1334
-8.1979 -0.8111 2.1334
-8.1629 -1.1048 2.1334
-8.1175 -1.3970 2.1334
-8.0615 -1.6874 2.1334
-7.9953 -1.9755 2.1334
-7.9187 -2.2611 2.1334
-7.8319 -2.5438 2.1334
-7.7350 -2.8231 2.1334
-7.6282 -3.0987 2.1334
-7.5116 -3.3704 2.1334
-7.3853 -3.6376 2.1334
-7.2491 -3.8999 2.1333
-7.1041 -4.1574 2.1333
-6.9499 -4.4096 2.1333
-6.7868 -4.6560 2.1333
-6.6545 -4.9256 2.1461
-6.4347 -5.1305 2.1334
-6.3998 -5.4899 2.1859
-6.3417 -5.8480 2.2365
-6.1274 -6.0716 2.2365
-5.9052 -6.2874 2.2365
-5.6754 -6.4950 2.2365
-5.4384 -6.6943 2.2365
-5.1943 -6.8850 2.2365
-4.9436 -7.0667 2.2365
-4.6866 -7.2394 2.2365
-4.4235 -7.4027 2.2365
-4.1548 -7.5565 2.2365
-3.8807 -7.7005 2.2365
-3.6016 -7.8347 2.2365
-3.3179 -7.9587 2.2365
-3.0300 -8.0725 2.2365
-2.7382 -8.1759 2.2365
-2.4429 -8.2688 2.2365
-2.1444 -8.3510 2.2365
-1.8432 -8.4225 2.2365
-1.5396 -8.4831 2.2365
-1.2341 -8.5328 2.2365
-0.9269 -8.5716 2.2365
-0.6186 -8.5993 2.2365
-0.3095 -8.6159 2.2365
0.0000 -7.8863 2.2365
0.2831 -7.8813 2.2365
0.5659 -7.8661 2.2365
0.8479 -7.8407 2.2365
1.1289 -7.8053 2.2365
1.4084 -7.7598 2.2365
1.6495 -7.5372 2.1880
1.8712 -7.2869 2.1334
2.1317 -7.2151 2.1334
2.3894 -7.1341 2.1334
2.6440 -7.0439 2.1334
2.8952 -6.9446 2.1334
3.1428 -6.8363 2.1334
3.3863 -6.7193 2.1334
3.6254 -6.5936 2.1334
3.8599 -6.4594 2.1334
4.0895 -6.3169 2.1334
4.3138 -6.1662 2.1334
4.5325 -6.0076 2.1334
4.7455 -5.8413 2.1334
4.9523 -5.6674 2.1334
5.1528 -5.4862 2.1334
5.3467 -5.2979 2.1334
5.5337 -5.1028 2.1334
5.7754 -4.9541 2.1565
5.9498 -4.7438 2.1565
6.1166 -4.5274 2.1565
6.2755 -4.3051 2.1565
6.4263 -4.0773 2.1565
6.5689 -3.8442 2.1565
6.7030 -3.6061 2.1565
6.8286 -3.3633 2.1565
6.9453 -3.1162 2.1565
7.0531 -2.8650 2.1565
7.1518 -2.6101 2.1565
7.2414 -2.3519 2.1565
7.3216 -2.0905 2.1565
7.3923 -1.8265 2.1565
7.4536 -1.5600 2.1565
7.5053 -1.2915 2.1565
7.5473 -1.0213 2.1565
7.5795 -0.7498 2.1565
7.6020 -0.4773 2.1565
7.6148 -0.2041 2.1565
7.6177 0.0694 2.1565
7.6107 0.3428 2.1565
7.5940 0.6158 2.1565
7.5675 0.8881 2.1565
7.5312 1.1592 2.1565
7.4852 1.4289 2.1565
7.4295 1.6967 2.1565
7.3643 1.9624 2.1565
7.2896 2.2257 2.1565
7.2054 2.4860 2.1565
7.1119 2.7432 2.1565
7.0093 2.9969 2.1565
6.8976 3.2468 2.1565
6.7770 3.4924 2.1565
6.6477 3.7337 2.1565
6.5097 3.9701 2.1565
6.3634 4.2014 2.1565
6.2088 4.4273 2.1565
6.0462 4.6476 2.1565
5.8757 4.8618 2.1565
5.6363 5.0152 2.1332
5.4529 5.2145 2.1332
5.2625 5.4071 2.1332
5.0652 5.5927 2.1332
4.8614 5.7712 2.1332
2.1657 2.7667 0.9933
4.4352 6.1055 2.1332
4.2134 6.2610 2.1332
2.0428 3.2842 1.0933
3.7536 6.5475 2.1332
3.5163 6.6782 2.1332
3.2744 6.8003 2.1332
3.0283 6.9136 2.1332
2.7783 7.0180 2.1332
2.5246 7.1134 2.1332
2.2677 7.1996 2.1332
2.0079 7.2764 2.1332
1.7455 7.3439 2.1332
1.5525 7.7602 2.2365
1.2729 7.8110 2.2365
0.9918 7.8517 2.2365
0.7093 7.8823 2.2365
0.4260 7.9027 2.2365
0.1421 7.9129 2.2365
-0.1420 7.9129 2.2365
-0.4259 7.9027 2.2365
-0.7093 7.8822 2.2365
-0.9917 7.8517 2.2365
-1.2729 7.8109 2.2365
-1.5524 7.7601 2.2365
-1.8299 7.6993 2.2365
-2.1050 7.6285 2.2365
-2.3774 7.5479 2.2365
-2.6467 7.4575 2.2365
-2.9126 7.3576 2.2365
-3.1748 7.2481 2.2365
-3.4328 7.1293 2.2365
-3.6863 7.0013 2.2365
-3.9351 6.8642 2.2365
-4.1788 6.7184 2.2365
-4.4171 6.5638 2.2365
-4.6497 6.4008 2.2365
-4.8762 6.2295 2.2365
-5.0965 6.0503 2.2365
-5.3101 5.8632 2.2365
-5.5169 5.6686 2.2365
-5.7166 5.4666 2.2365
-5.9088 5.2577 2.2365
-6.0934 5.0420 2.2365
-6.2701 4.8198 2.2365
-6.4240 4.5809 2.2314
-6.4253 4.2423 2.1776
-6.4397 3.9274 2.1334
-6.5761 3.6935 2.1334
-6.7041 3.4549 2.1334
-6.8234 3.2118 2.1334
-6.6845 2.8580 2.0567
-6.8997 2.6614 2.0923
-7.1279 2.4593 2.1334
-7.2111 2.2017 2.1334
-7.2850 1.9413 2.1334
-7.3496 1.6785 2.1334
-7.4046 1.4135 2.1334
-7.4501 1.1467 2.1334
-7.4860 0.8785 2.1334
-7.5123 0.6092 2.1334
-7.5288 0.3391 2.1334
-7.5357 0.0686 2.1334
-7.5328 -0.2019 2.1334
-7.5202 -0.4722 2.1334
-7.4979 -0.7418 2.1334
-7.4660 -1.0104 2.1334
-7.4245 -1.2776 2.1334
-7.3734 -1.5432 2.1334
-7.3128 -1.8068 2.1334
-7.2428 -2.0680 2.1334
-7.1634 -2.3266 2.1334
-7.0749 -2.5821 2.1334
-6.9772 -2.8342 2.1334
-6.8706 -3.0827 2.1334
-6.7551 -3.3271 2.1334
-6.6309 -3.5673 2.1334
-6.4982 -3.8028 2.1334
-6.4086 -4.0661 2.1507
-6.3953 -4.3873 2.1978
-6.3432 -4.6951 2.2365
-6.1702 -4.9196 2.2365
-5.9893 -5.1377 2.2365
-5.8008 -5.3491 2.2365
-5.6048 -5.5537 2.2365
-5.4015 -5.7510 2.2365
-5.1914 -5.9410 2.2365
-4.9745 -6.1233 2.2365
-4.7513 -6.2977 2.2365
-4.5220 -6.4640 2.2365
-4.2869 -6.6219 2.2365
-4.0463 -6.7713 2.2365
-3.8005 -6.9120 2.2365
-3.5498 -7.0438 2.2365
-3.2945 -7.1665 2.2365
-3.0350 -7.2800 2.2365
-2.7717 -7.3841 2.2365
-2.5047 -7.4787 2.2365
-2.2346 -7.5637 2.2365
-1.9616 -7.6389 2.2365
-1.6860 -7.7043 2.2365
-1.4084 -7.7597 2.2365
-1.1289 -7.8052 2.2365
-0.8479 -7.8407 2.2365
-0.5659 -7.8660 2.2365
-0.2831 -7.8813 2.2365
0.0000 -7.2594 2.2365
0.2606 -7.2547 2.2365
0.5209 -7.2407 2.2365
0.7805 -7.2174 2.2365
1.0392 -7.1848 2.2365
1.2965 -7.1429 2.2365
1.5521 -7.0919 2.2365
1.7225 -6.7075 2.1334
1.9622 -6.6415 2.1334
2.1994 -6.5669 2.1334
2.4338 -6.4838 2.1334
2.6651 -6.3924 2.1334
2.8929 -6.2928 2.1334
3.1171 -6.1850 2.1334
3.3372 -6.0693 2.1334
3.5530 -5.9458 2.1334
3.7643 -5.8146 2.1334
3.9708 -5.6759 2.1334
4.1721 -5.5299 2.1334
4.3681 -5.3767 2.1334
4.5585 -5.2166 2.1334
4.7430 -5.0498 2.1334
4.9215 -4.8765 2.1334
5.0936 -4.6969 2.1334
5.2591 -4.5112 2.1334
5.4180 -4.3197 2.1334
5.5698 -4.1226 2.1334
5.7763 -3.9626 2.1565
5.9151 -3.7529 2.1565
6.0464 -3.5383 2.1565
6.1698 -3.3191 2.1565
6.2853 -3.0956 2.1565
6.3927 -2.8682 2.1565
6.4919 -2.6370 2.1565
6.5828 -2.4024 2.1565
6.6651 -2.1646 2.1565
6.7389 -1.9241 2.1565
6.8040 -1.6810 2.1565
6.8604 -1.4358 2.1565
6.9079 -1.1887 2.1565
6.9465 -0.9400 2.1565
6.9762 -0.6901 2.1565
6.9969 -0.4392 2.1565
7.0086 -0.1878 2.1565
7.0112 0.0639 2.1565
7.0048 0.3156 2.1565
6.9894 0.5668 2.1565
6.9649 0.8174 2.1565
6.9315 1.0670 2.1565
6.8891 1.3152 2.1565
6.8379 1.5617 2.1565
6.7778 1.8062 2.1565
6.7090 2.0485 2.1565
6.6315 2.2881 2.1565
6.5455 2.5248 2.1565
6.4510 2.7583 2.1565
6.3482 2.9882 2.1565
6.2371 3.2143 2.1565
6.1181 3.4363 2.1565
5.9911 3.6539 2.1565
5.8564 3.8667 2.1565
5.7141 4.0746 2.1565
5.5044 4.2312 2.1332
5.3492 4.4262 2.1332
5.1871 4.6156 2.1332
5.0184 4.7990 2.1332
4.8431 4.9762 2.1332
4.6615 5.1471 2.1332
4.4740 5.3113 2.1332
2.1654 2.7664 1.0791
4.0817 5.6189 2.1332
3.8775 5.7620 2.1332
2.0428 3.2843 1.1880
3.4544 6.0257 2.1332
3.2360 6.1460 2.1332
3.0134 6.2583 2.1332
2.7869 6.3626 2.1332
2.5568 6.4586 2.1332
2.3234 6.5464 2.1332
2.0870 6.6257 2.1332
1.8478 6.6964 2.1332
1.6271 6.8459 2.1608
1.4287 7.1416 2.2365
1.1715 7.1883 2.2365
0.9127 7.2258 2.2365
0.6528 7.2539 2.2365
0.3920 7.2727 2.2365
0.1307 7.2821 2.2365
-0.1307 7.2821 2.2365
-0.3920 7.2727 2.2365
-0.6527 7.2539 2.2365
-0.9127 7.2258 2.2365
-1.1714 7.1883 2.2365
-1.4286 7.1415 2.2365
-1.6840 7.0855 2.2365
-1.9372 7.0204 2.2365
-2.1879 6.9463 2.2365
-2.4357 6.8631 2.2365
-2.6804 6.7711 2.2365
-2.9217 6.6704 2.2365
-3.1591 6.5611 2.2365
-3.3925 6.4433 2.2365
-3.6215 6.3172 2.2365
-3.8457 6.1829 2.2365
-4.0650 6.0407 2.2365
-4.2791 5.8907 2.2365
-4.4876 5.7331 2.2365
-4.6903 5.5682 2.2365
-4.8869 5.3960 2.2365
-5.0773 5.2169 2.2365
-5.2610 5.0311 2.2365
-5.4380 4.8388 2.2365
-5.6079 4.6403 2.2365
-5.7705 4.4358 2.2365
-5.9258 4.2256 2.2365
-6.0733 4.0100 2.2365
-6.2130 3.7892 2.2365
-6.3447 3.5636 2.2365
-6.4237 3.3105 2.2211
-6.4239 3.0239 2.1823
-6.4313 2.7499 2.1500
-6.4751 2.4977 2.1334
-6.5602 2.2635 2.1334
-6.6368 2.0265 2.1334
-6.7049 1.7868 2.1334
-6.7643 1.5449 2.1334
-6.8150 1.3010 2.1334
-6.8569 1.0555 2.1334
-6.8900 0.8086 2.1334
-6.9142 0.5608 2.1334
-6.9294 0.3122 2.1334
-6.9358 0.0633 2.1334
-6.9332 -0.1858 2.1334
-6.9216 -0.4345 2.1334
-6.9012 -0.6826 2.1334
-6.8718 -0.9299 2.1334
-6.8336 -1.1759 2.1334
-6.7866 -1.4203 2.1334
-6.7308 -1.6630 2.1334
-6.6664 -1.9034 2.1334
-6.6138 -2.1480 2.1400
-6.5120 -2.3765 2.1334
-6.4331 -2.6131 2.1371
-6.4259 -2.8831 2.1678
-6.4222 -3.1631 2.2036
-6.3984 -3.4421 2.2365
-6.2704 -3.6694 2.2365
-6.1343 -3.8919 2.2365
-5.9903 -4.1094 2.2365
-5.8387 -4.3216 2.2365
-5.6795 -4.5282 2.2365
-5.5130 -4.7290 2.2365
-5.3395 -4.9236 2.2365
-5.1591 -5.1119 2.2365
-4.9720 -5.2936 2.2365
-4.7786 -5.4685 2.2365
-4.5790 -5.6363 2.2365
-4.3736 -5.7969 2.2365
-4.1625 -5.9500 2.2365
-3.9461 -6.0954 2.2365
-3.7246 -6.2329 2.2365
-3.4983 -6.3624 2.2365
-3.2676 -6.4837 2.2365
-3.0326 -6.5967 2.2365
-2.7938 -6.7012 2.2365
-2.5513 -6.7970 2.2365
-2.3056 -6.8841 2.2365
-2.0570 -6.9623 2.2365
-1.8057 -7.0316 2.2365
-1.5520 -7.0918 2.2365
-1.2964 -7.1428 2.2365
-1.0391 -7.1847 2.2365
-0.7805 -7.2174 2.2365
-0.5209 -7.2407 2.2365
-0.2606 -7.2547 2.2365
0.0000 -6.7179 2.2365
0.2412 -6.7135 2.2365
0.4821 -6.7006 2.2365
0.7223 -6.6790 2.2365
0.9617 -6.6488 2.2365
1.1998 -6.6101 2.2365
1.4363 -6.5628 2.2365
1.6474 -6.4152 2.2049
1.8319 -6.2005 2.1523
2.0354 -6.0770 2.1334
2.2523 -6.0001 2.1334
2.4663 -5.9155 2.1334
2.6771 -5.8233 2.1334
2.8845 -5.7236 2.1334
3.0882 -5.6165 2.1334
3.2880 -5.5021 2.1334
3.4835 -5.3807 2.1334
3.6745 -5.2523 2.1334
3.8609 -5.1172 2.1334
4.0422 -4.9755 2.1334
4.2184 -4.8273 2.1334
4.3891 -4.6730 2.1334
4.5542 -4.5125 2.1334
4.7135 -4.3463 2.1334
4.8667 -4.1745 2.1334
5.0136 -3.9972 2.1334
5.1537 -3.8146 2.1332
5.2876 -3.6273 2.1332
5.4147 -3.4353 2.1332
5.5348 -3.2388 2.1332
5.7093 -3.0713 2.1565
5.8161 -2.8645 2.1565
5.9155 -2.6540 2.1565
6.0073 -2.4401 2.1565
6.0913 -2.2230 2.1565
6.1675 -2.0030 2.1565
6.2358 -1.7804 2.1565
6.2960 -1.5554 2.1565
6.3481 -1.3285 2.1565
6.3921 -1.0998 2.1565
6.4278 -0.8697 2.1565
6.4552 -0.6385 2.1565
6.4743 -0.4063 2.1565
6.4851 -0.1737 2.1565
6.4875 0.0592 2.1565
6.4816 0.2921 2.1565
6.4673 0.5246 2.1565
6.4446 0.7564 2.1565
6.4137 0.9873 2.1565
6.3745 1.2170 2.1565
6.3270 1.4451 2.1565
6.2714 1.6713 2.1565
6.2077 1.8955 2.1565
6.1360 2.1172 2.1565
6.0563 2.3362 2.1565
5.9689 2.5522 2.1565
5.8737 2.7649 2.1565
5.7710 2.9741 2.1565
5.5998 3.1453 2.1332
5.4835 3.3444 2.1332
5.3602 3.5392 2.1332
5.2299 3.7295 2.1332
5.0929 3.9150 2.1332
4.9493 4.0954 2.1332
4.7994 4.2706 2.1332
4.6432 4.4403 2.1332
4.4810 4.6043 2.1332
4.3130 4.7623 2.1332
4.1394 4.9142 2.1332
2.1651 2.7661 1.1662
3.7765 5.1989 2.1332
3.5876 5.3312 2.1332
2.0428 3.2844 1.2840
3.1961 5.5752 2.1332
2.9940 5.6864 2.1332
2.7880 5.7904 2.1332
2.5785 5.8868 2.1332
2.3656 5.9757 2.1332
2.1496 6.0569 2.1332
1.9309 6.1302 2.1332
1.7096 6.1957 2.1332
1.5581 6.5558 2.2365
1.3218 6.6075 2.2365
1.0838 6.6508 2.2365
0.8445 6.6854 2.2365
0.6040 6.7115 2.2365
0.3627 6.7289 2.2365
0.1210 6.7375 2.2365
-0.1209 6.7375 2.2365
-0.3627 6.7288 2.2365
-0.6039 6.7115 2.2365
-0.8444 6.6854 2.2365
-1.0838 6.6507 2.2365
-1.3218 6.6075 2.2365
-1.5581 6.5557 2.2365
-1.7923 6.4954 2.2365
-2.0243 6.4268 2.2365
-2.2536 6.3499 2.2365
-2.4800 6.2648 2.2365
-2.7032 6.1716 2.2365
-2.9229 6.0705 2.2365
-3.1388 5.9615 2.2365
-3.3506 5.8449 2.2365
-3.5582 5.7207 2.2365
-3.7611 5.5891 2.2365
-3.9591 5.4503 2.2365
-4.1521 5.3045 2.2365
-4.3396 5.1519 2.2365
-4.5216 4.9926 2.2365
-4.6977 4.8270 2.2365
-4.8677 4.6550 2.2365
-5.0314 4.4771 2.2365
-5.1887 4.2935 2.2365
-5.3392 4.1043 2.2365
-5.4828 3.9098 2.2365
-5.6194 3.7104 2.2365
-5.7487 3.5061 2.2365
-5.8705 3.2973 2.2365
-5.9848 3.0844 2.2365
-6.0913 2.8674 2.2365
-6.1900 2.6468 2.2365
-6.2807 2.4228 2.2365
-6.3633 2.1957 2.2365
-6.4234 1.9614 2.2316
-6.4234 1.7119 2.2089
-6.4233 1.4671 2.1894
-6.4255 1.2267 2.1739
-6.4283 0.9896 2.1615
-6.4304 0.7548 2.1519
-6.4320 0.5217 2.1448
-6.4330 0.2899 2.1404
-6.4333 0.0587 2.1386
-6.4331 -0.1723 2.1393
-6.4323 -0.4037 2.1426
-6.4309 -0.6360 2.1485
-6.4289 -0.8699 2.1570
-6.4262 -1.1057 2.1681
-6.4230 -1.3442 2.1820
-6.4226 -1.5867 2.2000
-6.4225 -1.8337 2.2212
-6.3960 -2.0772 2.2365
-6.3170 -2.3053 2.2365
-6.2299 -2.5305 2.2365
-6.1347 -2.7523 2.2365
-6.0316 -2.9706 2.2365
-5.9208 -3.1851 2.2365
-5.8024 -3.3954 2.2365
-5.6765 -3.6014 2.2365
-5.5433 -3.8027 2.2365
-5.4029 -3.9990 2.2365
-5.2557 -4.1902 2.2365
-5.1016 -4.3760 2.2365
-4.9411 -4.5562 2.2365
-4.7741 -4.7304 2.2365
-4.6010 -4.8986 2.2365
-4.4221 -5.0604 2.2365
-4.2374 -5.2157 2.2365
-4.0473 -5.3643 2.2365
-3.8519 -5.5060 2.2365
-3.6517 -5.6406 2.2365
-3.4467 -5.7679 2.2365
-3.2374 -5.8877 2.2365
-3.0238 -6.0000 2.2365
-2.8064 -6.1046 2.2365
-2.5854 -6.2012 2.2365
-2.3610 -6.2899 2.2365
-2.1336 -6.3705 2.2365
-1.9035 -6.4429 2.2365
-1.6710 -6.5070 2.2365
-1.4363 -6.5627 2.2365
-1.1997 -6.6100 2.2365
-0.9616 -6.6488 2.2365
-0.7223 -6.6790 2.2365
-0.4820 -6.7006 2.2365
-0.2412 -6.7135 2.2365
0.0000 -6.2450 2.2365
0.2242 -6.2410 2.2365
0.4481 -6.2289 2.2365
0.6715 -6.2088 2.2365
0.8940 -6.1808 2.2365
1.1153 -6.1447 2.2365
1.3352 -6.1008 2.2365
1.5534 -6.0490 2.2365
1.6880 -5.7134 2.1334
1.8921 -5.6492 2.1334
2.0937 -5.5777 2.1334
2.2927 -5.4991 2.1334
2.4887 -5.4133 2.1334
2.6815 -5.3206 2.1334
2.8708 -5.2210 2.1334
3.0565 -5.1147 2.1334
3.2383 -5.0018 2.1334
3.4158 -4.8825 2.1334
3.5890 -4.7569 2.1334
3.7576 -4.6251 2.1334
3.9214 -4.4874 2.1334
4.0801 -4.3439 2.1334
4.2336 -4.1947 2.1334
4.3816 -4.0402 2.1334
4.5237 -3.8802 2.1332
4.6602 -3.7154 2.1332
4.7908 -3.5459 2.1332
4.9152 -3.3717 2.1332
5.0333 -3.1933 2.1332
5.1450 -3.0106 2.1332
5.2500 -2.8241 2.1332
5.3482 -2.6340 2.1332
5.4396 -2.4404 2.1332
5.5239 -2.2437 2.1332
5.6012 -2.0440 2.1332
5.7330 -1.8618 2.1565
5.7965 -1.6549 2.1565
5.8524 -1.4458 2.1565
5.9009 -1.2348 2.1565
5.9417 -1.0223 2.1565
5.9749 -0.8084 2.1565
6.0004 -0.5934 2.1565
6.0181 -0.3776 2.1565
6.0281 -0.1614 2.1565
6.0303 0.0551 2.1565
6.0248 0.2716 2.1565
6.0115 0.4877 2.1565
5.9904 0.7032 2.1565
5.9616 0.9178 2.1565
5.9251 1.1313 2.1565
5.8810 1.3433 2.1565
5.8293 1.5536 2.1565
5.7700 1.7619 2.1565
5.6419 1.9468 2.1332
5.5686 2.1481 2.1332
5.4882 2.3468 2.1332
5.4007 2.5424 2.1332
5.3062 2.7347 2.1332
5.2049 2.9235 2.1332
5.0968 3.1086 2.1332
4.9822 3.2897 2.1332
4.8611 3.4665 2.1332
4.7337 3.6389 2.1332
4.6003 3.8066 2.1332
4.4608 3.9695 2.1332
4.3157 4.1272 2.1332
4.1649 4.2796 2.1332
4.0088 4.4264 2.1332
3.8474 4.5676 2.1332
2.1648 2.7657 1.2545
3.5101 4.8322 2.1332
3.3345 4.9552 2.1332
2.0429 3.2844 1.3815
2.9706 5.1819 2.1332
2.7827 5.2853 2.1332
2.5913 5.3819 2.1332
0.8578 1.9586 0.7636
2.1987 5.5541 2.1332
1.9979 5.6296 2.1332
1.7946 5.6977 2.1332
1.6228 5.8809 2.1786
1.4482 6.0933 2.2365
1.2286 6.1414 2.2365
1.0074 6.1815 2.2365
0.7849 6.2138 2.2365
0.5614 6.2380 2.2365
0.3371 6.2541 2.2365
0.1124 6.2622 2.2365
-0.1124 6.2622 2.2365
-0.3371 6.2541 2.2365
-0.5613 6.2379 2.2365
-0.7848 6.2137 2.2365
-1.0073 6.1815 2.2365
-1.2285 6.1413 2.2365
-1.4481 6.0932 2.2365
-1.6659 6.0372 2.2365
-1.8814 5.9734 2.2365
-2.0946 5.9019 2.2365
-2.3050 5.8229 2.2365
-0.8578 1.9585 0.7636
-0.9276 1.9265 0.7636
-2.9173 5.5410 2.2365
-3.1142 5.4326 2.2365
-3.3071 5.3172 2.2365
-3.4957 5.1949 2.2365
-3.6798 5.0659 2.2365
-3.8592 4.9304 2.2365
-4.0335 4.7886 2.2365
-4.2026 4.6405 2.2365
-4.3663 4.4866 2.2365
-4.5244 4.3268 2.2365
-4.6766 4.1614 2.2365
-4.8227 3.9907 2.2365
-4.9626 3.8149 2.2365
-5.0961 3.6342 2.2365
-5.2231 3.4488 2.2365
-5.3433 3.2589 2.2365
-5.4565 3.0649 2.2365
-5.5628 2.8669 2.2365
-5.6618 2.6653 2.2365
-5.7536 2.4602 2.2365
-5.8379 2.2520 2.2365
-5.9147 2.0409 2.2365
-5.9838 1.8272 2.2365
-6.0452 1.6112 2.2365
-6.0989 1.3931 2.2365
-6.1446 1.1732 2.2365
-6.1825 0.9518 2.2365
-6.2123 0.7292 2.2365
-6.2342 0.5058 2.2365
-6.2480 0.2816 2.2365
-6.2537 0.0572 2.2365
-6.2514 -0.1673 2.2365
-6.2411 -0.3916 2.2365
-6.2227 -0.6154 2.2365
-6.1962 -0.8383 2.2365
-6.1618 -1.0601 2.2365
-6.1195 -1.2806 2.2365
-6.0693 -1.4994 2.2365
-6.0112 -1.7162 2.2365
-5.9455 -1.9308 2.2365
-5.8720 -2.1429 2.2365
-5.7910 -2.3522 2.2365
-5.7026 -2.5584 2.2365
-5.6068 -2.7613 2.2365
-5.5038 -2.9607 2.2365
-5.3937 -3.1562 2.2365
-5.2767 -3.3477 2.2365
-5.1529 -3.5348 2.2365
-5.0225 -3.7174 2.2365
-4.8856 -3.8951 2.2365
-4.7424 -4.0678 2.2365
-4.5932 -4.2353 2.2365
-4.4380 -4.3973 2.2365
-4.2771 -4.5536 2.2365
-4.1107 -4.7041 2.2365
-3.9391 -4.8485 2.2365
-3.7623 -4.9866 2.2365
-3.5808 -5.1183 2.2365
-3.3946 -5.2434 2.2365
-3.2041 -5.3618 2.2365
-3.0095 -5.4732 2.2365
-2.8110 -5.5776 2.2365
-2.6089 -5.6748 2.2365
-2.4034 -5.7647 2.2365
-2.1948 -5.8471 2.2365
-1.9835 -5.9221 2.2365
-1.7695 -5.9894 2.2365
-1.5534 -6.0489 2.2365
-1.3352 -6.1008 2.2365
-1.1153 -6.1447 2.2365
-0.8939 -6.1807 2.2365
-0.6715 -6.2088 2.2365
-0.4481 -6.2289 2.2365
-0.2242 -6.2410 2.2365
0.0000 -5.8280 2.2365
0.2093 -5.8243 2.2365
0.4182 -5.8131 2.2365
0.6267 -5.7943 2.2365
0.8343 -5.7681 2.2365
1.0409 -5.7345 2.2365
1.2461 -5.6935 2.2365
1.4497 -5.6452 2.2365
1.6448 -5.5669 2.2274
1.7658 -5.2720 2.1334
1.9540 -5.2053 2.1334
2.1396 -5.1319 2.1334
2.3225 -5.0519 2.1334
2.5025 -4.9653 2.1334
2.6792 -4.8724 2.1334
2.8525 -4.7732 2.1334
3.0221 -4.6678 2.1334
3.1878 -4.5565 2.1334
3.3494 -4.4392 2.1334
3.5067 -4.3162 2.1334
3.6596 -4.1877 2.1334
3.8077 -4.0538 2.1334
3.9509 -3.9146 2.1334
4.0887 -3.7701 2.1332
4.2216 -3.6210 2.1332
4.3490 -3.4672 2.1332
4.4709 -3.3090 2.1332
4.5870 -3.1465 2.1332
4.6972 -2.9799 2.1332
4.8013 -2.8095 2.1332
4.8993 -2.6354 2.1332
4.9910 -2.4580 2.1332
5.0762 -2.2773 2.1332
5.1549 -2.0937 2.1332
5.2270 -1.9074 2.1332
5.2924 -1.7186 2.1332
5.3509 -1.5276 2.1332
5.4026 -1.3346 2.1332
5.4472 -1.1398 2.1332
5.4849 -0.9436 2.1332
5.5155 -0.7461 2.1332
5.5390 -0.5477 2.1332
5.5554 -0.3485 2.1332
5.5646 -0.1489 2.1332
5.5666 0.0509 2.1332
5.5615 0.2508 2.1332
5.5492 0.4503 2.1332
5.5297 0.6492 2.1332
5.5031 0.8473 2.1332
5.4694 1.0443 2.1332
5.4287 1.2400 2.1332
5.3809 1.4342 2.1332
5.3262 1.6265 2.1332
5.2647 1.8167 2.1332
5.1963 2.0046 2.1332
5.1213 2.1899 2.1332
5.0396 2.3724 2.1332
4.9514 2.5519 2.1332
4.8568 2.7281 2.1332
4.7560 2.9008 2.1332
4.6490 3.0697 2.1332
4.5360 3.2348 2.1332
4.4171 3.3956 2.1332
4.2926 3.5521 2.1332
4.1625 3.7040 2.1332
4.0270 3.8512 2.1332
3.8863 3.9934 2.1332
3.7406 4.1304 2.1332
3.5901 4.2621 2.1332
2.1645 2.7654 1.3443
3.2753 4.5090 2.1332
3.1114 4.6237 2.1332
2.0429 3.2845 1.4805
2.7718 4.8353 2.1332
2.5966 4.9318 2.1332
0.8656 1.7978 0.7637
0.8005 1.8277 0.7637
0.7344 1.8552 0.7636
0.6673 1.8804 0.7636
0.5994 1.9031 0.7636
0.5307 1.9234 0.7636
0.4614 1.9413 0.7636
0.3914 1.9566 0.7636
0.9400 5.7680 2.2365
0.7324 5.7981 2.2365
0.5238 5.8206 2.2365
0.3146 5.8357 2.2365
0.1049 5.8432 2.2365
-0.1049 5.8432 2.2365
-0.3145 5.8357 2.2365
-0.5238 5.8206 2.2365
-0.7323 5.7980 2.2365
-0.9399 5.7680 2.2365
-0.3914 1.9566 0.7636
-0.4614 1.9412 0.7636
-0.5307 1.9234 0.7636
-0.5994 1.9031 0.7636
-0.6673 1.8804 0.7636
-0.7344 1.8552 0.7637
-0.8005 1.8277 0.7637
-0.8656 1.7978 0.7637
-0.9295 1.7655 0.7637
-2.9059 5.0692 2.2365
-3.0859 4.9615 2.2365
-3.2619 4.8474 2.2365
-3.4337 4.7271 2.2365
-3.6010 4.6007 2.2365
-3.7637 4.4683 2.2365
-3.9215 4.3302 2.2365
-4.0743 4.1865 2.2365
-4.2217 4.0374 2.2365
-4.3638 3.8832 2.2365
-4.5002 3.7239 2.2365
-4.6307 3.5598 2.2365
-4.7553 3.3912 2.2365
-4.8738 3.2182 2.2365
-4.9859 3.0411 2.2365
-5.0917 2.8600 2.2365
-5.1908 2.6753 2.2365
-5.2833 2.4872 2.2365
-5.3689 2.2958 2.2365
-5.4476 2.1015 2.2365
-5.5192 1.9046 2.2365
-5.5838 1.7051 2.2365
-5.6411 1.5035 2.2365
-5.6912 1.3000 2.2365
-5.7339 1.0948 2.2365
-5.7692 0.8883 2.2365
-5.7971 0.6806 2.2365
-5.8175 0.4720 2.2365
-5.8304 0.2629 2.2365
-5.8358 0.0534 2.2365
-5.8337 -0.1561 2.2365
-5.8240 -0.3654 2.2365
-5.8069 -0.5742 2.2365
-5.7822 -0.7822 2.2365
-5.7501 -0.9892 2.2365
-5.7106 -1.1950 2.2365
-5.6638 -1.3991 2.2365
-5.6096 -1.6015 2.2365
-5.5483 -1.8017 2.2365
-5.4798 -1.9996 2.2365
-5.4042 -2.1950 2.2365
-5.3217 -2.3874 2.2365
-5.2323 -2.5768 2.2365
-5.1362 -2.7629 2.2365
-5.0335 -2.9454 2.2365
-4.9243 -3.1240 2.2365
-4.8088 -3.2987 2.2365
-4.6871 -3.4690 2.2365
-4.5593 -3.6349 2.2365
-4.4257 -3.7961 2.2365
-4.2864 -3.9524 2.2365
-4.1416 -4.1036 2.2365
-3.9915 -4.2495 2.2365
-3.8363 -4.3899 2.2365
-3.6761 -4.5247 2.2365
-3.5111 -4.6536 2.2365
-3.3417 -4.7765 2.2365
-3.1680 -4.8933 2.2365
-2.9902 -5.0037 2.2365
-2.8086 -5.1077 2.2365
-2.6233 -5.2052 2.2365
-2.4347 -5.2959 2.2365
-2.2429 -5.3798 2.2365
-2.0483 -5.4567 2.2365
-1.8511 -5.5267 2.2365
-1.6514 -5.5895 2.2365
-1.4497 -5.6451 2.2365
-1.2460 -5.6934 2.2365
-1.0408 -5.7345 2.2365
-0.8343 -5.7681 2.2365
-0.6266 -5.7943 2.2365
-0.4182 -5.8130 2.2365
-0.2092 -5.8243 2.2365
0.0000 -5.4574 2.2365
0.1960 -5.4538 2.2365
0.3916 -5.4433 2.2365
0.5868 -5.4258 2.2365
0.7812 -5.4012 2.2365
0.9747 -5.3698 2.2365
1.1668 -5.3313 2.2365
1.3575 -5.2861 2.2365
1.5465 -5.2340 2.2365
1.6556 -4.9429 2.1361
1.8360 -4.8909 2.1407
2.0035 -4.8054 2.1334
2.1748 -4.7305 2.1334
2.3433 -4.6495 2.1334
2.5088 -4.5624 2.1334
2.6710 -4.4695 2.1334
2.8298 -4.3709 2.1334
2.9850 -4.2666 2.1334
3.1364 -4.1568 2.1334
3.2837 -4.0416 2.1334
3.4268 -3.9212 2.1334
3.5652 -3.7955 2.1332
3.6993 -3.6652 2.1332
3.8286 -3.5302 2.1332
3.9530 -3.3906 2.1332
4.0723 -3.2466 2.1332
4.1864 -3.0984 2.1332
4.2951 -2.9462 2.1332
4.3983 -2.7902 2.1332
4.4958 -2.6307 2.1332
4.5875 -2.4677 2.1332
4.6734 -2.3015 2.1332
4.7532 -2.1323 2.1332
4.8269 -1.9604 2.1332
4.8944 -1.7859 2.1332
4.9555 -1.6092 2.1332
5.0103 -1.4303 2.1332
5.0587 -1.2496 2.1332
5.1005 -1.0672 2.1332
5.1358 -0.8835 2.1332
5.1644 -0.6986 2.1332
5.1864 -0.5128 2.1332
5.2017 -0.3263 2.1332
5.2103 -0.1394 2.1332
5.2122 0.0478 2.1332
5.2074 0.2348 2.1332
5.1959 0.4216 2.1332
5.1776 0.6079 2.1332
5.1527 0.7934 2.1332
5.1211 0.9779 2.1332
5.0830 1.1611 2.1332
5.0382 1.3429 2.1332
4.9870 1.5230 2.1332
4.9294 1.7010 2.1332
4.8654 1.8770 2.1332
4.7951 2.0505 2.1332
4.7186 2.2214 2.1332
4.6360 2.3894 2.1332
4.5474 2.5544 2.1332
4.4530 2.7160 2.1332
4.3528 2.8742 2.1332
4.2470 3.0287 2.1332
4.1357 3.1793 2.1332
4.0191 3.3258 2.1332
3.8973 3.4681 2.1332
3.7704 3.6058 2.1332
3.6387 3.7390 2.1332
3.5023 3.8673 2.1332
2.2934 2.7228 1.4555
2.1642 2.7651 1.4356
2.0923 2.8805 1.4555
2.9131 4.3292 2.1332
2.0429 3.2846 1.5813
2.5952 4.5272 2.1332
0.8704 1.6532 0.7637
0.8105 1.6833 0.7637
0.7496 1.7113 0.7637
0.6876 1.7371 0.7637
0.6249 1.7607 0.7637
0.5613 1.7820 0.7637
0.4970 1.8010 0.7637
0.4320 1.8177 0.7637
0.3665 1.8320 0.7637
0.3005 1.8440 0.7637
0.2341 1.8536 0.7637
0.1674 1.8608 0.7637
0.1006 1.8656 0.7636
0.0335 1.8680 0.7636
-0.0335 1.8680 0.7636
-0.1005 1.8656 0.7637
-0.1674 1.8608 0.7637
-0.2341 1.8536 0.7637
-0.3005 1.8440 0.7637
-0.3665 1.8320 0.7637
-0.4320 1.8177 0.7637
-0.4969 1.8010 0.7637
-0.5613 1.7820 0.7637
-0.6249 1.7607 0.7637
-0.6876 1.7371 0.7637
-0.7495 1.7113 0.7637
-0.8105 1.6833 0.7637
-0.8704 1.6532 0.7638
-0.9291 1.6208 0.7638
-2.8892 4.6454 2.2365
-3.0540 4.5386 2.2365
-3.2149 4.4259 2.2365
-3.3715 4.3076 2.2365
-3.5239 4.1837 2.2365
-3.6716 4.0544 2.2365
-3.8147 3.9198 2.2365
-3.9528 3.7803 2.2365
-4.0857 3.6358 2.2365
-4.2134 3.4867 2.2365
-4.3357 3.3331 2.2365
-4.4524 3.1752 2.2365
-4.5633 3.0133 2.2365
-4.6683 2.8474 2.2365
-4.7673 2.6779 2.2365
-4.8602 2.5050 2.2365
-4.9467 2.3288 2.2365
-5.0269 2.1496 2.2365
-5.1006 1.9677 2.2365
-5.1677 1.7833 2.2365
-5.2282 1.5966 2.2365
-5.2819 1.4078 2.2365
-5.3288 1.2173 2.2365
-5.3688 1.0252 2.2365
-5.4019 0.8318 2.2365
-5.4280 0.6373 2.2365
-5.4471 0.4420 2.2365
-5.4592 0.2462 2.2365
-5.4643 0.0501 2.2365
-5.4623 -0.1461 2.2365
-5.4532 -0.3421 2.2365
-5.4372 -0.5376 2.2365
-5.4141 -0.7324 2.2365
-5.3841 -0.9262 2.2365
-5.3471 -1.1188 2.2365
-5.3033 -1.3100 2.2365
-5.2526 -1.4995 2.2365
-5.1952 -1.6870 2.2365
-5.1310 -1.8723 2.2365
-5.0603 -2.0552 2.2365
-4.9830 -2.2355 2.2365
-4.8994 -2.4128 2.2365
-4.8094 -2.5870 2.2365
-4.7132 -2.7579 2.2365
-4.6110 -2.9252 2.2365
-4.5028 -3.0887 2.2365
-4.3889 -3.2483 2.2365
-4.2693 -3.4036 2.2365
-4.1442 -3.5546 2.2365
-4.0138 -3.7009 2.2365
-3.8782 -3.8425 2.2365
-3.7376 -3.9791 2.2365
-3.5922 -4.1106 2.2365
-3.4422 -4.2368 2.2365
-3.2878 -4.3575 2.2365
-3.1292 -4.4726 2.2365
-2.9665 -4.5820 2.2365
-2.8000 -4.6854 2.2365
-2.6299 -4.7828 2.2365
-2.4565 -4.8740 2.2365
-2.2798 -4.9590 2.2365
-2.1003 -5.0376 2.2365
-1.9180 -5.1096 2.2365
-1.7333 -5.1751 2.2365
-1.5464 -5.2339 2.2365
-1.3575 -5.2860 2.2365
-1.1668 -5.3313 2.2365
-0.9746 -5.3697 2.2365
-0.7812 -5.4012 2.2365
-0.5868 -5.4257 2.2365
-0.3916 -5.4433 2.2365
-0.1959 -5.4538 2.2365
0.0000 -5.1253 2.2365
0.1840 -5.1220 2.2365
0.3678 -5.1121 2.2365
0.5511 -5.0956 2.2365
0.7337 -5.0726 2.2365
0.9154 -5.0430 2.2365
1.0959 -5.0069 2.2365
1.2749 -4.9644 2.2365
1.4524 -4.9155 2.2365
1.6279 -4.8603 2.2365
1.7184 -4.5776 2.1334
1.8816 -4.5130 2.1334
2.0425 -4.4426 2.1334
2.2007 -4.3665 2.1334
2.3561 -4.2848 2.1334
2.5085 -4.1975 2.1334
2.6577 -4.1049 2.1334
2.8034 -4.0069 2.1334
2.9453 -3.9035 2.1332
3.0836 -3.7953 2.1332
3.2180 -3.6823 2.1332
3.3482 -3.5645 2.1332
3.4741 -3.4421 2.1332
3.5956 -3.3153 2.1332
3.7124 -3.1841 2.1332
3.8245 -3.0489 2.1332
3.9316 -2.9098 2.1332
4.0337 -2.7668 2.1332
4.1306 -2.6204 2.1332
4.2221 -2.4705 2.1332
4.3083 -2.3174 2.1332
4.3889 -2.1613 2.1332
4.4638 -2.0025 2.1332
4.5330 -1.8410 2.1332
4.5964 -1.6772 2.1332
4.6538 -1.5111 2.1332
4.7053 -1.3432 2.1332
4.7507 -1.1734 2.1332
4.7900 -1.0022 2.1332
4.8231 -0.8296 2.1332
4.8499 -0.6560 2.1332
4.8706 -0.4815 2.1332
4.8850 -0.3064 2.1332
4.8930 -0.1308 2.1332
4.8948 0.0449 2.1332
4.8902 0.2206 2.1332
4.8794 0.3960 2.1332
4.8622 0.5709 2.1332
4.8388 0.7451 2.1332
4.8092 0.9184 2.1332
4.7733 1.0905 2.1332
4.7313 1.2612 2.1332
4.6832 1.4302 2.1332
4.6291 1.5975 2.1332
4.5689 1.7627 2.1332
4.5029 1.9256 2.1332
4.4311 2.0861 2.1332
4.3535 2.2439 2.1332
4.2703 2.3988 2.1332
4.1816 2.5506 2.1332
4.0876 2.6991 2.1332
3.9882 2.8442 2.1332
3.8837 2.9856 2.1332
3.7742 3.1232 2.1332
3.6597 3.2568 2.1332
3.5406 3.3861 2.1332
3.4169 3.5111 2.1332
3.2888 3.6316 2.1332
2.2636 2.6874 1.5298
2.1048 2.6892 1.4868
2.0724 2.8531 1.5353
2.7356 4.0653 2.1332
2.0429 3.2847 1.6840
0.8726 1.5222 0.7638
0.8174 1.5525 0.7638
0.7611 1.5808 0.7638
0.7039 1.6071 0.7638
0.6458 1.6314 0.7638
0.5868 1.6535 0.7637
0.5271 1.6735 0.7637
0.4667 1.6913 0.7637
0.4057 1.7070 0.7637
0.3442 1.7205 0.7637
0.2822 1.7317 0.7637
0.2199 1.7407 0.7637
0.1573 1.7475 0.7637
0.0944 1.7520 0.7637
0.0315 1.7543 0.7637
-0.0315 1.7543 0.7637
-0.0944 1.7520 0.7637
-0.1572 1.7475 0.7637
-0.2199 1.7407 0.7637
-0.2822 1.7317 0.7637
-0.3442 1.7205 0.7637
-0.4057 1.7070 0.7637
-0.4667 1.6913 0.7637
-0.5271 1.6735 0.7637
-0.5868 1.6535 0.7638
-0.6458 1.6314 0.7638
-0.7039 1.6071 0.7638
-0.7611 1.5808 0.7638
-0.8174 1.5525 0.7638
-0.8725 1.5222 0.7638
-0.9266 1.4899 0.7638
-0.9795 1.4556 0.7638
-3.0189 4.1562 2.2365
-3.1660 4.0451 2.2365
-3.3091 3.9287 2.2365
-3.4479 3.8073 2.2365
-3.5822 3.6810 2.2365
-3.7118 3.5499 2.2365
-3.8367 3.4143 2.2365
-3.9567 3.2743 2.2365
-4.0715 3.1301 2.2365
-4.1811 2.9818 2.2365
-4.2852 2.8297 2.2365
-4.3839 2.6740 2.2365
-4.4768 2.5148 2.2365
-4.5640 2.3524 2.2365
-4.6453 2.1870 2.2365
-4.7206 2.0187 2.2365
-4.7899 1.8479 2.2365
-4.8529 1.6747 2.2365
-4.9097 1.4994 2.2365
-4.9601 1.3222 2.2365
-5.0042 1.1432 2.2365
-5.0417 0.9628 2.2365
-5.0728 0.7812 2.2365
-5.0974 0.5985 2.2365
-5.1153 0.4152 2.2365
-5.1267 0.2313 2.2365
-5.1315 0.0471 2.2365
-5.1296 -0.1371 2.2365
-5.1212 -0.3212 2.2365
-5.1061 -0.5048 2.2365
-5.0845 -0.6877 2.2365
-5.0563 -0.8698 2.2365
-5.0216 -1.0506 2.2365
-4.9804 -1.2302 2.2365
-4.9328 -1.4081 2.2365
-4.8789 -1.5842 2.2365
-4.8187 -1.7583 2.2365
-4.7522 -1.9300 2.2365
-4.6797 -2.0993 2.2365
-4.6011 -2.2659 2.2365
-4.5166 -2.4295 2.2365
-4.4263 -2.5900 2.2365
-4.3303 -2.7471 2.2365
-4.2288 -2.9007 2.2365
-4.1218 -3.0505 2.2365
-4.0094 -3.1964 2.2365
-3.8920 -3.3382 2.2365
-3.7695 -3.4756 2.2365
-3.6422 -3.6086 2.2365
-3.5101 -3.7369 2.2365
-3.3736 -3.8604 2.2365
-3.2328 -3.9789 2.2365
-3.0877 -4.0923 2.2365
-2.9388 -4.2004 2.2365
-2.7860 -4.3031 2.2365
-2.6296 -4.4003 2.2365
-2.4699 -4.4917 2.2365
-2.3070 -4.5774 2.2365
-2.1411 -4.6572 2.2365
-1.9725 -4.7310 2.2365
-1.8014 -4.7987 2.2365
-1.6279 -4.8602 2.2365
-1.4523 -4.9154 2.2365
-1.2749 -4.9644 2.2365
-1.0958 -5.0069 2.2365
-0.9153 -5.0430 2.2365
-0.7337 -5.0725 2.2365
-0.5511 -5.0956 2.2365
-0.3678 -5.1121 2.2365
-0.1840 -5.1220 2.2365
0.0000 -4.8258 2.2365
0.1733 -4.8227 2.2365
0.3463 -4.8134 2.2365
0.5189 -4.7979 2.2365
0.6909 -4.7762 2.2365
0.8619 -4.7483 2.2365
1.0318 -4.7144 2.2365
1.2004 -4.6743 2.2365
1.3675 -4.6283 2.2365
1.5328 -4.5763 2.2365
1.6488 -4.3921 2.1740
1.7717 -4.2493 2.1334
1.9232 -4.1830 2.1334
2.0721 -4.1113 2.1334
2.2185 -4.0344 2.1334
2.3619 -3.9522 2.1334
2.5022 -3.8647 2.1332
2.6394 -3.7724 2.1332
2.7732 -3.6753 2.1332
2.9034 -3.5735 2.1332
3.0299 -3.4671 2.1332
3.1526 -3.3561 2.1332
3.2711 -3.2409 2.1332
3.3855 -3.1215 2.1332
3.4955 -2.9980 2.1332
3.6010 -2.8707 2.1332
3.7018 -2.7396 2.1332
3.7979 -2.6051 2.1332
3.8892 -2.4671 2.1332
3.9754 -2.3260 2.1332
4.0565 -2.1819 2.1332
4.1323 -2.0349 2.1332
4.2029 -1.8853 2.1332
4.2680 -1.7333 2.1332
4.3277 -1.5790 2.1332
4.3818 -1.4227 2.1332
4.4302 -1.2646 2.1332
4.4729 -1.1048 2.1332
4.5099 -0.9435 2.1332
4.5411 -0.7811 2.1332
4.5664 -0.6176 2.1332
4.5858 -0.4533 2.1332
4.5993 -0.2884 2.1332
4.6069 -0.1231 2.1332
4.6085 0.0424 2.1332
4.6043 0.2078 2.1332
4.5940 0.3729 2.1332
4.5779 0.5376 2.1332
4.5558 0.7016 2.1332
4.5279 0.8647 2.1332
4.4941 1.0267 2.1332
4.4546 1.1874 2.1332
4.4093 1.3466 2.1332
4.3583 1.5041 2.1332
4.3017 1.6596 2.1332
4.2395 1.8130 2.1332
4.1718 1.9641 2.1332
4.0988 2.1126 2.1332
4.0205 2.2585 2.1332
3.9370 2.4014 2.1332
3.8484 2.5413 2.1332
3.7548 2.6779 2.1332
3.6564 2.8110 2.1332
3.5533 2.9405 2.1332
3.4456 3.0663 2.1332
3.3334 3.1881 2.1332
3.2170 3.3057 2.1332
3.0963 3.4192 2.1332
2.2602 2.6835 1.6225
2.1018 2.6854 1.5770
2.0685 2.8478 1.6276
2.5755 3.8275 2.1332
0.8724 1.4028 0.7639
0.8215 1.4332 0.7638
0.7696 1.4617 0.7638
0.7166 1.4884 0.7638
0.6627 1.5132 0.7638
0.6080 1.5360 0.7638
0.5525 1.5568 0.7638
0.4963 1.5757 0.7638
0.4394 1.5925 0.7638
0.3820 1.6072 0.7638
0.3240 1.6199 0.7638
0.2657 1.6305 0.7638
0.2070 1.6390 0.7638
0.1481 1.6453 0.7638
0.0889 1.6496 0.7637
0.0297 1.6517 0.7637
-0.0296 1.6517 0.7637
-0.0889 1.6496 0.7638
-0.1480 1.6453 0.7638
-0.2070 1.6390 0.7638
-0.2657 1.6305 0.7638
-0.3240 1.6199 0.7638
-0.3820 1.6072 0.7638
-0.4394 1.5925 0.7638
-0.4963 1.5757 0.7638
-0.5525 1.5568 0.7638
-0.6080 1.5360 0.7638
-0.6627 1.5132 0.7638
-0.7166 1.4884 0.7638
-0.7696 1.4617 0.7638
-0.8215 1.4332 0.7639
-0.8724 1.4028 0.7639
-0.9222 1.3705 0.7639
-0.9708 1.3365 0.7639
-2.9808 3.8084 2.2365
-3.1154 3.6989 2.2365
-3.2461 3.5846 2.2365
-3.3725 3.4657 2.2365
-3.4946 3.3423 2.2365
-3.6122 3.2146 2.2365
-3.7252 3.0828 2.2365
-3.8333 2.9470 2.2365
-3.9364 2.8074 2.2365
-4.0345 2.6642 2.2365
-4.1274 2.5176 2.2365
-4.2149 2.3677 2.2365
-4.2970 2.2148 2.2365
-4.3736 2.0591 2.2365
-4.4445 1.9007 2.2365
-4.5097 1.7399 2.2365
-4.5690 1.5768 2.2365
-4.6225 1.4118 2.2365
-4.6700 1.2449 2.2365
-4.7115 1.0764 2.2365
-4.7469 0.9065 2.2365
-4.7761 0.7355 2.2365
-4.7993 0.5636 2.2365
-4.8162 0.3910 2.2365
-4.8269 0.2178 2.2365
-4.8314 0.0444 2.2365
-4.8297 -0.1291 2.2365
-4.8217 -0.3023 2.2365
-4.8075 -0.4752 2.2365
-4.7872 -0.6474 2.2365
-4.7607 -0.8188 2.2365
-4.7280 -0.9892 2.2365
-4.6892 -1.1582 2.2365
-4.6444 -1.3257 2.2365
-4.5937 -1.4915 2.2365
-4.5370 -1.6554 2.2365
-4.4744 -1.8172 2.2365
-4.4062 -1.9765 2.2365
-4.3322 -2.1334 2.2365
-4.2526 -2.2874 2.2365
-4.1676 -2.4385 2.2365
-4.0772 -2.5865 2.2365
-3.9816 -2.7311 2.2365
-3.8809 -2.8722 2.2365
-3.7751 -3.0095 2.2365
