ply
format ascii 1.0
element vertex 2171
property float32 x
property float32 y
property float32 z
end_header
-6.4177 10.3279 2.2351
-6.4782 9.6362 2.1356
-6.8156 9.3920 2.1356
-7.1437 9.1358 2.1356
-7.4619 8.8679 2.1356
-7.7700 8.5887 2.1356
-8.0674 8.2986 2.1356
-8.3539 7.9981 2.1356
-8.6290 7.6875 2.1356
-8.8925 7.3673 2.1356
-9.1438 7.0380 2.1356
-9.3829 6.7000 2.1356
-9.6093 6.3538 2.1356
-9.8228 5.9999 2.1356
-10.0231 5.6387 2.1356
-9.9718 5.1478 2.0857
-10.3301 4.8716 2.1246
-7.0430 3.0174 1.4266
-9.9329 3.8398 1.9846
-9.9318 3.4350 1.9603
-10.5041 3.2158 2.0510
-10.5024 2.8073 2.0316
-10.5008 2.4066 2.0152
-9.9626 1.9098 1.8993
-11.5144 1.7815 2.1837
-11.5599 1.3657 2.1837
-11.5903 0.9490 2.1837
-11.2351 0.5148 2.1139
-11.0030 0.1088 2.0702
-10.9437 -0.2848 2.0616
-11.0067 -0.6824 2.0787
-11.2551 -1.1046 2.1338
-11.4594 -1.5418 2.1837
-11.3860 -1.9504 2.1837
-11.2982 -2.3557 2.1837
-11.1960 -2.7573 2.1837
-11.0797 -3.1547 2.1837
-10.9494 -3.5473 2.1837
-10.8054 -3.9347 2.1837
-10.4134 -4.2213 2.1356
-10.2463 -4.5886 2.1356
-10.0665 -4.9495 2.1356
-9.8741 -5.3034 2.1356
-9.6695 -5.6501 2.1356
-9.4529 -5.9890 2.1356
-9.2246 -6.3198 2.1356
-8.9850 -6.6421 2.1356
-8.7343 -6.9555 2.1356
-8.4729 -7.2596 2.1356
-8.2011 -7.5541 2.1356
-7.9193 -7.8387 2.1356
-7.6278 -8.1130 2.1356
-7.3271 -8.3768 2.1356
-7.0174 -8.6296 2.1356
-6.6992 -8.8713 2.1356
-6.4420 -9.2002 2.1587
-6.3304 -9.7699 2.2387
-5.9725 -9.9864 2.2387
-5.6075 -10.1901 2.2387
-5.2357 -10.3808 2.2387
-4.8576 -10.5583 2.2387
-4.4736 -10.7224 2.2387
-4.0842 -10.8729 2.2387
-3.6899 -11.0096 2.2387
-3.2912 -11.1323 2.2387
-2.8885 -11.2411 2.2387
-2.4823 -11.3356 2.2387
-2.0731 -11.4158 2.2387
-1.6615 -11.4817 2.2387
-1.2478 -11.5331 2.2387
-0.8325 -11.5700 2.2387
-0.4163 -11.5923 2.2387
0.0005 -10.3425 2.2387
0.3721 -10.3364 2.2387
0.7434 -10.3172 2.2387
1.1137 -10.2850 2.2387
1.4828 -10.2398 2.2387
1.7648 -9.7120 2.1354
2.1131 -9.6443 2.1354
2.4588 -9.5644 2.1354
2.8016 -9.4723 2.1354
3.1411 -9.3683 2.1354
3.4767 -9.2523 2.1354
3.8082 -9.1245 2.1354
4.1352 -8.9852 2.1354
4.4571 -8.8343 2.1354
4.7737 -8.6722 2.1354
4.3165 -7.2153 1.8129
5.2006 -8.0239 2.0607
5.6826 -8.1132 2.1337
5.9735 -7.9080 2.1337
6.2572 -7.6926 2.1337
6.5333 -7.4671 2.1337
6.8013 -7.2319 2.1337
7.0611 -6.9873 2.1337
7.3122 -6.7334 2.1337
7.5543 -6.4707 2.1337
7.7872 -6.1994 2.1337
8.0104 -5.9198 2.1337
8.2237 -5.6324 2.1337
8.4268 -5.3373 2.1337
8.6195 -5.0349 2.1337
8.8015 -4.7257 2.1337
8.9725 -4.4100 2.1337
9.1322 -4.0882 2.1337
9.2806 -3.7607 2.1337
9.4173 -3.4278 2.1337
9.5421 -3.0900 2.1337
9.6549 -2.7476 2.1337
9.7555 -2.4012 2.1337
9.8437 -2.0512 2.1337
9.9195 -1.6979 2.1337
9.9825 -1.3418 2.1337
10.0329 -0.9835 2.1337
9.2291 -0.5711 1.9554
8.5356 -0.2211 1.8041
8.1922 0.0819 1.7295
8.4425 0.3878 1.7826
10.0906 0.8273 2.1337
10.0630 1.1899 2.1337
10.0223 1.5516 2.1337
9.9686 1.9119 2.1337
9.9019 2.2703 2.1337
9.8222 2.6264 2.1337
9.7296 2.9796 2.1337
9.6243 3.3295 2.1337
9.5062 3.6756 2.1337
9.3756 4.0175 2.1337
9.2326 4.3547 2.1337
9.0773 4.6867 2.1337
8.9100 5.0131 2.1337
8.7308 5.3335 2.1337
8.5399 5.6473 2.1337
8.3377 5.9541 2.1337
8.1242 6.2536 2.1337
7.8999 6.5454 2.1337
7.6649 6.8289 2.1337
7.4195 7.1038 2.1337
7.1642 7.3697 2.1337
6.8992 7.6263 2.1337
6.6248 7.8732 2.1337
6.3415 8.1099 2.1337
6.0495 8.3363 2.1337
2.0992 3.1224 0.7790
5.4458 8.7637 2.1354
5.1302 8.9571 2.1354
4.8075 9.1388 2.1354
4.4783 9.3087 2.1354
4.1429 9.4665 2.1354
3.8019 9.6119 2.1354
3.4557 9.7447 2.1354
3.1048 9.8647 2.1354
2.7496 9.9718 2.1354
2.3907 10.0658 2.1354
2.0285 10.1466 2.1354
1.6635 10.2140 2.1354
1.3590 10.7645 2.2387
0.9721 10.8069 2.2387
0.5840 10.8351 2.2387
0.1951 10.8490 2.2387
-0.1941 10.8485 2.2387
-0.5829 10.8339 2.2387
-0.9710 10.8049 2.2387
-1.3576 10.7617 2.2387
-1.7424 10.7043 2.2387
-2.1247 10.6328 2.2387
-2.5041 10.5474 2.2387
-2.8800 10.4482 2.2387
-3.2519 10.3352 2.2387
-3.6193 10.2087 2.2387
-3.9817 10.0689 2.2387
-4.3386 9.9159 2.2387
-4.6896 9.7500 2.2387
-5.0341 9.5714 2.2387
-5.3717 9.3804 2.2387
-5.7019 9.1773 2.2387
-6.0243 8.9624 2.2387
-6.3385 8.7358 2.2387
-6.4168 8.2074 2.1621
-6.6289 7.8791 2.1381
-6.8948 7.6225 2.1356
-7.1593 7.3657 2.1356
-7.4141 7.0995 2.1356
-7.6589 6.8244 2.1356
-7.8934 6.5408 2.1356
-8.1172 6.2490 2.1356
-8.3301 5.9495 2.1356
-8.5319 5.6426 2.1356
-8.7223 5.3288 2.1356
-8.9010 5.0086 2.1356
-9.0679 4.6823 2.1356
-9.2227 4.3505 2.1356
-6.9130 2.9626 1.5764
-9.4955 3.6719 2.1356
-9.6132 3.3260 2.1356
-9.7183 2.9764 2.1356
-9.8106 2.6235 2.1356
-9.8900 2.2678 2.1356
-9.9565 1.9098 2.1356
-10.0101 1.5499 2.1356
-10.0506 1.1886 2.1356
-10.0781 0.8263 2.1356
-10.0926 0.4636 2.1356
-10.0940 0.1010 2.1356
-10.0825 -0.2612 2.1356
-10.0580 -0.6225 2.1356
-10.0206 -0.9823 2.1356
-9.9704 -1.3403 2.1356
-9.9075 -1.6960 2.1356
-9.8321 -2.0489 2.1356
-9.7441 -2.3986 2.1356
-9.6438 -2.7447 2.1356
-9.5313 -3.0868 2.1356
-9.4069 -3.4243 2.1356
-9.2706 -3.7570 2.1356
-9.1227 -4.0843 2.1356
-8.9633 -4.4060 2.1356
-8.7928 -4.7215 2.1356
-8.6113 -5.0307 2.1356
-8.4191 -5.3329 2.1356
-8.2165 -5.6280 2.1356
-8.0037 -5.9155 2.1356
-7.7810 -6.1952 2.1356
-7.5486 -6.4666 2.1356
-7.3070 -6.7295 2.1356
-7.0564 -6.9835 2.1356
-6.7972 -7.2285 2.1356
-6.5296 -7.4639 2.1356
-6.4358 -7.9133 2.1977
-6.2590 -8.2872 2.2387
-5.9544 -8.5027 2.2387
-5.6426 -8.7073 2.2387
-5.3239 -8.9007 2.2387
-4.9987 -9.0828 2.2387
-4.6675 -9.2532 2.2387
-4.3305 -9.4118 2.2387
-3.9884 -9.5584 2.2387
-3.6413 -9.6928 2.2387
-3.2899 -9.8150 2.2387
-2.9345 -9.9247 2.2387
-2.5755 -10.0218 2.2387
-2.2133 -10.1063 2.2387
-1.8485 -10.1780 2.2387
-1.4814 -10.2369 2.2387
-1.1126 -10.2828 2.2387
-0.7423 -10.3157 2.2387
-0.3712 -10.3356 2.2387
0.0005 -9.3221 2.2387
0.3355 -9.3165 2.2387
0.6701 -9.2991 2.2387
1.0040 -9.2700 2.2387
1.3367 -9.2291 2.2387
1.6147 -8.8848 2.1675
1.9047 -8.6921 2.1354
2.2163 -8.6198 2.1354
2.5252 -8.5366 2.1354
2.8311 -8.4426 2.1354
3.1335 -8.3378 2.1354
3.4322 -8.2224 2.1354
3.7267 -8.0966 2.1354
4.0167 -7.9603 2.1354
4.3018 -7.8139 2.1354
4.4350 -7.4123 2.0670
4.8560 -7.4911 2.1354
5.1243 -7.3152 2.1354
5.3865 -7.1298 2.1354
5.6373 -6.9295 2.1337
5.8857 -6.7260 2.1337
6.1269 -6.5137 2.1337
6.3605 -6.2930 2.1337
6.5863 -6.0639 2.1337
6.8040 -5.8269 2.1337
7.0132 -5.5822 2.1337
7.2138 -5.3301 2.1337
7.4054 -5.0708 2.1337
7.5878 -4.8048 2.1337
7.7607 -4.5322 2.1337
7.9240 -4.2535 2.1337
8.0773 -3.9690 2.1337
8.2205 -3.6790 2.1337
8.3534 -3.3839 2.1337
8.4758 -3.0840 2.1337
8.5875 -2.7798 2.1337
8.6883 -2.4715 2.1337
8.7781 -2.1596 2.1337
8.8568 -1.8445 2.1337
8.9242 -1.5265 2.1337
8.9802 -1.2061 2.1337
9.0248 -0.8836 2.1337
9.0577 -0.5595 2.1337
9.0791 -0.2342 2.1337
8.5017 0.0860 1.9958
9.0867 0.4184 2.1337
9.0729 0.7449 2.1337
9.0473 1.0708 2.1337
9.0100 1.3959 2.1337
8.9610 1.7197 2.1337
8.9003 2.0417 2.1337
8.8280 2.3615 2.1337
8.7441 2.6788 2.1337
8.6487 2.9930 2.1337
8.5420 3.3038 2.1337
8.4240 3.6108 2.1337
8.2948 3.9134 2.1337
8.1547 4.2114 2.1337
8.0038 4.5043 2.1337
7.8423 4.7917 2.1337
7.6703 5.0732 2.1337
7.4881 5.3485 2.1337
7.2959 5.6171 2.1337
7.0940 5.8787 2.1337
5.2450 4.6737 1.6260
5.0769 4.8616 1.6260
4.9019 5.0433 1.6260
4.7203 5.2185 1.6260
4.5323 5.3871 1.6260
4.3382 5.5488 1.6260
5.4348 7.4901 2.1354
2.0984 3.1217 0.8676
4.8880 7.8669 2.1354
4.6045 8.0402 2.1354
4.3147 8.2030 2.1354
4.0191 8.3552 2.1354
3.7180 8.4965 2.1354
3.4119 8.6267 2.1354
3.1011 8.7457 2.1354
2.7861 8.8532 2.1354
2.4674 8.9491 2.1354
2.1453 9.0333 2.1354
1.8202 9.1056 2.1354
1.5649 9.6092 2.2387
1.2194 9.6599 2.2387
0.8723 9.6979 2.2387
0.5241 9.7232 2.2387
0.1751 9.7357 2.2387
-0.1741 9.7353 2.2387
-0.5230 9.7222 2.2387
-0.8712 9.6963 2.2387
-1.2182 9.6577 2.2387
-1.5634 9.6064 2.2387
-1.9065 9.5424 2.2387
-2.2470 9.4660 2.2387
-2.5844 9.3771 2.2387
-2.9182 9.2760 2.2387
-3.2480 9.1628 2.2387
-3.5734 9.0376 2.2387
-3.8939 8.9007 2.2387
-4.2090 8.7521 2.2387
-4.5184 8.5922 2.2387
-4.8216 8.4212 2.2387
-5.1183 8.2392 2.2387
-5.4080 8.0466 2.2387
-5.6903 7.8437 2.2387
-5.9650 7.6307 2.2387
-6.2315 7.4080 2.2387
-6.4171 7.0955 2.2136
-6.4313 6.6178 2.1364
-6.6579 6.3765 2.1356
-6.8782 6.1299 2.1356
-7.0893 5.8755 2.1356
-7.2908 5.6139 2.1356
-7.4826 5.3452 2.1356
-7.6644 5.0699 2.1356
-7.8360 4.7884 2.1356
-7.9971 4.5011 2.1356
-8.1477 4.2082 2.1356
-8.2874 3.9104 2.1356
-6.9055 2.9602 1.7522
-8.5339 3.3011 2.1356
-8.6404 2.9905 2.1356
-8.7355 2.6765 2.1356
-8.8192 2.3595 2.1356
-8.8913 2.0399 2.1356
-8.9519 1.7181 2.1356
-9.0008 1.3947 2.1356
-9.0380 1.0699 2.1356
-9.0635 0.7442 2.1356
-9.0772 0.4180 2.1356
-9.0793 0.0919 2.1356
-9.0696 -0.2339 2.1356
-9.0484 -0.5590 2.1356
-9.0155 -0.8828 2.1356
-8.9711 -1.2049 2.1356
-8.9152 -1.5251 2.1356
-8.8480 -1.8428 2.1356
-8.7695 -2.1577 2.1356
-8.6799 -2.4694 2.1356
-8.5794 -2.7774 2.1356
-8.4680 -3.0815 2.1356
-8.3459 -3.3812 2.1356
-8.2133 -3.6762 2.1356
-8.0705 -3.9661 2.1356
-7.9175 -4.2505 2.1356
-7.7546 -4.5292 2.1356
-7.5820 -4.8017 2.1356
-7.4000 -5.0678 2.1356
-7.2088 -5.3271 2.1356
-7.0086 -5.5793 2.1356
-6.7998 -5.8241 2.1356
-6.5825 -6.0613 2.1356
-6.4408 -6.3733 2.1637
-6.4195 -6.8258 2.2387
-6.1671 -7.0486 2.2387
-5.9071 -7.2622 2.2387
-5.6398 -7.4664 2.2387
-5.3656 -7.6609 2.2387
-5.0848 -7.8456 2.2387
-4.7978 -8.0203 2.2387
-4.5050 -8.1846 2.2387
-4.2066 -8.3384 2.2387
-3.9030 -8.4816 2.2387
-3.5947 -8.6140 2.2387
-3.2820 -8.7355 2.2387
-2.9653 -8.8458 2.2387
-2.6450 -8.9448 2.2387
-2.3215 -9.0326 2.2387
-1.9951 -9.1088 2.2387
-1.6662 -9.1736 2.2387
-1.3354 -9.2267 2.2387
-1.0029 -9.2682 2.2387
-0.6691 -9.2979 2.2387
-0.3345 -9.3159 2.2387
0.0005 -8.4766 2.2387
0.3051 -8.4715 2.2387
0.6095 -8.4556 2.2387
0.9131 -8.4290 2.2387
1.2156 -8.3918 2.2387
1.5166 -8.3439 2.2387
1.7321 -7.9032 2.1354
2.0154 -7.8374 2.1354
2.2963 -7.7616 2.1354
2.5743 -7.6759 2.1354
2.8493 -7.5805 2.1354
3.1208 -7.4753 2.1354
3.3885 -7.3607 2.1354
3.6520 -7.2366 2.1354
3.9111 -7.1032 2.1354
4.1654 -6.9607 2.1354
4.4146 -6.8093 2.1354
4.6584 -6.6490 2.1354
4.8965 -6.4802 2.1354
5.1285 -6.3030 2.1354
5.3542 -6.1176 2.1354
5.5688 -5.9194 2.1337
5.7809 -5.7185 2.1337
5.9858 -5.5101 2.1337
6.1833 -5.2944 2.1337
6.3731 -5.0717 2.1337
6.5550 -4.8423 2.1337
6.7287 -4.6065 2.1337
6.8940 -4.3645 2.1337
7.0508 -4.1166 2.1337
7.1986 -3.8632 2.1337
7.3375 -3.6045 2.1337
7.4671 -3.3409 2.1337
7.5874 -3.0726 2.1337
7.6980 -2.8001 2.1337
7.7990 -2.5236 2.1337
7.8900 -2.2435 2.1337
7.9710 -1.9601 2.1337
8.0419 -1.6738 2.1337
8.1026 -1.3850 2.1337
8.1529 -1.0940 2.1337
8.1928 -0.8012 2.1337
8.2222 -0.5069 2.1337
8.2410 -0.2116 2.1337
8.2492 0.0844 2.1337
8.2468 0.3807 2.1337
8.2337 0.6769 2.1337
8.2099 0.9727 2.1337
8.1755 1.2676 2.1337
8.1305 1.5612 2.1337
8.0749 1.8533 2.1337
8.0087 2.1433 2.1337
7.9321 2.4310 2.1337
7.8450 2.7159 2.1337
7.7477 2.9976 2.1337
7.6402 3.2758 2.1337
7.5226 3.5500 2.1337
7.3951 3.8200 2.1337
7.2578 4.0854 2.1337
7.1109 4.3458 2.1337
6.9546 4.6008 2.1337
6.7890 4.8501 2.1337
6.6144 5.0933 2.1337
6.4310 5.3302 2.1337
5.0747 4.5227 1.7355
4.8868 4.6803 1.7267
4.7004 4.8367 1.7202
4.5150 4.9923 1.7160
4.3301 5.1475 1.7140
4.1452 5.3027 1.7143
4.9253 6.7889 2.1354
2.0977 3.1210 0.9570
4.4294 7.1298 2.1354
4.1724 7.2866 2.1354
3.9097 7.4339 2.1354
3.6417 7.5716 2.1354
3.3688 7.6994 2.1354
3.0914 7.8172 2.1354
2.8097 7.9248 2.1354
2.5243 8.0220 2.1354
2.2355 8.1088 2.1354
1.9436 8.1850 2.1354
1.6491 8.2504 2.1354
1.4178 8.7066 2.2387
1.1048 8.7525 2.2387
0.7903 8.7869 2.2387
0.4748 8.8097 2.2387
0.1587 8.8210 2.2387
-0.1577 8.8208 2.2387
-0.4738 8.8089 2.2387
-0.7892 8.7855 2.2387
-1.1036 8.7506 2.2387
-1.4164 8.7043 2.2387
-1.7273 8.6465 2.2387
-2.0358 8.5774 2.2387
-2.3415 8.4971 2.2387
-2.6440 8.4056 2.2387
-2.9430 8.3033 2.2387
-3.2378 8.1901 2.2387
-3.5283 8.0662 2.2387
-3.8140 7.9319 2.2387
-4.0945 7.7872 2.2387
-4.3695 7.6325 2.2387
-4.6385 7.4679 2.2387
-4.9012 7.2937 2.2387
-5.1573 7.1101 2.2387
-5.4065 6.9174 2.2387
-5.6484 6.7158 2.2387
-5.8826 6.5056 2.2387
-6.1090 6.2872 2.2387
-6.3271 6.0608 2.2387
-6.4227 5.7250 2.1996
-6.4454 5.3429 2.1415
-6.6269 5.1037 2.1409
-6.7849 4.8478 2.1356
-6.9501 4.5985 2.1356
-7.1062 4.3435 2.1356
-7.2528 4.0831 2.1356
-7.3898 3.8178 2.1356
-7.5170 3.5479 2.1356
-6.8980 2.9579 1.9296
-7.7416 2.9956 2.1356
-7.8387 2.7140 2.1356
-7.9255 2.4293 2.1356
-8.0020 2.1418 2.1356
-8.0680 1.8520 2.1356
-8.1235 1.5601 2.1356
-8.1684 1.2666 2.1356
-8.2027 0.9719 2.1356
-8.2264 0.6764 2.1356
-8.2395 0.3804 2.1356
-8.2419 0.0843 2.1356
-8.2337 -0.2114 2.1356
-8.2149 -0.5065 2.1356
-8.1856 -0.8005 2.1356
-8.1459 -1.0931 2.1356
-8.0957 -1.3840 2.1356
-8.0352 -1.6726 2.1356
-7.9644 -1.9587 2.1356
-7.8836 -2.2419 2.1356
-7.7927 -2.5218 2.1356
-7.6920 -2.7982 2.1356
-7.5816 -3.0706 2.1356
-7.4616 -3.3388 2.1356
-7.3323 -3.6024 2.1356
-7.1937 -3.8610 2.1356
-7.0461 -4.1145 2.1356
-6.8897 -4.3623 2.1356
-6.7247 -4.6044 2.1356
-6.5513 -4.8402 2.1356
-6.4416 -5.1270 2.1597
-6.4357 -5.5113 2.2239
-6.2718 -5.7742 2.2387
-6.0573 -5.9929 2.2387
-5.8353 -6.2037 2.2387
-5.6061 -6.4065 2.2387
-5.3700 -6.6009 2.2387
-5.1272 -6.7868 2.2387
-4.8781 -6.9640 2.2387
-4.6230 -7.1321 2.2387
-4.3622 -7.2911 2.2387
-4.0960 -7.4408 2.2387
-3.8248 -7.5809 2.2387
-3.5489 -7.7113 2.2387
-3.2687 -7.8318 2.2387
-2.9844 -7.9424 2.2387
-2.6965 -8.0429 2.2387
-2.4052 -8.1331 2.2387
-2.1110 -8.2130 2.2387
-1.8142 -8.2825 2.2387
-1.5152 -8.3414 2.2387
-1.2143 -8.3898 2.2387
-0.9120 -8.4276 2.2387
-0.6085 -8.4546 2.2387
-0.3042 -8.4710 2.2387
0.0005 -7.7640 2.2387
0.2796 -7.7593 2.2387
0.5583 -7.7447 2.2387
0.8364 -7.7203 2.2387
1.1135 -7.6861 2.2387
1.3893 -7.6421 2.2387
1.6137 -7.3618 2.1718
1.8461 -7.1781 2.1354
2.1033 -7.1085 2.1354
2.3580 -7.0299 2.1354
2.6098 -6.9423 2.1354
2.8584 -6.8459 2.1354
3.1035 -6.7407 2.1354
3.3448 -6.6268 2.1354
3.5820 -6.5045 2.1354
3.8148 -6.3738 2.1354
4.0429 -6.2349 2.1354
4.2660 -6.0880 2.1354
4.4838 -5.9332 2.1354
4.6961 -5.7707 2.1354
4.9027 -5.6007 2.1354
5.1031 -5.4235 2.1354
5.2972 -5.2391 2.1354
5.4802 -5.0438 2.1337
5.6608 -4.8461 2.1337
5.8343 -4.6421 2.1337
6.0006 -4.4319 2.1337
6.1593 -4.2158 2.1337
6.3103 -3.9941 2.1337
6.4535 -3.7670 2.1337
6.5885 -3.5349 2.1337
6.7152 -3.2979 2.1337
6.8335 -3.0565 2.1337
6.9432 -2.8108 2.1337
7.0441 -2.5613 2.1337
7.1360 -2.3082 2.1337
7.2189 -2.0518 2.1337
7.2927 -1.7924 2.1337
7.3571 -1.5304 2.1337
7.4122 -1.2661 2.1337
7.4578 -0.9998 2.1337
7.4938 -0.7319 2.1337
7.5203 -0.4628 2.1337
7.5370 -0.1926 2.1337
7.5441 0.0781 2.1337
7.5415 0.3490 2.1337
7.5291 0.6199 2.1337
7.5069 0.8903 2.1337
7.4750 1.1599 2.1337
7.4334 1.4283 2.1337
7.3822 1.6952 2.1337
7.3213 1.9602 2.1337
7.2508 2.2231 2.1337
7.1709 2.4834 2.1337
7.0815 2.7407 2.1337
6.9829 2.9948 2.1337
6.8751 3.2453 2.1337
6.7582 3.4919 2.1337
6.6324 3.7342 2.1337
6.4979 3.9720 2.1337
6.3547 4.2048 2.1337
6.2031 4.4324 2.1337
6.0433 4.6544 2.1337
5.8755 4.8706 2.1337
5.6998 5.0807 2.1337
5.5166 5.2843 2.1337
5.3303 5.4858 2.1354
5.1324 5.6758 2.1354
4.9277 5.8587 2.1354
4.7163 6.0340 2.1354
4.4986 6.2016 2.1354
2.0969 3.1203 1.0475
4.0455 6.5126 2.1354
3.8106 6.6556 2.1354
3.5706 6.7900 2.1354
3.3258 6.9155 2.1354
3.0765 7.0321 2.1354
2.8231 7.1395 2.1354
2.5658 7.2377 2.1354
2.3052 7.3263 2.1354
2.0414 7.4055 2.1354
1.7748 7.4749 2.1354
1.5787 7.8989 2.2387
1.2947 7.9512 2.2387
1.0089 7.9930 2.2387
0.7217 8.0244 2.2387
0.4336 8.0452 2.2387
0.1449 8.0556 2.2387
-0.1439 8.0553 2.2387
-0.4326 8.0446 2.2387
-0.7206 8.0233 2.2387
-1.0077 7.9914 2.2387
-1.2933 7.9492 2.2387
-1.5772 7.8965 2.2387
-1.8590 7.8336 2.2387
-2.1382 7.7603 2.2387
-2.4145 7.6770 2.2387
-2.6875 7.5837 2.2387
-2.9569 7.4805 2.2387
-3.2223 7.3675 2.2387
-3.4833 7.2450 2.2387
-3.7396 7.1132 2.2387
-3.9908 6.9721 2.2387
-4.2366 6.8220 2.2387
-4.4768 6.6631 2.2387
-4.7109 6.4956 2.2387
-4.9387 6.3198 2.2387
-5.1598 6.1359 2.2387
-5.3740 5.9441 2.2387
-5.5810 5.7448 2.2387
-5.7806 5.5382 2.2387
-5.9724 5.3246 2.2387
-6.1563 5.1043 2.2387
-6.3320 4.8775 2.2387
-6.4353 4.5990 2.2166
-6.4399 4.2618 2.1654
-6.4942 3.9703 2.1356
-6.6285 3.7326 2.1356
-6.7541 3.4903 2.1356
-6.8708 3.2437 2.1356
-6.8904 2.9555 2.1086
-7.0768 2.7393 2.1356
-7.1660 2.4820 2.1356
-7.2458 2.2218 2.1356
-7.3161 1.9591 2.1356
-7.3768 1.6942 2.1356
-7.4280 1.4274 2.1356
-7.4695 1.1592 2.1356
-7.5013 0.8897 2.1356
-7.5234 0.6195 2.1356
-7.5358 0.3488 2.1356
-7.5385 0.0780 2.1356
-7.5314 -0.1925 2.1356
-7.5147 -0.4625 2.1356
-7.4883 -0.7315 2.1356
-7.4523 -0.9992 2.1356
-7.4068 -1.2653 2.1356
-7.3519 -1.5295 2.1356
-7.2875 -1.7913 2.1356
-7.2139 -2.0506 2.1356
-7.1312 -2.3069 2.1356
-7.0394 -2.5599 2.1356
-6.9387 -2.8094 2.1356
-6.8293 -3.0550 2.1356
-6.7112 -3.2964 2.1356
-6.5847 -3.5333 2.1356
-6.4499 -3.7655 2.1356
-6.4370 -4.0748 2.1796
-6.4356 -4.4056 2.2325
-6.2873 -4.6443 2.2387
-6.1133 -4.8647 2.2387
-5.9316 -5.0788 2.2387
-5.7426 -5.2861 2.2387
-5.5464 -5.4866 2.2387
-5.3434 -5.6798 2.2387
-5.1337 -5.8657 2.2387
-4.9176 -6.0440 2.2387
-4.6954 -6.2144 2.2387
-4.4674 -6.3768 2.2387
-4.2339 -6.5310 2.2387
-3.9952 -6.6768 2.2387
-3.7515 -6.8141 2.2387
-3.5032 -6.9425 2.2387
-3.2506 -7.0622 2.2387
-2.9939 -7.1727 2.2387
-2.7336 -7.2741 2.2387
-2.4699 -7.3663 2.2387
-2.2032 -7.4490 2.2387
-1.9337 -7.5223 2.2387
-1.6618 -7.5860 2.2387
-1.3880 -7.6401 2.2387
-1.1123 -7.6845 2.2387
-0.8354 -7.7191 2.2387
-0.5573 -7.7439 2.2387
-0.2786 -7.7589 2.2387
0.0005 -7.1547 2.2387
0.2577 -7.1503 2.2387
0.5146 -7.1368 2.2387
0.7709 -7.1143 2.2387
1.0263 -7.0827 2.2387
1.2804 -7.0421 2.2387
1.5329 -6.9926 2.2387
1.7014 -6.6143 2.1354
1.9384 -6.5501 2.1354
2.1731 -6.4776 2.1354
2.4050 -6.3967 2.1354
2.6341 -6.3077 2.1354
2.8599 -6.2107 2.1354
3.0822 -6.1056 2.1354
3.3007 -5.9928 2.1354
3.5151 -5.8722 2.1354
3.7251 -5.7441 2.1354
3.9306 -5.6085 2.1354
4.1312 -5.4657 2.1354
4.3267 -5.3159 2.1354
4.5168 -5.1591 2.1354
4.7013 -4.9956 2.1354
4.8800 -4.8256 2.1354
5.0525 -4.6493 2.1354
5.2188 -4.4669 2.1354
5.3786 -4.2786 2.1354
5.5271 -4.0813 2.1337
5.6731 -3.8821 2.1337
5.8119 -3.6778 2.1337
5.9435 -3.4685 2.1337
6.0676 -3.2546 2.1337
6.1841 -3.0362 2.1337
6.2927 -2.8138 2.1337
6.3934 -2.5874 2.1337
6.4860 -2.3575 2.1337
6.5704 -2.1244 2.1337
6.6464 -1.8882 2.1337
6.7140 -1.6493 2.1337
6.7730 -1.4080 2.1337
5.2030 -0.8881 1.6270
5.2316 -0.7007 1.6260
5.2567 -0.5128 1.6260
6.9218 -0.4251 2.1337
6.9369 -0.1765 2.1337
6.9431 0.0727 2.1337
6.9403 0.3220 2.1337
6.9286 0.5713 2.1337
6.9078 0.8200 2.1337
6.8782 1.0681 2.1337
6.8396 1.3150 2.1337
6.7921 1.5605 2.1337
6.7357 1.8043 2.1337
6.6706 2.0460 2.1337
6.5967 2.2853 2.1337
6.5143 2.5220 2.1337
6.4232 2.7556 2.1337
6.3238 2.9859 2.1337
6.2160 3.2126 2.1337
6.1000 3.4353 2.1337
5.9760 3.6538 2.1337
5.8441 3.8678 2.1337
5.7045 4.0769 2.1337
5.5573 4.2809 2.1337
5.4072 4.4833 2.1354
5.2454 4.6764 2.1354
5.0765 4.8636 2.1354
4.9010 5.0447 2.1354
4.7188 5.2193 2.1354
4.5304 5.3872 2.1354
4.3360 5.5483 2.1354
4.1358 5.7022 2.1354
2.0962 3.1196 1.1390
3.7190 5.9878 2.1354
3.5030 6.1191 2.1354
3.2823 6.2425 2.1354
3.0572 6.3577 2.1354
2.8280 6.4648 2.1354
2.5950 6.5634 2.1354
2.3585 6.6535 2.1354
2.1188 6.7349 2.1354
1.8764 6.8076 2.1354
1.6314 6.8713 2.1354
1.4511 7.2610 2.2387
1.1900 7.3090 2.2387
0.9273 7.3474 2.2387
0.6634 7.3762 2.2387
0.3986 7.3954 2.2387
0.1332 7.4049 2.2387
-0.1323 7.4047 2.2387
-0.3976 7.3948 2.2387
-0.6623 7.3753 2.2387
-0.9262 7.3461 2.2387
-1.1887 7.3073 2.2387
-1.4497 7.2590 2.2387
-1.7087 7.2012 2.2387
-1.9654 7.1340 2.2387
-2.2194 7.0576 2.2387
-2.4704 6.9719 2.2387
-2.7180 6.8772 2.2387
-2.9620 6.7735 2.2387
-3.2020 6.6610 2.2387
-3.4377 6.5400 2.2387
-3.6688 6.4104 2.2387
-3.8949 6.2726 2.2387
-4.1158 6.1267 2.2387
-4.3311 5.9729 2.2387
-4.5407 5.8115 2.2387
-4.7442 5.6426 2.2387
-4.9413 5.4665 2.2387
-5.1319 5.2834 2.2387
-5.3156 5.0936 2.2387
-5.4922 4.8973 2.2387
-5.6615 4.6949 2.2387
-5.8233 4.4866 2.2387
-5.9774 4.2726 2.2387
-6.1235 4.0533 2.2387
-6.2616 3.8290 2.2387
-6.3914 3.5999 2.2387
-6.4353 3.3264 2.2121
-6.4377 3.0402 2.1752
-6.4450 2.7653 2.1440
-6.5106 2.5209 2.1356
-6.5929 2.2844 2.1356
-6.6666 2.0451 2.1356
-6.7317 1.8035 2.1356
-6.7879 1.5598 2.1356
-6.8353 1.3144 2.1356
-6.8738 1.0676 2.1356
-6.9035 0.8196 2.1356
-6.9241 0.5710 2.1356
-6.9359 0.3219 2.1356
-6.9386 0.0727 2.1356
-6.9325 -0.1764 2.1356
-6.9174 -0.4249 2.1356
-6.8935 -0.6725 2.1356
-6.8607 -0.9191 2.1356
-6.8191 -1.1641 2.1356
-6.7688 -1.4074 2.1356
-6.7099 -1.6485 2.1356
-6.6425 -1.8873 2.1356
-6.5666 -2.1234 2.1356
-6.4824 -2.3566 2.1356
-6.4430 -2.6079 2.1533
-6.4356 -2.8781 2.1852
-6.4356 -3.1602 2.2235
-6.3574 -3.4105 2.2387
-6.2276 -3.6348 2.2387
-6.0898 -3.8542 2.2387
-5.9445 -4.0685 2.2387
-5.7917 -4.2774 2.2387
-5.6316 -4.4806 2.2387
-5.4644 -4.6779 2.2387
-5.2905 -4.8691 2.2387
-5.1099 -5.0539 2.2387
-4.9230 -5.2322 2.2387
-4.7299 -5.4036 2.2387
-4.5310 -5.5680 2.2387
-4.3264 -5.7252 2.2387
-4.1164 -5.8750 2.2387
-3.9014 -6.0173 2.2387
-3.6815 -6.1517 2.2387
-3.4570 -6.2783 2.2387
-3.2282 -6.3969 2.2387
-2.9955 -6.5072 2.2387
-2.7590 -6.6092 2.2387
-2.5192 -6.7028 2.2387
-2.2762 -6.7878 2.2387
-2.0304 -6.8641 2.2387
-1.7821 -6.9317 2.2387
-1.5315 -6.9905 2.2387
-1.2791 -7.0404 2.2387
-1.0251 -7.0813 2.2387
-0.7698 -7.1133 2.2387
-0.5136 -7.1361 2.2387
-0.2567 -7.1500 2.2387
0.0005 -6.6272 2.2387
0.2388 -6.6231 2.2387
0.4768 -6.6106 2.2387
0.7142 -6.5897 2.2387
0.9507 -6.5604 2.2387
1.1861 -6.5228 2.2387
1.4201 -6.4768 2.2387
1.6109 -6.2618 2.1826
1.7956 -6.0668 2.1354
2.0130 -5.9995 2.1354
2.2278 -5.9245 2.1354
2.4400 -5.8420 2.1354
2.6491 -5.7520 2.1354
2.8549 -5.6546 2.1354
3.0572 -5.5499 2.1354
3.2557 -5.4381 2.1354
3.4502 -5.3193 2.1354
3.6404 -5.1936 2.1354
3.8261 -5.0613 2.1354
4.0071 -4.9223 2.1354
4.1830 -4.7770 2.1354
4.3538 -4.6255 2.1354
4.5191 -4.4679 2.1354
4.6787 -4.3045 2.1354
4.8325 -4.1355 2.1354
4.9803 -3.9610 2.1354
5.1218 -3.7813 2.1354
5.2569 -3.5966 2.1354
5.3854 -3.4071 2.1354
5.5026 -3.2104 2.1337
5.6173 -3.0122 2.1337
5.7249 -2.8100 2.1337
5.8253 -2.6040 2.1337
5.9182 -2.3944 2.1337
6.0037 -2.1815 2.1337
6.0816 -1.9655 2.1337
6.1517 -1.7469 2.1337
6.2140 -1.5257 2.1337
6.2683 -1.3024 2.1337
5.1466 -0.8778 1.7390
4.8896 -0.6543 1.6422
4.8644 -0.4739 1.6260
4.8811 -0.2992 1.6260
4.8915 -0.1239 1.6260
6.4241 0.0680 2.1337
6.4213 0.2987 2.1337
6.4102 0.5293 2.1337
6.3907 0.7594 2.1337
6.3630 0.9888 2.1337
6.3270 1.2172 2.1337
6.2828 1.4443 2.1337
6.2305 1.6697 2.1337
6.1700 1.8932 2.1337
6.1014 2.1145 2.1337
6.0249 2.3333 2.1337
5.9405 2.5492 2.1337
5.8483 2.7621 2.1337
5.7484 2.9717 2.1337
5.6409 3.1775 2.1337
5.5260 3.3794 2.1337
5.4083 3.5801 2.1354
5.2789 3.7735 2.1354
5.1426 3.9622 2.1354
4.9994 4.1459 2.1354
4.8496 4.3243 2.1354
4.6934 4.4973 2.1354
4.5309 4.6645 2.1354
4.3624 4.8258 2.1354
4.1881 4.9809 2.1354
4.0083 5.1297 2.1354
3.8231 5.2718 2.1354
2.0954 3.1189 1.2317
3.4377 5.5356 2.1354
3.2379 5.6568 2.1354
3.0339 5.7708 2.1354
2.8258 5.8772 2.1354
2.6139 5.9760 2.1354
2.3985 6.0671 2.1354
2.1799 6.1503 2.1354
1.9584 6.2255 2.1354
1.7342 6.2926 2.1354
1.5807 6.6585 2.2387
1.3412 6.7116 2.2387
1.0998 6.7559 2.2387
0.8571 6.7914 2.2387
0.6131 6.8180 2.2387
0.3684 6.8357 2.2387
0.1232 6.8444 2.2387
-0.1222 6.8443 2.2387
-0.3674 6.8352 2.2387
-0.6121 6.8172 2.2387
-0.8559 6.7902 2.2387
-1.0986 6.7544 2.2387
-1.3398 6.7099 2.2387
-1.5792 6.6565 2.2387
-1.8165 6.5945 2.2387
-2.0513 6.5239 2.2387
-2.2833 6.4448 2.2387
-2.5122 6.3574 2.2387
-2.7378 6.2617 2.2387
-2.9597 6.1579 2.2387
-3.1776 6.0461 2.2387
-3.3913 5.9265 2.2387
-3.6004 5.7992 2.2387
-3.8047 5.6645 2.2387
-4.0039 5.5225 2.2387
-4.1977 5.3734 2.2387
-4.3860 5.2174 2.2387
-4.5684 5.0547 2.2387
-4.7447 4.8856 2.2387
-4.9147 4.7103 2.2387
-5.0781 4.5290 2.2387
-5.2349 4.3420 2.2387
-5.3846 4.1495 2.2387
-5.5273 3.9518 2.2387
-5.6627 3.7491 2.2387
-5.7905 3.5418 2.2387
-5.9108 3.3301 2.2387
-6.0233 3.1143 2.2387
-6.1278 2.8946 2.2387
-6.2243 2.6715 2.2387
-6.3127 2.4451 2.2387
-6.3928 2.2158 2.2387
-6.4354 1.9750 2.2286
-6.4354 1.7249 2.2069
-6.4354 1.4796 2.1886
-6.4380 1.2388 2.1742
-6.4407 1.0011 2.1628
-6.4427 0.7657 2.1541
-6.4441 0.5322 2.1481
-6.4449 0.2999 2.1446
-6.4451 0.0683 2.1437
-6.4447 -0.1632 2.1454
-6.4438 -0.3950 2.1497
-6.4422 -0.6278 2.1565
-6.4400 -0.8619 2.1660
-6.4372 -1.0981 2.1782
-6.4355 -1.3373 2.1937
-6.4355 -1.5803 2.2128
-6.4355 -1.8277 2.2352
-6.3720 -2.0597 2.2387
-6.2906 -2.2860 2.2387
-6.2011 -2.5092 2.2387
-6.1038 -2.7289 2.2387
-5.9987 -2.9449 2.2387
-5.8861 -3.1569 2.2387
-5.7660 -3.3647 2.2387
-5.6387 -3.5679 2.2387
-5.5043 -3.7665 2.2387
-5.3630 -3.9600 2.2387
-5.2149 -4.1483 2.2387
-5.0603 -4.3312 2.2387
-4.8994 -4.5084 2.2387
-4.7323 -4.6797 2.2387
-4.5593 -4.8449 2.2387
-4.3806 -5.0038 2.2387
-4.1965 -5.1562 2.2387
-4.0071 -5.3019 2.2387
-3.8127 -5.4408 2.2387
-3.6136 -5.5726 2.2387
-3.4100 -5.6973 2.2387
-3.2021 -5.8147 2.2387
-2.9903 -5.9246 2.2387
-2.7747 -6.0269 2.2387
-2.5557 -6.1215 2.2387
-2.3335 -6.2082 2.2387
-2.1085 -6.2870 2.2387
-1.8808 -6.3578 2.2387
-1.6508 -6.4205 2.2387
-1.4187 -6.4750 2.2387
-1.1849 -6.5213 2.2387
-0.9496 -6.5592 2.2387
-0.7131 -6.5888 2.2387
-0.4758 -6.6100 2.2387
-0.2378 -6.6228 2.2387
0.0005 -6.1656 2.2387
0.2222 -6.1618 2.2387
0.4436 -6.1502 2.2387
0.6646 -6.1307 2.2387
0.8847 -6.1034 2.2387
1.1037 -6.0683 2.2387
1.3213 -6.0255 2.2387
1.5374 -5.9750 2.2387
1.6707 -5.6440 2.1354
1.8729 -5.5813 2.1354
2.0728 -5.5115 2.1354
2.2701 -5.4346 2.1354
2.4646 -5.3507 2.1354
2.6561 -5.2600 2.1354
2.8443 -5.1626 2.1354
3.0289 -5.0584 2.1354
3.2098 -4.9478 2.1354
3.3866 -4.8308 2.1354
3.5593 -4.7076 2.1354
3.7275 -4.5782 2.1354
3.8911 -4.4429 2.1354
4.0498 -4.3018 2.1354
4.2035 -4.1552 2.1354
4.3519 -4.0031 2.1354
4.4948 -3.8457 2.1354
4.6322 -3.6833 2.1354
4.7636 -3.5161 2.1354
4.8891 -3.3442 2.1354
5.0085 -3.1679 2.1354
5.1215 -2.9873 2.1354
5.2281 -2.8028 2.1354
5.3280 -2.6145 2.1354
5.4212 -2.4226 2.1354
5.5031 -2.2257 2.1337
5.5824 -2.0276 2.1337
5.6546 -1.8268 2.1337
5.7195 -1.6234 2.1337
5.7772 -1.4177 2.1337
5.8276 -1.2100 2.1337
5.8705 -1.0006 2.1337
4.8776 -0.6521 1.7622
4.6383 -0.4513 1.6679
4.5372 -0.2776 1.6260
4.5468 -0.1146 1.6260
4.5504 0.0487 1.6260
4.5483 0.2121 1.6260
5.9577 0.4926 2.1337
5.9394 0.7065 2.1337
5.9134 0.9197 2.1337
5.8798 1.1319 2.1337
5.8385 1.3429 2.1337
5.7896 1.5523 2.1337
5.7332 1.7599 2.1337
5.6693 1.9655 2.1337
5.5980 2.1687 2.1337
5.5194 2.3693 2.1337
5.4380 2.5691 2.1354
5.3449 2.7638 2.1354
5.2448 2.9551 2.1354
5.1379 3.1428 2.1354
5.0242 3.3265 2.1354
4.9038 3.5061 2.1354
4.7770 3.6812 2.1354
4.6439 3.8517 2.1354
4.5046 4.0174 2.1354
4.3594 4.1779 2.1354
4.2084 4.3332 2.1354
4.0518 4.4829 2.1354
3.8898 4.6268 2.1354
3.7227 4.7649 2.1354
3.5506 4.8968 2.1354
2.0946 3.1181 1.3258
3.1925 5.1415 2.1354
3.0070 5.2540 2.1354
2.8174 5.3597 2.1354
2.6241 5.4585 2.1354
0.8580 1.9619 0.7548
2.2273 5.6347 2.1354
2.0243 5.7119 2.1354
1.8186 5.7817 2.1354
1.6104 5.8439 2.1354
1.4678 6.1837 2.2387
1.2454 6.2329 2.2387
1.0213 6.2740 2.2387
0.7959 6.3070 2.2387
0.5694 6.3317 2.2387
0.3421 6.3481 2.2387
0.1144 6.3562 2.2387
-0.1134 6.3561 2.2387
-0.3411 6.3477 2.2387
-0.5683 6.3310 2.2387
-0.7948 6.3060 2.2387
-1.0201 6.2728 2.2387
-1.2441 6.2315 2.2387
-1.4664 6.1820 2.2387
-1.6867 6.1245 2.2387
-1.9048 6.0590 2.2387
-2.1203 5.9856 2.2387
-2.3329 5.9045 2.2387
-0.8577 1.9619 0.7552
-0.9274 1.9298 0.7554
-2.9510 5.6157 2.2387
-3.1495 5.5047 2.2387
-3.3438 5.3867 2.2387
-3.5336 5.2617 2.2387
-3.7186 5.1299 2.2387
-3.8988 4.9915 2.2387
-4.0737 4.8468 2.2387
-4.2432 4.6958 2.2387
-4.4071 4.5388 2.2387
-4.5651 4.3761 2.2387
-4.7171 4.2078 2.2387
-4.8629 4.0342 2.2387
-5.0022 3.8555 2.2387
-5.1348 3.6720 2.2387
-5.2608 3.4838 2.2387
-5.3797 3.2913 2.2387
-5.4917 3.0947 2.2387
-5.5963 2.8943 2.2387
-5.6937 2.6904 2.2387
-5.7836 2.4831 2.2387
-5.8659 2.2728 2.2387
-5.9405 2.0599 2.2387
-6.0074 1.8444 2.2387
-6.0665 1.6268 2.2387
-6.1176 1.4073 2.2387
-6.1608 1.1862 2.2387
-6.1960 0.9638 2.2387
-6.2232 0.7404 2.2387
-6.2424 0.5163 2.2387
-6.2534 0.2917 2.2387
-6.2564 0.0670 2.2387
-6.2514 -0.1575 2.2387
-6.2383 -0.3817 2.2387
-6.2172 -0.6051 2.2387
-6.1881 -0.8274 2.2387
-6.1511 -1.0486 2.2387
-6.1062 -1.2681 2.2387
-6.0535 -1.4858 2.2387
-5.9931 -1.7013 2.2387
-5.9251 -1.9145 2.2387
-5.8495 -2.1250 2.2387
-5.7665 -2.3326 2.2387
-5.6762 -2.5370 2.2387
-5.5787 -2.7379 2.2387
-5.4741 -2.9352 2.2387
-5.3626 -3.1285 2.2387
-5.2444 -3.3177 2.2387
-5.1195 -3.5024 2.2387
-4.9882 -3.6825 2.2387
-4.8506 -3.8578 2.2387
-4.7069 -4.0280 2.2387
-4.5574 -4.1929 2.2387
-4.4021 -4.3524 2.2387
-4.2412 -4.5062 2.2387
-4.0751 -4.6541 2.2387
-3.9039 -4.7960 2.2387
-3.7278 -4.9316 2.2387
-3.5470 -5.0609 2.2387
-3.3618 -5.1837 2.2387
-3.1724 -5.2998 2.2387
-2.9791 -5.4091 2.2387
-2.7821 -5.5114 2.2387
-2.5816 -5.6067 2.2387
-2.3778 -5.6947 2.2387
-2.1712 -5.7755 2.2387
-1.9618 -5.8489 2.2387
-1.7500 -5.9148 2.2387
-1.5360 -5.9732 2.2387
-1.3200 -6.0240 2.2387
-1.1025 -6.0670 2.2387
-0.8836 -6.1024 2.2387
-0.6635 -6.1299 2.2387
-0.4427 -6.1497 2.2387
-0.2212 -6.1616 2.2387
0.0005 -5.7580 2.2387
0.2076 -5.7545 2.2387
0.4144 -5.7436 2.2387
0.6207 -5.7253 2.2387
0.8263 -5.6998 2.2387
1.0308 -5.6670 2.2387
1.2341 -5.6270 2.2387
1.4359 -5.5797 2.2387
1.6103 -5.4389 2.2036
1.7492 -5.2119 2.1354
1.9359 -5.1467 2.1354
2.1202 -5.0748 2.1354
2.3018 -4.9964 2.1354
2.4806 -4.9116 2.1354
2.6562 -4.8205 2.1354
2.8286 -4.7232 2.1354
2.9975 -4.6199 2.1354
3.1626 -4.5105 2.1354
3.3238 -4.3953 2.1354
3.4808 -4.2744 2.1354
3.6335 -4.1480 2.1354
3.7816 -4.0162 2.1354
3.9250 -3.8791 2.1354
4.0634 -3.7370 2.1354
4.1968 -3.5900 2.1354
4.3249 -3.4383 2.1354
4.4475 -3.2821 2.1354
4.5646 -3.1215 2.1354
4.6759 -2.9568 2.1354
4.7813 -2.7882 2.1354
4.8806 -2.6158 2.1354
4.9738 -2.4399 2.1354
5.0607 -2.2608 2.1354
5.1411 -2.0786 2.1354
5.2150 -1.8935 2.1354
5.2823 -1.7058 2.1354
5.3428 -1.5158 2.1354
5.3966 -1.3236 2.1354
5.4434 -1.1296 2.1354
5.4788 -0.9331 2.1337
5.0341 -0.6724 1.9488
4.6388 -0.4508 1.7874
4.4222 -0.2700 1.6983
4.2562 -0.1067 1.6311
4.2461 0.0460 1.6260
4.2440 0.1985 1.6260
4.2641 0.3531 1.6367
5.5417 0.6599 2.1337
5.5173 0.8588 2.1337
5.4857 1.0567 2.1337
5.4515 1.2545 2.1354
5.4057 1.4500 2.1354
5.3528 1.6438 2.1354
5.2930 1.8357 2.1354
5.2263 2.0253 2.1354
5.1527 2.2126 2.1354
5.0724 2.3971 2.1354
4.9855 2.5786 2.1354
4.8920 2.7570 2.1354
4.7921 2.9319 2.1354
4.6859 3.1032 2.1354
4.5735 3.2706 2.1354
4.4551 3.4339 2.1354
4.3309 3.5928 2.1354
4.2009 3.7472 2.1354
4.0654 3.8968 2.1354
3.9245 4.0415 2.1354
3.7784 4.1810 2.1354
3.6272 4.3152 2.1354
3.4713 4.4438 2.1354
2.2600 3.1174 1.4577
2.0938 3.1174 1.4213
2.9768 4.7948 2.1354
2.8038 4.8996 2.1354
2.6270 4.9981 2.1354
0.8658 1.8011 0.7556
0.8007 1.8310 0.7555
0.7346 1.8586 0.7553
0.6675 1.8837 0.7552
0.5996 1.9065 0.7551
0.5309 1.9268 0.7551
0.4615 1.9446 0.7550
0.3916 1.9599 0.7549
0.9522 5.8501 2.2387
0.7420 5.8808 2.2387
0.5309 5.9038 2.2387
0.3190 5.9191 2.2387
0.1067 5.9267 2.2387
-0.1057 5.9266 2.2387
-0.3180 5.9188 2.2387
-0.5298 5.9032 2.2387
-0.7409 5.8800 2.2387
-0.9511 5.8491 2.2387
-0.3912 1.9599 0.7551
-0.4612 1.9446 0.7552
-0.5306 1.9268 0.7553
-0.5993 1.9065 0.7554
-0.6672 1.8837 0.7555
-0.7342 1.8586 0.7557
-0.8003 1.8310 0.7558
-0.8654 1.8011 0.7560
-0.9294 1.7689 0.7561
-2.9367 5.1336 2.2387
-3.1179 5.0236 2.2387
-3.2949 4.9071 2.2387
-3.4676 4.7843 2.2387
-3.6357 4.6554 2.2387
-3.7989 4.5205 2.2387
-3.9570 4.3798 2.2387
-4.1100 4.2336 2.2387
-4.2575 4.0819 2.2387
-4.3993 3.9251 2.2387
-4.5353 3.7633 2.2387
-4.6654 3.5967 2.2387
-4.7893 3.4256 2.2387
-4.9068 3.2502 2.2387
-5.0180 3.0707 2.2387
-5.1225 2.8875 2.2387
-5.2203 2.7006 2.2387
-5.3113 2.5104 2.2387
-5.3953 2.3171 2.2387
-5.4722 2.1211 2.2387
-5.5420 1.9224 2.2387
-5.6046 1.7215 2.2387
-5.6599 1.5185 2.2387
-5.7078 1.3138 2.2387
-5.7483 1.1075 2.2387
-5.7814 0.9000 2.2387
-5.8069 0.6916 2.2387
-5.8250 0.4825 2.2387
-5.8355 0.2730 2.2387
-5.8385 0.0633 2.2387
-5.8339 -0.1463 2.2387
-5.8219 -0.3555 2.2387
-5.8024 -0.5640 2.2387
-5.7754 -0.7715 2.2387
-5.7411 -0.9779 2.2387
-5.6994 -1.1829 2.2387
-5.6504 -1.3861 2.2387
-5.5942 -1.5874 2.2387
-5.5308 -1.7864 2.2387
-5.4604 -1.9829 2.2387
-5.3831 -2.1768 2.2387
-5.2990 -2.3677 2.2387
-5.2081 -2.5553 2.2387
-5.1106 -2.7396 2.2387
-5.0067 -2.9201 2.2387
-4.8964 -3.0968 2.2387
-4.7799 -3.2694 2.2387
-4.6575 -3.4377 2.2387
-4.5291 -3.6014 2.2387
-4.3950 -3.7604 2.2387
-4.2555 -3.9145 2.2387
-4.1105 -4.0635 2.2387
-3.9605 -4.2071 2.2387
-3.8054 -4.3454 2.2387
-3.6456 -4.4779 2.2387
-3.4812 -4.6047 2.2387
-3.3124 -4.7256 2.2387
-3.1396 -4.8403 2.2387
-2.9627 -4.9488 2.2387
-2.7822 -5.0509 2.2387
-2.5982 -5.1466 2.2387
-2.4110 -5.2356 2.2387
-2.2208 -5.3179 2.2387
-2.0278 -5.3934 2.2387
-1.8322 -5.4620 2.2387
-1.6344 -5.5236 2.2387
-1.4345 -5.5782 2.2387
-1.2329 -5.6256 2.2387
-1.0297 -5.6659 2.2387
-0.8252 -5.6989 2.2387
-0.6197 -5.7247 2.2387
-0.4134 -5.7431 2.2387
-0.2066 -5.7542 2.2387
0.0005 -5.3950 2.2387
0.1945 -5.3917 2.2387
0.3884 -5.3815 2.2387
0.5817 -5.3644 2.2387
0.7743 -5.3404 2.2387
0.9660 -5.3097 2.2387
1.1565 -5.2721 2.2387
1.3455 -5.2278 2.2387
1.5329 -5.1768 2.2387
1.6391 -4.8831 2.1354
1.8215 -4.8419 2.1443
1.9866 -4.7545 2.1354
2.1568 -4.6810 2.1354
2.3243 -4.6015 2.1354
2.4888 -4.5161 2.1354
2.6503 -4.4248 2.1354
2.8085 -4.3279 2.1354
2.9631 -4.2253 2.1354
3.1141 -4.1174 2.1354
3.2612 -4.0040 2.1354
3.4041 -3.8855 2.1354
3.5428 -3.7619 2.1354
3.6771 -3.6335 2.1354
3.8067 -3.5003 2.1354
3.9316 -3.3625 2.1354
4.0515 -3.2203 2.1354
4.1663 -3.0738 2.1354
4.2758 -2.9234 2.1354
4.3800 -2.7690 2.1354
4.4786 -2.6110 2.1354
4.5715 -2.4495 2.1354
4.6587 -2.2847 2.1354
4.7399 -2.1168 2.1354
4.8151 -1.9461 2.1354
4.8842 -1.7727 2.1354
4.9471 -1.5969 2.1354
5.0036 -1.4189 2.1354
5.0538 -1.2389 2.1354
5.0975 -1.0571 2.1354
5.1347 -0.8739 2.1354
5.0332 -0.6717 2.0808
5.1304 -0.4979 2.1112
5.2066 -0.3172 2.1354
4.2261 -0.1054 1.7297
4.0483 0.0444 1.6557
4.1190 0.1931 1.6855
4.2529 0.3528 1.7435
5.1925 0.6190 2.1354
5.1694 0.8053 2.1354
5.1397 0.9907 2.1354
5.1033 1.1751 2.1354
5.0603 1.3581 2.1354
5.0107 1.5394 2.1354
4.9546 1.7190 2.1354
4.8920 1.8965 2.1354
4.8230 2.0716 2.1354
4.7477 2.2443 2.1354
4.6662 2.4141 2.1354
4.5786 2.5810 2.1354
4.4850 2.7447 2.1354
4.3855 2.9049 2.1354
4.2802 3.0615 2.1354
4.1693 3.2142 2.1354
4.0530 3.3629 2.1354
3.9312 3.5073 2.1354
3.8043 3.6473 2.1354
3.6724 3.7826 2.1354
3.5356 3.9130 2.1354
3.3942 4.0385 2.1354
3.2482 4.1588 2.1354
2.1433 2.9567 1.4774
2.0201 3.0081 1.4655
2.7853 4.4870 2.1354
2.6234 4.5850 2.1354
0.8705 1.6565 0.7563
0.8106 1.6867 0.7562
0.7497 1.7147 0.7560
0.6878 1.7405 0.7559
0.6250 1.7640 0.7558
0.5614 1.7853 0.7557
0.4971 1.8043 0.7557
0.4322 1.8210 0.7556
0.3666 1.8354 0.7555
0.3007 1.8473 0.7555
0.2343 1.8569 0.7555
0.1676 1.8641 0.7554
0.1007 1.8689 0.7554
0.0337 1.8713 0.7554
-0.0334 1.8713 0.7555
-0.1004 1.8689 0.7555
-0.1673 1.8641 0.7555
-0.2340 1.8569 0.7556
-0.3003 1.8473 0.7556
-0.3663 1.8353 0.7557
-0.4318 1.8210 0.7558
-0.4968 1.8043 0.7559
-0.5611 1.7853 0.7560
-0.6247 1.7640 0.7561
-0.6875 1.7405 0.7562
-0.7494 1.7147 0.7564
-0.8103 1.6867 0.7565
-0.8702 1.6565 0.7567
-0.9290 1.6242 0.7568
-2.9174 4.7013 2.2387
-3.0831 4.5924 2.2387
-3.2447 4.4776 2.2387
-3.4021 4.3570 2.2387
-3.5549 4.2309 2.2387
-3.7029 4.0993 2.2387
-3.8461 3.9625 2.2387
-3.9842 3.8207 2.2387
-4.1171 3.6740 2.2387
-4.2445 3.5226 2.2387
-4.3663 3.3668 2.2387
-4.4823 3.2068 2.2387
-4.5925 3.0427 2.2387
-4.6966 2.8748 2.2387
-4.7946 2.7033 2.2387
-4.8863 2.5285 2.2387
-4.9715 2.3505 2.2387
-5.0503 2.1697 2.2387
-5.1225 1.9862 2.2387
-5.1880 1.8003 2.2387
-5.2467 1.6122 2.2387
-5.2986 1.4223 2.2387
-5.3436 1.2306 2.2387
-5.3817 1.0376 2.2387
-5.4128 0.8434 2.2387
-5.4369 0.6482 2.2387
-5.4539 0.4525 2.2387
-5.4639 0.2563 2.2387
-5.4669 0.0599 2.2387
-5.4628 -0.1363 2.2387
-5.4517 -0.3322 2.2387
-5.4336 -0.5274 2.2387
-5.4085 -0.7218 2.2387
-5.3764 -0.9152 2.2387
-5.3375 -1.1071 2.2387
-5.2918 -1.2975 2.2387
-5.2393 -1.4860 2.2387
-5.1801 -1.6725 2.2387
-5.1143 -1.8566 2.2387
-5.0421 -2.0382 2.2387
-4.9634 -2.2170 2.2387
-4.8784 -2.3929 2.2387
-4.7872 -2.5655 2.2387
-4.6899 -2.7347 2.2387
-4.5867 -2.9003 2.2387
-4.4777 -3.0621 2.2387
-4.3631 -3.2197 2.2387
-4.2430 -3.3732 2.2387
-4.1175 -3.5222 2.2387
-3.9868 -3.6667 2.2387
-3.8511 -3.8063 2.2387
-3.7105 -3.9410 2.2387
-3.5653 -4.0706 2.2387
-3.4156 -4.1949 2.2387
-3.2617 -4.3137 2.2387
-3.1036 -4.4270 2.2387
-2.9417 -4.5346 2.2387
-2.7760 -4.6363 2.2387
-2.6069 -4.7320 2.2387
-2.4346 -4.8217 2.2387
-2.2591 -4.9052 2.2387
-2.0809 -4.9824 2.2387
-1.9001 -5.0532 2.2387
-1.7169 -5.1175 2.2387
-1.5315 -5.1753 2.2387
-1.3442 -5.2264 2.2387
-1.1553 -5.2709 2.2387
-0.9649 -5.3087 2.2387
-0.7733 -5.3396 2.2387
-0.5807 -5.3638 2.2387
-0.3874 -5.3811 2.2387
-0.1936 -5.3915 2.2387
0.0005 -5.0694 2.2387
0.1828 -5.0663 2.2387
0.3650 -5.0567 2.2387
0.5467 -5.0406 2.2387
0.7277 -5.0181 2.2387
0.9078 -4.9891 2.2387
1.0868 -4.9538 2.2387
1.2645 -4.9121 2.2387
1.4405 -4.8642 2.2387
1.6103 -4.7964 2.2324
1.7047 -4.5306 2.1354
1.8669 -4.4672 2.1354
2.0268 -4.3981 2.1354
2.1841 -4.3233 2.1354
2.3387 -4.2430 2.1354
2.4904 -4.1572 2.1354
2.6390 -4.0660 2.1354
2.7843 -3.9696 2.1354
2.9261 -3.8681 2.1354
3.0642 -3.7616 2.1354
3.1985 -3.6501 2.1354
3.3288 -3.5340 2.1354
3.4548 -3.4132 2.1354
3.5766 -3.2880 2.1354
3.6938 -3.1585 2.1354
3.8064 -3.0248 2.1354
3.9142 -2.8872 2.1354
4.0170 -2.7457 2.1354
4.1147 -2.6007 2.1354
4.2073 -2.4522 2.1354
4.2945 -2.3004 2.1354
4.3762 -2.1455 2.1354
4.4524 -1.9878 2.1354
4.5230 -1.8274 2.1354
4.5878 -1.6645 2.1354
4.6467 -1.4993 2.1354
4.6997 -1.3321 2.1354
4.7467 -1.1630 2.1354
4.7877 -0.9922 2.1354
4.8225 -0.8201 2.1354
4.8511 -0.6467 2.1354
4.8735 -0.4724 2.1354
4.8896 -0.2972 2.1354
4.8995 -0.1216 2.1354
4.0470 0.0449 1.7626
4.1265 0.1940 1.7982
4.8911 0.4063 2.1354
4.8757 0.5818 2.1354
4.8540 0.7568 2.1354
4.8259 0.9309 2.1354
4.7916 1.1039 2.1354
4.7511 1.2757 2.1354
4.7044 1.4460 2.1354
4.6516 1.6145 2.1354
4.5927 1.7811 2.1354
4.5279 1.9455 2.1354
4.4571 2.1075 2.1354
4.3805 2.2669 2.1354
4.2981 2.4235 2.1354
4.2102 2.5771 2.1354
4.1167 2.7275 2.1354
4.0178 2.8744 2.1354
3.9136 3.0177 2.1354
3.8043 3.1572 2.1354
3.6900 3.2927 2.1354
3.5708 3.4240 2.1354
3.4469 3.5509 2.1354
3.3185 3.6733 2.1354
3.1856 3.7910 2.1354
3.0486 3.9038 2.1354
2.1401 2.9527 1.5717
2.0162 3.0027 1.5584
2.6141 4.2117 2.1354
0.8727 1.5255 0.7569
0.8175 1.5558 0.7568
0.7613 1.5842 0.7567
0.7041 1.6105 0.7566
0.6459 1.6347 0.7565
0.5870 1.6568 0.7564
0.5272 1.6768 0.7563
0.4668 1.6947 0.7562
0.4058 1.7103 0.7561
0.3443 1.7238 0.7561
0.2824 1.7350 0.7560
0.2200 1.7441 0.7560
0.1574 1.7508 0.7560
0.0946 1.7553 0.7560
0.0317 1.7576 0.7560
-0.0313 1.7576 0.7560
-0.0943 1.7554 0.7560
-0.1571 1.7508 0.7561
-0.2197 1.7441 0.7561
-0.2820 1.7351 0.7562
-0.3440 1.7238 0.7562
-0.4055 1.7103 0.7563
-0.4665 1.6947 0.7564
-0.5269 1.6768 0.7565
-0.5866 1.6568 0.7566
-0.6456 1.6347 0.7567
-0.7037 1.6105 0.7569
-0.7610 1.5842 0.7570
-0.8172 1.5558 0.7572
-0.8724 1.5255 0.7573
-0.9265 1.4932 0.7575
-0.9793 1.4590 0.7577
-3.0454 4.2032 2.2387
-3.1931 4.0901 2.2387
-3.3365 3.9718 2.2387
-3.4756 3.8483 2.2387
-3.6101 3.7200 2.2387
-3.7398 3.5870 2.2387
-3.8645 3.4493 2.2387
-3.9842 3.3073 2.2387
-4.0986 3.1611 2.2387
-4.2077 3.0110 2.2387
-4.3112 2.8570 2.2387
-4.4090 2.6994 2.2387
-4.5011 2.5385 2.2387
-4.5873 2.3744 2.2387
-4.6674 2.2074 2.2387
-4.7415 2.0377 2.2387
-4.8094 1.8655 2.2387
-4.8710 1.6910 2.2387
-4.9262 1.5144 2.2387
-4.9751 1.3361 2.2387
-5.0175 1.1562 2.2387
-5.0534 0.9750 2.2387
-5.0827 0.7926 2.2387
-5.1055 0.6094 2.2387
-5.1216 0.4255 2.2387
-5.1311 0.2413 2.2387
-5.1340 0.0570 2.2387
-5.1303 -0.1273 2.2387
-5.1200 -0.3113 2.2387
-5.1032 -0.4947 2.2387
-5.0797 -0.6773 2.2387
-5.0498 -0.8589 2.2387
-5.0133 -1.0392 2.2387
-4.9705 -1.2180 2.2387
-4.9213 -1.3952 2.2387
-4.8658 -1.5703 2.2387
-4.8042 -1.7433 2.2387
-4.7364 -1.9140 2.2387
-4.6626 -2.0820 2.2387
-4.5828 -2.2473 2.2387
-4.4973 -2.4095 2.2387
-4.4060 -2.5685 2.2387
-4.3091 -2.7241 2.2387
-4.2068 -2.8762 2.2387
-4.0992 -3.0244 2.2387
-3.9864 -3.1686 2.2387
-3.8686 -3.3087 2.2387
-3.7458 -3.4445 2.2387
-3.6184 -3.5757 2.2387
-3.4864 -3.7023 2.2387
-3.3500 -3.8241 2.2387
-3.2094 -3.9410 2.2387
-3.0648 -4.0527 2.2387
-2.9163 -4.1592 2.2387
-2.7642 -4.2604 2.2387
-2.6086 -4.3560 2.2387
-2.4497 -4.4461 2.2387
-2.2877 -4.5304 2.2387
-2.1229 -4.6089 2.2387
-1.9555 -4.6814 2.2387
-1.7855 -4.7480 2.2387
-1.6134 -4.8085 2.2387
-1.4392 -4.8628 2.2387
-1.2632 -4.9109 2.2387
-1.0856 -4.9527 2.2387
-0.9067 -4.9882 2.2387
-0.7266 -5.0174 2.2387
-0.5457 -5.0400 2.2387
-0.3640 -5.0563 2.2387
-0.1819 -5.0661 2.2387
0.0005 -4.7754 2.2387
0.1723 -4.7725 2.2387
0.3439 -4.7634 2.2387
0.5151 -4.7482 2.2387
0.6856 -4.7270 2.2387
0.8553 -4.6997 2.2387
1.0239 -4.6664 2.2387
1.1913 -4.6271 2.2387
1.3572 -4.5819 2.2387
1.5213 -4.5308 2.2387
1.6188 -4.3015 2.1524
1.7588 -4.2078 2.1354
1.9094 -4.1427 2.1354
2.0576 -4.0722 2.1354
2.2032 -3.9965 2.1354
2.3461 -3.9156 2.1354
2.4860 -3.8297 2.1354
2.6229 -3.7388 2.1354
2.7564 -3.6431 2.1354
2.8864 -3.5427 2.1354
3.0129 -3.4377 2.1354
3.1355 -3.3282 2.1354
3.2543 -3.2144 2.1354
3.3689 -3.0964 2.1354
3.4792 -2.9743 2.1354
3.5852 -2.8484 2.1354
3.6866 -2.7187 2.1354
3.7834 -2.5854 2.1354
3.8754 -2.4488 2.1354
3.9625 -2.3089 2.1354
4.0445 -2.1659 2.1354
4.1214 -2.0200 2.1354
4.1931 -1.8714 2.1354
4.2594 -1.7203 2.1354
4.3204 -1.5669 2.1354
4.3758 -1.4113 2.1354
4.4256 -1.2538 2.1354
4.4697 -1.0945 2.1354
4.5082 -0.9337 2.1354
4.5409 -0.7716 2.1354
4.5677 -0.6083 2.1354
4.5887 -0.4442 2.1354
4.6038 -0.2793 2.1354
4.6130 -0.1139 2.1354
4.3099 0.0484 1.9937
4.4453 0.2096 2.0576
4.6048 0.3831 2.1354
4.5901 0.5484 2.1354
4.5696 0.7130 2.1354
4.5431 0.8769 2.1354
4.5107 1.0398 2.1354
4.4724 1.2015 2.1354
4.4284 1.3617 2.1354
4.3786 1.5203 2.1354
4.3231 1.6771 2.1354
4.2619 1.8318 2.1354
4.1952 1.9843 2.1354
4.1230 2.1343 2.1354
4.0454 2.2816 2.1354
3.9626 2.4261 2.1354
3.8745 2.5676 2.1354
3.7813 2.7058 2.1354
3.6832 2.8406 2.1354
3.5803 2.9719 2.1354
3.4726 3.0993 2.1354
3.3604 3.2228 2.1354
3.2438 3.3422 2.1354
3.1228 3.4574 2.1354
2.9978 3.5681 2.1354
2.8688 3.6742 2.1354
2.1368 2.9486 1.6677
2.0122 2.9971 1.6528
0.8726 1.4061 0.7575
0.8217 1.4365 0.7574
0.7697 1.4651 0.7572
0.7168 1.4917 0.7571
0.6629 1.5165 0.7570
0.6082 1.5393 0.7569
0.5527 1.5602 0.7568
0.4964 1.5790 0.7568
0.4396 1.5958 0.7567
0.3821 1.6105 0.7566
0.3242 1.6232 0.7566
0.2659 1.6338 0.7565
0.2072 1.6423 0.7565
0.1482 1.6487 0.7565
0.0891 1.6529 0.7565
0.0298 1.6550 0.7565
-0.0295 1.6550 0.7565
-0.0887 1.6529 0.7565
-0.1479 1.6487 0.7566
-0.2068 1.6423 0.7566
-0.2655 1.6338 0.7567
-0.3239 1.6232 0.7567
-0.3818 1.6105 0.7568
-0.4392 1.5958 0.7569
-0.4961 1.5790 0.7570
-0.5523 1.5602 0.7571
-0.6078 1.5393 0.7572
-0.6626 1.5165 0.7573
-0.7164 1.4917 0.7574
-0.7694 1.4651 0.7576
-0.8214 1.4365 0.7577
-0.8723 1.4061 0.7579
-0.9220 1.3739 0.7581
-0.9706 1.3399 0.7582
-3.0048 3.8496 2.2387
-3.1399 3.7383 2.2387
-3.2708 3.6222 2.2387
-3.3974 3.5015 2.2387
-3.5195 3.3764 2.2387
-3.6370 3.2469 2.2387
-3.7497 3.1133 2.2387
-3.8575 2.9758 2.2387
-3.9602 2.8345 2.2387
-4.0577 2.6897 2.2387
-4.1499 2.5414 2.2387
-4.2366 2.3900 2.2387
-4.3178 2.2356 2.2387
-4.3934 2.0785 2.2387
-4.4632 1.9187 2.2387
-4.5272 1.7567 2.2387
-4.5853 1.5924 2.2387
-4.6374 1.4263 2.2387
-4.6835 1.2584 2.2387
-4.7235 1.0891 2.2387
-4.7574 0.9185 2.2387
-4.7851 0.7468 2.2387
-4.8067 0.5744 2.2387
-4.8220 0.4013 2.2387
-4.8311 0.2278 2.2387
-4.8339 0.0543 2.2387
-4.8305 -0.1193 2.2387
-4.8209 -0.2925 2.2387
-4.8052 -0.4652 2.2387
-4.7832 -0.6371 2.2387
-4.7551 -0.8081 2.2387
-4.7209 -0.9780 2.2387
-4.6807 -1.1464 2.2387
-4.6345 -1.3132 2.2387
-4.5823 -1.4782 2.2387
-4.5243 -1.6412 2.2387
-4.4606 -1.8019 2.2387
-4.3912 -1.9602 2.2387
-4.3161 -2.1159 2.2387
-4.2356 -2.2687 2.2387
-4.1498 -2.4185 2.2387
-4.0586 -2.5652 2.2387
-3.9623 -2.7084 2.2387
-3.8610 -2.8480 2.2387
-3.7549 -2.9840 2.2387
-3.6439 -3.1160 2.2387
-3.5284 -3.2439 2.2387
-3.4084 -3.3676 2.2387
-3.2841 -3.4869 2.2387
-3.1557 -3.6017 2.2387
-3.0233 -3.7118 2.2387
-2.8871 -3.8171 2.2387
-2.7473 -3.9175 2.2387
-2.6040 -4.0128 2.2387
-2.4574 -4.1030 2.2387
-2.3078 -4.1879 2.2387
-2.1552 -4.2673 2.2387
-2.0000 -4.3413 2.2387
-1.8422 -4.4097 2.2387
-1.6821 -4.4725 2.2387
-1.5199 -4.5295 2.2387
-1.3559 -4.5807 2.2387
-1.1901 -4.6260 2.2387
-1.0228 -4.6655 2.2387
-0.8542 -4.6989 2.2387
-0.6846 -4.7263 2.2387
-0.5141 -4.7477 2.2387
-0.3429 -4.7631 2.2387
-0.1713 -4.7723 2.2387
0.0005 -4.5084 2.2387
0.1627 -4.5056 2.2387
0.3247 -4.4970 2.2387
0.4864 -4.4827 2.2387
0.6474 -4.4626 2.2387
0.8076 -4.4368 2.2387
0.9668 -4.4053 2.2387
1.1248 -4.3682 2.2387
1.2814 -4.3255 2.2387
1.4364 -4.2773 2.2387
1.5896 -4.2235 2.2387
1.6606 -3.9723 2.1354
1.8188 -3.9457 2.1545
1.9427 -3.8441 2.1354
2.0801 -3.7726 2.1354
2.2150 -3.6962 2.1354
2.3471 -3.6151 2.1354
2.4762 -3.5292 2.1354
2.6023 -3.4388 2.1354
2.7250 -3.3440 2.1354
2.8444 -3.2448 2.1354
2.9601 -3.1414 2.1354
3.0721 -3.0339 2.1354
3.1803 -2.9225 2.1354
3.2844 -2.8072 2.1354
3.3844 -2.6883 2.1354
3.4801 -2.5658 2.1354
3.5714 -2.4400 2.1354
3.6581 -2.3109 2.1354
3.7402 -2.1788 2.1354
3.8176 -2.0438 2.1354
3.8901 -1.9060 2.1354
3.9577 -1.7658 2.1354
4.0203 -1.6231 2.1354
4.0777 -1.4783 2.1354
4.1299 -1.3314 2.1354
4.1768 -1.1827 2.1354
4.2184 -1.0324 2.1354
4.2546 -0.8806 2.1354
4.2854 -0.7276 2.1354
4.3106 -0.5735 2.1354
4.3303 -0.4186 2.1354
4.3445 -0.2629 2.1354
4.3530 -0.1069 2.1354
4.3104 0.0489 2.1131
4.3533 0.2058 2.1354
4.3450 0.3621 2.1354
4.3311 0.5180 2.1354
4.3116 0.6734 2.1354
4.2865 0.8280 2.1354
4.2559 0.9816 2.1354
4.2197 1.1342 2.1354
4.1781 1.2853 2.1354
4.1310 1.4349 2.1354
4.0785 1.5828 2.1354
4.0208 1.7287 2.1354
3.9578 1.8725 2.1354
3.8896 2.0140 2.1354
3.8163 2.1530 2.1354
3.7381 2.2893 2.1354
3.6549 2.4227 2.1354
3.5670 2.5530 2.1354
3.4744 2.6802 2.1354
3.3772 2.8039 2.1354
3.2756 2.9241 2.1354
3.1697 3.0405 2.1354
3.0597 3.1531 2.1354
2.9456 3.2617 2.1354
2.8276 3.3660 2.1354
2.7059 3.4661 2.1354
0.9163 1.2646 0.7582
0.8704 1.2967 0.7580
0.8234 1.3271 0.7579
0.7754 1.3558 0.7578
0.7264 1.3827 0.7577
0.6764 1.4079 0.7575
0.6256 1.4313 0.7574
0.5739 1.4528 0.7574
0.5215 1.4725 0.7573
0.4685 1.4902 0.7572
0.4148 1.5061 0.7571
0.3606 1.5200 0.7571
0.3059 1.5320 0.7570
0.2509 1.5420 0.7570
0.1955 1.5500 0.7570
0.1399 1.5560 0.7569
0.0841 1.5600 0.7569
0.0281 1.5620 0.7569
-0.0278 1.5620 0.7570
-0.0837 1.5600 0.7570
-0.1395 1.5560 0.7570
-0.1952 1.5500 0.7570
-0.2506 1.5420 0.7571
-0.3056 1.5320 0.7572
-0.3603 1.5200 0.7572
-0.4145 1.5061 0.7573
-0.4681 1.4902 0.7574
-0.5212 1.4725 0.7575
-0.5736 1.4528 0.7576
-0.6252 1.4313 0.7577
-0.6761 1.4079 0.7578
-0.7260 1.3827 0.7580
-0.7751 1.3558 0.7581
-0.8231 1.3271 0.7583
-0.8701 1.2967 0.7584
-0.9159 1.2646 0.7586
-0.9606 1.2309 0.7588
-2.9616 3.5268 2.2387
-3.0852 3.4173 2.2387
-3.2046 3.3035 2.2387
-3.3199 3.1855 2.2387
-3.4308 3.0634 2.2387
-3.5371 2.9375 2.2387
-3.6389 2.8078 2.2387
-3.7358 2.6745 2.2387
-3.8279 2.5380 2.2387
-3.9149 2.3982 2.2387
-3.9968 2.2554 2.2387
-4.0735 2.1098 2.2387
-4.1448 1.9615 2.2387
-4.2108 1.8109 2.2387
-4.2713 1.6580 2.2387
-4.3262 1.5031 2.2387
-4.3754 1.3463 2.2387
-4.4190 1.1880 2.2387
-4.4569 1.0282 2.2387
-4.4889 0.8673 2.2387
-4.5152 0.7053 2.2387
-4.5356 0.5426 2.2387
-4.5501 0.3793 2.2387
-4.5588 0.2156 2.2387
-4.5616 0.0518 2.2387
-4.5585 -0.1119 2.2387
-4.5496 -0.2754 2.2387
-4.5348 -0.4384 2.2387
-4.5141 -0.6007 2.2387
-4.4877 -0.7621 2.2387
-4.4555 -0.9224 2.2387
-4.4177 -1.0814 2.2387
-4.3741 -1.2388 2.2387
-4.3250 -1.3946 2.2387
-4.2704 -1.5484 2.2387
-4.2103 -1.7002 2.2387
-4.1448 -1.8496 2.2387
-4.0741 -1.9966 2.2387
-3.9982 -2.1409 2.2387
-3.9172 -2.2824 2.2387
-3.8312 -2.4208 2.2387
-3.7404 -2.5561 2.2387
-3.6448 -2.6880 2.2387
-3.5446 -2.8163 2.2387
-3.4400 -2.9410 2.2387
-3.3309 -3.0618 2.2387
-3.2177 -3.1786 2.2387
-3.1004 -3.2913 2.2387
-2.9792 -3.3997 2.2387
-2.8543 -3.5037 2.2387
-2.7257 -3.6032 2.2387
-2.5937 -3.6980 2.2387
-2.4585 -3.7881 2.2387
-2.3201 -3.8732 2.2387
-2.1788 -3.9534 2.2387
-2.0348 -4.0284 2.2387
-1.8883 -4.0983 2.2387
-1.7393 -4.1629 2.2387
-1.5882 -4.2222 2.2387
-1.4351 -4.2761 2.2387
-1.2802 -4.3244 2.2387
-1.1236 -4.3673 2.2387
-0.9657 -4.4045 2.2387
-0.8065 -4.4361 2.2387
-0.6463 -4.4620 2.2387
-0.4854 -4.4822 2.2387
-0.3238 -4.4967 2.2387
