ply
format ascii 1.0
element vertex 1995
property float32 x
property float32 y
property float32 z
end_header
-24.0009 -17.7174 -5.4438
-22.8830 -18.1981 -5.3435
-27.2616 -23.3278 -6.5674
-26.0880 -24.0002 -6.4978
-20.4688 -20.2364 -5.2835
-20.7958 -22.0931 -5.5769
-18.8010 -21.4704 -5.2524
-21.0067 -25.8048 -6.1315
-18.9901 -25.1207 -5.8098
-18.1054 -25.8307 -5.8261
-16.3854 -25.2627 -5.5674
-15.6581 -26.1553 -5.6420
-21.5297 -39.0864 -8.2667
-26.1968 -51.8911 -10.7780
-25.3373 -55.0213 -11.2406
-22.7405 -54.4548 -10.9589
-24.5691 -65.3474 -12.9735
-22.6727 -67.5872 -13.2558
-20.3849 -68.8893 -13.3660
2.1696 -20.0277 -3.2859
11.1648 -77.0684 -12.6979
7.2435 -39.8453 -6.6010
8.5058 -38.8044 -6.4720
10.8738 -42.2778 -7.1079
12.4268 -41.9954 -7.1265
8.6500 -25.7864 -4.4227
8.4310 -22.4254 -3.8927
10.0152 -23.9842 -4.2194
10.0537 -21.8341 -3.8986
11.1001 -21.9897 -3.9911
11.9831 -21.7576 -4.0203
17.9376 -29.9669 -5.6462
17.4725 -26.9428 -5.1852
18.5169 -26.4220 -5.2031
19.2614 -25.4840 -5.1445
20.1559 -24.7643 -5.1349
22.6286 -25.8467 -5.5164
14.1546 -15.0408 -3.3115
14.2505 -14.0919 -3.2082
14.8779 -13.6906 -3.2311
10.1457 -8.6840 -2.1306
10.6924 -8.5058 -2.1759
11.2680 -8.3206 -2.2267
11.8766 -8.1273 -2.2835
10.6456 -6.7365 -1.9951
11.1002 -6.4778 -2.0313
10.6341 -5.7040 -1.9035
11.0647 -5.4325 -1.9404
11.5149 -5.1489 -1.9815
10.9361 -4.4259 -1.8493
11.0457 -4.0149 -1.8383
10.7758 -3.4841 -1.7676
10.4521 -2.9694 -1.6921
10.7439 -2.6393 -1.7190
11.0907 -2.3056 -1.7562
11.5094 -1.9645 -1.8060
87.8026 0.9191 -13.4248
88.3144 4.0978 -13.4852
87.6079 7.2233 -13.3769
16.6985 1.9824 -2.5530
16.4604 2.5561 -2.5231
16.2261 3.1197 -2.4969
11.9621 2.7484 -1.8505
11.7778 3.1549 -1.8341
11.5968 3.5570 -1.8204
11.4165 3.9551 -1.8092
11.1784 4.3278 -1.7909
15.9378 6.8375 -2.5854
13.9284 6.5766 -2.2912
13.5027 6.9786 -2.2561
13.3820 7.5363 -2.2749
9.5932 5.8655 -1.6621
13.3191 8.8149 -2.3562
12.5640 8.9793 -2.2737
11.3103 8.7127 -2.0980
10.8779 9.0193 -2.0726
11.5683 10.3137 -2.2690
11.1941 10.7248 -2.2657
11.8246 12.1716 -2.4759
16.4156 18.1568 -3.5654
15.6565 18.6178 -3.5378
15.0969 19.3182 -3.5602
14.6053 20.1376 -3.6072
13.7054 20.3975 -3.5585
14.3692 23.1361 -3.9387
12.5413 21.9082 -3.6462
11.2826 21.4589 -3.4978
10.4308 21.6932 -3.4691
11.9105 27.2292 -4.2791
11.0631 27.9834 -4.3285
9.6342 27.1807 -4.1448
8.4105 26.7357 -4.0254
7.4852 27.1598 -4.0436
6.8975 29.0560 -4.2838
1.9312 11.8640 -1.7228
10.2372 81.1338 -11.7169
7.3275 81.5049 -11.7225
4.4100 81.8767 -11.7442
1.4771 82.2501 -11.7821
-1.4788 82.6261 -11.8366
-4.4656 83.0058 -11.9080
-7.4918 83.3902 -11.9967
-9.6284 76.3464 -11.0294
-12.1717 74.8023 -10.8669
-14.4308 72.2433 -10.5688
-15.4215 64.9813 -9.5867
-14.2750 51.8077 -7.7189
-15.3038 48.6584 -7.3323
-16.6515 46.9874 -7.1719
-18.0904 45.7662 -7.0865
-16.9420 38.7378 -6.0945
-8.9660 18.6495 -2.9860
-8.7990 16.7376 -2.7318
-9.0299 15.7763 -2.6293
-10.0764 16.2260 -2.7664
-10.4196 15.5090 -2.7099
-11.2366 15.4945 -2.7800
-12.3956 15.8632 -2.9285
-12.6282 15.0182 -2.8589
-28.1648 31.1552 -6.1293
-23.2564 23.9410 -4.8794
-24.2901 23.2739 -4.9266
-23.7252 21.1540 -4.6636
-24.4639 20.2857 -4.6715
-25.3681 19.5435 -4.7163
-29.0202 20.7421 -5.2639
-34.6752 22.9508 -6.1487
-34.9207 21.3528 -6.0650
-11.8167 6.6553 -2.0138
-11.2712 5.8257 -1.8880
-11.0696 5.2272 -1.8256
-11.2527 4.8279 -1.8301
-11.4302 4.4256 -1.8360
-11.6480 4.0357 -1.8507
-12.0439 3.6945 -1.8956
-31.4376 8.4219 -4.9086
-30.2914 6.9602 -4.6985
-24.7997 4.7685 -3.8265
-25.8037 4.0073 -3.9659
-27.7629 3.2961 -4.2561
-25.7308 2.1218 -3.9396
-25.9875 1.2060 -3.9790
-24.2906 0.2544 -3.7241
-27.0752 -0.6887 -4.1618
-23.7833 -1.4606 -3.6700
-23.7291 -2.3148 -3.6807
-23.6168 -3.1634 -3.6869
-23.5033 -4.0119 -3.6978
-26.3927 -5.4870 -4.1902
-25.5731 -6.2825 -4.1024
-32.9875 -9.3720 -5.3542
-31.2361 -10.0999 -5.1367
-26.8295 -9.7525 -4.4764
-25.6904 -10.3976 -4.3551
-26.1651 -11.7003 -4.5134
-6.8028 -3.3402 -1.1958
-25.3551 -13.6008 -4.5491
-25.5861 -14.9324 -4.6930
-24.7395 -15.6562 -4.6468
-23.6337 -16.1739 -4.5539
-23.9634 -17.6964 -4.7455
-22.8480 -18.1768 -4.6592
-27.3095 -23.3767 -5.7465
-26.0196 -23.9452 -5.6619
-20.4823 -20.2561 -4.6199
-20.8759 -22.1849 -4.8929
-20.4711 -23.3845 -4.9992
-21.0447 -25.8589 -5.3705
-19.4019 -25.6724 -5.1904
-17.8681 -25.4989 -5.0286
-17.7755 -27.4130 -5.2829
-15.6229 -26.1032 -4.9246
-21.4737 -38.9945 -7.2140
-22.4418 -44.4641 -8.0793
-24.4271 -53.0572 -9.4837
-23.6523 -56.6514 -9.9760
-24.0814 -64.0649 -11.1304
-22.6176 -67.4378 -11.5756
-20.2811 -68.5536 -11.6416
-24.1203 -93.8047 -15.7807
-20.3634 -92.9273 -15.5071
2.1689 -20.0266 -2.8216
5.9203 -40.8772 -5.7834
7.3661 -40.5303 -5.7654
8.5410 -38.9748 -5.5811
11.4189 -44.4085 -6.4097
12.5520 -42.4291 -6.1807
7.6767 -22.8905 -3.3698
8.5783 -22.8229 -3.3999
9.3614 -22.4243 -3.3851
10.2976 -22.3696 -3.4269
11.0848 -21.9650 -3.4198
11.7442 -21.3296 -3.3802
12.4945 -20.8792 -3.3734
14.6537 -22.6024 -3.7292
18.2010 -25.9786 -4.3849
19.5917 -25.9284 -4.4854
20.5013 -25.1962 -4.4760
21.4086 -24.4606 -4.4715
14.2935 -15.1932 -2.8644
14.9227 -14.7615 -2.8769
15.5268 -14.2925 -2.8869
15.3444 -13.1383 -2.7579
10.4483 -8.3146 -1.8193
15.9181 -11.7588 -2.6906
11.4878 -7.8644 -1.8887
10.9900 -6.9574 -1.7607
17.0916 -9.9787 -2.6729
12.2356 -6.5661 -1.8710
11.8931 -5.8422 -1.7811
18.2590 -8.1690 -2.6822
20.6606 -8.3665 -2.9815
11.0840 -4.0315 -1.5737
10.7705 -3.4849 -1.5066
10.4472 -2.9704 -1.4417
10.8787 -2.6749 -1.4832
11.2332 -2.3379 -1.5151
40.9967 -2.5270 -5.3656
40.0542 -1.0279 -5.2198
39.6819 0.4065 -5.1557
40.0015 1.8471 -5.1882
39.9930 3.2885 -5.1849
26.7478 3.1693 -3.4707
16.4865 2.5564 -2.1439
16.2517 3.1210 -2.1208
11.8258 2.7144 -1.5507
11.6444 3.1165 -1.5365
11.4661 3.5143 -1.5245
11.2904 3.9088 -1.5148
11.0645 4.2810 -1.5003
16.4074 7.0350 -2.2517
14.9078 7.0355 -2.0739
13.4003 6.9223 -1.8928
13.1812 7.4198 -1.8935
12.9626 7.9222 -1.8971
12.7440 8.4309 -1.9037
11.9740 8.5544 -1.8291
11.5232 8.8735 -1.8036
11.0806 9.1842 -1.7809
12.8226 11.4282 -2.1209
12.0934 11.5827 -2.0634
10.8287 11.1431 -1.9107
16.5068 18.2523 -3.0204
15.6662 18.6240 -2.9814
15.2016 19.4467 -3.0185
14.5892 20.1099 -3.0330
14.0751 20.9421 -3.0754
14.0571 22.6277 -3.2418
13.2002 23.0536 -3.2282
12.0715 22.9538 -3.1473
11.3347 23.5674 -3.1696
9.7244 27.4293 -3.5159
9.3312 29.6558 -3.7527
8.0015 29.0267 -3.6317
7.0488 29.6871 -3.6778
9.4683 47.3755 -5.8200
1.9315 11.8632 -1.4473
5.9817 47.3983 -5.7504
4.2625 47.4046 -5.7275
2.5538 47.4077 -5.7122
0.8592 47.8409 -5.7567
-0.8527 47.6218 -5.7307
-2.5624 47.6153 -5.7383
-4.2780 47.6054 -5.7534
-6.0036 47.5922 -5.7764
-7.7434 47.5757 -5.8071
-14.6487 73.3155 -9.0126
-15.5473 65.4948 -8.1201
-13.8020 50.0787 -6.2712
-15.7604 50.0977 -6.3459
-16.7305 47.1984 -6.0568
-18.0628 45.6847 -5.9484
-16.9640 38.7783 -5.1311
-8.1602 16.9690 -2.2855
-8.8231 16.7790 -2.3042
-9.3375 16.3093 -2.2876
-9.8411 15.8429 -2.2738
-10.5219 15.6569 -2.3035
-11.4180 15.7401 -2.3786
-12.5783 16.0923 -2.5029
-29.7482 35.3676 -5.6739
-31.6327 34.9806 -5.8015
-19.0438 19.5981 -3.3683
-18.2853 17.5145 -3.1275
-18.0797 16.1148 -2.9979
-18.0900 14.9950 -2.9150
-18.2506 14.0549 -2.8642
-18.5205 13.2323 -2.8368
-18.8612 12.4787 -2.8253
-11.5246 7.0438 -1.6915
-11.3922 6.4133 -1.6413
-11.1561 5.7634 -1.5804
-10.8450 5.1185 -1.5132
-10.9159 4.6807 -1.5026
-10.9487 4.2365 -1.4891
-11.3069 3.9148 -1.5217
-11.6245 3.5631 -1.5504
-12.4161 3.3233 -1.6434
-14.5561 3.3413 -1.9148
-38.8044 7.4524 -5.0798
-27.5851 4.2776 -3.5985
-28.5665 3.3851 -3.7185
-27.8346 2.2890 -3.6201
-25.6051 1.1825 -3.3316
-27.5040 0.2819 -3.5848
-12.1587 -0.3120 -1.5895
-11.9830 -0.7386 -1.5733
-12.2837 -1.2011 -1.6218
-23.7504 -3.1867 -3.1572
-23.6364 -4.0400 -3.1677
-24.5611 -5.1118 -3.3229
-32.5634 -8.0072 -4.4531
-27.4768 -7.8127 -3.8032
-28.0884 -9.0887 -3.9406
-26.3444 -9.5825 -3.7512
-26.7792 -10.8446 -3.8756
-26.1715 -11.7095 -3.8554
-6.8026 -3.3418 -1.0216
-25.9169 -13.9088 -3.9738
-25.6987 -15.0048 -4.0296
-24.9242 -15.7796 -4.0033
-15.2542 -10.4434 -2.5142
-13.9322 -10.2925 -2.3608
-27.4004 -21.8062 -4.7824
-27.3572 -23.4255 -4.9284
-25.9521 -23.8908 -4.8361
-23.9704 -23.7131 -4.6313
-22.3307 -23.7381 -4.4844
-21.8435 -24.9594 -4.5716
-20.7369 -25.4878 -4.5363
-19.6370 -25.9906 -4.5041
-17.8921 -25.5399 -4.3181
-17.2720 -26.6434 -4.4030
-15.5881 -26.0516 -4.2154
-22.5861 -41.0247 -6.5106
-25.8764 -51.2814 -7.9946
-24.2570 -52.7001 -8.0832
-22.8614 -54.7697 -8.2773
-20.7996 -55.3466 -8.2534
-22.3063 -66.5245 -9.8023
-20.6222 -69.7219 -10.1648
-23.6109 -91.8430 -13.2659
-20.1219 -91.8443 -13.1601
2.1682 -20.0255 -2.3603
5.7937 -40.0134 -4.7355
7.2666 -39.9929 -4.7583
8.7256 -39.8270 -4.7697
9.9416 -38.6726 -4.6677
14.0031 -47.3460 -5.7666
10.9001 -32.5103 -4.0009
8.6773 -23.0922 -2.8753
9.2873 -22.2524 -2.8071
10.3171 -22.4177 -2.8692
10.5885 -20.9870 -2.7293
11.5082 -20.9063 -2.7667
12.4211 -20.7622 -2.8005
13.2923 -20.5081 -2.8241
17.8966 -25.5512 -3.5985
19.4841 -25.7935 -3.7219
20.7171 -25.4689 -3.7727
21.8016 -24.9172 -3.7969
22.9745 -24.4283 -3.8376
15.8649 -15.6985 -2.5485
15.6465 -14.4076 -2.4230
14.9069 -12.7681 -2.2307
15.4478 -12.2976 -2.2386
16.2720 -12.0248 -2.2881
11.1880 -7.6622 -1.5295
11.1737 -7.0767 -1.4879
17.2887 -10.0983 -2.2462
12.1608 -6.5291 -1.5442
12.0489 -5.9218 -1.4977
11.6476 -5.2139 -1.4195
20.7994 -8.4277 -2.4889
11.1224 -4.0481 -1.3087
10.7653 -3.4858 -1.2473
10.4424 -2.9715 -1.1931
11.0162 -2.7113 -1.2428
38.5246 -2.3833 -4.1605
38.4859 -0.9963 -4.1362
37.8361 0.3791 -4.0518
38.4363 1.7663 -4.1066
38.4251 3.1510 -4.1012
26.7454 3.1630 -2.8554
26.4575 4.0965 -2.8292
26.8865 5.1571 -2.8835
22.5135 5.1623 -2.4248
22.8939 6.1220 -2.4798
22.8735 7.0052 -2.4951
21.6757 7.4991 -2.3846
13.4842 5.2140 -1.4983
16.4303 7.0409 -1.8468
14.9094 7.0326 -1.6978
14.5243 7.4994 -1.6784
12.8967 7.2565 -1.5149
12.6817 7.7472 -1.5168
11.9405 7.8963 -1.4569
11.4341 8.1656 -1.4259
11.1319 8.5691 -1.4218
11.3117 9.3725 -1.4828
12.8679 11.4648 -1.7350
12.3997 11.8723 -1.7239
11.9945 12.3389 -1.7238
16.6189 18.3709 -2.4756
18.0016 21.3942 -2.7879
15.3071 19.5763 -2.4724
14.5732 20.0825 -2.4635
15.0787 22.4296 -2.6780
14.7127 23.6772 -2.7570
13.4499 23.4839 -2.6718
12.0733 22.9517 -2.5561
11.4729 23.8491 -2.6045
21.4172 48.9399 -5.2497
11.4135 28.8566 -3.0455
9.3852 26.4666 -2.7526
7.8148 24.8313 -2.5490
7.4311 26.9516 -2.7349
6.8185 28.7111 -2.8844
9.5733 47.8910 -4.7704
1.9317 11.8621 -1.1732
6.0801 48.1686 -4.7374
4.3130 47.9584 -4.6971
2.5954 48.1741 -4.7052
0.8591 47.8409 -4.6664
-0.8668 48.3858 -4.7199
-2.6043 48.3771 -4.7260
-4.3487 48.3780 -4.7399
-6.0924 48.2833 -4.7512
-7.8261 48.0713 -4.7577
-13.0439 65.2673 -6.5065
-15.5986 65.6949 -6.6062
-13.8164 50.1186 -5.0914
-11.9546 37.9908 -3.9047
-16.4161 46.3000 -4.8220
-18.2364 46.1123 -4.8740
-17.4943 39.9803 -4.2957
-18.6542 38.7811 -4.2427
-8.8407 16.8080 -1.8755
-9.2868 16.2164 -1.8488
-10.4271 16.7817 -1.9583
-10.7756 16.0300 -1.9183
-11.5468 15.9132 -1.9568
-12.3340 15.7751 -1.9973
-18.7911 22.3341 -2.9180
-17.3744 19.2073 -2.5954
-12.2210 12.5727 -1.7614
-16.7523 16.0409 -2.3359
-16.7798 14.9511 -2.2694
-16.8895 13.9949 -2.2209
-17.1011 13.1648 -2.1912
-17.3692 12.4049 -2.1733
-13.0348 8.6204 -1.5958
-11.2138 6.8509 -1.3459
-11.2128 6.3094 -1.3217
-10.9439 5.6510 -1.2692
-10.6093 5.0046 -1.2125
-10.5670 4.5285 -1.1921
-10.5846 4.0931 -1.1805
-10.8706 3.7611 -1.2004
-11.4229 3.4986 -1.2508
-12.3795 3.3106 -1.3460
-13.9329 3.1950 -1.5064
-38.8729 7.4567 -4.1850
-28.4131 4.3996 -3.0500
-28.4388 3.3636 -3.0479
-27.7826 2.2785 -2.9767
-28.1285 1.2928 -3.0168
-11.8473 0.1188 -1.2736
-11.6633 -0.3019 -1.2583
-11.7622 -0.7276 -1.2751
-12.0715 -1.1830 -1.3167
-25.0980 -3.3731 -2.7579
-24.1025 -4.1251 -2.6716
-24.5459 -5.1142 -2.7480
-28.7932 -7.0867 -3.2601
-27.4218 -7.8033 -3.1443
-27.0269 -8.7515 -3.1426
-25.8793 -9.4194 -3.0557
-25.6387 -10.3890 -3.0785
-25.2031 -11.2824 -3.0818
-6.8024 -3.3434 -0.8483
-24.6176 -13.2177 -3.1361
-24.4953 -14.3084 -3.1926
-15.8473 -10.0371 -2.1167
-14.8062 -10.1407 -2.0303
-13.6210 -10.0663 -1.9210
-12.9215 -10.2870 -1.8778
-12.4616 -10.6743 -1.8700
-12.4513 -11.4660 -1.9334
-11.6699 -11.5482 -1.8795
-11.2234 -11.9344 -1.8794
-11.1360 -12.7283 -1.9441
-20.4693 -25.1659 -3.7362
-19.4898 -25.8028 -3.7312
-18.1008 -25.8448 -3.6472
-17.3975 -26.8440 -3.7037
-15.5537 -26.0005 -3.5134
-21.6947 -39.4152 -5.2250
-25.7466 -51.0363 -6.6476
-25.7315 -55.9168 -7.1673
-22.7055 -54.4086 -6.8729
-20.8453 -55.4807 -6.9165
-22.1438 -66.0544 -8.1380
-20.2245 -68.3919 -8.3381
-23.2030 -90.2755 -10.9054
-19.9208 -90.9453 -10.8998
2.1675 -20.0244 -1.9014
6.0556 -41.8327 -3.9882
7.4555 -41.0426 -3.9333
8.8551 -40.4283 -3.8992
12.6698 -49.2978 -4.7909
14.7817 -49.9910 -4.9015
10.8770 -32.4495 -3.2140
8.8119 -23.4562 -2.3499
9.6272 -23.0725 -2.3412
10.1862 -22.1388 -2.2786
10.5412 -20.8988 -2.1848
11.6073 -21.0919 -2.2430
12.3489 -20.6470 -2.2371
13.5449 -20.9036 -2.3113
17.6870 -25.2591 -2.8551
19.5287 -25.8599 -2.9935
19.3392 -23.7820 -2.8247
20.6095 -23.5619 -2.8774
21.5040 -22.8718 -2.8780
15.8000 -15.6394 -2.0325
16.8426 -15.5142 -2.0876
18.3665 -15.7369 -2.1984
15.5153 -12.3558 -1.7973
11.4016 -8.4288 -1.2808
11.3821 -7.7983 -1.2423
11.3627 -7.1994 -1.2072
11.3433 -6.6286 -1.1750
12.2242 -6.5662 -1.2367
12.1447 -5.9719 -1.2019
11.7963 -5.2834 -1.1437
11.4178 -4.6291 -1.0862
11.1608 -4.0648 -1.0432
11.2703 -3.6519 -1.0365
10.8022 -3.0764 -0.9789
11.1564 -2.7483 -0.9974
11.3954 -2.3768 -1.0065
37.1166 -3.6457 -3.1855
37.0761 -2.3019 -3.1598
37.0426 -0.9671 -3.1389
37.0158 0.3627 -3.1226
36.9957 1.6919 -3.1110
26.7411 2.1869 -2.2444
26.7431 3.1568 -2.2432
27.0334 4.1796 -2.2692
26.9560 5.1644 -2.2673
22.5631 5.1686 -1.9042
22.9457 6.1307 -1.9457
22.9725 7.0302 -1.9601
24.2515 8.3846 -2.0850
13.4597 5.2014 -1.1677
23.1201 9.9020 -2.0272
14.9111 7.0298 -1.3235
14.5259 7.4966 -1.3072
14.1467 7.9563 -1.2930
13.8675 8.4681 -1.2895
11.5331 7.6238 -1.0932
10.9255 7.7995 -1.0576
11.9621 9.2049 -1.1849
11.5514 9.5678 -1.1735
12.5919 11.2152 -1.3148
12.5442 12.0069 -1.3495
12.0806 12.4238 -1.3425
11.5391 12.7519 -1.3283
18.1968 21.6201 -2.1762
15.4136 19.7071 -1.9213
14.5572 20.0552 -1.8980
14.7543 21.9413 -2.0199
30.6851 49.3689 -4.4298
13.3797 23.3556 -2.0466
12.5247 23.8041 -2.0408
23.6923 49.2384 -4.1374
21.5504 49.2331 -4.0618
19.4757 49.2291 -3.9944
9.4628 26.6795 -2.1325
8.1923 26.0249 -2.0525
8.1601 29.5895 -2.3062
6.8387 28.7901 -2.2210
5.9483 29.7506 -2.2751
1.9318 11.8608 -0.9005
6.0843 48.1934 -3.6378
4.3302 48.1408 -3.6183
2.6001 48.2540 -3.6166
0.8591 47.8409 -3.5807
-0.8672 48.3860 -3.6219
-2.6051 48.3771 -3.6269
-4.3600 48.4903 -3.6463
-6.1050 48.3702 -3.6536
-7.8762 48.3667 -3.6751
-12.9512 64.7876 -4.9597
-10.4791 44.1225 -3.4080
-10.2963 37.3403 -2.9145
-12.1153 38.4919 -3.0407
-12.6309 35.6152 -2.8519
-15.1078 38.1918 -3.1050
-7.8965 18.0415 -1.4917
-8.5883 17.8500 -1.5034
-9.7688 18.5677 -1.5958
-9.4665 16.5258 -1.4519
-9.8762 15.8908 -1.4299
-10.8659 16.1599 -1.4921
-11.4597 15.7888 -1.4989
-12.3028 15.7307 -1.5387
-16.3436 19.4194 -1.9613
-11.8251 13.0686 -1.3661
-12.0757 12.4193 -1.3469
-12.5520 12.0150 -1.3555
-15.9537 14.2101 -1.6724
-16.1292 13.3602 -1.6451
-16.3475 12.5800 -1.6260
-16.6025 11.8528 -1.6139
-11.5180 7.6142 -1.0964
-11.0627 6.7557 -1.0333
-11.0955 6.2405 -1.0187
-10.8889 5.6199 -0.9844
-10.3332 4.8718 -0.9214
-10.3629 4.4385 -0.9129
-10.3732 4.0088 -0.9042
-10.5392 3.6440 -0.9104
-10.8541 3.3218 -0.9305
-12.3352 3.2959 -1.0510
-12.5673 2.8790 -1.0658
-12.4879 2.3926 -1.0555
-12.4690 1.9279 -1.0517
-12.5164 1.4776 -1.0550
-12.5645 1.0276 -1.0597
-11.6245 0.5316 -0.9823
-11.3677 0.1114 -0.9636
-11.3749 -0.2970 -0.9685
-11.5027 -0.7141 -0.9850
-11.8674 -1.1657 -1.0234
-12.7081 -1.7108 -1.1049
-25.0408 -4.2913 -2.1981
-24.5308 -5.1166 -2.1767
-25.8265 -6.3624 -2.3196
-25.5395 -7.2736 -2.3248
-25.0509 -8.1175 -2.3142
-24.5777 -8.9514 -2.3074
-24.2454 -9.8301 -2.3164
-23.9832 -10.7420 -2.3352
-6.8021 -3.3449 -0.6760
-23.6668 -12.7130 -2.4041
-23.5755 -13.7771 -2.4518
-15.4054 -9.7612 -1.6430
-14.4574 -9.9056 -1.5839
-13.4361 -9.9333 -1.5149
-12.7184 -10.1289 -1.4786
-12.1266 -10.3908 -1.4565
-11.6979 -10.7757 -1.4547
-11.3545 -11.2396 -1.4653
-11.0799 -11.7852 -1.4875
-10.9883 -12.5631 -1.5387
-11.3210 -13.9225 -1.6583
-13.4921 -17.8672 -2.0737
-12.0213 -17.1688 -1.9455
-11.5074 -17.7602 -1.9684
-17.6070 -29.4404 -3.1970
-16.4102 -29.8215 -3.1780
-27.0815 -53.6953 -5.6244
-25.0041 -54.3488 -5.6038
-22.6798 -54.3595 -5.5253
-11.0010 -29.2861 -2.9385
-22.6247 -67.5037 -6.6951
-26.4976 -89.6246 -8.7982
-23.2939 -90.6482 -8.8190
-19.7429 -90.1517 -8.7029
-17.7517 -97.7423 -9.3742
2.1668 -20.0233 -1.4446
5.5858 -38.5973 -2.7954
7.1302 -39.2616 -2.8577
8.9473 -40.8593 -2.9922
12.5785 -48.9547 -3.6114
12.6662 -42.8469 -3.1878
11.5196 -34.3750 -2.5826
11.8632 -31.5862 -2.3993
10.6090 -25.4321 -1.9558
10.0590 -21.8680 -1.7048
10.7173 -21.2534 -1.6821
11.2727 -20.4894 -1.6486
12.2778 -20.5336 -1.6822
13.8063 -21.3128 -1.7807
18.7050 -26.7203 -2.2806
19.5733 -25.9263 -2.2644
19.3208 -23.7663 -2.1282
20.5894 -23.5460 -2.1661
21.4970 -22.8715 -2.1661
24.0571 -23.8201 -2.3278
16.7723 -15.4545 -1.5623
17.8743 -15.3204 -1.6063
15.5830 -12.4142 -1.3539
11.6077 -8.5845 -0.9770
11.5823 -7.9386 -0.9462
11.5574 -7.3259 -0.9180
11.5331 -6.7425 -0.8921
12.2186 -6.5663 -0.9220
12.3796 -6.0905 -0.9127
11.9483 -5.3544 -0.8620
11.5580 -4.6887 -0.8170
21.8587 -7.9661 -1.5163
11.2998 -2.7862 -0.7467
35.8102 -4.8288 -2.2808
35.7714 -3.5216 -2.2562
35.7376 -2.2267 -2.2350
35.7085 -0.9402 -2.2171
35.6840 0.3418 -2.2024
35.6640 1.6231 -2.1908
26.5210 2.1630 -1.6235
26.5043 3.1227 -1.6190
27.1029 4.1844 -1.6542
26.8316 5.1346 -1.6384
22.6128 5.1749 -1.3833
22.9976 6.1393 -1.4113
23.0720 7.0554 -1.4224
24.5506 8.4823 -1.5227
13.4354 5.1889 -0.8396
25.8033 11.0451 -1.6272
24.4626 11.5268 -1.5591
21.7993 11.2449 -1.4066
21.9550 12.3422 -1.4366
22.6073 13.7992 -1.5028
21.9865 14.5282 -1.4875
11.2725 8.0442 -0.7777
11.4014 8.7703 -0.8038
11.5154 9.5348 -0.8314
12.9311 11.5136 -0.9583
12.0022 11.4846 -0.9153
11.9383 12.2738 -0.9392
16.8463 18.6114 -1.3711
17.9298 21.2969 -1.5143
17.9218 22.9078 -1.5758
16.5366 22.7761 -1.5191
15.7897 23.4751 -1.5214
30.6202 49.2521 -3.1080
24.6554 43.0278 -2.6491
25.9156 49.2428 -2.9635
23.6979 49.2384 -2.9018
21.5554 49.2331 -2.8466
19.4801 49.2291 -2.7973
9.8417 27.7416 -1.5518
8.3439 26.5010 -1.4618
7.5585 27.4022 -1.4930
13.1899 55.5168 -2.9925
9.6292 48.1513 -2.5718
1.9320 11.8595 -0.6287
6.0792 48.1442 -2.5368
4.3309 48.1408 -2.5253
2.5941 48.1373 -2.5177
0.8591 47.8409 -2.4988
-0.8675 48.3805 -2.5273
-2.6059 48.3771 -2.5313
-4.3506 48.3737 -2.5393
-6.1065 48.3702 -2.5512
-7.8782 48.3667 -2.5671
-8.7929 43.9747 -2.3523
-10.7336 45.1833 -2.4398
-10.2564 37.1865 -2.0302
-11.4201 36.2741 -2.0056
-7.6061 21.4415 -1.2025
-14.6536 37.0343 -2.1103
-7.9791 18.2257 -1.0570
-8.3186 17.2851 -1.0221
-9.0688 17.2327 -1.0408
-6.8378 11.9338 -0.7375
-10.0041 16.0923 -1.0196
-10.6859 15.8877 -1.0340
-11.1919 15.4155 -1.0327
-12.1750 15.5629 -1.0755
-11.3859 13.5246 -0.9663
-11.5458 12.7560 -0.9444
-11.9542 12.2906 -0.9454
-12.4943 11.9559 -0.9579
-15.3187 13.6399 -1.1416
-15.5029 12.8369 -1.1257
-15.7295 12.1000 -1.1154
-15.9930 11.4132 -1.1099
-10.8380 7.1618 -0.7377
-10.9130 6.6614 -0.7299
-10.9865 6.1764 -0.7234
-10.8458 5.5949 -0.7042
-10.0453 4.7336 -0.6443
-10.1622 4.3501 -0.6450
-10.1708 3.9282 -0.6397
-10.3330 3.5702 -0.6451
-10.5248 3.2186 -0.6532
-12.1251 3.2370 -0.7490
-12.3449 2.8252 -0.7602
-12.3182 2.3574 -0.7572
-12.3142 1.9013 -0.7566
-12.3871 1.4595 -0.7617
-11.6105 0.9470 -0.7155
-11.2974 0.5142 -0.6986
-11.0874 0.1062 -0.6888
-11.0781 -0.2917 -0.6923
-11.3330 -0.7061 -0.7134
-11.7112 -1.1529 -0.7434
-12.5478 -1.6920 -0.8043
-14.2810 -2.4505 -0.9255
-13.8406 -2.8900 -0.9079
-24.2989 -5.9916 -1.6156
-24.0472 -6.8541 -1.6227
-23.7461 -7.7002 -1.6283
-23.4762 -8.5557 -1.6381
-14.0211 -5.6881 -0.9969
-13.6947 -6.1371 -0.9936
-6.8019 -3.3464 -0.5043
-22.8184 -12.2630 -1.7312
-22.7840 -13.3203 -1.7718
-15.3893 -9.7550 -1.2286
-14.4860 -9.9291 -1.1893
-13.5544 -10.0245 -1.1464
-12.7845 -10.1850 -1.1160
-12.1318 -10.3987 -1.0952
-11.5209 -10.6160 -1.0778
-11.1180 -11.0089 -1.0804
-10.9757 -11.6779 -1.1105
-10.9061 -12.4727 -1.1518
-11.0809 -13.6309 -1.2251
-12.7532 -16.8932 -1.4807
-11.8163 -16.8805 -1.4455
-11.1235 -17.1721 -1.4392
-10.8571 -18.1584 -1.4921
-21.6699 -39.3893 -3.1781
-26.9877 -53.5220 -4.2469
-25.1647 -54.7104 -4.2755
-22.6120 -54.2094 -4.1780
-10.7456 -28.6128 -2.1778
-9.9202 -29.6047 -2.2282
-27.1740 -91.9321 -6.8508
-23.8459 -92.8158 -6.8567
-20.2825 -92.6343 -6.7921
-17.3463 -95.5291 -6.9602
-6.7538 -62.4264 -4.5067
7.1394 -99.1979 -4.8896
2.1659 -20.0206 -0.9893
5.6602 -39.1216 -1.9399
7.2275 -39.8073 -1.9829
8.9987 -41.1043 -2.0591
12.7491 -49.6308 -2.5030
12.9208 -43.7192 -2.2222
14.8225 -44.2418 -2.2692
9.4990 -25.2979 -1.3108
9.9785 -23.9266 -1.2540
9.9353 -21.6045 -1.1468
10.5744 -20.9753 -1.1291
11.4745 -20.8615 -1.1404
12.5381 -20.9746 -1.1660
18.1186 -27.9773 -1.5840
19.5520 -27.9380 -1.6137
20.7881 -27.5432 -1.6256
19.3024 -23.7506 -1.4350
20.5694 -23.5302 -1.4581
21.4900 -22.8711 -1.4566
18.8592 -18.6794 -1.2254
16.7028 -15.3956 -1.0428
17.7978 -15.2601 -1.0700
16.6531 -13.2714 -0.9660
11.8209 -8.7454 -0.6629
11.7890 -8.0835 -0.6402
11.7584 -7.4564 -0.6195
11.7288 -6.8600 -0.6004
12.2129 -6.5664 -0.6085
20.0459 -9.8671 -0.9734
12.1039 -5.4270 -0.5736
11.7012 -4.7496 -0.5420
23.2106 -8.4642 -1.0522
91.4717 -26.0925 -3.9872
11.3184 -2.7934 -0.4847
93.0022 -19.4402 -3.9176
34.5888 -5.9430 -1.4349
34.5547 -4.6672 -1.4135
34.5237 -3.4064 -1.3942
34.4956 -2.1569 -1.3770
34.4704 -0.9152 -1.3617
34.4480 0.3224 -1.3483
34.4283 1.5593 -1.3368
28.9388 2.3539 -1.1160
27.3192 3.2127 -1.0478
26.8332 4.1367 -1.0247
25.2358 4.8235 -0.9609
22.6626 5.1812 -0.8615
23.0495 6.1479 -0.8759
23.1721 7.0807 -0.8816
24.8564 8.5822 -0.9480
13.4112 5.1764 -0.5136
25.6572 10.9765 -0.9880
26.0182 12.2535 -1.0091
21.6929 11.1847 -0.8487
21.6950 12.1906 -0.8578
23.0333 14.0534 -0.9220
11.5654 7.6391 -0.4696
12.3466 8.8074 -0.5095
11.8640 9.1228 -0.4986
11.3936 9.4307 -0.4888
20.8033 18.5168 -0.9131
17.4738 16.7150 -0.7867
17.4245 17.9086 -0.8068
16.9618 18.7336 -0.8101
17.7660 21.0965 -0.8779
17.7488 22.6805 -0.9105
16.6284 22.8964 -0.8888
15.7505 23.4107 -0.8808
30.7005 49.3689 -1.8040
24.6455 42.9999 -1.5293
25.9219 49.2428 -1.7081
23.7034 49.2384 -1.6691
21.5603 49.2332 -1.6341
19.4845 49.2291 -1.6029
9.2442 26.0516 -0.8337
8.4837 26.9390 -0.8489
7.6881 27.8660 -0.8661
6.9354 29.1854 -0.8964
9.6311 48.1513 -1.4641
1.9322 11.8581 -0.3576
6.0865 48.1926 -1.4435
4.3317 48.1408 -1.4349
2.6008 48.2540 -1.4337
0.8590 47.8409 -1.4193
-0.8680 48.3863 -1.4359
-2.6066 48.3771 -1.4384
-4.3624 48.4903 -1.4471
-6.1081 48.3702 -1.4513
-7.8801 48.3667 -1.4616
-8.8164 44.0818 -1.3439
-10.3659 43.6245 -1.3441
-10.4951 38.0426 -1.1867
-11.3983 36.1959 -1.1452
-7.5941 21.4024 -0.6880
-14.1335 35.7109 -1.1685
-11.2880 25.7774 -0.8602
-8.4128 17.4764 -0.5958
-9.1791 17.4378 -0.6086
-6.8273 11.9122 -0.4264
-9.9974 16.0772 -0.5915
-10.5445 15.6733 -0.5939
-11.3721 15.6593 -0.6125
-12.1347 15.5069 -0.6275
-11.0326 13.1011 -0.5497
-11.4241 12.6177 -0.5503
-11.9014 12.2324 -0.5559
-12.4235 11.8843 -0.5644
-14.7584 13.1366 -0.6538
-14.9636 12.3860 -0.6480
-15.1920 11.6822 -0.6447
-15.4491 11.0208 -0.6438
-10.6328 7.0234 -0.4361
-10.6789 6.5157 -0.4318
-10.8038 6.0709 -0.4316
-10.3138 5.3179 -0.4077
-9.7790 4.6057 -0.3832
-9.8888 4.2307 -0.3848
-9.9767 3.8508 -0.3861
-10.1353 3.4995 -0.3907
-10.3380 3.1591 -0.3975
-11.6966 3.1199 -0.4493
-12.3415 2.8216 -0.4742
-12.3493 2.3605 -0.4752
-12.3267 1.9004 -0.4758
-12.3796 1.4559 -0.4798
-11.3824 0.9259 -0.4436
-11.0436 0.5002 -0.4333
-10.6563 0.0998 -0.4214
-10.8222 -0.2873 -0.4319
-11.1687 -0.6983 -0.4504
-11.6522 -1.1497 -0.4753
-12.3808 -1.6722 -0.5115
-12.8111 -2.2012 -0.5367
-12.6544 -2.6451 -0.5382
-12.9697 -3.2010 -0.5607
-22.9385 -6.5433 -1.0092
-22.7471 -7.3814 -1.0198
-13.0947 -4.7753 -0.5990
-12.9992 -5.2766 -0.6075
-13.2450 -5.9388 -0.6331
-6.8017 -3.3480 -0.3330
-13.6303 -7.3285 -0.6847
-13.5038 -7.8982 -0.6968
-15.4076 -9.7706 -0.8180
-14.5855 -10.0011 -0.7981
-13.6868 -10.1260 -0.7731
-12.8650 -10.2528 -0.7515
-12.1231 -10.3947 -0.7338
-11.4388 -10.5438 -0.7188
-10.9088 -10.8050 -0.7133
-10.8258 -11.5218 -0.7382
-10.8793 -12.4455 -0.7757
-11.1054 -13.6649 -0.8301
-11.0942 -14.6997 -0.8721
-11.6272 -16.6146 -0.9644
-10.9526 -16.9125 -0.9620
-10.5088 -17.5803 -0.9816
-11.6809 -21.2375 -1.1657
-10.7925 -21.4087 -1.1568
-13.7279 -29.8527 -1.5902
-12.2517 -29.3785 -1.5447
-10.5659 -28.1404 -1.4624
-9.6730 -28.8732 -1.4848
-10.5101 -35.5642 -1.8120
-9.7106 -37.8047 -1.9105
-11.6404 -53.1750 -2.6685
-9.9397 -54.7506 -2.7313
-6.7522 -62.4222 -3.0872
-6.6707 -92.7080 -4.5724
2.1650 -20.0172 -0.5350
13.7871 -95.3161 -2.5542
7.4041 -40.7903 -1.0968
9.1026 -41.5892 -1.1231
15.7471 -61.3165 -1.6645
12.8660 -43.5444 -1.1893
17.9242 -53.5129 -1.4719
9.5857 -25.5350 -0.7080
10.1870 -24.4326 -0.6835
20.3006 -44.1552 -1.2477
11.0626 -21.9494 -0.6271
12.0260 -21.8699 -0.6326
17.7627 -29.7224 -0.8713
18.7138 -28.9041 -0.8599
19.6400 -28.0715 -0.8487
20.8828 -27.6765 -0.8515
19.2841 -23.7350 -0.7443
20.5495 -23.5145 -0.7528
21.4831 -22.8708 -0.7489
24.7104 -24.4826 -0.8215
16.6340 -15.3372 -0.5285
15.6908 -13.4582 -0.4773
16.6682 -13.2883 -0.4864
18.4548 -13.6585 -0.5174
12.0029 -8.2334 -0.3238
11.9661 -7.5912 -0.3110
12.1598 -7.1152 -0.3049
12.2073 -6.5664 -0.2957
12.2786 -6.0469 -0.2877
12.2632 -5.5015 -0.2782
11.8477 -4.8120 -0.2606
22.2227 -8.1092 -0.4742
65.9707 -21.4228 -1.3673
91.4717 -26.1136 -1.8431
11.2066 -2.7684 -0.2197
92.3444 -19.3235 -1.7635
33.7480 -5.8061 -0.6283
33.7461 -4.5654 -0.6129
33.7441 -3.3369 -0.5985
33.7421 -2.1173 -0.5849
33.7401 -0.9032 -0.5721
33.7381 0.3083 -0.5601
33.7361 1.5205 -0.5488
28.9517 2.3485 -0.4619
27.0897 3.1797 -0.4242
23.4540 3.6106 -0.3609
22.3423 4.2655 -0.3381
22.7125 5.1875 -0.3383
23.8976 6.3688 -0.3508
23.2730 7.1062 -0.3370
24.3560 8.4038 -0.3483
13.3872 5.1640 -0.1893
26.0224 11.1265 -0.3642
26.0036 12.2404 -0.3608
26.2445 13.5250 -0.3615
33.7046 18.9305 -0.4615
33.7014 20.5538 -0.4594
12.5404 8.2799 -0.1705
33.6944 24.0268 -0.4578
25.5921 19.6721 -0.3481
12.7511 10.5507 -0.1740
20.2449 18.0139 -0.2779
17.4758 16.7116 -0.2419
17.4265 17.9053 -0.2438
17.0787 18.8572 -0.2423
17.0730 20.2679 -0.2465
17.0559 21.7891 -0.2514
16.2337 22.3471 -0.2453
16.1248 23.9610 -0.2508
30.6355 49.2521 -0.4931
24.6450 42.9886 -0.4126
25.9281 49.2428 -0.4544
23.7090 49.2384 -0.4380
21.5653 49.2332 -0.4232
19.4888 49.2291 -0.4101
9.3980 26.4792 -0.2144
8.6492 27.4586 -0.2167
13.5008 48.9243 -0.3773
6.9858 29.3914 -0.2222
2.0281 10.1376 -0.0753
1.9323 11.8568 -0.0869
6.0445 47.8512 -0.3467
4.3060 47.8477 -0.3439
2.5791 47.8443 -0.3421
0.8590 47.8409 -0.3414
-0.8683 48.3805 -0.3456
-2.6074 48.3771 -0.3470
-4.3530 48.3737 -0.3494
-6.1097 48.3702 -0.3529
-7.8821 48.3667 -0.3575
-8.9239 44.6079 -0.3351
-10.2732 43.2240 -0.3309
-10.2460 37.1304 -0.2905
-11.4030 36.2020 -0.2903
-7.5865 21.3759 -0.1762
-14.8449 37.4992 -0.3185
-8.1102 18.5158 -0.1625
-9.1730 19.0508 -0.1732
-8.9886 17.0715 -0.1612
-6.8203 11.8969 -0.1170
-9.6857 15.5717 -0.1598
-10.5978 15.7482 -0.1692
-11.2169 15.4412 -0.1740
-10.4734 13.3801 -0.1586
-10.9244 12.9688 -0.1621
-11.3949 12.5817 -0.1663
-11.8662 12.1924 -0.1709
-12.3467 11.8070 -0.1759
-14.2331 12.6647 -0.2012
-14.4511 11.9576 -0.2031
-14.6835 11.2871 -0.2057
-10.7260 7.6486 -0.1501
-10.3077 6.8059 -0.1444
-10.3801 6.3307 -0.1457
-10.4710 5.8813 -0.1476
-9.9680 5.1371 -0.1413
-9.8125 4.6190 -0.1401
-9.8696 4.2201 -0.1422
-9.8701 3.8073 -0.1436
-10.1254 3.4938 -0.1489
-10.3427 3.1582 -0.1540
-11.2683 3.0031 -0.1700
-11.9769 2.7356 -0.1833
-12.1743 2.3244 -0.1892
-12.3655 1.9037 -0.1953
-11.4296 1.3416 -0.1836
-11.2110 0.9095 -0.1834
-10.5521 0.4756 -0.1759
-10.2989 0.0941 -0.1752
-10.5184 -0.2816 -0.1826
-11.0094 -0.6908 -0.1953
-11.5940 -1.1465 -0.2104
-12.1361 -1.6418 -0.2254
-11.8886 -2.0453 -0.2261
-12.3671 -2.5878 -0.2412
-12.6917 -3.1352 -0.2540
-12.9671 -3.7019 -0.2666
-13.7541 -4.4664 -0.2907
-12.5796 -4.5904 -0.2736
-12.3413 -5.0125 -0.2765
-11.8636 -5.3222 -0.2740
-6.8014 -3.3495 -0.1621
-10.9382 -5.8838 -0.2695
-10.8962 -6.3758 -0.2777
-11.3898 -7.2257 -0.3007
-11.7728 -8.0756 -0.3224
-13.8122 -10.2225 -0.3928
-12.9551 -10.3281 -0.3833
-12.0717 -10.3541 -0.3721
-11.2944 -10.4140 -0.3634
-10.7674 -10.6682 -0.3623
-10.7133 -11.4054 -0.3778
-10.8143 -12.3747 -0.4006
-11.2161 -13.8049 -0.4375
-10.8152 -14.3339 -0.4454
-11.4934 -16.4277 -0.5013
-10.8061 -16.6906 -0.5009
-10.3269 -17.2802 -0.5108
-10.0321 -18.2442 -0.5318
-10.6240 -21.0794 -0.6066
-9.8510 -21.4268 -0.6095
-10.7360 -25.7498 -0.7247
-10.3493 -27.5697 -0.7686
-9.4642 -28.2562 -0.7810
-9.3115 -31.5152 -0.8645
-9.6465 -37.5631 -1.0236
-11.1836 -51.0989 -1.3845
-9.8383 -54.2027 -1.4615
-6.7505 -62.4180 -1.6710
-6.6694 -92.7034 -2.4760
2.1641 -20.0139 -0.0814
7.4540 -41.0756 -0.1641
16.2886 -74.4398 -0.2938
18.7696 -73.1039 -0.2843
18.4846 -62.5758 -0.2392
16.6884 -49.8357 -0.1868
16.6501 -44.3647 -0.1626
10.7287 -25.7382 -0.0919
20.7952 -45.2424 -0.1567
22.7634 -45.1765 -0.1512
16.3574 -29.7545 -0.0957
17.9413 -30.0293 -0.0923
18.8663 -29.1475 -0.0850
19.7287 -28.2061 -0.0773
18.5311 -24.5668 -0.0626
19.8238 -24.4063 -0.0570
21.3311 -24.4161 -0.0513
21.4761 -22.8704 -0.0421
26.2703 -26.0365 -0.0404
19.3600 -17.8566 -0.0220
15.7046 -13.4746 -0.0117
16.6833 -13.3051 -0.0062
18.7048 -13.8487 -0.0002
11.8940 -8.1618 0.0040
11.9598 -7.5904 0.0081
12.0234 -7.0385 0.0122
12.0850 -6.5037 0.0163
20.2498 -9.9775 0.0339
21.3501 -9.5832 0.0426
11.9979 -4.8758 0.0278
59.1922 -21.6136 0.1560
64.7428 -21.0391 0.1912
91.4717 -26.1346 0.2993
11.2988 -2.7937 0.0406
91.4580 -19.1586 0.3578
33.7967 -5.8220 0.1432
34.1760 -4.6312 0.1560
33.7867 -3.3486 0.1654
33.7818 -2.1272 0.1767
34.1712 -0.9223 0.1904
34.1662 0.3047 0.2023
33.7671 1.5145 0.2120
28.9646 2.3432 0.1924
26.8642 3.1473 0.1885
23.5572 3.6213 0.1743
23.7438 4.5278 0.1851
24.9217 5.6865 0.2045
24.5783 6.5446 0.2120
24.6607 7.5243 0.2236
23.8543 8.2252 0.2271
13.3633 5.1516 0.1336
22.7756 9.7329 0.2390
23.8828 11.2364 0.2631
26.2294 13.5108 0.3032
33.7402 18.9421 0.4095
33.7370 20.5669 0.4300
34.1274 22.5240 0.4569
33.7302 24.0434 0.4746
61.5491 47.2949 0.9109
12.7398 10.5378 0.1985
18.2785 16.2589 0.3001
17.8616 17.0753 0.3093
17.4357 17.9094 0.3190
16.6405 18.3681 0.3221
16.5358 19.6246 0.3393
16.7720 21.4207 0.3655
16.0996 22.1566 0.3736
16.9845 25.2320 0.4208
30.6431 49.2521 0.8133
24.6442 42.9768 0.7032
25.9342 49.2428 0.7990
23.7145 49.2384 0.7928
21.5702 49.2332 0.7873
19.4932 49.2291 0.7823
17.4748 49.2251 0.7778
8.5267 27.0641 0.4255
13.5845 49.2174 0.7703
12.8549 54.0732 0.8430
2.0208 10.0990 0.1569
1.9325 11.8555 0.1837
6.0826 48.1442 0.7441
4.3331 48.1408 0.7426
2.5938 48.1115 0.7411
0.8642 48.1339 0.7408
-0.8688 48.3805 0.7442
-2.6082 48.3771 0.7442
-4.3542 48.3737 0.7445
-6.1113 48.3702 0.7451
-7.8799 48.3409 0.7457
-9.0114 45.0344 0.6961
-10.3105 43.3700 0.6720
-10.5569 38.2480 0.5944
-11.5867 36.7763 0.5735
-7.5870 21.3718 0.3346
-10.2469 25.8780 0.4071
-8.1526 18.6079 0.2942
-9.1368 18.9707 0.3018
-9.2272 17.5202 0.2805
-6.8201 11.8935 0.1918
-10.2549 16.4825 0.2680
-6.5725 9.7641 0.1602
-7.0941 9.7630 0.1617
-10.4092 13.2943 0.2226
-10.8491 12.8757 0.2182
-11.3651 12.5449 0.2154
-11.8378 12.1594 0.2118
-12.2987 11.7573 0.2080
-13.7606 12.2402 0.2203
-13.9710 11.5563 0.2120
-14.2008 10.9120 0.2044
-10.6844 7.6160 0.1460
-9.9649 6.5769 0.1294
-10.0708 6.1395 0.1242
-10.1742 5.7119 0.1193
-9.9791 5.1403 0.1113
-9.8461 4.6325 0.1045
-9.8620 4.2145 0.0995
-9.8205 3.7859 0.0942
-10.1154 3.4880 0.0922
-10.3475 3.1572 0.0896
-11.2631 2.9992 0.0926
-11.4319 2.6085 0.0891
-11.6062 2.2133 0.0858
-11.5967 1.7827 0.0811
-11.2481 1.3178 0.0743
-10.6560 0.8621 0.0664
-10.2785 0.4610 0.0603
-10.2331 0.0913 0.0564
-10.4490 -0.2820 0.0540
-10.8558 -0.6835 0.0524
-11.5364 -1.1434 0.0518
-11.8313 -1.6032 0.0492
-11.5709 -1.9932 0.0443
-11.9039 -2.4936 0.0417
-12.4330 -3.0741 0.0396
-12.6112 -3.6031 0.0361
-12.6141 -4.0991 0.0321
-12.0535 -4.4012 0.0268
-11.4986 -4.6729 0.0219
-11.0448 -4.9575 0.0175
-6.8012 -3.3511 0.0086
-10.7618 -5.7916 0.0101
-10.6881 -6.2567 0.0065
-10.7493 -6.8221 0.0029
-10.9460 -7.5113 -0.0008
-12.2460 -9.0667 -0.0052
-12.8692 -10.2632 -0.0101
-11.9400 -10.2445 -0.0138
-11.1849 -10.3163 -0.0172
-10.7584 -10.6626 -0.0209
-10.6175 -11.3068 -0.0251
-10.5809 -12.1111 -0.0297
-11.0285 -13.5777 -0.0362
-10.5121 -13.9358 -0.0398
-11.0212 -15.7569 -0.0477
-10.6289 -16.4209 -0.0522
-10.0961 -16.8982 -0.0561
-9.8440 -17.9064 -0.0616
-9.6871 -19.2249 -0.0683
-9.8559 -21.4425 -0.0783
-10.5396 -25.2845 -0.0945
-10.2887 -27.4144 -0.1046
-9.3712 -27.9847 -0.1087
-9.3627 -31.6952 -0.1250
-9.6435 -37.5592 -0.1500
-11.0879 -50.6715 -0.2045
-9.6822 -53.3532 -0.2171
-8.7438 -60.4642 -0.2476
-6.7485 -62.4108 -0.2567
-6.6678 -92.6964 -0.3822
2.1631 -20.0106 0.3719
13.5379 -93.6410 1.7530
7.4534 -41.0824 0.7763
16.8572 -77.0573 1.4725
17.4662 -68.0438 1.3176
18.8255 -63.7453 1.2533
16.5760 -49.5124 0.9904
16.6940 -44.4926 0.9073
18.2425 -43.7750 0.9119
19.8449 -43.1859 0.9208
23.3212 -46.2954 1.0126
16.3275 -29.7079 0.6679
16.9346 -28.3518 0.6566
17.8789 -27.6295 0.6607
17.9855 -25.7209 0.6364
18.6093 -24.6774 0.6332
19.9093 -24.5187 0.6541
20.4782 -23.4468 0.6519
22.1372 -23.5817 0.6851
27.4374 -27.2018 0.8280
19.2053 -17.7198 0.5668
15.7185 -13.4911 0.4548
16.6985 -13.3219 0.4749
18.9617 -14.0442 0.5312
11.7574 -8.0713 0.3252
11.8250 -7.5079 0.3235
11.8901 -6.9635 0.3225
11.9529 -6.4356 0.3219
19.6962 -9.7096 0.5276
20.4246 -9.1727 0.5451
19.4377 -7.9039 0.5177
59.1542 -21.6137 1.5745
64.6968 -21.0392 1.7235
66.9378 -19.1404 1.7873
11.3050 -2.7978 0.3029
66.9277 -14.0351 1.8022
33.7968 -5.8296 0.9157
34.1760 -4.6388 0.9329
33.7868 -3.3561 0.9302
33.7818 -2.1346 0.9392
34.1712 -0.9298 0.9605
34.1662 0.2972 0.9720
33.7671 1.5071 0.9734
32.6493 2.6341 0.9547
27.3728 3.2009 0.8129
23.6614 3.6320 0.7144
23.8503 4.5428 0.7329
25.1578 5.7347 0.7877
25.2990 6.7308 0.8080
24.1190 7.3535 0.7867
22.7436 7.8370 0.7585
13.3394 5.1393 0.4554
22.9102 9.7850 0.8017
23.5018 11.0515 0.8440
25.1404 12.9438 0.9277
33.7403 18.9338 1.2812
33.7371 20.5584 1.3201
33.7337 22.2554 1.3622
33.7302 24.0344 1.4078
21.6281 16.6133 0.9346
12.7295 10.5258 0.5705
18.4310 16.3892 0.8583
18.0121 17.2138 0.8733
18.4526 18.9482 0.9335
16.7318 18.4635 0.8853
16.7663 19.8926 0.9302
16.4974 21.0642 0.9624
15.9676 21.9693 0.9825
17.0489 25.3211 1.1103
30.6509 49.2522 2.1206
24.5855 42.8639 1.8150
25.9404 49.2428 2.0533
23.7201 49.2385 2.0246
21.5752 49.2332 1.9987
19.4976 49.2291 1.9756
17.4786 49.2251 1.9551
15.4976 49.1792 1.9353
13.5874 49.2175 1.9211
12.8575 54.0732 2.0957
2.0211 10.0986 0.3890
1.9327 11.8542 0.4543
6.0837 48.1442 1.8378
4.3339 48.1408 1.8320
2.5942 48.1115 1.8270
0.8642 48.1339 1.8258
-0.8692 48.3805 1.8348
-2.6091 48.3771 1.8360
-4.3554 48.3737 1.8391
-6.1129 48.3702 1.8439
-7.8819 48.3409 1.8496
-9.7381 48.6535 1.8703
-9.9873 42.0004 1.6237
-10.9119 39.5243 1.5383
-11.1723 35.4523 1.3906
-7.5874 21.3677 0.8456
-10.1497 25.6261 1.0243
-10.8493 24.7567 1.0006
-10.9248 22.6774 0.9280
-9.4592 17.9560 0.7449
-6.8200 11.8901 0.5007
-10.0737 16.1869 0.6929
-6.5826 9.7763 0.4260
-7.0936 9.7596 0.4336
-10.3551 13.2214 0.5999
-10.8528 12.8763 0.5977
-11.3333 12.5061 0.5950
-11.8094 12.1265 0.5926
-12.6091 12.0500 0.6062
-13.2556 11.7870 0.6119
-13.5002 11.1629 0.5995
-13.7195 10.5383 0.5872
-10.6431 7.5837 0.4399
-9.5183 6.2796 0.3805
-9.5186 5.8004 0.3686
-9.7083 5.4480 0.3647
-9.9406 5.1180 0.3628
-9.8536 4.6336 0.3498
-9.8117 4.1906 0.3393
-9.7713 3.7646 0.3296
-10.0409 3.4599 0.3308
-10.3523 3.1563 0.3335
-10.7686 2.8650 0.3396
-10.9258 2.4906 0.3376
-11.1866 2.1308 0.3392
-11.2543 1.7276 0.3352
-10.7652 1.2589 0.3153
-10.3336 0.8337 0.2980
-10.1332 0.4523 0.2880
-10.1700 0.0885 0.2852
-10.3773 -0.2823 0.2875
-10.8451 -0.6853 0.2971
-11.4795 -1.1402 0.3114
-10.6768 -1.4491 0.2871
-10.5989 -1.8282 0.2829
-11.3402 -2.3780 0.3008
-12.2045 -3.0204 0.3221
-12.3766 -3.5389 0.3254
-12.1769 -3.9598 0.3194
-11.5680 -4.2266 0.3032
-11.1415 -4.5304 0.2922
-10.8526 -4.8738 0.2852
-6.8010 -3.3526 0.1794
-10.5679 -5.6899 0.2803
-10.5114 -6.1559 0.2807
-10.5433 -6.6941 0.2842
-10.6901 -7.3385 0.2913
-11.0631 -8.1939 0.3054
-11.9684 -9.5482 0.3355
-11.7963 -10.1246 0.3365
-11.1736 -10.3092 0.3252
-10.7408 -10.6484 0.3198
-10.5234 -11.2099 0.3214
-10.3574 -11.8586 0.3255
-10.3210 -12.7103 0.3349
-10.2222 -13.5551 0.3437
-10.9289 -15.6290 0.3822
-10.5075 -16.2376 0.3840
-10.0096 -16.7575 0.3840
-7.2799 -13.2454 0.2948
-6.6482 -13.1971 0.2859
-9.2784 -20.1907 0.4267
-9.8144 -23.5501 0.4866
-10.2720 -27.3760 0.5541
-9.3077 -27.8010 0.5523
-9.4428 -31.9732 0.6248
-9.8911 -38.5315 0.7421
-9.5545 -43.6731 0.8307
-9.3372 -51.4623 0.9686
-8.5892 -59.4063 1.1086
-6.7465 -62.4028 1.1570
-6.6609 -92.6152 1.7094
-0.0006 -54.5021 2.2313
1.8641 -51.9334 2.1282
3.7238 -51.8000 2.1282
2.1622 -20.0072 0.8254
7.4932 -51.8434 2.1513
7.4528 -41.0892 1.7177
11.1540 -50.9993 2.1513
12.8977 -50.2584 2.1428
14.3270 -48.5249 2.0945
15.6898 -46.8767 2.0519
17.0230 -45.3807 2.0179
18.3706 -44.0934 1.9952
19.6981 -42.8774 1.9779
20.7921 -41.2855 1.9450
16.2977 -29.6614 1.4298
16.8779 -28.2644 1.3967
17.8193 -27.5448 1.3981
18.3254 -26.2143 1.3696
18.6883 -24.7891 1.3359
19.0192 -23.4294 1.3053
18.8870 -21.6314 1.2488
19.1595 -20.4161 1.2243
19.6080 -19.4459 1.2144
20.1465 -18.5943 1.2127
15.7324 -13.5077 0.9228
16.7137 -13.3389 0.9575
17.7599 -13.1589 0.9960
11.6238 -7.9828 0.6395
11.6930 -7.4272 0.6323
11.7595 -6.8900 0.6263
12.1906 -6.5667 0.6405
21.1656 -10.4392 1.0992
20.0569 -9.0125 1.0312
22.2177 -9.0397 1.1326
42.4919 -15.5357 2.1513
23.8244 -7.7532 1.1997
23.2989 -6.6675 1.1686
11.3019 -2.7996 0.5654
21.6061 -4.5358 1.0797
21.3804 -3.6927 1.0687
21.3723 -2.9057 1.0698
21.6386 -2.1542 1.0862
22.1790 -1.4064 1.1179
23.3999 -0.6419 1.1857
33.7720 0.2864 1.7225
33.7671 1.4996 1.7358
26.8783 2.1626 1.3942
27.2892 3.1851 1.4301
23.7666 3.6429 1.2599
23.9578 4.5579 1.2863
25.2321 5.7460 1.3738
21.9444 5.8333 1.2131
20.7826 6.3315 1.1680
20.2769 6.9823 1.1601
13.3156 5.1270 0.7765
20.0500 8.5586 1.1934
20.4082 9.5918 1.2416
33.4003 17.1883 2.0800
23.1142 12.9650 1.4756
31.2282 19.0216 2.0469
30.3663 20.0259 2.0469
21.7040 15.4594 1.5071
21.1135 16.2122 1.5129
12.7192 10.5137 0.9424
18.5862 16.5219 1.4266
18.1654 17.3548 1.4476
18.8234 19.3232 1.5610
16.8242 18.5601 1.4554
17.0036 20.1685 1.5386
17.6205 22.4921 1.6727
15.8377 21.7847 1.5823
17.1138 25.4110 1.8058
19.0194 30.5542 2.1281
17.8587 31.1284 2.1282
16.6834 31.6627 2.1282
15.4960 32.1593 2.1282
14.2974 32.6184 2.1282
13.0886 33.0398 2.1282
11.8704 33.4234 2.1282
10.6438 33.7692 2.1282
9.4096 34.0772 2.1282
8.1688 34.3473 2.1282
2.0215 10.0982 0.6215
1.9328 11.8529 0.7254
4.6326 36.6538 2.2332
3.3120 36.7835 2.2336
1.9885 36.8747 2.2340
0.6629 36.9234 2.2342
-0.6635 36.9167 2.2336
-1.9890 36.8689 2.2328
-3.3125 36.7810 2.2321
-4.6333 36.6531 2.2313
-5.6778 34.8143 2.1284
-6.9320 34.6255 2.1282
-8.1823 34.4011 2.1282
-9.4274 34.1387 2.1282
-11.1446 35.3557 2.2237
-7.5878 21.3636 1.3572
-9.9891 25.2144 1.6201
-10.7779 24.5877 1.5999
-11.2238 23.2921 1.5368
-9.4975 18.0240 1.2076
-6.8198 11.8867 0.8099
-10.8083 17.3627 1.2049
-11.2037 16.6349 1.1776
-10.0247 13.7884 0.9974
-10.1809 12.9951 0.9623
-10.5692 12.5361 0.9521
-10.5768 11.6677 0.9107
-10.7348 11.0195 0.8858
-10.8899 10.4037 0.8634
-11.0438 9.8170 0.8432
-11.2333 9.2852 0.8277
-11.3356 8.7041 0.8077
-9.4289 6.7159 0.6509
-9.2785 6.1189 0.6216
-9.2022 5.6051 0.5994
-9.4439 5.2972 0.5990
-9.6880 4.9856 0.5994
-9.8660 4.6370 0.5962
-9.8173 4.1906 0.5803
-9.7706 3.7620 0.5658
-9.9595 3.4295 0.5657
-10.2847 3.1333 0.5738
-10.4869 2.7877 0.5755
-10.6869 2.4337 0.5775
-11.0182 2.0962 0.5871
-11.0190 1.6890 0.5796
-10.3666 1.2099 0.5390
-10.1518 0.8168 0.5224
-10.0037 0.4443 0.5102
-10.1077 0.0857 0.5114
-10.3065 -0.2827 0.5180
-10.8682 -0.6891 0.5434
-11.0508 -1.1001 0.5502
-10.5576 -1.4353 0.5242
-10.4814 -1.8102 0.5196
-10.3730 -2.1775 0.5141
-11.6417 -2.8837 0.5777
-12.0852 -3.4583 0.6012
-11.8775 -3.8652 0.5933
-11.1973 -4.0938 0.5623
-10.9486 -4.4545 0.5536
-10.6667 -4.7929 0.5440
-6.8007 -3.3541 0.3504
-10.3292 -5.5639 0.5385
-10.3377 -6.0569 0.5463
-10.3571 -6.5785 0.5558
-10.4510 -7.1772 0.5706
-10.9163 -8.0881 0.6077
-11.6972 -9.3351 0.6653
-11.5018 -9.8751 0.6699
-11.1767 -10.3153 0.6682
-10.6275 -10.5393 0.6539
-10.3710 -11.0508 0.6585
-10.1382 -11.6110 0.6662
-9.9818 -12.2959 0.6810
-10.0358 -13.3116 0.7133
-10.8514 -15.5222 0.8066
-10.3672 -16.0248 0.8092
-9.9176 -16.6077 0.8166
-9.6235 -17.5138 0.8403
-9.3974 -18.6588 0.8752
-9.1855 -19.9933 0.9185
-9.5491 -22.9186 1.0332
-9.8694 -26.3088 1.1659
-9.2469 -27.6253 1.2055
-10.0292 -33.9658 1.4620
-10.3911 -40.4877 1.7220
-9.3371 -42.6881 1.7969
-9.1200 -50.2752 2.0980
-7.4238 -51.3557 2.1281
-5.8522 -54.1406 2.2313
-3.9081 -54.3477 2.2313
-1.9562 -54.4684 2.2313
-0.0005 -35.1262 2.2313
1.2593 -35.0961 2.2313
2.4001 -33.3962 2.1282
2.1613 -20.0039 1.2797
4.7816 -33.0912 2.1282
6.0243 -33.2220 2.1513
7.2036 -32.9452 2.1513
8.3692 -32.6203 2.1513
9.5190 -32.2484 2.1513
10.6510 -31.8301 2.1513
11.7632 -31.3666 2.1513
12.8376 -30.8208 2.1486
13.7854 -30.0146 2.1304
14.6624 -29.1217 2.1083
15.3920 -28.0204 2.0726
15.1968 -25.4558 1.9274
14.9762 -23.1563 1.7982
15.1003 -21.6068 1.7242
15.4386 -20.4844 1.6832
15.7740 -19.4372 1.6482
16.1949 -18.5538 1.6272
16.6866 -17.7864 1.6173
17.3029 -17.1653 1.6224
17.9182 -16.5432 1.6297
18.5283 -15.9137 1.6387
16.7290 -13.3558 1.4421
17.7766 -13.1763 1.4970
20.3065 -13.9512 1.6739
11.5636 -7.3481 0.9349
20.8184 -12.2031 1.6540
12.1850 -6.5667 0.9531
20.6893 -10.2095 1.5958
19.7015 -8.8576 1.5011
20.2035 -8.2250 1.5230
20.0569 -7.3379 1.4982
19.7844 -6.4431 1.4666
19.5003 -5.5850 1.4366
11.2990 -2.8015 0.8284
19.3706 -4.0709 1.4154
19.4040 -3.3557 1.4150
19.4895 -2.6541 1.4202
19.7119 -1.9668 1.4373
20.0836 -1.2780 1.4672
20.3849 -0.5637 1.4940
20.4565 0.1689 1.5059
20.4797 0.9050 1.5162
20.3985 1.6367 1.5208
20.1847 2.3514 1.5173
19.7221 3.0186 1.4966
19.3146 3.6702 1.4815
18.9853 4.3192 1.4739
18.6096 4.9426 1.4641
18.3061 5.5728 1.4615
18.0403 6.2079 1.4635
13.2919 5.1148 1.0972
17.7581 7.5761 1.4936
17.6084 8.2717 1.5112
17.5847 9.0450 1.5423
17.6554 9.8987 1.5849
17.7573 10.8117 1.6341
18.0313 11.8865 1.7039
18.1204 12.9020 1.7613
18.6815 14.3397 1.8713
12.7090 10.5016 1.3145
18.7445 16.6572 2.0059
18.3216 17.4987 2.0331
18.6520 19.1415 2.1513
16.9178 18.6579 2.0333
17.0378 20.2034 2.1395
16.3469 20.8607 2.1513
15.5476 21.3800 2.1513
14.7341 21.8719 2.1513
13.9074 22.3363 2.1513
13.0681 22.7727 2.1513
12.2174 23.1812 2.1513
11.3557 23.5614 2.1513
10.4841 23.9132 2.1513
9.6034 24.2365 2.1513
8.7142 24.5310 2.1513
7.8174 24.7966 2.1513
6.9138 25.0333 2.1513
6.0043 25.2410 2.1513
2.0219 10.0984 0.8546
1.9330 11.8516 0.9972
3.2125 25.4129 2.1282
2.2966 25.5026 2.1282
1.4455 26.8013 2.2313
0.4818 26.8342 2.2313
-0.4826 26.8366 2.2313
-1.4467 26.8084 2.2313
-2.4098 26.7496 2.2313
-3.3710 26.6603 2.2313
-4.3295 26.5405 2.2313
-5.2846 26.3901 2.2313
-6.2354 26.2094 2.2313
-6.8494 24.7971 2.1282
-7.7457 24.5668 2.1282
-7.5882 21.3595 1.8701
-9.5183 24.0200 2.1282
-10.3930 23.7035 2.1282
-11.4316 23.7172 2.1609
-11.6028 22.0137 2.0382
-6.8196 11.8833 1.1198
-11.0678 17.7747 1.7075
-9.9676 14.7956 1.4512
-9.9430 13.6723 1.3717
-10.0418 12.8140 1.3174
-10.3406 12.2613 1.2943
-10.4244 11.4962 1.2486
-10.5879 10.8653 1.2168
-10.7472 10.2641 1.1882
-10.8896 9.6766 1.1609
-11.0597 9.1385 1.1394
-11.2634 8.6455 1.1236
-9.4561 6.7328 0.9153
-9.3169 6.1417 0.8766
-9.2114 5.6084 0.8439
-9.3188 5.2246 0.8327
-9.5588 4.9167 0.8345
-9.8556 4.6297 0.8418
-9.8825 4.2161 0.8272
-9.8343 3.7842 0.8078
-9.8693 3.3962 0.7966
-10.1897 3.1020 0.8094
-10.4019 2.7627 0.8141
-10.6542 2.4238 0.8228
-10.9510 2.0809 0.8355
-10.5532 1.6152 0.7965
-10.1623 1.1838 0.7597
-10.0717 0.8081 0.7468
-9.9991 0.4419 0.7362
-10.0774 0.0832 0.7377
-10.2461 -0.2833 0.7467
-10.4863 -0.6672 0.7618
-10.4979 -1.0474 0.7612
-10.4407 -1.4217 0.7566
-10.3661 -1.7926 0.7517
-10.2593 -2.1560 0.7455
-10.1567 -2.5182 0.7405
-11.4541 -3.2803 0.8391
-11.2277 -3.6563 0.8277
-10.8160 -3.9569 0.8035
-10.5833 -4.3084 0.7934
-10.3524 -4.6542 0.7845
-6.8005 -3.3557 0.5218
-10.1831 -5.4877 0.7923
-10.1914 -5.9737 0.8055
-10.2158 -6.4914 0.8217
-10.2896 -7.0690 0.8439
-10.7362 -7.9576 0.8997
-10.8336 -8.6488 0.9294
-11.2415 -9.6549 0.9896
-11.0330 -10.1860 0.9989
-10.5474 -10.4630 0.9846
-10.2343 -10.9084 0.9877
-9.9603 -11.4105 0.9967
-9.7252 -11.9831 1.0122
-9.7697 -12.9621 1.0611
-10.8846 -15.5737 1.2383
-10.2811 -15.8957 1.2302
-9.8561 -16.5088 1.2460
-9.5716 -17.4235 1.2849
-9.3412 -18.5516 1.3392
-9.1030 -19.8184 1.4030
-8.8647 -21.2809 1.4800
-9.4215 -25.1204 1.7191
-9.1732 -27.4113 1.8489
-9.4341 -31.9573 2.1281
-8.2929 -32.3189 2.1281
-7.1364 -32.6336 2.1281
-6.2565 -34.4967 2.2313
-5.0189 -34.7258 2.2313
-3.7721 -34.9037 2.2313
-2.5186 -35.0299 2.2313
-1.2606 -35.1042 2.2313
-0.0005 -25.8942 2.2313
0.9280 -25.8735 2.2313
1.7691 -24.6229 2.1282
1.7814 -16.4918 1.4307
3.5259 -24.4072 2.1282
4.3957 -24.2470 2.1282
5.2579 -24.0525 2.1282
6.1772 -24.0825 2.1513
7.0288 -23.8177 2.1513
7.8682 -23.5196 2.1513
8.6942 -23.1889 2.1513
9.4993 -22.8118 2.1499
10.0933 -21.9815 2.1081
10.6755 -21.2085 2.0731
11.2937 -20.5651 2.0525
11.8147 -19.7958 2.0210
12.4302 -19.2248 2.0113
12.9415 -18.5230 1.9898
13.4926 -17.9074 1.9792
13.9760 -17.2267 1.9631
14.4559 -16.5664 1.9509
14.9764 -15.9685 1.9478
15.4725 -15.3544 1.9449
16.0147 -14.7907 1.9507
16.5945 -14.2578 1.9636
16.7443 -13.3729 1.9292
17.6351 -13.0764 1.9827
18.0428 -12.4009 1.9836
18.3542 -11.6681 1.9770
18.5098 -10.8547 1.9571
12.1793 -6.5668 1.2663
18.3715 -9.0703 1.8816
18.2419 -8.2058 1.8434
18.1041 -7.3747 1.8080
18.0070 -6.5921 1.7799
17.9460 -5.8486 1.7583
17.8678 -5.1215 1.7378
11.2961 -2.8034 1.0922
17.8341 -3.7520 1.7165
17.9258 -3.1041 1.7198
18.0007 -2.4554 1.7238
18.0827 -1.8082 1.7307
18.2760 -1.1670 1.7505
18.4418 -0.5140 1.7700
18.5863 0.1494 1.7898
18.5130 0.8140 1.7910
18.3732 1.4701 1.7879
18.1928 2.1153 1.7830
17.8819 2.7329 1.7673
17.6730 3.3543 1.7637
17.4614 3.9685 1.7619
17.1680 4.5558 1.7537
16.8991 5.1406 1.7500
16.6587 5.7286 1.7511
13.2681 5.1025 1.4178
16.1263 6.8761 1.7542
15.8929 7.4619 1.7624
15.6906 8.0669 1.7765
15.5003 8.6866 1.7947
15.3034 9.3137 1.8148
15.1323 9.9715 1.8412
15.0106 10.6838 1.8772
14.9055 11.4372 1.9195
12.6810 10.4750 1.6849
14.7446 13.0984 2.0255
14.6633 14.0002 2.0873
14.4102 14.7839 2.1307
13.9542 15.3850 2.1485
13.3803 15.8619 2.1513
12.7751 16.2981 2.1513
12.1570 16.7131 2.1513
11.5270 17.1067 2.1513
10.8855 17.4785 2.1513
10.2333 17.8283 2.1513
9.5712 18.1560 2.1513
8.8997 18.4612 2.1513
8.2197 18.7438 2.1513
7.5316 19.0036 2.1513
6.8363 19.2405 2.1513
6.1345 19.4542 2.1513
5.3685 19.4338 2.1282
4.6632 19.5991 2.1282
2.0223 10.0986 1.0887
1.9331 11.8503 1.2699
2.5231 19.9554 2.1282
1.8039 20.0273 2.1282
1.1354 21.0482 2.2313
0.3783 21.0744 2.2313
-0.3792 21.0758 2.2313
-1.1364 21.0526 2.2313
-1.8927 21.0047 2.2313
-2.6474 20.9321 2.2313
-3.3997 20.8349 2.2313
-4.1488 20.7131 2.2313
-4.8942 20.5668 2.2313
-5.6351 20.3961 2.2313
-6.3708 20.2011 2.2313
-6.7911 19.1111 2.1341
-7.4621 18.8262 2.1282
-8.1447 18.5713 2.1282
-8.8197 18.2936 2.1282
-9.4863 17.9934 2.1282
-6.8195 11.8799 1.4307
-10.9179 17.5292 2.1531
-9.9001 14.6913 1.8435
-9.8561 13.5489 1.7400
-10.0092 12.7687 1.6814
-10.2777 12.1831 1.6482
-10.4260 11.4943 1.6010
-10.6162 10.8910 1.5653
-10.7708 10.2832 1.5288
-10.9393 9.7175 1.4983
-11.1087 9.1758 1.4714
-11.2148 8.6049 1.4396
-9.4610 6.7336 1.1793
-9.3558 6.1649 1.1345
-9.2557 5.6329 1.0938
-9.1978 5.1544 1.0612
-9.4326 4.8494 1.0641
-9.7283 4.5675 1.0748
-9.9489 4.2420 1.0781
-9.9068 3.8097 1.0545
-9.9361 3.4168 1.0404
-10.0961 3.0711 1.0413
-10.3179 2.7380 1.0497
-10.6214 2.4139 1.0673
-10.6046 2.0127 1.0540
