ply
format ascii 1.0
element vertex 2029
property float32 x
property float32 y
property float32 z
end_header
-11.0256 22.8896 -2.7218
-12.4169 23.5742 -2.8536
-9.9080 17.2769 -2.1324
-10.2577 16.4856 -2.0783
-11.0746 16.4511 -2.1222
-11.5542 15.9002 -2.1027
-12.7792 16.3203 -2.2170
-14.2491 16.9100 -2.3645
-14.3116 15.7968 -2.2786
-18.7441 19.2528 -2.8717
-19.0085 18.1713 -2.8097
-20.2423 18.0055 -2.8940
-18.0405 14.9222 -2.5004
-17.8555 13.7202 -2.4043
-19.7514 14.0791 -2.5893
-20.0774 13.2511 -2.5675
-16.8601 10.2785 -2.1071
-23.3887 13.1310 -2.8616
-25.9807 13.3832 -3.1174
-12.0101 5.6507 -1.4156
-11.9306 5.0986 -1.3835
-12.1752 4.6938 -1.3912
-12.5762 4.3367 -1.4181
-18.9403 5.7794 -2.1106
-18.3005 4.8735 -2.0183
-17.8051 4.0632 -1.9461
-7.4273 1.4166 -0.8056
-17.0336 2.6190 -1.8360
-16.7297 1.9606 -1.7944
-16.4607 1.3323 -1.7591
-16.2559 0.7297 -1.7332
-10.3340 0.0926 -1.1007
-10.4218 -0.2808 -1.1103
-10.5201 -0.6620 -1.1226
-10.4076 -1.0310 -1.1138
-9.4152 -1.2754 -1.0118
-8.8446 -1.5232 -0.9558
-8.0861 -1.6934 -0.8798
-8.4817 -2.0967 -0.9305
-8.5926 -2.4545 -0.9517
-8.2184 -2.6702 -0.9203
-9.2370 -3.3722 -1.0473
-9.3618 -3.8039 -1.0764
-10.2790 -4.6131 -1.2002
-17.6011 -8.6711 -2.0903
-12.1294 -6.5266 -1.4675
-11.8251 -6.9213 -1.4600
-12.2120 -7.7493 -1.5413
-27.1892 -18.6551 -3.5143
-26.6865 -19.7555 -3.5392
-15.2735 -12.1791 -2.0826
-13.2631 -11.3782 -1.8633
-12.7121 -11.7233 -1.8441
-12.2519 -12.1411 -1.8397
-11.8459 -12.6132 -1.8459
-11.5496 -13.2179 -1.8729
-11.2956 -13.9046 -1.9118
-11.0308 -14.6213 -1.9550
-24.8347 -35.5002 -4.6255
-23.5100 -36.3154 -4.6197
-22.8222 -38.1917 -4.7521
-24.2958 -44.1860 -5.3872
-20.2271 -40.1347 -4.8027
-19.3366 -42.0598 -4.9480
-18.3983 -44.1271 -5.1114
-17.0892 -45.5227 -5.1999
-15.5469 -46.4134 -5.2359
-22.1475 -74.9511 -8.3623
-21.5115 -83.7516 -9.2545
-19.4709 -88.9447 -9.7475
6.3970 -59.2016 -5.0379
8.5800 -59.3627 -5.0765
10.5518 -58.1695 -5.0055
9.2834 -42.4399 -3.6797
2.0458 -7.9702 -0.6972
12.3874 -41.9456 -3.7073
14.1669 -42.3158 -3.7839
10.7975 -28.7762 -2.6072
10.7060 -25.6887 -2.3616
10.7207 -23.3282 -2.1794
12.3863 -24.5860 -2.3378
14.2422 -25.9108 -2.5117
17.9209 -29.9993 -2.9695
11.3584 -17.5504 -1.7771
20.2461 -28.9493 -3.0041
21.5177 -28.5293 -3.0397
22.7349 -27.9932 -3.0687
24.8647 -28.4636 -3.2171
10.9645 -11.6775 -1.3639
11.3479 -11.2479 -1.3609
13.4560 -10.7320 -1.4672
13.8393 -10.2471 -1.4684
12.5560 -8.6166 -1.2989
12.2539 -7.7774 -1.2382
12.5331 -7.3371 -1.2393
12.5963 -6.7791 -1.2210
12.6590 -6.2375 -1.2048
14.1935 -6.3710 -1.3285
21.5893 -8.7737 -1.9904
21.6868 -7.9188 -1.9722
21.8329 -7.0948 -1.9614
22.9585 -6.5593 -2.0404
22.2326 -5.4968 -1.9573
17.5450 -3.6750 -1.5323
17.5120 -3.0163 -1.5191
17.4794 -2.3681 -1.5081
18.2971 -1.8128 -1.5722
18.3149 -1.1526 -1.5693
17.8503 -0.4810 -1.5271
18.5437 0.1662 -1.5861
20.3553 0.9140 -1.7428
19.3653 1.5677 -1.6618
18.2165 2.1353 -1.5688
17.0735 2.6257 -1.4776
18.7973 3.5858 -1.6369
14.9687 3.4166 -1.3133
17.5586 4.6768 -1.5542
17.3760 5.3031 -1.5538
17.9730 6.1989 -1.6260
71.6449 27.6261 -6.5667
66.6050 28.4697 -6.1939
62.3929 29.3613 -5.8959
62.8954 32.4050 -6.0489
63.4256 35.6157 -6.2182
47.9247 29.2224 -4.7976
9.2035 6.0756 -0.9424
8.9465 6.3786 -0.9388
8.6905 6.6793 -0.9364
8.4349 6.9784 -0.9351
8.1790 7.2768 -0.9349
7.9222 7.5751 -0.9359
7.6640 7.8739 -0.9380
7.9717 8.8012 -1.0134
7.5610 8.9753 -1.0013
7.1589 9.1451 -0.9907
6.7644 9.3114 -0.9815
6.3763 9.4747 -0.9737
18.3148 29.4440 -2.9555
16.8710 29.4283 -2.8904
15.4868 29.4132 -2.8316
14.1554 29.3987 -2.7787
12.9541 29.5754 -2.7488
12.9207 32.6402 -2.9876
9.9373 28.0013 -2.5279
8.9078 28.2831 -2.5220
2.2202 8.0467 -0.7097
6.7154 28.2592 -2.4687
5.6497 28.2476 -2.4475
4.6001 28.2362 -2.4298
3.5636 28.2249 -2.4154
2.5373 28.2149 -2.4043
1.5183 28.2026 -2.3962
0.4989 27.8985 -2.3664
-0.5125 28.4305 -2.4107
-1.5341 28.4194 -2.4120
-2.5589 28.4082 -2.4164
-3.5895 28.3970 -2.4239
-4.6287 28.3857 -2.4346
-5.6793 28.3742 -2.4487
-6.7442 28.3626 -2.4661
-7.8266 28.3508 -2.4869
-8.8912 28.2165 -2.5006
-8.5553 24.0964 -2.1605
-9.2376 23.3266 -2.1191
-10.0428 22.9203 -2.1128
-11.0391 22.9187 -2.1471
-12.1100 22.9926 -2.1925
-9.9326 17.3204 -1.6840
-10.6456 17.1098 -1.6990
-10.8725 16.1515 -1.6410
-11.6364 16.0139 -1.6678
-12.3818 15.8133 -1.6916
-13.6388 16.1864 -1.7822
-15.0802 16.6457 -1.8906
-19.3562 19.8821 -2.3349
-18.7683 17.9422 -2.1842
-19.9789 17.7717 -2.2486
-18.2414 15.0888 -1.9902
-17.8720 13.7334 -1.8944
-19.8860 14.1755 -2.0520
-20.2131 13.3411 -2.0344
-16.8583 10.2777 -1.6581
-23.6203 13.2614 -2.2744
-11.6829 6.0183 -1.1032
-11.5703 5.4440 -1.0731
-11.7099 5.0045 -1.0685
-12.0234 4.6355 -1.0810
-12.5006 4.3108 -1.1091
-17.7399 5.4133 -1.5554
-17.2450 4.5926 -1.4963
-16.8603 3.8478 -1.4498
-7.4260 1.4164 -0.6337
-16.1900 2.4894 -1.3729
-15.9234 1.8662 -1.3435
-15.7151 1.2720 -1.3211
-10.5574 0.4740 -0.8855
-10.2873 0.0922 -0.8619
-10.2757 -0.2769 -0.8612
-10.5260 -0.6623 -0.8835
-10.2356 -1.0140 -0.8616
-9.2647 -1.2550 -0.7832
-8.6564 -1.4908 -0.7358
-8.6189 -1.8050 -0.7377
-9.0420 -2.2352 -0.7803
-8.5670 -2.4472 -0.7464
-8.4771 -2.7543 -0.7468
-9.4825 -3.4619 -0.8458
-9.6321 -3.9138 -0.8712
-9.9228 -4.4533 -0.9114
-11.9163 -5.8706 -1.1133
-11.6079 -6.2461 -1.1049
-11.4783 -6.7185 -1.1149
-11.7055 -7.4281 -1.1623
-27.7548 -19.0435 -2.8225
-27.7415 -20.5369 -2.8948
-13.8579 -11.0504 -1.4868
-13.1520 -11.2831 -1.4538
-12.6288 -11.6468 -1.4416
-12.1659 -12.0561 -1.4376
-11.6629 -12.4186 -1.4303
-11.2597 -12.8865 -1.4370
-11.1648 -13.7440 -1.4873
-10.8988 -14.4467 -1.5204
-10.8569 -15.5201 -1.5917
-24.8128 -38.3291 -3.8381
-28.1465 -47.1032 -4.6138
-23.7367 -43.1709 -4.1437
-22.0896 -43.8320 -4.1296
-21.1401 -45.9846 -4.2594
-19.2300 -46.1242 -4.2070
-17.2392 -45.9247 -4.1310
-15.5251 -46.3511 -4.1179
-22.0037 -74.4695 -6.5437
-19.6655 -76.5705 -6.6642
-19.3324 -88.3196 -7.6241
6.6804 -61.8128 -3.8524
9.2811 -64.2039 -4.0217
12.6915 -69.9574 -4.4101
9.4419 -43.1604 -2.7418
2.0457 -7.9693 -0.5109
12.0554 -40.8185 -2.6440
13.6002 -40.6203 -2.6624
10.6059 -28.2640 -1.8772
10.9981 -26.3881 -1.7786
12.2189 -26.5870 -1.8213
11.2505 -22.3305 -1.5572
12.3267 -22.4249 -1.5944
19.8973 -33.3062 -2.4184
18.5904 -28.7239 -2.1338
20.3624 -29.1145 -2.2167
21.2139 -28.1255 -2.1990
22.3400 -27.5061 -2.2129
24.9692 -28.5822 -2.3711
11.1975 -11.9252 -1.0224
11.5884 -11.4859 -1.0202
11.8147 -10.8978 -1.0054
12.4708 -10.7005 -1.0283
12.4544 -9.9328 -0.9973
14.9579 -11.0749 -1.1656
12.1663 -8.3490 -0.9244
13.1028 -8.3160 -0.9726
12.8263 -7.5085 -0.9317
12.3218 -6.6312 -0.8775
24.3040 -11.9751 -1.6996
25.2881 -11.3507 -1.7392
21.8179 -8.8664 -1.4781
21.8914 -7.9932 -1.4631
21.7296 -7.0610 -1.4347
22.9495 -6.5565 -1.4991
22.6693 -5.6046 -1.4670
17.5464 -3.6751 -1.1264
17.5133 -3.0164 -1.1168
17.4808 -2.3682 -1.1088
18.3836 -1.8213 -1.1613
18.4012 -1.1579 -1.1592
17.9133 -0.4827 -1.1267
18.6117 0.1669 -1.1704
19.1239 0.8587 -1.2038
17.3734 1.4065 -1.0962
18.0718 2.1183 -1.1443
17.0323 2.6193 -1.0838
17.3801 3.3154 -1.1128
15.3890 3.5125 -0.9927
17.6028 4.6885 -1.1456
17.4197 5.3164 -1.1453
81.8529 28.2307 -5.4443
71.3810 27.5241 -4.8100
66.5617 28.4508 -4.5507
59.8383 28.1588 -4.1570
56.7826 29.2551 -4.0145
51.5703 28.9580 -3.7165
48.4166 29.5219 -3.5627
44.6785 29.4935 -3.3628
9.0708 6.4670 -0.6996
8.8109 6.7717 -0.6977
8.5516 7.0749 -0.6967
8.2921 7.3773 -0.6965
8.0320 7.6798 -0.6972
7.7705 7.9831 -0.6987
8.0302 8.8656 -0.7500
7.6158 9.0401 -0.7409
7.2103 9.2105 -0.7329
6.8125 9.3774 -0.7260
6.4213 9.5412 -0.7201
18.3484 29.4970 -2.1742
16.8716 29.4283 -2.1223
15.5426 29.5179 -2.0863
14.1560 29.3987 -2.0398
12.9541 29.5741 -2.0176
12.9207 32.6386 -2.1926
9.9379 28.0013 -1.8551
8.9084 28.2831 -1.8505
2.2201 8.0458 -0.5206
6.7159 28.2592 -1.8110
5.6737 28.3645 -1.8027
4.6018 28.2431 -1.7824
3.5641 28.2249 -1.7712
2.5483 28.3305 -1.7701
1.5188 28.2026 -1.7567
0.4994 27.8985 -1.7346
-0.5120 28.4305 -1.7668
-1.5399 28.5360 -1.7748
-2.5583 28.4082 -1.7705
-3.5889 28.3970 -1.7758
-4.6471 28.5021 -1.7907
-5.6787 28.3742 -1.7935
-6.7683 28.4665 -1.8126
-7.8412 28.4058 -1.8245
-8.8912 28.2184 -1.8309
-8.5757 24.1555 -1.5854
-9.4466 23.8556 -1.5862
-10.2860 23.4765 -1.5838
-11.0271 22.8950 -1.5695
-9.5936 18.2156 -1.2709
-10.2592 17.8909 -1.2725
-10.7867 17.3372 -1.2592
-11.1638 16.5848 -1.2323
-11.7566 16.1799 -1.2323
-12.3449 15.7668 -1.2332
-13.6688 16.2224 -1.3058
-14.1173 15.5834 -1.2938
-19.4370 19.9658 -1.7138
-18.5349 17.7196 -1.5765
-19.4157 17.2713 -1.5969
-18.4459 15.2585 -1.4706
-17.8886 13.7465 -1.3854
-20.0219 14.2728 -1.5093
-20.3501 13.4319 -1.4962
-16.8565 10.2769 -1.2110
-11.6102 6.5186 -0.8165
-11.2245 5.7823 -0.7740
-11.3530 5.3419 -0.7689
-11.5803 4.9492 -0.7716
-11.9267 4.5983 -0.7829
-12.4262 4.2853 -0.8049
-16.6858 5.0918 -1.0680
-16.2727 4.3338 -1.0307
-15.9349 3.6367 -1.0002
-7.4246 1.4162 -0.4624
-15.4025 2.3684 -0.9533
-15.1915 1.7805 -0.9355
-15.0212 1.2159 -0.9216
-10.5088 0.4718 -0.6432
-10.2412 0.0918 -0.6262
-9.9872 -0.2691 -0.6108
-10.3513 -0.6513 -0.6341
-8.9353 -0.8852 -0.5489
-8.8238 -1.1953 -0.5443
-8.7139 -1.5007 -0.5405
-9.2523 -1.9377 -0.5779
-8.9420 -2.2105 -0.5631
-8.5751 -2.4496 -0.5452
-9.2370 -3.0012 -0.5938
-8.8966 -3.2480 -0.5791
-9.2819 -3.7715 -0.6127
-10.1760 -4.5670 -0.6822
-11.5581 -5.6942 -0.7881
-11.2929 -6.0767 -0.7845
-11.1021 -6.4984 -0.7871
-11.3492 -7.2021 -0.8226
-21.0884 -14.4698 -1.5655
-14.5003 -10.7347 -1.1046
-13.7172 -10.9385 -1.0745
-13.0877 -11.2282 -1.0563
-12.5911 -11.6122 -1.0495
-12.1029 -11.9940 -1.0444
-11.5360 -12.2838 -1.0332
-11.0832 -12.6849 -1.0331
-10.9655 -13.4990 -1.0670
-10.8152 -14.3362 -1.1022
-10.4347 -14.9169 -1.1177
-23.3298 -36.0394 -2.6368
-11.9703 -20.0331 -1.4339
-23.8062 -43.2989 -3.0372
-15.1827 -30.1280 -2.0746
-13.9163 -30.2724 -2.0497
-12.6832 -30.4228 -2.0286
-12.0667 -32.1470 -2.1142
-13.0289 -38.9008 -2.5271
-21.9856 -74.4131 -4.7819
-19.5832 -76.2558 -4.8543
6.3625 -58.8599 -2.3317
8.7127 -60.2637 -2.4000
12.4442 -68.5868 -2.7497
13.8122 -63.1319 -2.5513
2.0456 -7.9683 -0.3250
11.9514 -40.4636 -1.6683
13.9018 -41.5183 -1.7327
17.0035 -45.3103 -1.9167
11.6979 -28.0656 -1.2051
12.6714 -27.5702 -1.2036
11.3783 -22.5831 -1.0038
17.4247 -31.6979 -1.4369
18.9759 -31.7627 -1.4709
18.4861 -28.5616 -1.3535
20.4798 -29.2811 -1.4226
21.3351 -28.2851 -1.4115
23.9287 -29.4611 -1.5132
11.0379 -12.6347 -0.6693
11.2531 -11.9840 -0.6563
11.4378 -11.3363 -0.6433
11.5465 -10.6501 -0.6279
12.6305 -10.8372 -0.6657
54.6343 -43.5716 -2.7968
57.2851 -42.4131 -2.8543
22.4565 -15.4100 -1.0912
22.8200 -14.4828 -1.0835
13.6745 -8.0049 -0.6355
24.4902 -13.1794 -1.1160
24.4523 -12.0478 -1.0944
25.0010 -11.2215 -1.1007
22.0508 -8.9608 -0.9564
22.1487 -8.0869 -0.9478
22.5567 -7.3295 -0.9538
22.9384 -6.5531 -0.9597
22.3556 -5.5269 -0.9267
17.5477 -3.6753 -0.7217
17.5146 -3.0165 -0.7156
17.4821 -2.3683 -0.7105
18.4706 -1.8298 -0.7477
18.4881 -1.1633 -0.7463
17.9766 -0.4843 -0.7246
18.6800 0.1676 -0.7528
20.6432 0.9270 -0.8329
17.9521 1.4533 -0.7260
16.5425 1.9391 -0.6714
15.8501 2.4375 -0.6464
16.6337 3.1731 -0.6826
15.8321 3.6136 -0.6546
17.6470 4.7003 -0.7361
17.4635 5.3297 -0.7359
33.5506 11.5713 -1.4302
71.5650 27.5947 -3.0904
66.6063 28.4695 -2.9180
59.9560 28.2138 -2.6689
56.7834 29.2551 -2.5721
51.5703 28.9576 -2.3810
48.4174 29.5219 -2.2822
44.7414 29.5345 -2.1569
9.1981 6.5577 -0.4543
8.9343 6.8664 -0.4530
8.6712 7.1737 -0.4523
8.4082 7.4804 -0.4521
8.1445 7.7873 -0.4525
8.1731 8.3966 -0.4703
26.7545 29.5370 -1.5988
7.6712 9.1057 -0.4774
7.2623 9.2766 -0.4722
6.8612 9.4441 -0.4676
19.8276 29.4605 -1.4216
18.3489 29.4968 -1.3898
16.8722 29.4283 -1.3564
15.5432 29.5179 -1.3331
14.1566 29.3987 -1.3030
12.9541 29.5728 -1.2885
12.9208 32.6370 -1.3999
9.9384 28.0013 -1.1842
8.9089 28.2831 -1.1810
2.2200 8.0448 -0.3321
6.7165 28.2592 -1.1551
5.6742 28.3645 -1.1495
4.6024 28.2433 -1.1363
3.5647 28.2249 -1.1288
2.5488 28.3305 -1.1278
1.5194 28.2026 -1.1190
0.4999 27.8985 -1.1046
-0.5114 28.4305 -1.1248
-1.5393 28.5360 -1.1295
-2.5578 28.4082 -1.1265
-3.5884 28.3970 -1.1295
-4.6465 28.5021 -1.1387
-5.6781 28.3742 -1.1401
-6.7677 28.4665 -1.1519
-7.8406 28.4060 -1.1592
-8.8912 28.2205 -1.1629
-8.8152 24.8315 -1.0348
-9.2696 23.4100 -0.9881
-10.2001 23.2816 -0.9967
-11.0684 22.9819 -0.9995
-9.7425 18.4991 -0.8186
-10.1486 17.6986 -0.7981
-10.8399 17.4234 -0.8022
-11.1261 16.5296 -0.7783
-11.4796 15.7993 -0.7623
-12.4874 15.9494 -0.7901
-13.5568 16.0901 -0.8201
-19.0141 20.9894 -1.1032
-30.5338 31.3655 -1.7039
-19.9200 19.0444 -1.0721
-19.4746 17.3242 -1.0133
-18.6546 15.4316 -0.9406
-17.9051 13.7597 -0.8768
-20.1593 14.3712 -0.9607
-20.4886 13.5237 -0.9521
-16.8707 10.2858 -0.7658
-11.1367 6.2530 -0.4948
-10.9463 5.6392 -0.4768
-11.2110 5.2752 -0.4796
-11.4586 4.8974 -0.4821
-11.8746 4.5784 -0.4922
-12.3365 4.2545 -0.5044
-15.7201 4.7973 -0.6351
-15.4020 4.1020 -0.6157
-15.1374 3.4548 -0.5996
-7.4233 1.4160 -0.2917
-14.7168 2.2631 -0.5747
-14.6860 1.7213 -0.5705
-14.5986 1.1818 -0.5650
-14.5385 0.6528 -0.5613
-10.1956 0.0915 -0.3932
-9.9438 -0.2679 -0.3836
-10.1703 -0.6399 -0.3929
-8.9326 -0.8849 -0.3461
-8.5161 -1.1536 -0.3313
-8.1898 -1.4104 -0.3204
-8.9548 -1.8754 -0.3527
-8.5428 -2.1119 -0.3393
-8.5664 -2.4471 -0.3435
-9.1122 -2.9607 -0.3695
-8.8915 -3.2462 -0.3651
-10.0247 -4.0734 -0.4174
-9.8291 -4.4114 -0.4157
-10.0721 -4.9622 -0.4333
-11.0720 -5.9579 -0.4853
-10.7952 -6.3189 -0.4830
-10.8612 -6.8926 -0.4968
-17.0725 -11.7145 -0.8000
-14.2565 -10.5544 -0.6856
-13.6061 -10.8501 -0.6729
-13.0661 -11.2099 -0.6659
-12.6825 -11.6967 -0.6676
-12.2962 -12.1858 -0.6702
-11.4264 -12.1674 -0.6465
-10.9329 -12.5132 -0.6440
-10.7122 -13.1875 -0.6588
-10.7940 -14.3085 -0.6954
-10.3284 -14.7655 -0.6995
-10.0593 -15.5400 -0.7190
-11.5170 -19.2750 -0.8727
-11.0926 -20.1761 -0.8954
-15.0387 -29.8434 -1.3005
-13.7913 -30.0020 -1.2858
-12.5907 -30.2024 -1.2751
-11.4684 -30.5547 -1.2726
-10.6790 -31.8866 -1.3122
-10.9865 -37.1875 -1.5142
-19.6942 -76.6938 -3.0943
-10.6132 -48.4948 -1.9414
-9.3051 -51.2658 -2.0392
-10.7704 -74.4610 -2.9468
-5.9345 -82.4632 -3.2432
10.3407 -95.6447 -1.6205
8.9049 -61.5846 -1.0501
15.8084 -87.1187 -1.4971
10.0223 -45.8049 -0.7943
2.0455 -7.9673 -0.1396
12.1191 -41.0283 -0.7274
21.9732 -65.6197 -1.1787
18.0737 -48.1593 -0.8778
19.9554 -47.8744 -0.8867
12.4898 -27.1738 -0.5122
11.4312 -22.6870 -0.4358
18.0878 -32.9027 -0.6453
20.1884 -33.7908 -0.6776
18.3832 -28.4014 -0.5834
19.8246 -28.3434 -0.5975
21.7300 -28.8075 -0.6243
22.5198 -27.7254 -0.6190
31.1125 -35.6120 -0.8207
13.6683 -14.5556 -0.3471
12.0993 -11.9914 -0.2966
12.5042 -11.5330 -0.2966
12.9082 -11.0751 -0.2969
51.5743 -41.1301 -1.1532
33.9849 -25.1612 -0.7402
22.5002 -15.4396 -0.4783
22.8641 -14.5103 -0.4752
24.1562 -14.1404 -0.4918
23.7913 -12.8029 -0.4752
24.5231 -12.0823 -0.4814
25.8408 -11.5981 -0.4992
25.7961 -10.4824 -0.4912
22.4864 -8.2100 -0.4227
23.8949 -7.7641 -0.4440
22.9220 -6.5482 -0.4216
26.2642 -6.4929 -0.4789
17.5490 -3.6754 -0.3176
17.5160 -3.0166 -0.3150
17.4834 -2.3684 -0.3129
18.5582 -1.8384 -0.3308
18.3633 -1.1554 -0.3266
18.0402 -0.4860 -0.3204
18.7486 0.1682 -0.3330
19.7401 0.8865 -0.3510
18.5696 1.5034 -0.3310
16.9982 1.9925 -0.3041
16.0583 2.4695 -0.2887
16.7503 3.1953 -0.3030
16.3007 3.7205 -0.2971
16.0118 4.2647 -0.2944
17.5074 5.3430 -0.3251
33.5422 11.5683 -0.6300
71.5821 27.6010 -1.3619
66.5277 28.4355 -1.2838
59.8531 28.1650 -1.1732
56.7127 29.2182 -1.1309
51.5805 28.9629 -1.0480
48.4182 29.5219 -1.0040
44.7219 29.5211 -0.9481
9.3289 6.6508 -0.2026
8.9654 6.8901 -0.1997
8.7703 7.2556 -0.2009
8.5725 7.6264 -0.2023
8.3713 8.0039 -0.2040
8.1661 8.3891 -0.2060
7.9562 8.7834 -0.2083
7.7274 9.1721 -0.2106
7.3149 9.3436 -0.2081
6.9105 9.5116 -0.2059
19.8282 29.4605 -0.6212
18.3167 29.4440 -0.6058
16.8728 29.4283 -0.5918
15.4886 29.4132 -0.5791
14.1572 29.3987 -0.5676
12.9542 29.5715 -0.5607
12.9208 32.6354 -0.6087
9.9390 28.0013 -0.5145
8.9095 28.2831 -0.5126
2.2199 8.0439 -0.1440
6.7170 28.2592 -0.5005
5.6514 28.2476 -0.4955
4.6018 28.2362 -0.4912
3.5652 28.2249 -0.4876
2.5389 28.2137 -0.4847
1.5199 28.2026 -0.4824
0.5005 27.8985 -0.4757
-0.5109 28.4305 -0.4839
-1.5325 28.4194 -0.4834
-2.5572 28.4082 -0.4836
-3.5878 28.3970 -0.4844
-4.6270 28.3857 -0.4858
-5.6775 28.3742 -0.4879
-6.7424 28.3626 -0.4906
-7.8248 28.3509 -0.4940
-8.8912 28.2225 -0.4961
-8.7665 24.6959 -0.4385
-9.4318 23.8209 -0.4279
-10.1957 23.2729 -0.4236
-11.0437 22.9316 -0.4236
-9.9379 18.8711 -0.3543
-10.2416 17.8616 -0.3414
-10.7674 17.3076 -0.3374
-11.7655 17.4802 -0.3482
-11.8226 16.2719 -0.3318
-12.4359 15.8841 -0.3322
-13.7552 16.3262 -0.3510
-28.4015 31.3531 -0.6944
-28.4893 29.2663 -0.6693
-21.5210 20.5757 -0.4872
-21.2124 18.8707 -0.4639
-18.8677 15.6084 -0.3995
-17.9217 13.7728 -0.3682
-20.2984 14.4708 -0.4055
-20.6287 13.6166 -0.4016
-11.4611 6.9879 -0.2178
-10.4457 5.8651 -0.1941
-10.6780 5.5011 -0.1944
-11.0728 5.2103 -0.1978
-11.4364 4.8880 -0.2009
-11.8342 4.5629 -0.2046
-12.2420 4.2220 -0.2087
-14.8957 4.5458 -0.2508
-14.6406 3.8994 -0.2438
-14.4288 3.2932 -0.2380
-7.4220 1.4158 -0.1214
-14.2405 2.1899 -0.2313
-14.3405 1.6809 -0.2317
-14.2696 1.1552 -0.2296
-14.2234 0.6387 -0.2283
-10.1112 0.0907 -0.1621
-10.0898 -0.2718 -0.1617
-10.0198 -0.6304 -0.1608
-8.9298 -0.8846 -0.1437
-8.5273 -1.1551 -0.1378
-8.2002 -1.4122 -0.1332
-9.1209 -1.9102 -0.1492
-8.7421 -2.1611 -0.1442
-8.5577 -2.4446 -0.1426
-8.9909 -2.9213 -0.1515
-9.7746 -3.5687 -0.1668
-9.9343 -4.0368 -0.1720
-9.7821 -4.3904 -0.1720
-11.2312 -5.5333 -0.2010
-10.8425 -5.8345 -0.1978
-10.4616 -6.1237 -0.1948
-10.3735 -6.5832 -0.1976
-15.5804 -10.6908 -0.3042
-14.1343 -10.4641 -0.2833
-13.4672 -10.7395 -0.2778
-12.9688 -11.1266 -0.2758
-12.8252 -11.8287 -0.2819
-12.4954 -12.3835 -0.2846
-11.2839 -12.0160 -0.2670
-10.7629 -12.3189 -0.2653
-10.3642 -12.7594 -0.2669
-10.4263 -13.8216 -0.2815
-10.2204 -14.6115 -0.2903
-9.7448 -15.0547 -0.2924
-11.2805 -18.8798 -0.3591
-10.7424 -19.5399 -0.3646
-12.5607 -24.9271 -0.4571
-12.2445 -26.6382 -0.4809
-10.8786 -26.0967 -0.4645
-11.4425 -30.4872 -0.5359
-10.4864 -31.3133 -0.5443
-10.8231 -36.6370 -0.6308
-9.7877 -38.1181 -0.6509
-10.4205 -47.6184 -0.8077
-8.7962 -48.4673 -0.8176
-9.2737 -64.1220 -1.0773
-8.2445 -76.2352 -1.2774
-5.9324 -82.4570 -1.3797
2.1268 -9.7191 0.0555
2.0455 -7.9664 0.0457
18.7615 -63.5110 0.3655
21.5709 -64.4143 0.3728
17.9339 -47.7839 0.2785
18.5321 -44.4574 0.2614
12.2420 -26.6332 0.1582
16.7103 -33.1626 0.1993
18.6449 -33.9146 0.2065
19.3138 -32.3256 0.1998
21.3949 -33.0531 0.2078
21.8088 -31.1789 0.1997
21.9058 -29.0396 0.1899
36.5357 -44.9797 0.3009
36.5367 -41.8193 0.2869
13.7131 -14.6029 0.1030
41.2283 -40.8596 0.2968
12.7851 -11.7917 0.0885
47.3231 -40.6014 0.3158
50.8647 -40.5629 0.3279
34.0372 -25.1992 0.2125
23.6840 -16.2514 0.1435
23.8948 -15.1640 0.1408
24.1513 -14.1370 0.1386
23.2977 -12.5369 0.1305
24.4663 -12.0540 0.1341
22.9560 -10.3030 0.1232
27.4655 -11.1605 0.1447
26.8442 -9.8007 0.1390
25.1510 -8.1720 0.1282
22.9057 -6.5434 0.1152
26.2533 -6.4901 0.1304
17.5504 -3.6756 0.0863
18.0172 -3.1028 0.0878
17.6407 -2.3896 0.0853
17.9299 -1.7761 0.0862
17.9999 -1.1324 0.0861
18.8655 -0.5081 0.0900
19.9631 0.1792 0.0951
17.5006 0.7860 0.0834
19.2304 1.5569 0.0917
14.7197 1.7254 0.0704
16.2718 2.5024 0.0782
16.8685 3.2178 0.0816
16.4897 3.7637 0.0804
16.1216 4.2939 0.0794
17.3910 5.3075 0.0866
20.5636 7.0921 0.1036
71.5827 27.6009 0.3660
66.5386 28.4399 0.3457
59.8066 28.1427 0.3164
55.2229 28.4502 0.2979
25.1812 14.1392 0.1388
48.4191 29.5219 0.2732
44.6619 29.4809 0.2584
41.6576 29.6982 0.2478
8.8727 6.8188 0.0544
8.6791 7.1799 0.0549
8.4826 7.5463 0.0555
8.2827 7.9190 0.0562
8.0787 8.2992 0.0570
26.7559 29.5370 0.1970
24.8679 29.5164 0.1916
7.3682 9.4115 0.0596
21.4170 29.4778 0.1824
19.6301 29.1653 0.1768
18.1337 29.1490 0.1735
16.7044 29.1335 0.1705
15.3341 29.1186 0.1679
14.0160 29.1042 0.1656
12.9542 29.5702 0.1664
12.9208 32.6339 0.1818
10.0439 28.2955 0.1564
8.9100 28.2831 0.1552
2.2198 8.0430 0.0439
6.7176 28.2592 0.1537
5.6519 28.2476 0.1533
4.6023 28.2362 0.1531
3.5658 28.2249 0.1531
2.5394 28.2137 0.1533
1.5205 28.2026 0.1537
0.5063 28.1915 0.1543
-0.5050 28.1376 0.1549
-1.5161 28.1266 0.1559
-2.5303 28.1155 0.1572
-3.5503 28.1044 0.1586
-4.5787 28.0932 0.1603
-5.6185 28.0819 0.1622
-6.6724 28.0704 0.1643
-7.7436 28.0587 0.1666
-8.8353 28.0468 0.1693
-8.7741 24.7189 0.1518
-9.7146 24.5367 0.1535
-10.3875 23.7119 0.1514
-10.9022 22.6390 0.1477
-9.8707 18.7444 0.1252
-10.2650 17.9032 0.1226
-11.0268 17.7254 0.1246
-11.3079 16.8009 0.1215
-11.6121 15.9828 0.1190
-12.1296 15.4935 0.1191
-14.2877 16.9588 0.1348
-26.1442 28.8622 0.2378
-22.1445 22.7492 0.1947
-21.7788 20.8228 0.1856
-21.9534 19.5305 0.1817
-21.9406 18.1509 0.1768
-17.9382 13.7859 0.1410
-22.7027 16.1853 0.1744
-19.8734 13.1184 0.1494
-10.3640 6.3192 0.0764
-10.3862 5.8319 0.0752
-10.6045 5.4634 0.0756
-10.9502 5.1528 0.0769
-11.4099 4.8769 0.0791
-11.7962 4.5484 0.0808
-12.1932 4.2053 0.0826
-14.1639 4.3226 0.0950
-13.9741 3.7220 0.0930
-13.8277 3.1561 0.0914
-7.4206 1.4156 0.0488
-13.9299 2.1423 0.0911
-14.0111 1.6424 0.0913
-13.9657 1.1307 0.0908
-13.9275 0.6255 0.0905
-10.1058 0.0907 0.0656
-10.6417 -0.2866 0.0692
-10.5298 -0.6625 0.0686
-8.8901 -0.8806 0.0581
-8.5385 -1.1566 0.0561
-8.2107 -1.4140 0.0542
-7.9034 -1.6552 0.0525
-8.9343 -2.2087 0.0599
-8.5491 -2.4422 0.0578
-9.4715 -3.0775 0.0647
-9.6500 -3.5232 0.0667
-10.1256 -4.1145 0.0709
-10.0638 -4.5168 0.0715
-10.9988 -5.4189 0.0793
-10.5293 -5.6661 0.0772
-10.2436 -5.9962 0.0765
-10.2402 -6.4987 0.0781
-14.5778 -10.0031 0.1136
-14.0611 -10.4101 0.1121
-13.3034 -10.6091 0.1088
-12.7912 -10.9745 0.1075
-12.3866 -11.4244 0.1072
-11.6018 -11.4982 0.1036
-11.1096 -11.8306 0.1027
-10.6850 -12.2301 0.1024
-10.3524 -12.7452 0.1032
-9.9822 -13.2332 0.1038
-10.0710 -14.3983 0.1097
-6.6291 -10.2416 0.0759
-9.6650 -16.1766 0.1167
-10.4940 -19.0887 0.1344
-9.9733 -19.7931 0.1362
-11.2698 -24.5187 0.1651
-10.5003 -25.1904 0.1663
-11.3542 -30.2536 0.1960
-10.3797 -30.9966 0.1974
-10.0263 -33.9420 0.2127
-9.5517 -37.2019 0.2298
-9.2657 -42.3452 0.2580
-8.7032 -47.9599 0.2887
-9.0862 -62.8339 0.3742
-8.0783 -74.7121 0.4406
-5.9297 -82.4415 0.4821
0.0019 -79.0710 2.2376
2.7124 -75.4628 2.1345
5.4255 -75.4001 2.1345
8.2258 -76.0550 2.1576
10.9627 -75.7951 2.1576
13.6320 -75.1079 2.1482
2.1270 -9.7191 0.2797
2.0454 -7.9654 0.2309
19.2014 -64.9954 1.9008
21.4556 -64.0657 1.8928
17.8755 -47.6256 1.4236
18.6076 -44.6362 1.3518
19.1381 -41.6340 1.2795
16.7267 -33.1936 1.0368
18.1106 -32.9412 1.0474
19.0298 -31.8489 1.0327
23.8066 -36.7775 1.2181
21.2682 -30.4049 1.0306
22.0846 -29.2755 1.0176
32.1649 -39.5974 1.4141
34.1060 -39.0358 1.4355
13.7583 -14.6505 0.5560
22.9290 -22.7232 0.8923
23.8601 -22.0056 0.8964
47.3245 -40.6014 1.7204
50.8661 -40.5628 1.7935
34.0372 -25.1984 1.1665
23.7923 -16.3252 0.7941
24.0024 -15.2318 0.7818
21.8863 -12.8108 0.6969
22.5997 -12.1610 0.7047
24.6878 -12.1628 0.7552
23.1435 -10.3869 0.6957
27.4188 -11.1412 0.8111
23.6687 -8.6411 0.6902
25.2918 -8.2175 0.7280
22.8909 -6.5389 0.6514
33.1751 -8.2009 0.9346
33.8328 -7.0854 0.9450
18.1983 -3.1339 0.5046
17.8133 -2.4129 0.4911
18.1417 -1.7970 0.4979
18.2127 -1.1458 0.4982
19.0809 -0.5139 0.5210
19.3951 0.1742 0.5293
18.0852 0.8123 0.4940
16.1149 1.3047 0.4411
14.8980 1.7464 0.4092
16.4911 2.5361 0.4552
16.9884 3.2407 0.4718
16.6051 3.7900 0.4647
17.9224 4.7735 0.5060
16.8775 5.1507 0.4815
73.9363 25.4992 2.1345
71.6028 27.6083 2.0949
66.5290 28.4353 1.9756
56.7578 26.7077 1.7133
55.2228 28.4498 1.6973
51.5806 28.9620 1.6169
48.4199 29.5219 1.5507
44.6627 29.4810 1.4640
8.9718 6.3960 0.3016
8.7819 6.7489 0.3033
8.5897 7.1059 0.3055
8.3946 7.4678 0.3080
8.1960 7.8359 0.3111
7.9932 8.2112 0.3146
26.7566 29.5370 1.0948
24.8466 29.4904 1.0601
23.0939 29.4971 1.0307
21.4176 29.4778 1.0033
19.8294 29.4605 0.9786
18.3179 29.4440 0.9564
16.8740 29.4283 0.9364
15.4898 29.4132 0.9185
14.1459 29.3728 0.9016
12.9542 29.5689 0.8936
12.9208 32.6323 0.9725
10.0445 28.2955 0.8328
8.9106 28.2831 0.8233
2.2197 8.0421 0.2319
6.7181 28.2592 0.8081
5.6524 28.2476 0.8023
4.6029 28.2362 0.7976
3.5663 28.2249 0.7940
2.5376 28.1879 0.7908
1.5170 28.1273 0.7879
0.5068 28.1915 0.7895
-0.5097 28.4305 0.7971
-1.5313 28.4194 0.7987
-2.5561 28.4082 0.8014
-3.5867 28.3970 0.8051
-4.6258 28.3857 0.8098
-5.6764 28.3743 0.8157
-6.7413 28.3627 0.8227
-7.8165 28.3252 0.8302
-8.9267 28.3389 0.8404
-10.5877 29.8301 0.8963
-9.8897 24.9802 0.7616
-10.2471 23.3925 0.7247
-10.2487 21.2830 0.6710
-10.0816 19.1457 0.6153
-10.8607 18.9430 0.6216
-11.1238 17.8820 0.6001
-11.1931 16.6310 0.5718
-11.9530 16.4526 0.5807
-12.4185 15.8630 0.5758
-13.2705 15.7519 0.5893
-12.8616 14.1991 0.5486
-21.8279 22.4246 0.8969
-22.1673 21.1949 0.8798
-22.3468 19.8811 0.8588
-12.3959 10.2552 0.4623
-12.4378 9.5590 0.4511
-12.7667 9.1020 0.4513
-11.2205 7.4069 0.3873
-10.1690 6.2005 0.3433
-10.3273 5.7990 0.3416
-10.5658 5.4436 0.3431
-10.9537 5.1546 0.3496
-11.3721 4.8608 0.3574
-11.7612 4.5351 0.3645
-12.1569 4.1929 0.3721
-11.3165 3.4538 0.3425
-11.0172 2.9345 0.3302
-11.1498 2.5450 0.3313
-7.4193 1.4154 0.2189
-13.6587 2.1006 0.4007
-11.8183 1.3854 0.3451
-11.5936 0.9387 0.3374
-11.5682 0.5196 0.3360
-11.5515 0.1037 0.3353
-10.8032 -0.2909 0.3137
-10.6308 -0.6688 0.3092
-8.9022 -0.8818 0.2597
-8.5498 -1.1581 0.2505
-8.2211 -1.4158 0.2422
-9.0828 -1.9022 0.2694
-8.9497 -2.2125 0.2677
-9.1712 -2.6199 0.2769
-9.1403 -2.9699 0.2790
-9.7175 -3.5479 0.3002
-9.5809 -3.8933 0.3001
-10.2373 -4.5948 0.3255
-10.6740 -5.2590 0.3451
-10.3465 -5.5678 0.3406
-10.1136 -5.9202 0.3396
-10.1182 -6.4213 0.3471
-13.7891 -9.4621 0.4842
-13.8823 -10.2780 0.4999
-13.0944 -10.4427 0.4844
-12.5193 -10.7414 0.4769
-11.9313 -11.0047 0.4689
-11.4356 -11.3337 0.4649
-10.9888 -11.7023 0.4632
-10.6693 -12.2124 0.4676
-10.3406 -12.7311 0.4726
-9.7988 -12.9904 0.4685
-9.3821 -13.4137 0.4709
-6.6289 -10.2415 0.3507
-9.6204 -16.1026 0.5388
-10.2934 -18.7244 0.6132
-9.8235 -19.4966 0.6260
-10.1266 -22.0325 0.6947
-10.2495 -24.5899 0.7624
-9.9759 -26.5825 0.8118
-10.2379 -30.5747 0.9211
-9.4646 -32.0428 0.9535
-9.4353 -36.7515 1.0818
-8.7492 -39.9879 1.1658
-8.6400 -47.6163 1.3769
-9.0140 -62.3432 1.7903
-8.0800 -74.7416 2.1344
-5.6555 -78.6509 2.2363
-2.8333 -78.9336 2.2376
0.0019 -43.9994 2.2376
1.5823 -43.9981 2.2376
2.0327 -28.2409 1.4381
4.5224 -41.8064 2.1345
6.0891 -42.0935 2.1576
7.6009 -41.8739 2.1576
2.1272 -9.7191 0.5041
2.0453 -7.9644 0.4164
11.4847 -38.8723 2.0511
12.7851 -38.1734 2.0359
13.9386 -37.1344 2.0047
14.9957 -35.9700 1.9684
16.0921 -35.0058 1.9448
16.7432 -33.2247 1.8770
18.3590 -33.3917 1.9213
19.3605 -32.4011 1.9019
19.7626 -30.5290 1.8315
19.2720 -27.5502 1.6922
18.9396 -25.1057 1.5820
19.0557 -23.4582 1.5195
19.4711 -22.2847 1.4870
13.8038 -14.6985 1.0127
20.7510 -20.5641 1.4665
21.1067 -19.4656 1.4405
21.5475 -18.4859 1.4237
22.0047 -17.5470 1.4107
22.1960 -16.4316 1.3836
20.4235 -14.0133 1.2404
20.1259 -12.7714 1.1931
20.2087 -11.8285 1.1716
20.5143 -11.0385 1.1652
20.9771 -10.3343 1.1692
21.6767 -9.7282 1.1875
25.9978 -10.5635 1.4020
23.8505 -8.7072 1.2681
25.4344 -8.2636 1.3353
22.8762 -6.5345 1.1876
27.0825 -6.6946 1.3922
33.8328 -7.0851 1.7246
18.3834 -3.1657 0.9305
17.9896 -2.4366 0.9054
15.9481 -1.5796 0.7991
17.5660 -1.1050 0.8775
19.3015 -0.5197 0.9625
19.6229 0.1763 0.9781
18.7110 0.8404 0.9335
16.5458 1.3396 0.8273
15.0810 1.7678 0.7567
16.8302 2.5883 0.8486
17.1102 3.2639 0.8680
16.7223 3.8167 0.8548
17.8287 4.7485 0.9195
17.6435 5.3844 0.9194
40.4785 13.9601 2.1344
41.8790 16.1473 2.2376
41.2666 17.6377 2.2376
40.6003 19.1044 2.2376
39.8810 20.5456 2.2376
39.1097 21.9594 2.2376
37.7387 23.0091 2.2055
35.6917 23.5590 2.1345
34.8138 24.8183 2.1345
8.6929 6.6803 0.5475
8.5021 7.0332 0.5512
8.3082 7.3909 0.5557
8.1109 7.7544 0.5609
8.1585 8.3808 0.5849
26.7572 29.5370 1.9938
24.8473 29.4904 1.9299
23.0945 29.4971 1.8757
21.4183 29.4778 1.8251
19.8301 29.4605 1.7796
18.3185 29.4441 1.7386
16.8746 29.4283 1.7016
15.4905 29.4133 1.6683
14.1465 29.3728 1.6369
12.9542 29.5676 1.6217
12.9208 32.6307 1.7640
10.0450 28.2955 1.5100
8.9111 28.2831 1.4921
2.2196 8.0412 0.4200
6.7187 28.2592 1.4633
5.6530 28.2476 1.4521
4.6034 28.2362 1.4429
3.5669 28.2249 1.4357
2.5382 28.1879 1.4291
1.5175 28.1273 1.4232
0.5074 28.1915 1.4255
-0.5092 28.4305 1.4385
-1.5308 28.4194 1.4407
-2.5555 28.4082 1.4447
-3.5861 28.3970 1.4507
-4.6252 28.3857 1.4586
-5.6758 28.3743 1.4684
-6.7407 28.3627 1.4803
-7.8159 28.3252 1.4930
-8.9261 28.3389 1.5105
-10.1977 28.7331 1.5511
-9.7342 24.5889 1.3462
-10.5717 24.1348 1.3420
-10.1984 21.1794 1.1980
-10.4470 19.8405 1.1434
-10.5635 18.4254 1.0837
-11.2411 18.0712 1.0865
-11.1090 16.5066 1.0164
-11.4583 15.7722 0.9964
-11.8261 15.1068 0.9811
-12.2057 14.4885 0.9693
-12.5535 13.8595 0.9573
-11.9402 12.2671 0.8768
-11.4300 10.9290 0.8104
-11.6504 10.3652 0.7995
-11.8303 9.7875 0.7876
-11.0358 8.4818 0.7143
-11.1289 7.9345 0.7017
-10.2236 6.7489 0.6292
-10.1254 6.1741 0.6094
-10.2658 5.7646 0.6052
-10.5430 5.4320 0.6099
-10.9010 5.1299 0.6197
-11.3345 4.8449 0.6343
-11.7264 4.5218 0.6469
-12.4487 4.2937 0.6780
-11.1173 3.3931 0.5987
-10.8474 2.8894 0.5783
-11.0893 2.5313 0.5861
-7.4180 1.4152 0.3892
-13.4337 2.0661 0.7007
-11.5145 1.3499 0.5978
-11.4299 0.9255 0.5914
-11.4271 0.5133 0.5900
-11.4252 0.1026 0.5894
-11.4043 -0.3071 0.5885
-10.5479 -0.6636 0.5452
-8.9145 -0.8830 0.4622
-8.5498 -1.1581 0.4451
-8.2316 -1.4176 0.4310
-9.0836 -1.9024 0.4788
-8.8796 -2.1952 0.4719
-9.5027 -2.7146 0.5098
-9.5012 -3.0872 0.5153
-9.6366 -3.5184 0.5291
-10.3988 -4.2257 0.5789
-10.2527 -4.6017 0.5795
-10.4824 -5.1647 0.6025
-10.1680 -5.4718 0.5952
-10.0106 -5.8600 0.5978
-10.0373 -6.3701 0.6125
-13.0425 -8.9499 0.8148
-11.0010 -8.1449 0.7049
-10.8495 -8.6526 0.7144
-10.8832 -9.3379 0.7380
-11.0169 -10.1615 0.7711
-11.2954 -11.1951 0.8179
-10.9702 -11.6827 0.8239
-10.6511 -12.1919 0.8320
-10.3504 -12.7435 0.8434
-9.7672 -12.9489 0.8329
-9.3166 -13.3205 0.8343
-9.1226 -14.0947 0.8614
-9.7237 -16.2760 0.9723
-10.0975 -18.3687 1.0744
-9.7566 -19.3645 1.1109
-9.9630 -21.6775 1.2216
-10.0267 -24.0565 1.3338
-9.8206 -26.1700 1.4297
-10.1752 -30.3894 1.6384
-9.5071 -32.1884 1.7149
-9.3881 -36.5705 1.9281
-6.3009 -28.8006 1.5047
-7.4697 -41.1713 2.1344
-6.0618 -41.9305 2.1598
-4.7196 -43.6652 2.2376
-3.1510 -43.8329 2.2376
-1.5765 -43.9444 2.2376
0.0019 -30.4587 2.2376
1.0958 -30.4520 2.2376
2.0883 -29.0052 2.1345
2.0835 -19.2565 1.4211
4.1675 -28.8055 2.1345
5.2011 -28.6497 2.1345
2.1399 -9.7763 0.7333
2.0452 -7.9634 0.6022
8.3509 -28.2632 2.1576
9.3641 -27.9572 2.1576
10.3660 -27.6147 2.1576
11.3554 -27.2364 2.1576
12.3309 -26.8225 2.1576
13.2913 -26.3736 2.1576
14.2087 -25.8418 2.1536
14.9808 -25.0703 2.1319
15.6428 -24.1638 2.1004
16.0803 -22.9866 2.0461
16.5570 -21.9466 2.0044
17.0309 -20.9648 1.9686
17.5541 -20.0901 1.9437
13.8484 -14.7455 1.4732
18.0277 -17.8648 1.8477
17.8624 -16.4730 1.7684
17.6757 -15.1637 1.6943
17.4296 -13.8983 1.6213
17.4595 -12.9249 1.5794
17.5473 -12.0395 1.5467
17.7485 -11.2625 1.5274
18.0373 -10.5573 1.5182
18.4271 -9.9152 1.5196
18.8521 -9.2872 1.5258
19.2972 -8.6601 1.5353
19.9422 -8.1027 1.5621
20.7223 -7.5650 1.6005
22.0287 -7.1569 1.6801
22.7011 -6.4843 1.7122
27.0565 -6.6879 2.0209
19.6251 -4.1096 1.4536
18.5726 -3.1981 1.3661
18.1698 -2.4609 1.3289
15.8340 -1.5682 1.1531
17.4281 -1.0962 1.2654
18.7294 -0.5043 1.3575
18.6107 0.1672 1.3484
18.0835 0.8123 1.3114
17.0015 1.3765 1.2357
15.2690 1.7899 1.1137
16.7902 2.5821 1.2306
17.2340 3.2875 1.2709
16.8414 3.8439 1.2514
17.7357 4.7237 1.3296
17.7729 5.4239 1.3462
28.1524 9.7090 2.1576
27.7835 10.7124 2.1576
27.0834 11.5755 2.1344
26.6474 12.5387 2.1344
26.1769 13.4854 2.1344
25.6723 14.4143 2.1344
26.3503 16.0654 2.2376
25.7522 16.9979 2.2376
25.1208 17.9080 2.2376
24.4569 18.7943 2.2376
8.4160 6.9618 0.7925
8.2235 7.3153 0.7988
8.0274 7.6744 0.8062
8.1548 8.3767 0.8489
20.6758 22.8232 2.2368
19.2203 22.8114 2.1672
18.1068 23.1260 2.1345
17.2593 23.7531 2.1344
16.3909 24.3505 2.1345
15.5013 24.9151 2.1345
14.5921 25.4469 2.1345
13.6646 25.9454 2.1345
12.7087 26.3863 2.1326
11.7491 26.8158 2.1326
10.7750 27.2101 2.1326
9.7877 27.5689 2.1326
8.7884 27.8918 2.1326
2.2195 8.0403 0.6085
6.7192 28.2593 2.1199
5.6535 28.2476 2.1033
4.6040 28.2362 2.0897
3.5674 28.2249 2.0789
2.5387 28.1879 2.0690
1.5181 28.1273 2.0601
0.5079 28.1916 2.0630
-0.5086 28.4305 2.0813
-1.5302 28.4194 2.0841
-2.5549 28.4082 2.0896
-3.5855 28.3970 2.0978
-4.6247 28.3857 2.1088
-5.6752 28.3743 2.1226
-6.7187 28.2727 2.1326
-7.7260 28.0013 2.1326
-8.7223 27.6940 2.1326
-9.7067 27.3514 2.1326
-10.6778 26.9740 2.1326
-11.6410 26.5774 2.1339
-10.1114 20.9998 1.7148
-10.3712 19.6974 1.6385
-11.1579 19.4630 1.6519
-11.9513 19.2138 1.6668
-11.7726 17.4933 1.5538
-11.2381 15.4698 1.4096
-11.5381 14.7394 1.3805
-11.7901 13.9957 1.3501
-7.2712 8.0279 0.7994
-11.3347 11.6454 1.1998
-11.3226 10.8266 1.1570
-11.5145 10.2447 1.1386
-11.6933 9.6745 1.1216
-10.8155 8.3127 1.0084
-10.4113 7.4231 0.9456
-10.1201 6.6808 0.8970
-10.1076 6.1634 0.8760
-10.2328 5.7463 0.8686
-10.3207 5.3176 0.8595
-10.5615 4.9703 0.8644
-11.1328 4.7588 0.8968
-11.6917 4.5085 0.9283
-11.3801 3.9252 0.8920
-11.0330 3.3675 0.8549
-10.8085 2.8791 0.8291
-11.0597 2.5246 0.8411
-7.4166 1.4150 0.5599
-12.1233 1.8647 0.9097
-11.3550 1.3312 0.8480
-11.3405 0.9183 0.8440
-11.3654 0.5106 0.8440
-11.3785 0.1023 0.8442
-11.3843 -0.3065 0.8450
-11.0357 -0.6942 0.8205
-11.3737 -1.1266 0.8481
-8.5725 -1.1612 0.6419
-9.2191 -1.5877 0.6942
-9.0118 -1.8874 0.6832
-8.8103 -2.1781 0.6734
-8.6141 -2.4608 0.6647
-9.3855 -3.0496 0.7322
-10.1995 -3.7240 0.8056
-10.7778 -4.3797 0.8630
-10.5324 -4.7273 0.8563
-10.2379 -5.0443 0.8465
-10.0622 -5.4150 0.8474
-9.9629 -5.8322 0.8560
-10.0003 -6.3468 0.8781
-10.1234 -6.9469 0.9100
-10.5524 -7.8129 0.9730
-10.4334 -8.3209 0.9888
-10.5623 -9.0627 1.0309
-10.7244 -9.8919 1.0805
-10.9170 -10.8202 1.1381
-10.9516 -11.6632 1.1843
-10.6547 -12.1963 1.1985
-10.3659 -12.7629 1.2164
-9.7753 -12.9600 1.2006
-9.3231 -13.3303 1.2027
-9.1646 -14.1601 1.2467
-9.8826 -16.5425 1.4238
-9.9378 -18.0789 1.5239
-9.7656 -19.3832 1.6027
-9.8494 -21.4311 1.7410
-9.9773 -23.9390 1.9136
-9.7752 -26.0504 2.0523
-6.3969 -19.1060 1.4856
-6.3682 -21.5625 1.6571
-7.2028 -28.0598 2.1344
-6.2138 -28.4052 2.1414
-5.4255 -29.9071 2.2376
-4.3502 -30.0949 2.2376
-3.2684 -30.2441 2.2376
-2.1815 -30.3546 2.2376
-1.0910 -30.4262 2.2376
0.0019 -23.2728 2.2376
0.8376 -23.2653 2.2376
1.6728 -23.2279 2.2376
2.2011 -20.3404 1.9651
3.1834 -22.0007 2.1345
3.9725 -21.8795 2.1345
2.1401 -9.7765 0.9603
2.0451 -7.9625 0.7886
6.3761 -21.5778 2.1576
7.1488 -21.3420 2.1576
7.9129 -21.0785 2.1576
8.6672 -20.7876 2.1576
9.4108 -20.4697 2.1576
10.1428 -20.1251 2.1576
10.8620 -19.7543 2.1576
11.5677 -19.3577 2.1576
12.2589 -18.9358 2.1576
12.9346 -18.4891 2.1576
13.5940 -18.0183 2.1576
14.2118 -17.4939 2.1539
14.7838 -16.9190 2.1465
15.0664 -16.0419 2.1020
15.1655 -15.0279 2.0386
15.1921 -14.0100 1.9727
15.2256 -13.0615 1.9144
15.2948 -12.1957 1.8664
15.4105 -11.4077 1.8289
13.2115 -9.0644 1.5279
15.8019 -10.0270 1.7843
16.0551 -9.3968 1.7732
16.3655 -8.8056 1.7711
16.6838 -8.2188 1.7721
17.0128 -7.6347 1.7764
17.4238 -7.0792 1.7913
17.8608 -6.5202 1.8107
18.3626 -5.9656 1.8384
18.9397 -5.4097 1.8752
19.6498 -4.8570 1.9267
19.4498 -4.0728 1.8913
18.7665 -3.2314 1.8122
18.3543 -2.4858 1.7625
17.9645 -1.7791 1.7177
17.2919 -1.0876 1.6484
18.9612 -0.5104 1.8045
17.8293 0.1603 1.6962
18.8202 0.8454 1.7921
17.4845 1.4157 1.6686
15.4623 1.8126 1.4808
16.7503 2.5760 1.6120
17.3600 3.3116 1.6810
16.9627 3.8715 1.6550
17.6433 4.6991 1.7368
17.9047 5.4640 1.7808
21.4408 7.3943 2.1576
21.1603 8.1586 2.1576
20.8523 8.9122 2.1576
20.5172 9.6540 2.1576
20.1555 10.3832 2.1576
19.5547 10.9792 2.1344
19.1457 11.6726 2.1344
18.7119 12.3507 2.1344
18.2540 13.0125 2.1344
17.7737 13.6583 2.1345
8.3314 6.8917 1.0298
8.1402 7.2411 1.0378
16.9762 16.2294 2.2376
8.1510 8.3727 1.1135
15.7619 17.3985 2.2376
15.1240 17.9492 2.2376
14.4668 18.4764 2.2376
13.7910 18.9794 2.2376
13.0978 19.4575 2.2376
12.3879 19.9102 2.2376
11.6623 20.3369 2.2376
10.9219 20.7369 2.2376
10.1678 21.1099 2.2376
9.4009 21.4553 2.2376
8.6223 21.7728 2.2376
7.8329 22.0619 2.2376
7.0341 22.3229 2.2377
2.2194 8.0394 0.7976
5.3765 22.6103 2.2233
4.5155 22.5595 2.2016
3.6712 22.5128 2.1835
2.8222 22.3258 2.1548
1.9994 22.1945 2.1345
1.2010 22.2448 2.1345
0.4016 22.2663 2.1345
-0.3978 22.2591 2.1345
-1.1961 22.2232 2.1345
-1.9924 22.1586 2.1345
-2.7856 22.0655 2.1345
-3.5772 21.9590 2.1360
-4.3650 21.8257 2.1376
-5.1475 21.6628 2.1391
-5.9221 21.4653 2.1399
-6.7107 21.3084 2.1476
-7.4689 21.0469 2.1476
-8.2169 20.7585 2.1476
-8.9539 20.4436 2.1476
-9.6789 20.1026 2.1476
-10.3910 19.7360 2.1476
-11.1147 19.3885 2.1525
-12.0231 19.3300 2.1932
-13.3679 19.8647 2.3076
-11.1854 15.3978 1.8348
-11.3594 14.5117 1.7772
-11.5401 13.6993 1.7278
-7.2690 8.0258 1.0448
-11.1790 11.4858 1.5469
-11.3126 10.8174 1.5111
-11.4567 10.1935 1.4808
-11.6223 9.6161 1.4570
-10.7746 8.2815 1.3129
-10.1411 7.2307 1.2036
-10.0466 6.6325 1.1636
-10.0647 6.1374 1.1397
-10.1313 5.6894 1.1236
-10.1760 5.2432 1.1072
-10.3350 4.8638 1.1049
-10.8178 4.6243 1.1383
-11.5796 4.4654 1.2010
-11.3953 3.9306 1.1667
-11.1597 3.4062 1.1295
-10.9330 2.9124 1.0954
-11.0151 2.5145 1.0940
-7.4153 1.4148 0.7310
-11.9452 1.8373 1.1705
-11.3512 1.3308 1.1070
-11.3578 0.9198 1.1038
-11.4139 0.5128 1.1068
-11.4874 0.1033 1.1129
-11.5551 -0.3111 1.1199
-11.2509 -0.7078 1.0922
-10.7424 -1.0641 1.0459
-9.6983 -1.3137 0.9483
-9.1453 -1.5750 0.8991
-8.9408 -1.8725 0.8851
-8.7414 -2.1610 0.8724
-8.5481 -2.4420 0.8613
-10.6975 -3.4760 1.0897
-11.0743 -4.0434 1.1421
-10.6900 -4.3441 1.1178
-10.3731 -4.6559 1.1013
-10.1442 -4.9982 1.0953
-9.9735 -5.3673 1.0968
-9.9052 -5.7985 1.1114
-9.9549 -6.3181 1.1416
-9.9890 -6.8548 1.1728
-10.2543 -7.5924 1.2350
-10.2684 -8.1895 1.2711
-10.4045 -8.9276 1.3266
-10.6363 -9.8109 1.3999
-11.0439 -10.9463 1.5040
-10.9548 -11.6669 1.5477
-10.6538 -12.1956 1.5657
-10.3640 -12.7609 1.5891
-9.7795 -12.9659 1.5696
-9.3399 -13.3547 1.5746
-9.2232 -14.2511 1.6398
-9.0920 -15.2198 1.7122
-9.7328 -17.7066 1.9508
-6.7112 -13.3212 1.4398
-6.4551 -14.0461 1.4917
-6.4454 -15.4654 1.6164
-7.7745 -20.7197 2.1344
-6.6220 -19.7796 2.0111
-6.2912 -21.3033 2.1411
-5.7732 -22.4922 2.2376
-4.9635 -22.6919 2.2376
-4.1471 -22.8625 2.2376
-3.3247 -23.0038 2.2376
-2.4976 -23.1157 2.2376
-1.6667 -23.1979 2.2376
-0.8332 -23.2503 2.2376
0.0019 -18.8147 2.2376
0.6775 -18.8075 2.2376
1.3525 -18.7761 2.2376
1.9329 -17.8580 2.1345
2.5733 -17.7819 2.1345
3.2108 -17.6828 2.1345
2.1404 -9.7766 1.1883
2.0450 -7.9615 0.9758
5.0973 -17.2490 2.1345
5.7147 -17.0595 2.1345
6.3935 -17.0300 2.1576
7.0025 -16.7940 2.1576
7.6028 -16.5362 2.1576
8.1936 -16.2568 2.1576
8.7741 -15.9563 2.1576
9.3436 -15.6350 2.1576
9.9012 -15.2934 2.1576
10.4464 -14.9318 2.1576
10.9782 -14.5507 2.1576
11.4962 -14.1506 2.1576
11.9994 -13.7320 2.1576
12.4309 -13.2353 2.1478
12.7512 -12.6351 2.1229
13.0399 -12.0249 2.0973
13.3086 -11.4165 2.0728
13.5508 -10.8047 2.0483
12.7931 -9.4698 1.8808
12.9968 -8.9168 1.8621
14.2295 -9.0289 1.9906
14.4701 -8.4689 1.9801
14.7256 -7.9230 1.9745
14.9930 -7.3856 1.9732
15.2774 -6.8557 1.9766
15.5929 -6.3352 1.9864
15.9541 -5.8239 2.0042
16.3214 -5.3023 2.0249
16.7197 -4.7755 2.0515
17.1035 -4.2274 2.0784
17.4707 -3.6582 2.1054
17.7872 -3.0626 2.1288
18.0433 -2.4436 2.1474
18.1448 -1.7969 2.1502
17.1573 -1.0791 2.0271
17.5890 -0.4734 2.0747
18.2986 0.1645 2.1576
17.5697 0.7893 2.0736
17.0087 1.3772 2.0119
15.6615 1.8359 1.8591
16.7104 2.5699 1.9932
17.9767 3.4292 2.1576
17.0862 3.8997 2.0662
17.5516 4.6746 2.1415
17.5028 5.3413 2.1576
16.6288 5.7347 2.0740
17.0729 6.5826 2.1576
16.8246 7.1907 2.1576
16.5545 7.7894 2.1576
16.2630 8.3779 2.1576
15.9504 8.9554 2.1576
15.6172 9.5212 2.1576
15.2637 10.0746 2.1576
14.8906 10.6147 2.1576
14.3431 11.0217 2.1345
13.9364 11.5279 2.1345
13.5117 12.0190 2.1345
13.0697 12.4944 2.1345
8.1473 8.3686 1.3790
12.1357 13.3955 2.1345
11.6451 13.8201 2.1345
11.1395 14.2266 2.1345
10.6197 14.6146 2.1345
10.5735 15.7070 2.2376
10.0009 16.0732 2.2376
9.4156 16.4184 2.2376
8.8183 16.7422 2.2376
8.2099 17.0443 2.2376
7.5911 17.3241 2.2376
6.9643 17.5852 2.2381
6.3291 17.8252 2.2388
5.6853 18.0412 2.2394
2.2193 8.0384 0.9875
4.3767 18.4041 2.2406
3.7120 18.5431 2.2405
3.0429 18.6580 2.2403
2.3704 18.7485 2.2400
1.6953 18.8147 2.2398
1.0184 18.8562 2.2395
0.3408 18.8731 2.2392
-0.3368 18.8659 2.2390
-1.0133 18.8339 2.2386
-1.6881 18.7778 2.2383
-2.3601 18.6978 2.2381
-3.0285 18.5935 2.2378
-3.6733 18.3693 2.2258
-4.2075 17.7087 2.1633
-4.7884 17.3574 2.1406
-5.3917 17.1212 2.1345
-6.0012 16.9121 2.1345
-6.6027 16.6814 2.1345
-7.1953 16.4294 2.1345
-7.7785 16.1563 2.1345
-8.3513 15.8626 2.1345
-8.9131 15.5486 2.1345
-9.4631 15.2149 2.1345
-10.0008 14.8617 2.1345
-11.2515 15.4894 2.2818
-11.3335 14.4792 2.1921
-11.4208 13.5582 2.1139
-7.2669 8.0237 1.2911
-10.8754 11.1742 1.8602
-11.2724 10.7793 1.8611
-11.5190 10.2493 1.8402
-10.6832 8.8394 1.6552
-10.2335 7.8658 1.5411
-10.0369 7.1566 1.4721
-10.0590 6.6409 1.4397
-10.0140 6.1066 1.4012
-10.0181 5.6260 1.3728
-10.0676 5.1875 1.3534
-10.2513 4.8246 1.3542
-10.6829 4.5668 1.3888
-11.4685 4.4227 1.4695
-11.4858 3.9619 1.4528
-11.3101 3.4522 1.4141
-11.1661 2.9746 1.3820
-11.0919 2.5321 1.3608
-7.4139 1.4146 0.9029
-11.9378 1.8363 1.4449
-11.3961 1.3362 1.3728
-11.4343 0.9260 1.3726
-11.5376 0.5184 1.3820
-11.6327 0.1046 1.3921
-11.7113 -0.3153 1.4020
-11.7900 -0.7416 1.4137
-11.8930 -1.1780 1.4303
-11.5439 -1.5637 1.3941
-9.0725 -1.5624 1.1017
-8.8707 -1.8578 1.0846
-9.5928 -2.3715 1.1826
-9.3815 -2.6801 1.1676
-11.3867 -3.7000 1.4327
-11.2614 -4.1118 1.4346
-10.4997 -4.2668 1.3561
-10.2178 -4.5862 1.3400
-10.0171 -4.9356 1.3360
-9.9420 -5.3504 1.3506
-9.9133 -5.8033 1.3740
-9.8775 -6.2690 1.3992
-9.8612 -6.7672 1.4303
-10.0186 -7.4180 1.4906
-10.2478 -8.1732 1.5672
-10.4877 -8.9991 1.6520
-10.9161 -10.0692 1.7751
-11.4009 -11.3004 1.9184
-11.1215 -11.8447 1.9415
-10.6248 -12.1627 1.9294
-10.3174 -12.7038 1.9549
-9.7930 -12.9843 1.9423
-9.4105 -13.4560 1.9607
-9.2968 -14.3652 2.0428
-9.1703 -15.3513 2.1344
-8.6151 -15.6739 2.1344
-6.7109 -13.3212 1.7796
-6.6303 -14.4282 1.8941
-6.6065 -15.8528 2.0481
-6.3368 -16.8891 2.1507
-5.9592 -17.8008 2.2376
-5.3176 -18.0076 2.2376
-4.6689 -18.1913 2.2376
-4.0138 -18.3517 2.2376
-3.3533 -18.4886 2.2376
-2.6881 -18.6018 2.2376
-2.0192 -18.6911 2.2376
-1.3473 -18.7564 2.2376
-0.6733 -18.7976 2.2376
0.0019 -15.7764 2.2376
0.5684 -15.7697 2.2376
1.1344 -15.7427 2.2376
1.6991 -15.6953 2.2376
2.1577 -14.9078 2.1345
2.6921 -14.8241 2.1345
2.1406 -9.7768 1.4176
2.0450 -7.9605 1.1639
4.2730 -14.4586 2.1345
4.7903 -14.2991 2.1345
5.3017 -14.1211 2.1345
5.8693 -14.0754 2.1576
6.3721 -13.8587 2.1576
6.8670 -13.6240 2.1576
7.3532 -13.3716 2.1576
7.8301 -13.1019 2.1576
8.2971 -12.8151 2.1576
8.7535 -12.5116 2.1576
9.1988 -12.1918 2.1576
9.6324 -11.8561 2.1576
10.0538 -11.5050 2.1576
10.4622 -11.1388 2.1576
10.8573 -10.7581 2.1576
11.2385 -10.3634 2.1576
11.5881 -9.9403 2.1544
11.8847 -9.4759 2.1445
12.1947 -9.0266 2.1402
12.4906 -8.5692 2.1364
12.7768 -8.1069 2.1339
13.0490 -7.6369 2.1318
13.3084 -7.1603 2.1305
13.5504 -6.6748 2.1292
13.8010 -6.1930 2.1320
14.0311 -5.7005 2.1343
14.2648 -5.2071 2.1398
14.4897 -4.7071 2.1465
14.6842 -4.1939 2.1514
14.8458 -3.6693 2.1542
14.9897 -3.1386 2.1571
15.0971 -2.5994 2.1576
15.1818 -2.0560 2.1576
15.2467 -1.5098 2.1576
15.2919 -0.9617 2.1576
15.3173 -0.4122 2.1576
15.3228 0.1378 2.1576
15.3085 0.6877 2.1576
15.2743 1.2367 2.1576
15.2202 1.7842 2.1576
15.1465 2.3293 2.1576
15.0531 2.8715 2.1576
14.9402 3.4099 2.1576
14.8079 3.9438 2.1576
14.6564 4.4726 2.1576
14.4859 4.9956 2.1576
14.2966 5.5121 2.1576
14.0889 6.0214 2.1576
13.8629 6.5228 2.1576
13.6189 7.0157 2.1576
13.3573 7.4994 2.1576
13.0785 7.9733 2.1576
12.7827 8.4369 2.1576
12.4704 8.8893 2.1576
12.1421 9.3302 2.1576
11.7981 9.7589 2.1576
11.4388 10.1749 2.1576
11.0649 10.5776 2.1576
8.1435 8.3646 1.6457
10.1648 11.2197 2.1345
9.7541 11.5756 2.1345
9.3309 11.9165 2.1345
8.8958 12.2418 2.1345
8.4493 12.5511 2.1345
7.9920 12.8441 2.1345
7.5245 13.1205 2.1345
7.0475 13.3797 2.1345
6.5615 13.6215 2.1345
6.0672 13.8456 2.1345
5.5652 14.0518 2.1345
5.3016 14.9306 2.2381
4.7618 15.1098 2.2383
2.2192 8.0375 1.1783
3.6648 15.4094 2.2388
3.1090 15.5293 2.2390
2.5493 15.6294 2.2393
1.9865 15.7092 2.2395
1.4211 15.7688 2.2398
0.8541 15.8081 2.2401
0.2861 15.8269 2.2403
-0.2822 15.8254 2.2406
-0.8498 15.8002 2.2404
-1.4159 15.7537 2.2401
-1.9798 15.6870 2.2398
-2.5406 15.6000 2.2395
-3.0978 15.4929 2.2391
-3.6506 15.3660 2.2388
-4.1983 15.2194 2.2385
-4.7401 15.0532 2.2382
-5.2754 14.8678 2.2378
-5.8039 14.6642 2.2376
-6.1202 13.9751 2.1651
-6.5283 13.5604 2.1363
-7.0037 13.3036 2.1345
-7.4752 13.0408 2.1345
-7.9368 12.7614 2.1345
-8.3881 12.4656 2.1345
-8.8284 12.1540 2.1345
-9.2571 11.8269 2.1345
-9.6738 11.4847 2.1345
-7.1873 7.9361 1.5223
-10.4689 10.7569 2.1345
-10.9045 10.4278 2.1459
-10.9666 9.7581 2.0882
-10.8147 8.9484 1.9971
-9.9309 7.6335 1.7824
-9.9754 7.1129 1.7437
-10.0584 6.6407 1.7157
-9.9706 6.0804 1.6626
-9.9528 5.5895 1.6254
-10.0237 5.1650 1.6058
-10.1922 4.7970 1.6044
-10.6858 4.5681 1.6554
-11.3593 4.3807 1.7344
-11.6374 4.0143 1.7540
-11.2671 3.4392 1.6786
-11.1690 2.9754 1.6472
-11.1820 2.5528 1.6347
-7.4126 1.4144 1.0756
-11.9624 1.8401 1.7252
-11.4671 1.3446 1.6458
-11.4869 0.9303 1.6429
-11.5391 0.5185 1.6467
-11.5847 0.1042 1.6517
-11.6706 -0.3142 1.6646
-11.7585 -0.7396 1.6799
-11.7107 -1.1600 1.6779
-11.7989 -1.5982 1.6977
-9.0004 -1.5500 1.3022
-9.7472 -2.0414 1.4200
-9.5328 -2.3567 1.4001
-11.8118 -3.3744 1.7515
-11.5776 -3.7620 1.7356
-10.8228 -3.9517 1.6426
-10.2846 -4.1795 1.5826
-10.0622 -4.5165 1.5723
-9.9047 -4.8803 1.5739
-9.8736 -5.3137 1.5982
-9.9193 -5.8069 1.6382
-9.8418 -6.2465 1.6612
-9.8029 -6.7273 1.6942
-9.9869 -7.3946 1.7706
-10.3289 -8.2380 1.8823
-10.7000 -9.1815 2.0085
-10.7276 -9.8956 2.0788
-10.7196 -10.6253 2.1496
-10.2595 -10.9270 2.1344
-9.8620 -11.2898 2.1344
-6.6623 -8.2035 1.5044
-9.0292 -11.9719 2.1344
-8.5950 -12.2903 2.1344
-8.1496 -12.5930 2.1344
-7.6936 -12.8797 2.1344
-7.2275 -13.1499 2.1344
-6.7107 -13.3212 2.1213
-6.3656 -13.8526 2.1677
-6.0544 -14.5288 2.2376
-5.5301 -14.7396 2.2376
-4.9984 -14.9316 2.2376
-4.4600 -15.1045 2.2376
-3.9157 -15.2580 2.2376
-3.3662 -15.3919 2.2376
-2.8121 -15.5061 2.2376
-2.2541 -15.6005 2.2376
-1.6930 -15.6747 2.2376
-1.1295 -15.7289 2.2376
-0.5643 -15.7627 2.2376
0.0019 -13.5708 2.2376
0.4892 -13.5646 2.2376
0.9760 -13.5410 2.2376
1.4617 -13.4999 2.2376
1.8650 -12.8838 2.1448
2.3156 -12.7497 2.1345
2.1409 -9.7769 1.6483
2.0449 -7.9595 1.3532
3.6750 -12.4342 2.1345
4.1198 -12.2966 2.1345
4.5594 -12.1432 2.1345
4.9933 -11.9740 2.1345
5.4209 -11.7893 2.1345
5.9049 -11.7147 2.1576
6.3228 -11.4973 2.1576
6.7326 -11.2650 2.1576
7.1339 -11.0181 2.1576
7.5262 -10.7569 2.1576
7.9088 -10.4816 2.1576
8.2814 -10.1928 2.1576
8.6433 -9.8906 2.1576
8.9943 -9.5756 2.1576
9.3337 -9.2481 2.1576
9.6611 -8.9085 2.1576
9.9762 -8.5573 2.1576
10.2784 -8.1950 2.1576
10.5674 -7.8219 2.1576
10.8429 -7.4386 2.1576
11.1044 -7.0456 2.1576
11.3516 -6.6433 2.1576
11.5841 -6.2324 2.1576
11.8017 -5.8133 2.1576
12.0041 -5.3865 2.1576
12.1910 -4.9527 2.1576
12.3621 -4.5124 2.1576
12.5173 -4.0662 2.1576
12.6563 -3.6146 2.1576
12.7789 -3.1583 2.1576
12.8850 -2.6978 2.1576
12.9743 -2.2338 2.1576
13.0469 -1.7668 2.1576
13.1027 -1.2974 2.1576
13.1414 -0.8264 2.1576
13.1631 -0.3542 2.1576
13.1678 0.1185 2.1576
13.1554 0.5910 2.1576
13.1260 1.0628 2.1576
13.0795 1.5333 2.1576
13.0161 2.0017 2.1576
12.9359 2.4676 2.1576
12.8389 2.9303 2.1576
12.7252 3.3891 2.1576
12.5951 3.8436 2.1576
12.4487 4.2930 2.1576
12.2861 4.7369 2.1576
12.1076 5.1745 2.1576
11.9135 5.6055 2.1576
11.7039 6.0291 2.1576
11.4793 6.4449 2.1576
11.2398 6.8523 2.1576
10.9858 7.2507 2.1576
10.7175 7.6397 2.1576
10.4355 8.0187 2.1576
10.1400 8.3873 2.1576
9.8314 8.7449 2.1576
9.5101 9.0911 2.1576
8.1397 8.3605 1.9138
8.8314 9.7477 2.1576
8.4748 10.0571 2.1576
