ply
format ascii 1.0
element vertex 2165
property float32 x
property float32 y
property float32 z
end_header
-3.6062 -16.5002 2.2314
-3.0137 -16.6267 2.2314
-2.4166 -16.7303 2.2314
-1.8158 -16.8109 2.2314
-1.2122 -16.8684 2.2314
-0.6068 -16.9025 2.2314
-0.0004 -14.4040 2.2314
0.5158 -14.3935 2.2314
1.0312 -14.3634 2.2314
1.5449 -14.3137 2.2314
1.9613 -13.5863 2.1283
1.8010 -9.9417 1.5671
1.8948 -8.6741 1.3778
3.4034 -13.2779 2.1283
3.8746 -13.1389 2.1283
4.3400 -12.9822 2.1283
4.7987 -12.8081 2.1283
5.2501 -12.6169 2.1283
5.7554 -12.5435 2.1514
6.1950 -12.3165 2.1514
6.6254 -12.0734 2.1514
7.0458 -11.8145 2.1514
7.4557 -11.5401 2.1514
7.8544 -11.2509 2.1514
8.2416 -10.9473 2.1514
8.6166 -10.6297 2.1514
8.9789 -10.2987 2.1514
9.3281 -9.9549 2.1514
9.6637 -9.5988 2.1514
9.9853 -9.2310 2.1514
10.2925 -8.8520 2.1514
10.5848 -8.4624 2.1514
10.8622 -8.0630 2.1514
11.1240 -7.6543 2.1514
11.3701 -7.2369 2.1514
11.5942 -6.8079 2.1503
11.8080 -6.3752 2.1503
12.0116 -5.9390 2.1514
12.1925 -5.4932 2.1514
12.3566 -5.0421 2.1514
12.5038 -4.5861 2.1514
12.6340 -4.1260 2.1514
12.1634 -3.4946 2.0529
12.8433 -3.1958 2.1514
12.9222 -2.7271 2.1514
12.9840 -2.2568 2.1514
13.0287 -1.7856 2.1514
13.0434 -1.3127 2.1493
2.0176 -0.1301 0.3322
1.9864 -0.0566 0.3272
13.0106 0.0962 2.1469
11.2633 0.4880 1.8643
12.8984 1.0238 2.1442
12.8323 1.4838 2.1452
12.7514 1.9406 2.1464
12.6558 2.3938 2.1479
12.5507 2.8442 2.1505
12.4204 3.2878 2.1514
12.2695 3.7242 2.1514
12.1037 4.1541 2.1514
11.9233 4.5771 2.1514
11.7286 4.9928 2.1514
11.5198 5.4006 2.1514
11.2974 5.8001 2.1514
11.0616 6.1910 2.1514
10.8128 6.5727 2.1514
10.5513 6.9448 2.1514
10.2776 7.3071 2.1514
9.9920 7.6590 2.1514
9.6948 8.0003 2.1514
9.3866 8.3307 2.1514
9.0676 8.6497 2.1514
8.7384 8.9571 2.1514
8.3992 9.2525 2.1514
8.0506 9.5358 2.1514
7.6929 9.8066 2.1514
7.3266 10.0646 2.1514
6.9522 10.3096 2.1514
6.5700 10.5415 2.1514
6.1805 10.7599 2.1514
5.7843 10.9647 2.1514
5.3238 11.0359 2.1283
4.9196 11.2110 2.1283
4.5100 11.3721 2.1283
4.0955 11.5190 2.1283
3.6765 11.6517 2.1283
3.2534 11.7700 2.1283
2.8268 11.8738 2.1283
2.3971 11.9630 2.1283
1.9648 12.0375 2.1283
1.5446 12.2096 2.1480
1.1472 12.7305 2.2314
0.6887 12.7622 2.2314
0.2294 12.7782 2.2314
-0.2302 12.7787 2.2314
-0.6896 12.7636 2.2314
-1.1482 12.7329 2.2314
-1.6057 12.6867 2.2314
-2.0615 12.6249 2.2314
-2.5151 12.5477 2.2314
-2.9660 12.4550 2.2314
-3.4137 12.3471 2.2314
-3.8578 12.2239 2.2314
-4.2977 12.0855 2.2314
-4.7329 11.9322 2.2314
-5.1631 11.7640 2.2314
-5.5876 11.5811 2.2314
-6.0060 11.3836 2.2314
-6.4179 11.1718 2.2314
-6.5169 10.4551 2.1314
-6.8859 10.2103 2.1281
-7.2572 9.9683 2.1281
-6.8551 8.7377 1.9144
-7.9752 9.4457 2.1281
-6.5951 7.2645 1.6867
-6.5940 6.7585 1.6209
-6.6173 6.3118 1.5675
-6.6048 5.8614 1.5113
-6.5861 5.4345 1.4590
-6.5939 5.0540 1.4172
-6.7082 4.7690 1.4017
-10.1141 6.6567 2.0584
-10.1446 6.1662 2.0146
-9.9312 5.5580 1.9278
-9.7947 5.0284 1.8615
-9.8472 4.6162 1.8353
-9.9229 4.2239 1.8164
-9.9433 3.8168 1.7904
-9.8427 3.3779 1.7458
-9.8491 2.9893 1.7233
-9.9138 2.6241 1.7135
-10.0575 2.2791 1.7195
-10.0861 1.9077 1.7080
-9.9999 1.5218 1.6795
-9.9154 1.1465 1.6538
-9.8444 0.7814 1.6328
-10.0791 0.4367 1.6645
-10.5170 0.0778 1.7315
-10.4521 -0.2980 1.7178
-10.2015 -0.6579 1.6757
-10.0901 -1.0154 1.6588
-10.0178 -1.3729 1.6504
-9.9457 -1.7286 1.6442
-9.9410 -2.0978 1.6513
-9.9809 -2.4834 1.6681
-10.0179 -2.8780 1.6869
-10.0227 -3.2730 1.7029
-10.0268 -3.6773 1.7214
-10.1286 -4.1327 1.7596
-10.1247 -4.5613 1.7827
-10.1028 -4.9948 1.8056
-10.1117 -5.4590 1.8375
-10.1188 -5.9411 1.8728
-10.2687 -6.5354 1.9390
-10.3726 -7.1367 2.0021
-10.2190 -7.5850 2.0201
-9.9907 -7.9868 2.0268
-9.9103 -8.5226 2.0677
-6.5752 -6.0780 1.4141
-6.5628 -6.5182 1.4585
-6.5819 -7.0235 1.5155
-6.5887 -7.5564 1.5761
-6.5598 -8.0916 1.6353
-8.1648 -10.8442 2.1281
-6.9444 -9.9462 1.8994
-7.3853 -11.4299 2.1281
-6.9788 -11.7008 2.1281
-6.5620 -11.9564 2.1281
-6.4331 -12.7880 2.2314
-5.9761 -13.0226 2.2314
-5.5103 -13.2400 2.2314
-5.0362 -13.4396 2.2314
-4.5544 -13.6212 2.2314
-4.0659 -13.7845 2.2314
-3.5712 -13.9292 2.2314
-3.0711 -14.0550 2.2314
-2.5664 -14.1618 2.2314
-2.0579 -14.2493 2.2314
-1.5462 -14.3173 2.2314
-1.0322 -14.3658 2.2314
-0.5167 -14.3947 2.2314
-0.0004 -12.5316 2.2314
0.4486 -12.5227 2.2314
0.8969 -12.4967 2.2314
1.3438 -12.4539 2.2314
1.7061 -11.8216 2.1283
2.0606 -11.3775 2.0611
1.7696 -8.1031 1.4791
2.9611 -11.5554 2.1283
3.3714 -11.4354 2.1283
3.7767 -11.3001 2.1283
4.1763 -11.1497 2.1283
4.5697 -10.9844 2.1283
4.9563 -10.8047 2.1283
5.3356 -10.6106 2.1283
5.7689 -10.5155 2.1514
6.1359 -10.2915 2.1514
6.4938 -10.0542 2.1514
6.8423 -9.8038 2.1514
7.1808 -9.5409 2.1514
7.5089 -9.2659 2.1514
7.8260 -8.9791 2.1514
8.1320 -8.6811 2.1514
8.4262 -8.3723 2.1514
8.7084 -8.0532 2.1514
8.9782 -7.7243 2.1514
9.2353 -7.3861 2.1514
9.4793 -7.0392 2.1514
9.7100 -6.6840 2.1514
9.9271 -6.3211 2.1514
10.1304 -5.9510 2.1514
10.3197 -5.5743 2.1514
10.4947 -5.1916 2.1514
10.6554 -4.8033 2.1514
10.8015 -4.4101 2.1514
10.9329 -4.0125 2.1514
11.0496 -3.6111 2.1514
11.1515 -3.2065 2.1514
11.2384 -2.7991 2.1514
11.3104 -2.3895 2.1514
11.3674 -1.9784 2.1514
11.4095 -1.5662 2.1514
11.4367 -1.1536 2.1514
2.0182 -0.1306 0.3792
1.9860 -0.0571 0.3733
11.4292 0.0820 2.1514
11.2520 0.4850 2.1239
11.3510 0.8984 2.1514
11.2903 1.3029 2.1514
11.2154 1.7043 2.1514
11.1264 2.1020 2.1514
11.0236 2.4957 2.1514
10.9071 2.8847 2.1514
10.7772 3.2687 2.1514
10.6341 3.6472 2.1514
10.4780 4.0198 2.1514
10.3092 4.3861 2.1514
10.1280 4.7456 2.1514
9.9346 5.0980 2.1514
9.7293 5.4429 2.1514
9.5124 5.7798 2.1514
9.2843 6.1084 2.1514
9.0453 6.4285 2.1514
8.7956 6.7395 2.1514
8.5356 7.0413 2.1514
8.2657 7.3334 2.1514
7.9862 7.6157 2.1514
7.6975 7.8877 2.1514
7.3999 8.1493 2.1514
7.0938 8.4001 2.1514
6.7796 8.6400 2.1514
6.4577 8.8686 2.1514
6.1285 9.0858 2.1514
5.7923 9.2913 2.1514
5.3911 9.3832 2.1283
5.0460 9.5628 2.1283
4.6952 9.7304 2.1283
4.3391 9.8858 2.1283
3.9782 10.0287 2.1283
3.6128 10.1592 2.1283
3.2434 10.2769 2.1283
2.8704 10.3819 2.1283
2.4941 10.4740 2.1283
2.1151 10.5532 2.1283
1.7337 10.6194 2.1283
1.4158 11.1894 2.2314
1.0123 11.2313 2.2314
0.6077 11.2594 2.2314
0.2024 11.2736 2.2314
-0.2032 11.2740 2.2314
-0.6085 11.2605 2.2314
-1.0133 11.2332 2.2314
-1.4169 11.1921 2.2314
-1.8190 11.1371 2.2314
-2.2191 11.0685 2.2314
-2.6168 10.9861 2.2314
-3.0117 10.8902 2.2314
-3.4032 10.7807 2.2314
-3.7909 10.6579 2.2314
-4.1745 10.5217 2.2314
-4.5535 10.3724 2.2314
-4.9273 10.2100 2.2314
-5.2958 10.0348 2.2314
-5.6583 9.8469 2.2314
-6.0144 9.6464 2.2314
-6.3638 9.4335 2.2314
-6.5054 8.9331 2.1647
-6.7148 8.5565 2.1281
-7.0264 8.3194 2.1281
-7.3299 8.0714 2.1281
-7.6250 7.8127 2.1281
-7.9114 7.5436 2.1281
-8.1886 7.2644 2.1281
-6.5861 5.4326 1.6575
-6.5958 5.0535 1.6108
-6.6142 4.7003 1.5706
-6.6110 4.3492 1.5294
-6.5894 4.0034 1.4878
-6.5827 3.6823 1.4531
-6.5847 3.3788 1.4234
-6.6059 3.0951 1.4007
-9.9063 4.2144 2.0635
-9.8727 3.7873 2.0233
-9.7456 3.3423 1.9679
-9.8281 2.9806 1.9582
-9.9313 2.6265 1.9551
-10.0808 2.2821 1.9636
-10.0080 1.8906 1.9313
-9.9236 1.5079 1.8998
-9.8407 1.1356 1.8714
-9.7632 0.7727 1.8467
-10.0152 0.4317 1.8867
-10.4478 0.0750 1.9627
-10.3537 -0.2975 1.9421
-10.2283 -0.6619 1.9181
-10.0203 -1.0106 1.8811
-9.9492 -1.3657 1.8722
-9.8799 -1.7194 1.8661
-9.8879 -2.0889 1.8770
-9.9365 -2.4746 1.8983
-9.9875 -2.8716 1.9230
-10.0112 -3.2715 1.9454
-10.0238 -3.6786 1.9686
-6.8729 -2.8059 1.3663
-10.1175 -4.5605 2.0389
-10.1625 -5.0268 2.0794
-10.2270 -5.5238 2.1281
-6.5949 -3.8738 1.3980
-6.5717 -4.1842 1.4217
-6.5667 -4.5199 1.4524
-6.5729 -4.8805 1.4892
-6.5944 -5.2736 1.5336
-6.5919 -5.6708 1.5770
-6.5693 -6.0745 1.6204
-6.5628 -6.5202 1.6731
-8.0560 -8.5992 2.1281
-7.7526 -8.8939 2.1281
-7.4380 -9.1775 2.1281
-7.1127 -9.4494 2.1281
-6.7771 -9.7092 2.1281
-6.4743 -10.0227 2.1423
-6.3716 -10.6854 2.2314
-5.9902 -10.9172 2.2314
-5.6001 -11.1348 2.2314
-5.2017 -11.3377 2.2314
-4.7957 -11.5256 2.2314
-4.3826 -11.6982 2.2314
-3.9631 -11.8551 2.2314
-3.5377 -11.9963 2.2314
-3.1070 -12.1213 2.2314
-2.6718 -12.2300 2.2314
-2.2326 -12.3222 2.2314
-1.7901 -12.3978 2.2314
-1.3450 -12.4566 2.2314
-0.8979 -12.4986 2.2314
-0.4495 -12.5236 2.2314
-0.0004 -11.0798 2.2314
0.3965 -11.0720 2.2314
0.7928 -11.0492 2.2314
1.1879 -11.0116 2.2314
1.5812 -10.9592 2.2314
1.8811 -10.3888 2.1283
1.7679 -8.0971 1.6713
1.7655 -6.8915 1.4353
2.0053 -6.8035 1.4317
3.3395 -9.9947 2.1283
3.6932 -9.8624 2.1283
4.0414 -9.7171 2.1283
4.3838 -9.5590 2.1283
4.7197 -9.3883 2.1283
5.0488 -9.2053 2.1283
5.3706 -9.0103 2.1283
5.7463 -8.8991 2.1514
6.0554 -8.6787 2.1514
6.3558 -8.4472 2.1514
6.6471 -8.2048 2.1514
6.9288 -7.9521 2.1514
7.2008 -7.6894 2.1514
7.4625 -7.4171 2.1514
7.7136 -7.1356 2.1514
7.9539 -6.8454 2.1514
8.1830 -6.5469 2.1514
8.4007 -6.2406 2.1514
8.6067 -5.9269 2.1514
8.8007 -5.6062 2.1514
8.9826 -5.2791 2.1514
9.1521 -4.9460 2.1514
9.3092 -4.6074 2.1514
9.4535 -4.2639 2.1514
9.5850 -3.9158 2.1514
9.7035 -3.5637 2.1514
9.8090 -3.2080 2.1514
9.9014 -2.8493 2.1514
9.9806 -2.4881 2.1514
10.0466 -2.1248 2.1514
10.0993 -1.7600 2.1514
10.1388 -1.3941 2.1514
10.1650 -1.0276 2.1514
2.0188 -0.1311 0.4267
1.9856 -0.0575 0.4197
10.1646 0.0706 2.1514
10.1383 0.4347 2.1514
10.0991 0.7971 2.1514
10.0470 1.1572 2.1514
9.9823 1.5147 2.1514
9.9051 1.8690 2.1514
9.8154 2.2199 2.1514
9.7136 2.5668 2.1514
9.5997 2.9093 2.1514
9.4740 3.2471 2.1514
9.3366 3.5797 2.1514
9.1879 3.9068 2.1514
9.0279 4.2280 2.1514
8.8571 4.5429 2.1514
8.6755 4.8511 2.1514
8.4835 5.1524 2.1514
8.2814 5.4464 2.1514
8.0694 5.7327 2.1514
7.8479 6.0111 2.1514
7.6170 6.2813 2.1514
7.3772 6.5430 2.1514
7.1287 6.7958 2.1514
6.8719 7.0396 2.1514
6.6071 7.2740 2.1514
6.3346 7.4989 2.1514
6.0547 7.7140 2.1514
5.7679 7.9191 2.1514
5.4156 8.0268 2.1283
5.1190 8.2092 2.1283
4.8166 8.3812 2.1283
4.5086 8.5424 2.1283
4.1955 8.6929 2.1283
3.8776 8.8324 2.1283
3.5553 8.9607 2.1283
3.2290 9.0778 2.1283
2.8990 9.1836 2.1283
2.5657 9.2779 2.1283
2.2295 9.3607 2.1283
1.8907 9.4318 2.1283
1.5533 9.5124 2.1330
1.2657 10.0009 2.2314
0.9050 10.0385 2.2314
0.5433 10.0637 2.2314
0.1809 10.0765 2.2314
-0.1817 10.0768 2.2314
-0.5441 10.0646 2.2314
-0.9059 10.0400 2.2314
-1.2667 10.0030 2.2314
-1.6261 9.9536 2.2314
-1.9837 9.8919 2.2314
-2.3391 9.8179 2.2314
-2.6919 9.7316 2.2314
-3.0417 9.6333 2.2314
-3.3881 9.5229 2.2314
-3.7306 9.4005 2.2314
-4.0690 9.2664 2.2314
-4.4027 9.1206 2.2314
-4.7315 8.9632 2.2314
-5.0549 8.7945 2.2314
-5.3725 8.6145 2.2314
-5.6840 8.4235 2.2314
-5.9890 8.2216 2.2314
-6.2871 8.0091 2.2314
-6.4996 7.6934 2.2048
-6.5438 7.2035 2.1281
-6.8063 6.9717 2.1281
-7.0610 6.7306 2.1281
-7.3074 6.4804 2.1281
-7.5452 6.2215 2.1281
-7.7742 5.9542 2.1281
-6.7609 4.8027 1.7999
-8.2042 5.3952 2.1281
-6.5833 3.9980 1.6669
-6.5834 3.6810 1.6300
-6.5979 3.3839 1.6001
-6.6110 3.0958 1.5729
-6.6105 2.8107 1.5453
-6.6021 2.5311 1.5187
-6.5890 2.2582 1.4937
-6.5794 1.9938 1.4720
-6.5789 1.7383 1.4546
-6.5784 1.4877 1.4394
-6.5779 1.2412 1.4262
-6.5863 0.9993 1.4169
-6.5931 0.7594 1.4093
-6.5985 0.5208 1.4031
-6.6024 0.2831 1.3985
-6.6049 0.0459 1.3954
-6.6060 -0.1913 1.3938
-6.6056 -0.4289 1.3937
-6.6038 -0.6675 1.3952
-6.6006 -0.9075 1.3981
-6.5959 -1.1494 1.4025
-6.5896 -1.3936 1.4086
-6.5818 -1.6407 1.4162
-6.5725 -1.8912 1.4256
-6.5713 -2.1489 1.4387
-6.5708 -2.4129 1.4543
-6.5703 -2.6839 1.4722
-6.5794 -2.9673 1.4948
-6.5919 -3.2623 1.5209
-6.5981 -3.5654 1.5485
-6.5954 -3.8757 1.5771
-6.5802 -4.1913 1.6060
-6.5667 -4.5216 1.6389
-6.5660 -4.8772 1.6790
-8.1067 -6.4852 2.1281
-7.8794 -6.7806 2.1281
-6.8539 -6.3397 1.9089
-7.3920 -7.3463 2.1281
-7.1325 -7.6156 2.1281
-6.8629 -7.8755 2.1281
-6.5835 -8.1253 2.1281
-6.4679 -8.5951 2.1867
-6.2879 -9.0107 2.2314
-5.9666 -9.2391 2.2314
-5.6368 -9.4555 2.2314
-5.2988 -9.6596 2.2314
-4.9532 -9.8511 2.2314
-4.6005 -10.0296 2.2314
-4.2410 -10.1949 2.2314
-3.8754 -10.3467 2.2314
-3.5042 -10.4848 2.2314
-3.1278 -10.6089 2.2314
-2.7470 -10.7188 2.2314
-2.3621 -10.8145 2.2314
-1.9737 -10.8956 2.2314
-1.5825 -10.9620 2.2314
-1.1890 -11.0138 2.2314
-0.7937 -11.0507 2.2314
-0.3974 -11.0727 2.2314
-0.0004 -9.9201 2.2314
0.3549 -9.9131 2.2314
0.7096 -9.8929 2.2314
1.0633 -9.8594 2.2314
1.4154 -9.8127 2.2314
1.6840 -9.3023 2.1283
2.0154 -9.2329 2.1283
1.7754 -6.9317 1.6121
1.7745 -6.0219 1.4151
2.9901 -8.9512 2.1283
3.3070 -8.8333 2.1283
3.6191 -8.7038 2.1283
3.9259 -8.5629 2.1283
4.2271 -8.4107 2.1283
4.5223 -8.2475 2.1283
4.8109 -8.0735 2.1283
5.0927 -7.8891 2.1283
5.3672 -7.6945 2.1283
5.6951 -7.5714 2.1514
5.9568 -7.3550 2.1514
6.2101 -7.1294 2.1514
6.4546 -6.8947 2.1514
6.6900 -6.6515 2.1514
6.9160 -6.4000 2.1514
7.1324 -6.1406 2.1514
7.3388 -5.8737 2.1514
7.5351 -5.5997 2.1514
7.7210 -5.3191 2.1514
7.8962 -5.0321 2.1514
8.0605 -4.7393 2.1514
8.2139 -4.4411 2.1514
8.3561 -4.1379 2.1514
8.4870 -3.8301 2.1514
8.6064 -3.5181 2.1514
8.7142 -3.2025 2.1514
8.8104 -2.8835 2.1514
8.8948 -2.5618 2.1514
8.9674 -2.2376 2.1514
9.0281 -1.9115 2.1514
9.0770 -1.5839 2.1514
9.1140 -1.2553 2.1514
9.1390 -0.9260 2.1514
2.0194 -0.1316 0.4747
1.9851 -0.0579 0.4666
9.1431 0.0615 2.1514
9.1210 0.3890 2.1514
9.0872 0.7152 2.1514
9.0418 1.0394 2.1514
8.9850 1.3613 2.1514
8.9169 1.6805 2.1514
8.8376 1.9967 2.1514
8.7472 2.3094 2.1514
8.6460 2.6183 2.1514
8.5341 2.9229 2.1514
8.4116 3.2230 2.1514
8.2788 3.5182 2.1514
8.1358 3.8082 2.1514
7.9829 4.0925 2.1514
7.8204 4.3710 2.1514
7.6483 4.6432 2.1514
7.4671 4.9088 2.1514
7.2769 5.1677 2.1514
7.0779 5.4194 2.1514
6.8706 5.6638 2.1514
6.6550 5.9005 2.1514
6.4316 6.1292 2.1514
6.2005 6.3499 2.1514
5.9622 6.5621 2.1514
5.7168 6.7657 2.1514
5.4061 6.8857 2.1283
5.1505 7.0695 2.1283
4.8888 7.2441 2.1283
4.6214 7.4093 2.1283
4.3487 7.5651 2.1283
4.0710 7.7113 2.1283
3.7885 7.8477 2.1283
3.5017 7.9741 2.1283
3.2108 8.0905 2.1283
2.9162 8.1966 2.1283
2.6183 8.2925 2.1283
2.3173 8.3781 2.1283
2.0137 8.4531 2.1283
1.7078 8.5176 2.1283
1.4677 8.9867 2.2314
1.1433 9.0320 2.2314
0.8175 9.0661 2.2314
0.4907 9.0889 2.2314
0.1634 9.1004 2.2314
-0.1642 9.1007 2.2314
-0.4915 9.0896 2.2314
-0.8184 9.0673 2.2314
-1.1443 9.0337 2.2314
-1.4689 8.9888 2.2314
-1.7919 8.9328 2.2314
-2.1128 8.8656 2.2314
-2.4313 8.7874 2.2314
-2.7471 8.6981 2.2314
-3.0598 8.5980 2.2314
-3.3690 8.4871 2.2314
-3.6743 8.3654 2.2314
-3.9754 8.2332 2.2314
-4.2719 8.0905 2.2314
-4.5636 7.9376 2.2314
-4.8500 7.7745 2.2314
-5.1307 7.6014 2.2314
-5.4055 7.4185 2.2314
-5.6741 7.2260 2.2314
-5.9360 7.0241 2.2314
-6.1910 6.8130 2.2314
-6.4387 6.5930 2.2314
-6.4985 6.1923 2.1711
-6.5913 5.8433 2.1281
-6.8050 5.6092 2.1281
-7.0106 5.3674 2.1281
-6.7609 4.8008 1.9962
-7.3966 4.8620 2.1281
-7.5763 4.5990 2.1281
-7.7469 4.3295 2.1281
-6.7583 3.4644 1.8187
-8.0598 3.7723 2.1281
-8.2016 3.4852 2.1281
-6.5804 2.5212 1.6805
-6.5799 2.2534 1.6562
-6.5794 1.9923 1.6346
-6.5861 1.7387 1.6173
-6.5930 1.4895 1.6024
-6.5990 1.2436 1.5896
-6.6040 1.0005 1.5787
-6.6065 0.7594 1.5694
-6.6061 0.5199 1.5614
-6.6056 0.2818 1.5555
-6.6052 0.0444 1.5516
-6.6047 -0.1927 1.5498
-6.6042 -0.4303 1.5499
-6.6038 -0.6690 1.5520
-6.6033 -0.9094 1.5562
-6.6028 -1.1521 1.5624
-6.6024 -1.3978 1.5708
-6.5980 -1.6462 1.5804
-6.5918 -1.8983 1.5918
-6.5845 -2.1548 1.6053
-6.5761 -2.4165 1.6210
-6.5703 -2.6855 1.6399
-6.5697 -2.9645 1.6628
-6.5790 -3.2576 1.6913
-8.1373 -4.3993 2.1281
-7.9852 -4.6946 2.1281
-7.8221 -4.9845 2.1281
-7.6484 -5.2685 2.1281
-7.4640 -5.5463 2.1281
-7.2694 -5.8175 2.1281
-7.0647 -6.0816 2.1281
-6.8501 -6.3383 2.1281
-6.6260 -6.5871 2.1281
-6.4768 -6.9176 2.1562
-6.4487 -7.4023 2.2314
-6.1855 -7.6363 2.2314
-5.9135 -7.8605 2.2314
-5.6332 -8.0747 2.2314
-5.3449 -8.2785 2.2314
-5.0490 -8.4716 2.2314
-4.7459 -8.6537 2.2314
-4.4360 -8.8245 2.2314
-4.1197 -8.9837 2.2314
-3.7976 -9.1311 2.2314
-3.4700 -9.2665 2.2314
-3.1374 -9.3896 2.2314
-2.8004 -9.5002 2.2314
-2.4592 -9.5982 2.2314
-2.1146 -9.6835 2.2314
-1.7669 -9.7558 2.2314
-1.4166 -9.8150 2.2314
-1.0644 -9.8611 2.2314
-0.7105 -9.8941 2.2314
-0.3557 -9.9137 2.2314
-0.0004 -8.9714 2.2314
0.3208 -8.9652 2.2314
0.6416 -8.9470 2.2314
0.9614 -8.9169 2.2314
1.2798 -8.8749 2.2314
1.5782 -8.7207 2.2060
1.8224 -8.3509 2.1283
2.1195 -8.2773 2.1283
1.7905 -6.0776 1.5788
1.7838 -5.3413 1.4039
1.9362 -5.1732 1.3778
3.2733 -7.8744 2.1283
3.5511 -7.7473 2.1283
3.8238 -7.6102 2.1283
4.0910 -7.4630 2.1283
4.3525 -7.3062 2.1283
4.6078 -7.1400 2.1283
4.8565 -6.9645 2.1283
5.0984 -6.7801 2.1283
5.3332 -6.5870 2.1283
5.5604 -6.3856 2.1283
5.8426 -6.2431 2.1514
6.0564 -6.0235 2.1514
6.2616 -5.7964 2.1514
6.4582 -5.5622 2.1514
6.6459 -5.3211 2.1514
6.8244 -5.0736 2.1514
6.9936 -4.8199 2.1514
7.1531 -4.5606 2.1514
7.3029 -4.2958 2.1514
7.4428 -4.0261 2.1514
7.5726 -3.7518 2.1514
7.6922 -3.4733 2.1514
7.8014 -3.1910 2.1514
7.9002 -2.9052 2.1514
7.9884 -2.6164 2.1514
8.0660 -2.3250 2.1514
8.1329 -2.0313 2.1514
8.1891 -1.7358 2.1514
8.2346 -1.4389 2.1514
8.2692 -1.1408 2.1514
8.2931 -0.8422 2.1514
2.0200 -0.1321 0.5232
1.9847 -0.0584 0.5139
8.3002 0.0539 2.1514
8.2812 0.3513 2.1514
8.2516 0.6475 2.1514
8.2115 0.9420 2.1514
8.1610 1.2346 2.1514
8.1002 1.5247 2.1514
8.0292 1.8122 2.1514
7.9481 2.0965 2.1514
7.8571 2.3775 2.1514
7.7563 2.6547 2.1514
7.6460 2.9278 2.1514
7.5261 3.1965 2.1514
7.3971 3.4605 2.1514
7.2589 3.7195 2.1514
7.1119 3.9731 2.1514
6.9562 4.2211 2.1514
6.7921 4.4633 2.1514
6.6198 4.6992 2.1514
6.4395 4.9287 2.1514
6.2514 5.1515 2.1514
6.0559 5.3674 2.1514
5.8531 5.5761 2.1514
5.6433 5.7774 2.1514
5.3686 5.9070 2.1283
5.1481 6.0908 2.1283
4.9215 6.2667 2.1283
4.6891 6.4344 2.1283
4.4512 6.5939 2.1283
4.2080 6.7448 2.1283
3.9600 6.8871 2.1283
3.7073 7.0206 2.1283
3.4502 7.1452 2.1283
3.1891 7.2607 2.1283
2.9244 7.3670 2.1283
2.6562 7.4640 2.1283
2.3849 7.5517 2.1283
2.1108 7.6298 2.1283
1.8343 7.6984 2.1283
1.5573 7.7652 2.1305
1.3370 8.1847 2.2314
1.0415 8.2261 2.2314
0.7447 8.2573 2.2314
0.4470 8.2781 2.2314
0.1488 8.2887 2.2314
-0.1496 8.2889 2.2314
-0.4478 8.2787 2.2314
-0.7455 8.2583 2.2314
-1.0424 8.2275 2.2314
-1.3381 8.1865 2.2314
-1.6323 8.1353 2.2314
-1.9246 8.0738 2.2314
-2.2147 8.0023 2.2314
-2.5022 7.9207 2.2314
-2.7869 7.8292 2.2314
-3.0684 7.7278 2.2314
-3.3463 7.6166 2.2314
-3.6203 7.4957 2.2314
-3.8901 7.3654 2.2314
-4.1554 7.2257 2.2314
-4.4159 7.0767 2.2314
-4.6712 6.9186 2.2314
-4.9210 6.7516 2.2314
-5.1651 6.5758 2.2314
-5.4030 6.3915 2.2314
-5.6346 6.1988 2.2314
-5.8596 5.9980 2.2314
-6.0776 5.7893 2.2314
-6.2883 5.5728 2.2314
-6.4916 5.3488 2.2314
-6.4969 4.9721 2.1679
-6.5564 4.6537 2.1281
-6.7272 4.4202 2.1281
-6.8900 4.1805 2.1281
-7.0443 3.9350 2.1281
-6.7583 3.4626 2.0003
-7.3271 3.4275 2.1281
-7.4551 3.1661 2.1281
-7.5740 2.9000 2.1281
-7.6834 2.6295 2.1281
-7.7834 2.3550 2.1281
-6.7551 1.7817 1.8258
-7.9541 1.7951 2.1281
-8.0245 1.5104 2.1281
-8.0848 1.2229 2.1281
-8.1349 0.9332 2.1281
-8.1747 0.6414 2.1281
-6.6076 0.2803 1.7140
-6.6020 0.0429 1.7086
-6.5992 -0.1941 1.7062
-6.5992 -0.4315 1.7067
-6.6020 -0.6704 1.7101
-8.1922 -1.1301 2.1281
-6.7493 -1.1792 1.7607
-8.1127 -1.7194 2.1281
-8.0570 -2.0122 2.1281
-7.9906 -2.3030 2.1281
-7.9136 -2.5917 2.1281
-7.8261 -2.8777 2.1281
-6.7463 -2.7591 1.8577
-7.6198 -3.4403 2.1281
-7.5012 -3.7161 2.1281
-7.3725 -3.9877 2.1281
-7.2338 -4.2547 2.1281
-7.0853 -4.5168 2.1281
-6.9270 -4.7735 2.1281
-6.7593 -5.0246 2.1281
-6.5823 -5.2695 2.1281
-6.4795 -5.5798 2.1558
-6.4730 -5.9913 2.2214
-6.2889 -6.2539 2.2314
-6.0668 -6.4817 2.2314
-5.8362 -6.7013 2.2314
-5.5975 -6.9124 2.2314
-5.3509 -7.1147 2.2314
-5.0969 -7.3079 2.2314
-4.8356 -7.4917 2.2314
-4.5676 -7.6659 2.2314
-4.2931 -7.8300 2.2314
-4.0125 -7.9840 2.2314
-3.7262 -8.1276 2.2314
-3.4347 -8.2604 2.2314
-3.1382 -8.3824 2.2314
-2.8373 -8.4934 2.2314
-2.5324 -8.5931 2.2314
-2.2238 -8.6814 2.2314
-1.9121 -8.7582 2.2314
-1.5977 -8.8233 2.2314
-1.2810 -8.8767 2.2314
-0.9624 -8.9183 2.2314
-0.6425 -8.9480 2.2314
-0.3217 -8.9657 2.2314
-0.0004 -8.1804 2.2314
0.2924 -8.1747 2.2314
0.5848 -8.1582 2.2314
0.8764 -8.1309 2.2314
1.1667 -8.0927 2.2314
1.4554 -8.0438 2.2314
1.6614 -7.6153 2.1283
1.9324 -7.5484 2.1283
2.0038 -6.8035 1.9380
1.7922 -5.3677 1.5470
1.7896 -4.7828 1.3967
2.9848 -7.1822 2.1283
3.2383 -7.0667 2.1283
3.4871 -6.9420 2.1283
3.7311 -6.8083 2.1283
3.9698 -6.6656 2.1283
4.2029 -6.5144 2.1283
4.4301 -6.3548 2.1283
4.6511 -6.1870 2.1283
4.8656 -6.0114 2.1283
5.0734 -5.8280 2.1283
5.2740 -5.6374 2.1283
5.4674 -5.4396 2.1283
5.7146 -5.2918 2.1514
5.8946 -5.0785 2.1514
6.0664 -4.8589 2.1514
6.2299 -4.6334 2.1514
6.3850 -4.4023 2.1514
6.5313 -4.1659 2.1514
6.6688 -3.9246 2.1514
6.7972 -3.6787 2.1514
6.9165 -3.4286 2.1514
7.0264 -3.1745 2.1514
7.1270 -2.9169 2.1514
7.2180 -2.6562 2.1514
7.2994 -2.3926 2.1514
7.3712 -2.1265 2.1514
7.4331 -1.8583 2.1514
7.4853 -1.5884 2.1514
7.5277 -1.3171 2.1514
7.5603 -1.0448 2.1514
7.5829 -0.7718 2.1514
2.0207 -0.1326 0.5723
1.9843 -0.0588 0.5618
7.5920 0.0475 2.1514
7.5755 0.3196 2.1514
7.5493 0.5906 2.1514
7.5135 0.8602 2.1514
7.4681 1.1280 2.1514
7.4132 1.3937 2.1514
7.3490 1.6569 2.1514
7.2756 1.9174 2.1514
7.1931 2.1748 2.1514
7.1016 2.4289 2.1514
7.0012 2.6792 2.1514
6.8922 2.9256 2.1514
6.7747 3.1676 2.1514
6.6488 3.4051 2.1514
6.5148 3.6378 2.1514
6.3727 3.8654 2.1514
6.2230 4.0876 2.1514
6.0656 4.3041 2.1514
5.9009 4.5148 2.1514
5.7290 4.7194 2.1514
5.4907 4.8648 2.1283
5.3073 5.0545 2.1283
5.1174 5.2374 2.1283
4.9215 5.4134 2.1283
4.7197 5.5823 2.1283
4.5123 5.7439 2.1283
4.2995 5.8981 2.1283
4.0816 6.0446 2.1283
3.8588 6.1834 2.1283
3.6315 6.3142 2.1283
3.3999 6.4370 2.1283
3.1643 6.5515 2.1283
2.9250 6.6578 2.1283
1.7667 4.4497 1.4019
2.4364 6.8448 2.1283
2.1876 6.9254 2.1283
1.9363 6.9973 2.1283
1.6827 7.0603 2.1283
1.4962 7.4592 2.2314
1.2265 7.5067 2.2314
0.9554 7.5447 2.2314
0.6831 7.5734 2.2314
0.4100 7.5926 2.2314
0.1365 7.6022 2.2314
-0.1373 7.6024 2.2314
-0.4109 7.5931 2.2314
-0.6840 7.5742 2.2314
-0.9563 7.5459 2.2314
-1.2276 7.5082 2.2314
-1.4974 7.4610 2.2314
-1.7655 7.4045 2.2314
-2.0315 7.3386 2.2314
-2.2952 7.2636 2.2314
-2.5563 7.1793 2.2314
-2.8143 7.0860 2.2314
-3.0690 6.9838 2.2314
-3.3202 6.8726 2.2314
-3.5675 6.7527 2.2314
-3.8106 6.6242 2.2314
-4.0492 6.4872 2.2314
-4.2831 6.3419 2.2314
-4.5119 6.1884 2.2314
-4.7353 6.0269 2.2314
-4.9531 5.8575 2.2314
-5.1651 5.6804 2.2314
-5.3709 5.4959 2.2314
-5.5702 5.3042 2.2314
-5.7629 5.1053 2.2314
-5.9487 4.8997 2.2314
-6.1273 4.6874 2.2314
-6.2985 4.4688 2.2314
-6.4620 4.2441 2.2314
-6.4923 3.9374 2.1891
-6.5004 3.6294 2.1440
-6.5852 3.3722 2.1281
-6.7100 3.1370 2.1281
-6.8265 2.8974 2.1281
-6.9346 2.6534 2.1281
-7.0341 2.4056 2.1281
-7.1248 2.1540 2.1281
-6.7551 1.7801 1.9948
-7.2795 1.6411 2.1281
-7.3432 1.3804 2.1281
-7.3975 1.1173 2.1281
-7.4425 0.8520 2.1281
-7.4781 0.5850 2.1281
-7.5041 0.3166 2.1281
-6.7071 0.0420 1.8980
-6.7067 -0.1988 1.8962
-7.5242 -0.4938 2.1281
-7.5115 -0.7645 2.1281
-7.4890 -1.0348 2.1281
-6.7493 -1.1808 1.9262
-7.4147 -1.5732 2.1281
-7.3629 -1.8406 2.1281
-7.3014 -2.1061 2.1281
-7.2303 -2.3696 2.1281
-7.1496 -2.6307 2.1281
-6.7463 -2.7608 2.0338
-6.9596 -3.1440 2.1281
-6.8506 -3.3955 2.1281
-6.7323 -3.6432 2.1281
-6.6050 -3.8866 2.1281
-6.4878 -4.1377 2.1344
-6.4760 -4.4645 2.1794
-6.4693 -4.8108 2.2314
-6.2993 -5.0448 2.2314
-6.1207 -5.2726 2.2314
-5.9337 -5.4940 2.2314
-5.7385 -5.7084 2.2314
-5.5354 -5.9158 2.2314
-5.3246 -6.1157 2.2314
-5.1064 -6.3078 2.2314
-4.8811 -6.4919 2.2314
-4.6491 -6.6677 2.2314
-4.4105 -6.8349 2.2314
-4.1658 -6.9933 2.2314
-3.9152 -7.1426 2.2314
-3.6591 -7.2826 2.2314
-3.3979 -7.4132 2.2314
-3.1319 -7.5340 2.2314
-2.8614 -7.6449 2.2314
-2.5870 -7.7457 2.2314
-2.3089 -7.8364 2.2314
-2.0275 -7.9167 2.2314
-1.7433 -7.9865 2.2314
-1.4566 -8.0457 2.2314
-1.1678 -8.0942 2.2314
-0.8774 -8.1320 2.2314
-0.5857 -8.1590 2.2314
-0.2933 -8.1751 2.2314
-0.0004 -7.5100 2.2314
0.2684 -7.5048 2.2314
0.5368 -7.4897 2.2314
0.8044 -7.4647 2.2314
1.0709 -7.4298 2.2314
1.3358 -7.3850 2.2314
1.5753 -7.2225 2.1985
1.7737 -6.9306 2.1283
2.0033 -6.8035 2.1107
1.7624 -5.2800 1.6572
1.7805 -4.7596 1.5136
1.7928 -4.3150 1.3924
2.9730 -6.4896 2.1283
3.2016 -6.3754 2.1283
3.4258 -6.2529 2.1283
3.6451 -6.1223 2.1283
3.8594 -5.9837 2.1283
4.0683 -5.8375 2.1283
4.2715 -5.6838 2.1283
4.4688 -5.5228 2.1283
4.6599 -5.3548 2.1283
4.8446 -5.1800 2.1283
5.0226 -4.9987 2.1283
5.1937 -4.8112 2.1283
5.3576 -4.6176 2.1283
5.5143 -4.4184 2.1283
5.7249 -4.2595 2.1514
5.8678 -4.0474 2.1514
6.0028 -3.8305 2.1514
6.1297 -3.6090 2.1514
6.2483 -3.3833 2.1514
6.3585 -3.1536 2.1514
6.4601 -2.9203 2.1514
6.5532 -2.6838 2.1514
6.6375 -2.4442 2.1514
6.7130 -2.2020 2.1514
6.7796 -1.9575 2.1514
6.8373 -1.7110 2.1514
6.8859 -1.4629 2.1514
6.9256 -1.2134 2.1514
6.9562 -0.9630 2.1514
6.9778 -0.7119 2.1514
2.0213 -0.1331 0.6221
1.9839 -0.0593 0.6103
6.9882 0.0421 2.1514
6.9736 0.2926 2.1514
6.9501 0.5421 2.1514
6.9178 0.7904 2.1514
6.8767 1.0370 2.1514
6.8268 1.2818 2.1514
6.7683 1.5244 2.1514
6.7013 1.7645 2.1514
6.6259 2.0017 2.1514
6.5422 2.2359 2.1514
6.4503 2.4668 2.1514
6.3504 2.6940 2.1514
6.2427 2.9173 2.1514
6.1272 3.1364 2.1514
6.0042 3.3511 2.1514
5.8737 3.5611 2.1514
5.7361 3.7662 2.1514
5.5315 3.9235 2.1283
5.3817 4.1160 2.1283
5.2253 4.3029 2.1283
5.0626 4.4840 2.1283
4.8938 4.6591 2.1283
4.7191 4.8281 2.1283
4.5387 4.9907 2.1283
4.3528 5.1468 2.1283
4.1617 5.2962 2.1283
3.9657 5.4387 2.1283
3.7649 5.5741 2.1283
3.5596 5.7024 2.1283
3.3501 5.8234 2.1283
2.0354 3.8526 1.3811
2.9193 6.0428 2.1283
1.7718 4.0320 1.3974
1.7646 4.4432 1.5175
2.2480 6.3139 2.1283
2.0185 6.3885 2.1283
1.7866 6.4550 2.1283
1.5584 6.5372 2.1361
1.3806 6.8814 2.2314
1.1318 6.9253 2.2314
0.8816 6.9605 2.2314
0.6303 6.9870 2.2314
0.3783 7.0047 2.2314
0.1259 7.0137 2.2314
-0.1267 7.0138 2.2314
-0.3792 7.0052 2.2314
-0.6312 6.9877 2.2314
-0.8825 6.9615 2.2314
-1.1328 6.9266 2.2314
-1.3818 6.8829 2.2314
-1.6291 6.8306 2.2314
-1.8745 6.7697 2.2314
-2.1178 6.7003 2.2314
-2.3586 6.6223 2.2314
-2.5965 6.5360 2.2314
-2.8315 6.4415 2.2314
-3.0631 6.3387 2.2314
-3.2911 6.2278 2.2314
-3.5152 6.1090 2.2314
-3.7351 5.9823 2.2314
-3.9506 5.8479 2.2314
-4.1614 5.7060 2.2314
-4.3673 5.5567 2.2314
-4.5679 5.4002 2.2314
-4.7631 5.2366 2.2314
-4.9525 5.0661 2.2314
-5.1360 4.8890 2.2314
-5.3133 4.7053 2.2314
-5.4842 4.5154 2.2314
-5.6484 4.3194 2.2314
-5.8058 4.1175 2.2314
-5.9560 3.9101 2.2314
-6.0991 3.6973 2.2314
-6.2346 3.4793 2.2314
-6.3625 3.2565 2.2314
-6.4825 3.0290 2.2314
-6.4900 2.7529 2.1960
-6.4933 2.4829 2.1631
-6.5000 2.2213 2.1349
-6.5625 1.9824 2.1281
-6.6373 1.7474 2.1281
-6.7037 1.5097 2.1281
-6.7617 1.2695 2.1281
-6.8111 1.0271 2.1281
-6.8519 0.7828 2.1281
-6.8840 0.5369 2.1281
-6.9072 0.2898 2.1281
-6.7002 0.0404 2.0601
-6.6998 -0.2002 2.0583
-6.9237 -0.4560 2.1281
-6.9113 -0.7050 2.1281
-6.8900 -0.9537 2.1281
-6.7493 -1.1824 2.0939
-6.8203 -1.4488 2.1281
-6.7721 -1.6945 2.1281
-6.7149 -1.9386 2.1281
-6.6488 -2.1807 2.1281
-6.5740 -2.4205 2.1281
-6.4921 -2.6584 2.1287
-6.4844 -2.9309 2.1568
-6.4784 -3.2127 2.1893
-6.4778 -3.5071 2.2278
-6.3651 -3.7471 2.2314
-6.2332 -3.9770 2.2314
-6.0929 -4.2021 2.2314
-5.9444 -4.4222 2.2314
-5.7877 -4.6368 2.2314
-5.6232 -4.8458 2.2314
-5.4510 -5.0487 2.2314
-5.2713 -5.2454 2.2314
-5.0843 -5.4354 2.2314
-4.8904 -5.6187 2.2314
-4.6897 -5.7948 2.2314
-4.4826 -5.9635 2.2314
-4.2692 -6.1246 2.2314
-4.0499 -6.2778 2.2314
-3.8250 -6.4229 2.2314
-3.5947 -6.5596 2.2314
-3.3594 -6.6879 2.2314
-3.1195 -6.8074 2.2314
-2.8751 -6.9181 2.2314
-2.6268 -7.0196 2.2314
-2.3748 -7.1120 2.2314
-2.1194 -7.1950 2.2314
-1.8611 -7.2685 2.2314
-1.6001 -7.3324 2.2314
-1.3370 -7.3866 2.2314
-1.0719 -7.4311 2.2314
-0.8053 -7.4657 2.2314
-0.5377 -7.4904 2.2314
-0.2692 -7.5052 2.2314
-0.0004 -6.9341 2.2314
0.2477 -6.9293 2.2314
0.4955 -6.9154 2.2314
0.7425 -6.8924 2.2314
0.9885 -6.8603 2.2314
1.2331 -6.8190 2.2314
1.4760 -6.7688 2.2314
1.6375 -6.3997 2.1283
1.8648 -6.3349 2.1283
2.0896 -6.2618 2.1283
1.7647 -4.7186 1.6249
1.7650 -4.2494 1.4848
2.7450 -5.9935 2.1283
2.9562 -5.8883 2.1283
3.1633 -5.7755 2.1283
3.3660 -5.6551 2.1283
3.5641 -5.5274 2.1283
3.7572 -5.3927 2.1283
3.9450 -5.2510 2.1283
4.1275 -5.1026 2.1283
4.3043 -4.9477 2.1283
4.4751 -4.7865 2.1283
4.6398 -4.6193 2.1283
4.7982 -4.4464 2.1283
4.9500 -4.2678 2.1283
5.0950 -4.0841 2.1283
5.2332 -3.8952 2.1283
5.3642 -3.7017 2.1283
5.4880 -3.5036 2.1283
5.6653 -3.3372 2.1514
5.7753 -3.1288 2.1514
5.8776 -2.9167 2.1514
5.9721 -2.7013 2.1514
6.0586 -2.4828 2.1514
6.1370 -2.2615 2.1514
6.2073 -2.0377 2.1514
6.2694 -1.8118 2.1514
6.3233 -1.5840 2.1514
6.3688 -1.3546 2.1514
6.4061 -1.1239 2.1514
6.4349 -0.8924 2.1514
6.4554 -0.6601 2.1514
2.0220 -0.1337 0.6726
1.9834 -0.0597 0.6594
6.4666 0.0374 2.1514
6.4537 0.2693 2.1514
6.4325 0.5002 2.1514
6.4031 0.7300 2.1514
6.3655 0.9584 2.1514
6.3199 1.1851 2.1514
6.2663 1.4098 2.1514
6.2047 1.6322 2.1514
6.1354 1.8520 2.1514
6.0583 2.0691 2.1514
5.9737 2.2830 2.1514
5.8817 2.4936 2.1514
5.7823 2.7006 2.1514
5.6757 2.9038 2.1514
5.5024 3.0696 2.1283
5.3833 3.2623 2.1283
5.2575 3.4505 2.1283
5.1253 3.6340 2.1283
4.9868 3.8125 2.1283
4.8422 3.9859 2.1283
4.6917 4.1540 2.1283
4.5355 4.3166 2.1283
4.3738 4.4735 2.1283
4.2069 4.6244 2.1283
4.0348 4.7693 2.1283
3.8579 4.9080 2.1283
3.6763 5.0404 2.1283
3.4903 5.1662 2.1283
3.3001 5.2853 2.1283
3.1060 5.3977 2.1283
2.0345 3.8499 1.4889
1.7745 3.6722 1.3953
1.7515 3.9847 1.4897
1.7486 4.4017 1.6217
2.0845 5.8534 2.1283
1.8718 5.9227 2.1283
1.6568 5.9845 2.1283
1.5096 6.3312 2.2314
1.2803 6.3800 2.2314
1.0496 6.4209 2.2314
0.8175 6.4536 2.2314
0.5845 6.4782 2.2314
0.3509 6.4947 2.2314
0.1167 6.5030 2.2314
-0.1175 6.5031 2.2314
-0.3517 6.4950 2.2314
-0.5854 6.4788 2.2314
-0.8184 6.4545 2.2314
-1.0505 6.4220 2.2314
-1.2814 6.3814 2.2314
-1.5108 6.3328 2.2314
-1.7383 6.2761 2.2314
-1.9638 6.2116 2.2314
-2.1870 6.1392 2.2314
-2.4077 6.0590 2.2314
-2.6254 5.9711 2.2314
-2.8401 5.8756 2.2314
-3.0514 5.7726 2.2314
-3.2590 5.6621 2.2314
-3.4628 5.5445 2.2314
-3.6624 5.4197 2.2314
-3.8576 5.2879 2.2314
-4.0482 5.1492 2.2314
-4.2340 5.0039 2.2314
-4.4146 4.8520 2.2314
-4.5900 4.6937 2.2314
-4.7598 4.5292 2.2314
-4.9238 4.3588 2.2314
-5.0818 4.1825 2.2314
-5.2336 4.0006 2.2314
-5.3791 3.8134 2.2314
-5.5180 3.6209 2.2314
-5.6501 3.4235 2.2314
-5.7752 3.2213 2.2314
-5.8933 3.0147 2.2314
-6.0040 2.8038 2.2314
-6.1073 2.5889 2.2314
-6.2030 2.3703 2.2314
-6.2909 2.1482 2.2314
-6.3710 1.9229 2.2314
-6.4431 1.6947 2.2314
-6.4875 1.4594 2.2247
-6.4870 1.2163 2.2056
-6.4865 0.9766 2.1896
-6.4864 0.7395 2.1767
-6.4884 0.5045 2.1674
-6.4896 0.2707 2.1607
-6.4902 0.0376 2.1566
-6.4902 -0.1955 2.1551
-6.4895 -0.4289 2.1561
-6.4881 -0.6634 2.1597
-6.4860 -0.8993 2.1658
-6.4833 -1.1374 2.1747
-6.4820 -1.3785 2.1870
-6.4815 -1.6234 2.2026
-6.4810 -1.8727 2.2213
-6.4458 -2.1157 2.2314
-6.3727 -2.3480 2.2314
-6.2912 -2.5777 2.2314
-6.2013 -2.8046 2.2314
-6.1031 -3.0282 2.2314
-5.9968 -3.2483 2.2314
-5.8824 -3.4646 2.2314
-5.7602 -3.6768 2.2314
-5.6301 -3.8845 2.2314
-5.4925 -4.0876 2.2314
-5.3474 -4.2856 2.2314
-5.1950 -4.4784 2.2314
-5.0356 -4.6656 2.2314
-4.8693 -4.8469 2.2314
-4.6963 -5.0222 2.2314
-4.5169 -5.1912 2.2314
-4.3313 -5.3535 2.2314
-4.1398 -5.5091 2.2314
-3.9425 -5.6575 2.2314
-3.7398 -5.7987 2.2314
-3.5320 -5.9325 2.2314
-3.3192 -6.0585 2.2314
-3.1018 -6.1767 2.2314
-2.8802 -6.2868 2.2314
-2.6545 -6.3888 2.2314
-2.4252 -6.4823 2.2314
-2.1924 -6.5674 2.2314
-1.9566 -6.6439 2.2314
-1.7181 -6.7116 2.2314
-1.4772 -6.7705 2.2314
-1.2342 -6.8204 2.2314
-0.9895 -6.8614 2.2314
-0.7434 -6.8932 2.2314
-0.4963 -6.9160 2.2314
-0.2486 -6.9296 2.2314
-0.0004 -6.4335 2.2314
0.2297 -6.4291 2.2314
0.4596 -6.4163 2.2314
0.6887 -6.3950 2.2314
0.9169 -6.3652 2.2314
1.1438 -6.3271 2.2314
1.3692 -6.2806 2.2314
1.5732 -6.1504 2.2043
1.7299 -5.8782 2.1283
1.9385 -5.8105 2.1283
1.9383 -5.1843 1.9239
1.7726 -4.2688 1.6073
1.7596 -3.8431 1.4705
1.8031 -3.5924 1.3991
2.9351 -5.3602 2.1283
3.1233 -5.2488 2.1283
3.3072 -5.1305 2.1283
3.4865 -5.0057 2.1283
3.6610 -4.8744 2.1283
3.8305 -4.7369 2.1283
3.9947 -4.5934 2.1283
4.1535 -4.4441 2.1283
4.3066 -4.2891 2.1283
4.4539 -4.1288 2.1283
4.5950 -3.9633 2.1283
4.7300 -3.7929 2.1283
4.8585 -3.6179 2.1283
4.9805 -3.4384 2.1283
5.0958 -3.2547 2.1283
5.2042 -3.0671 2.1283
5.3057 -2.8758 2.1283
5.4000 -2.6812 2.1283
5.4872 -2.4834 2.1283
5.5670 -2.2828 2.1283
5.7007 -2.1022 2.1514
5.7664 -1.8944 2.1514
5.8245 -1.6847 2.1514
5.8750 -1.4731 2.1514
5.9177 -1.2601 2.1514
5.9527 -1.0459 2.1514
5.9800 -0.8307 2.1514
5.9994 -0.6150 2.1514
2.0226 -0.1342 0.7239
1.9830 -0.0602 0.7092
6.0112 0.0334 2.1514
5.9996 0.2489 2.1514
5.9804 0.4636 2.1514
5.9535 0.6773 2.1514
5.9190 0.8898 2.1514
5.8769 1.1006 2.1514
5.8275 1.3096 2.1514
5.7706 1.5166 2.1514
5.7065 1.7211 2.1514
5.5748 1.9025 2.1283
5.4973 2.0995 2.1283
5.4129 2.2935 2.1283
5.3218 2.4841 2.1283
5.2240 2.6713 2.1283
5.1198 2.8547 2.1283
5.0092 3.0342 2.1283
4.8925 3.2095 2.1283
4.7697 3.3805 2.1283
4.6411 3.5468 2.1283
4.5068 3.7084 2.1283
4.3670 3.8651 2.1283
4.2218 4.0166 2.1283
4.0715 4.1628 2.1283
3.9162 4.3036 2.1283
3.7562 4.4387 2.1283
3.5917 4.5680 2.1283
3.4228 4.6914 2.1283
3.2497 4.8087 2.1283
3.0728 4.9198 2.1283
2.8921 5.0246 2.1283
1.7752 3.3583 1.3952
1.7451 3.6104 1.4735
0.8577 1.9508 0.7834
2.1370 5.3782 2.1283
1.9412 5.4497 2.1283
1.7431 5.5144 2.1283
1.5574 5.6240 2.1482
1.4059 5.8949 2.2314
1.1924 5.9405 2.2314
0.9775 5.9786 2.2314
0.7614 6.0091 2.2314
0.5444 6.0321 2.2314
0.3267 6.0474 2.2314
0.1087 6.0552 2.2314
-0.1095 6.0553 2.2314
-0.3276 6.0478 2.2314
-0.5452 6.0326 2.2314
-0.7623 6.0099 2.2314
-0.9784 5.9795 2.2314
-1.1934 5.9417 2.2314
-1.4070 5.8963 2.2314
-1.6189 5.8435 2.2314
-1.8289 5.7832 2.2314
-2.0367 5.7156 2.2314
-2.2421 5.6408 2.2314
-0.8580 1.9508 0.7831
-0.9277 1.9187 0.7828
-2.8413 5.3736 2.2314
-3.0345 5.2706 2.2314
-3.2241 5.1609 2.2314
-3.4099 5.0445 2.2314
-3.5915 4.9215 2.2314
-3.7688 4.7922 2.2314
-3.9415 4.6567 2.2314
-4.1095 4.5151 2.2314
-4.2725 4.3676 2.2314
-4.4303 4.2143 2.2314
-4.5827 4.0554 2.2314
-4.7296 3.8911 2.2314
-4.8706 3.7216 2.2314
-5.0057 3.5472 2.2314
-5.1346 3.3679 2.2314
-5.2572 3.1840 2.2314
-5.3733 2.9957 2.2314
-5.4828 2.8032 2.2314
-5.5855 2.6069 2.2314
-5.6812 2.4068 2.2314
-5.7698 2.2033 2.2314
-5.8512 1.9966 2.2314
-5.9253 1.7869 2.2314
-5.9919 1.5745 2.2314
-6.0510 1.3597 2.2314
-6.1024 1.1427 2.2314
-6.1461 0.9238 2.2314
-6.1819 0.7033 2.2314
-6.2099 0.4814 2.2314
-6.2299 0.2584 2.2314
-6.2419 0.0347 2.2314
-6.2459 -0.1896 2.2314
-6.2419 -0.4141 2.2314
-6.2297 -0.6385 2.2314
-6.2095 -0.8625 2.2314
-6.1812 -1.0859 2.2314
-6.1448 -1.3083 2.2314
-6.1004 -1.5294 2.2314
-6.0479 -1.7490 2.2314
-5.9876 -1.9668 2.2314
-5.9193 -2.1824 2.2314
-5.8431 -2.3957 2.2314
-5.7592 -2.6062 2.2314
-5.6677 -2.8137 2.2314
-5.5686 -3.0179 2.2314
-5.4620 -3.2185 2.2314
-5.3482 -3.4153 2.2314
-5.2271 -3.6080 2.2314
-5.0990 -3.7963 2.2314
-4.9640 -3.9799 2.2314
-4.8223 -4.1586 2.2314
-4.6740 -4.3321 2.2314
-4.5194 -4.5002 2.2314
-4.3587 -4.6627 2.2314
-4.1920 -4.8192 2.2314
-4.0195 -4.9697 2.2314
-3.8416 -5.1137 2.2314
-3.6584 -5.2513 2.2314
-3.4702 -5.3821 2.2314
-3.2772 -5.5060 2.2314
-3.0796 -5.6227 2.2314
-2.8779 -5.7322 2.2314
-2.6721 -5.8342 2.2314
-2.4627 -5.9286 2.2314
-2.2498 -6.0152 2.2314
-2.0339 -6.0940 2.2314
-1.8151 -6.1648 2.2314
-1.5938 -6.2275 2.2314
-1.3703 -6.2820 2.2314
-1.1449 -6.3283 2.2314
-0.9179 -6.3662 2.2314
-0.6896 -6.3957 2.2314
-0.4604 -6.4168 2.2314
-0.2306 -6.4294 2.2314
-0.0004 -5.9940 2.2314
0.2140 -5.9899 2.2314
0.4280 -5.9780 2.2314
0.6415 -5.9582 2.2314
0.8541 -5.9305 2.2314
1.0654 -5.8951 2.2314
1.2753 -5.8519 2.2314
1.4835 -5.8010 2.2314
1.6115 -5.4772 2.1283
1.8058 -5.4142 2.1283
1.9383 -5.1857 2.0652
2.1866 -5.2672 2.1283
1.7781 -3.8845 1.5950
1.7590 -3.5056 1.4650
1.7900 -3.2700 1.3932
2.9100 -4.8918 2.1283
3.0814 -4.7818 2.1283
3.2486 -4.6656 2.1283
3.4114 -4.5435 2.1283
3.5695 -4.4156 2.1283
3.7227 -4.2820 2.1283
3.8709 -4.1430 2.1283
4.0137 -3.9988 2.1283
4.1512 -3.8496 2.1283
4.2830 -3.6956 2.1283
4.4090 -3.5369 2.1283
4.5290 -3.3739 2.1283
4.6430 -3.2067 2.1283
4.7507 -3.0357 2.1283
4.8521 -2.8610 2.1283
4.9470 -2.6828 2.1283
5.0352 -2.5015 2.1283
5.1168 -2.3172 2.1283
5.1916 -2.1302 2.1283
5.2595 -1.9409 2.1283
5.3205 -1.7493 2.1283
5.3744 -1.5559 2.1283
5.4213 -1.3608 2.1283
5.4611 -1.1643 2.1283
5.4938 -0.9666 2.1283
5.5193 -0.7681 2.1283
5.5376 -0.5690 2.1283
2.0233 -0.1347 0.7761
1.9825 -0.0607 0.7599
5.5495 0.0294 2.1283
5.5392 0.2284 2.1283
5.5217 0.4267 2.1283
5.4972 0.6241 2.1283
5.4657 0.8203 2.1283
5.4273 1.0150 2.1283
5.3819 1.2081 2.1283
5.3298 1.3993 2.1283
5.2709 1.5884 2.1283
5.2054 1.7751 2.1283
5.1333 1.9591 2.1283
5.0548 2.1404 2.1283
4.9700 2.3186 2.1283
4.8790 2.4935 2.1283
4.7819 2.6650 2.1283
4.6789 2.8328 2.1283
4.5701 2.9967 2.1283
4.4556 3.1565 2.1283
4.3357 3.3121 2.1283
4.2104 3.4632 2.1283
4.0800 3.6098 2.1283
3.9445 3.7515 2.1283
3.8042 3.8883 2.1283
3.6593 4.0199 2.1283
3.5100 4.1464 2.1283
3.3563 4.2674 2.1283
2.0534 2.8136 1.3663
3.0370 4.4926 2.1283
2.8717 4.5966 2.1283
1.7741 3.0814 1.3969
1.7457 3.3017 1.4680
0.8655 1.7900 0.7819
0.8004 1.8199 0.7821
0.7343 1.8475 0.7824
0.6672 1.8726 0.7826
0.5993 1.8954 0.7828
0.5306 1.9157 0.7830
0.4612 1.9335 0.7832
0.3913 1.9488 0.7833
0.9137 5.5873 2.2314
0.7117 5.6159 2.2314
0.5089 5.6374 2.2314
0.3054 5.6517 2.2314
0.1016 5.6590 2.2314
-0.1024 5.6591 2.2314
-0.3062 5.6520 2.2314
-0.5097 5.6378 2.2314
-0.7126 5.6165 2.2314
-0.9146 5.5881 2.2314
-0.3915 1.9488 0.7831
-0.4615 1.9335 0.7830
-0.5309 1.9157 0.7828
-0.5996 1.8954 0.7826
-0.6675 1.8726 0.7824
-0.7345 1.8475 0.7821
-0.8007 1.8199 0.7818
-0.8657 1.7900 0.7815
-0.9297 1.7578 0.7812
-2.8360 4.9244 2.2314
-3.0131 4.8216 2.2314
-3.1866 4.7127 2.2314
-3.3562 4.5977 2.2314
-3.5217 4.4767 2.2314
-3.6830 4.3498 2.2314
-3.8398 4.2173 2.2314
-3.9919 4.0793 2.2314
-4.1392 3.9359 2.2314
-4.2814 3.7873 2.2314
-4.4184 3.6336 2.2314
-4.5499 3.4751 2.2314
-4.6759 3.3120 2.2314
-4.7960 3.1443 2.2314
-4.9103 2.9724 2.2314
-5.0185 2.7964 2.2314
-5.1204 2.6165 2.2314
-5.2160 2.4330 2.2314
-5.3051 2.2460 2.2314
-5.3875 2.0559 2.2314
-5.4632 1.8628 2.2314
-5.5320 1.6669 2.2314
-5.5939 1.4685 2.2314
-5.6487 1.2679 2.2314
-5.6963 1.0652 2.2314
-5.7367 0.8608 2.2314
-5.7698 0.6549 2.2314
-5.7955 0.4478 2.2314
-5.8138 0.2397 2.2314
-5.8247 0.0309 2.2314
-5.8281 -0.1783 2.2314
-5.8239 -0.3878 2.2314
-5.8122 -0.5971 2.2314
-5.7929 -0.8061 2.2314
-5.7662 -1.0144 2.2314
-5.7319 -1.2218 2.2314
-5.6901 -1.4280 2.2314
-5.6408 -1.6327 2.2314
-5.5841 -1.8357 2.2314
-5.5201 -2.0367 2.2314
-5.4488 -2.2354 2.2314
-5.3702 -2.4316 2.2314
-5.2845 -2.6249 2.2314
-5.1918 -2.8151 2.2314
-5.0922 -3.0020 2.2314
-4.9858 -3.1853 2.2314
-4.8726 -3.3647 2.2314
-4.7530 -3.5401 2.2314
-4.6269 -3.7110 2.2314
-4.4946 -3.8774 2.2314
-4.3562 -4.0389 2.2314
-4.2119 -4.1954 2.2314
-4.0619 -4.3466 2.2314
-3.9064 -4.4923 2.2314
-3.7455 -4.6323 2.2314
-3.5796 -4.7664 2.2314
-3.4088 -4.8944 2.2314
-3.2333 -5.0161 2.2314
-3.0533 -5.1313 2.2314
-2.8692 -5.2399 2.2314
-2.6811 -5.3417 2.2314
-2.4894 -5.4366 2.2314
-2.2942 -5.5244 2.2314
-2.0959 -5.6050 2.2314
-1.8947 -5.6782 2.2314
-1.6908 -5.7441 2.2314
-1.4847 -5.8024 2.2314
-1.2764 -5.8531 2.2314
-1.0665 -5.8961 2.2314
-0.8550 -5.9314 2.2314
-0.6424 -5.9588 2.2314
-0.4289 -5.9784 2.2314
-0.2148 -5.9901 2.2314
-0.0004 -5.6046 2.2314
0.2000 -5.6008 2.2314
0.4001 -5.5897 2.2314
0.5997 -5.5712 2.2314
0.7984 -5.5454 2.2314
0.9960 -5.5123 2.2314
1.1922 -5.4720 2.2314
1.3868 -5.4245 2.2314
1.5717 -5.3434 2.2204
1.6882 -5.0631 2.1283
1.8675 -4.9977 2.1283
2.0443 -4.9258 2.1283
2.2183 -4.8475 2.1283
1.7815 -3.5514 1.5870
1.7584 -3.2132 1.4637
1.7859 -3.0031 1.3969
1.9341 -3.0023 1.4286
3.0378 -4.3642 2.1283
3.1901 -4.2501 2.1283
3.3381 -4.1307 2.1283
3.4815 -4.0059 2.1283
3.6202 -3.8761 2.1283
3.7540 -3.7414 2.1283
3.8827 -3.6020 2.1283
4.0061 -3.4580 2.1283
4.1242 -3.3098 2.1283
4.2367 -3.1575 2.1283
4.3435 -3.0012 2.1283
4.4445 -2.8413 2.1283
4.5396 -2.6780 2.1283
4.6286 -2.5115 2.1283
4.7114 -2.3419 2.1283
4.7880 -2.1696 2.1283
4.8582 -1.9948 2.1283
4.9221 -1.8177 2.1283
4.9794 -1.6385 2.1283
5.0302 -1.4575 2.1283
5.0743 -1.2750 2.1283
5.1119 -1.0911 2.1283
5.1427 -0.9062 2.1283
5.1669 -0.7204 2.1283
5.1843 -0.5340 2.1283
2.0240 -0.1353 0.8292
1.9821 -0.0612 0.8114
5.1964 0.0263 2.1283
5.1870 0.2126 2.1283
5.1710 0.3983 2.1283
5.1483 0.5832 2.1283
5.1191 0.7670 2.1283
5.0834 0.9494 2.1283
5.0412 1.1304 2.1283
4.9926 1.3095 2.1283
4.9377 1.4867 2.1283
4.8766 1.6617 2.1283
4.8093 1.8342 2.1283
4.7360 2.0041 2.1283
4.6568 2.1712 2.1283
4.5717 2.3352 2.1283
4.4810 2.4960 2.1283
4.3847 2.6534 2.1283
4.2829 2.8071 2.1283
4.1758 2.9570 2.1283
4.0636 3.1030 2.1283
3.9464 3.2448 2.1283
3.8242 3.3823 2.1283
3.6974 3.5153 2.1283
3.5661 3.6436 2.1283
3.4304 3.7672 2.1283
3.2905 3.8858 2.1283
3.1465 3.9994 2.1283
2.0375 2.7910 1.4460
1.8666 2.7604 1.3952
1.7714 2.8346 1.4002
1.7463 3.0322 1.4665
0.8702 1.6454 0.7805
0.8103 1.6756 0.7807
0.7494 1.7036 0.7810
0.6875 1.7294 0.7812
0.6247 1.7529 0.7815
0.5611 1.7742 0.7816
0.4968 1.7932 0.7818
0.4319 1.8099 0.7820
0.3663 1.8243 0.7821
0.3003 1.8362 0.7822
0.2340 1.8458 0.7823
0.1673 1.8530 0.7823
0.1004 1.8578 0.7824
0.0334 1.8603 0.7824
-0.0337 1.8603 0.7824
-0.1007 1.8578 0.7823
-0.1676 1.8530 0.7823
-0.2343 1.8458 0.7822
-0.3006 1.8362 0.7821
-0.3666 1.8243 0.7820
-0.4321 1.8099 0.7818
-0.4971 1.7932 0.7816
-0.5614 1.7742 0.7814
-0.6250 1.7530 0.7812
-0.6878 1.7294 0.7810
-0.7497 1.7036 0.7807
-0.8106 1.6756 0.7804
-0.8705 1.6454 0.7801
-0.9293 1.6131 0.7798
-2.8250 4.5192 2.2314
-2.9875 4.4170 2.2314
-3.1464 4.3090 2.2314
-3.3015 4.1954 2.2314
-3.4526 4.0764 2.2314
-3.5995 3.9520 2.2314
-3.7419 3.8225 2.2314
-3.8798 3.6879 2.2314
-4.0129 3.5484 2.2314
-4.1411 3.4043 2.2314
-4.2642 3.2556 2.2314
-4.3821 3.1025 2.2314
-4.4945 2.9453 2.2314
-4.6013 2.7840 2.2314
-4.7025 2.6190 2.2314
-4.7978 2.4503 2.2314
-4.8871 2.2782 2.2314
-4.9703 2.1029 2.2314
-5.0473 1.9247 2.2314
-5.1179 1.7437 2.2314
-5.1821 1.5601 2.2314
-5.2397 1.3742 2.2314
-5.2908 1.1862 2.2314
-5.3351 0.9963 2.2314
-5.3726 0.8048 2.2314
-5.4033 0.6120 2.2314
-5.4271 0.4180 2.2314
-5.4439 0.2231 2.2314
-5.4538 0.0276 2.2314
-5.4566 -0.1683 2.2314
-5.4524 -0.3644 2.2314
-5.4411 -0.5603 2.2314
-5.4228 -0.7559 2.2314
-5.3974 -0.9509 2.2314
-5.3650 -1.1449 2.2314
-5.3256 -1.3379 2.2314
-5.2792 -1.5294 2.2314
-5.2259 -1.7193 2.2314
-5.1657 -1.9073 2.2314
-5.0987 -2.0931 2.2314
-5.0249 -2.2766 2.2314
-4.9445 -2.4573 2.2314
-4.8575 -2.6352 2.2314
-4.7640 -2.8099 2.2314
-4.6642 -2.9812 2.2314
-4.5582 -3.1490 2.2314
-4.4460 -3.3128 2.2314
-4.3279 -3.4726 2.2314
-4.2039 -3.6280 2.2314
-4.0743 -3.7790 2.2314
-3.9392 -3.9251 2.2314
-3.7987 -4.0664 2.2314
-3.6532 -4.2025 2.2314
-3.5026 -4.3332 2.2314
-3.3473 -4.4585 2.2314
-3.1875 -4.5780 2.2314
-3.0232 -4.6916 2.2314
-2.8549 -4.7992 2.2314
-2.6827 -4.9006 2.2314
-2.5068 -4.9957 2.2314
-2.3275 -5.0843 2.2314
-2.1449 -5.1662 2.2314
-1.9595 -5.2415 2.2314
-1.7713 -5.3099 2.2314
-1.5807 -5.3713 2.2314
-1.3880 -5.4258 2.2314
-1.1933 -5.4731 2.2314
-0.9970 -5.5132 2.2314
-0.7993 -5.5461 2.2314
-0.6006 -5.5718 2.2314
-0.4010 -5.5901 2.2314
-0.2008 -5.6010 2.2314
-0.0004 -5.2570 2.2314
0.1875 -5.2534 2.2314
0.3752 -5.2430 2.2314
0.5623 -5.2257 2.2314
0.7487 -5.2015 2.2314
0.9340 -5.1706 2.2314
1.1180 -5.1328 2.2314
1.3005 -5.0883 2.2314
1.4812 -5.0372 2.2314
1.5832 -4.7495 2.1283
1.7607 -4.7132 2.1396
1.9172 -4.6209 2.1283
2.0804 -4.5476 2.1283
1.7590 -3.5076 1.6707
1.7831 -3.2593 1.5825
1.7579 -2.9569 1.4660
1.7805 -2.7647 1.4021
2.8494 -4.0949 2.1283
2.9924 -3.9880 2.1283
3.1313 -3.8761 2.1283
3.2659 -3.7592 2.1283
3.3962 -3.6375 2.1283
3.5218 -3.5113 2.1283
3.6427 -3.3806 2.1283
3.7587 -3.2457 2.1283
3.8696 -3.1067 2.1283
3.9753 -2.9639 2.1283
4.0757 -2.8175 2.1283
4.1707 -2.6676 2.1283
4.2601 -2.5144 2.1283
4.3438 -2.3582 2.1283
4.4218 -2.1992 2.1283
4.4938 -2.0376 2.1283
4.5600 -1.8736 2.1283
4.6201 -1.7074 2.1283
4.6742 -1.5393 2.1283
4.7221 -1.3695 2.1283
4.7638 -1.1982 2.1283
4.7992 -1.0256 2.1283
4.8285 -0.8520 2.1283
4.8514 -0.6776 2.1283
4.8680 -0.5027 2.1283
2.0247 -0.1359 0.8833
1.9816 -0.0617 0.8638
4.8801 0.0234 2.1283
4.8715 0.1984 2.1283
4.8567 0.3729 2.1283
4.8357 0.5465 2.1283
4.8085 0.7192 2.1283
4.7752 0.8906 2.1283
4.7358 1.0607 2.1283
4.6903 1.2290 2.1283
4.6390 1.3956 2.1283
4.5818 1.5600 2.1283
4.5188 1.7222 2.1283
4.4501 1.8819 2.1283
4.3759 2.0390 2.1283
4.2962 2.1933 2.1283
4.2111 2.3445 2.1283
4.1207 2.4924 2.1283
4.0253 2.6370 2.1283
3.9248 2.7781 2.1283
3.8195 2.9153 2.1283
3.7094 3.0487 2.1283
3.5947 3.1781 2.1283
3.4757 3.3032 2.1283
3.3523 3.4240 2.1283
3.2248 3.5403 2.1283
3.0934 3.6519 2.1283
2.9582 3.7588 2.1283
2.0375 2.7901 1.5381
1.7673 2.6128 1.4050
1.7467 2.7943 1.4685
0.8724 1.5144 0.7792
0.8172 1.5447 0.7795
0.7610 1.5731 0.7798
0.7038 1.5994 0.7800
0.6456 1.6236 0.7802
0.5867 1.6457 0.7804
0.5269 1.6657 0.7806
0.4665 1.6836 0.7808
0.4055 1.6992 0.7809
0.3440 1.7127 0.7810
0.2821 1.7240 0.7811
0.2197 1.7330 0.7812
0.1571 1.7397 0.7812
0.0943 1.7443 0.7813
0.0314 1.7465 0.7813
-0.0316 1.7465 0.7813
-0.0946 1.7443 0.7812
-0.1574 1.7397 0.7812
-0.2200 1.7330 0.7811
-0.2823 1.7240 0.7810
-0.3443 1.7127 0.7809
-0.4058 1.6993 0.7808
-0.4668 1.6836 0.7806
-0.5272 1.6657 0.7804
-0.5869 1.6458 0.7802
-0.6459 1.6236 0.7800
-0.7040 1.5994 0.7797
-0.7613 1.5731 0.7795
-0.8175 1.5448 0.7792
-0.8727 1.5144 0.7789
-0.9268 1.4821 0.7786
-0.9796 1.4479 0.7782
-2.9581 4.0498 2.2314
-3.1039 3.9429 2.2314
-3.2458 3.8309 2.2314
-3.3837 3.7138 2.2314
-3.5175 3.5919 2.2314
-3.6470 3.4653 2.2314
-3.7720 3.3341 2.2314
-3.8924 3.1985 2.2314
-4.0079 3.0586 2.2314
-4.1185 2.9146 2.2314
-4.2240 2.7667 2.2314
-4.3242 2.6151 2.2314
-4.4191 2.4598 2.2314
-4.5084 2.3012 2.2314
-4.5921 2.1394 2.2314
-4.6701 1.9746 2.2314
-4.7422 1.8071 2.2314
-4.8083 1.6369 2.2314
-4.8684 1.4643 2.2314
-4.9223 1.2896 2.2314
-4.9700 1.1130 2.2314
-5.0114 0.9346 2.2314
-5.0464 0.7547 2.2314
-5.0750 0.5735 2.2314
-5.0971 0.3913 2.2314
-5.1126 0.2082 2.2314
-5.1216 0.0246 2.2314
-5.1240 -0.1594 2.2314
-5.1198 -0.3435 2.2314
-5.1089 -0.5274 2.2314
-5.0915 -0.7110 2.2314
-5.0674 -0.8940 2.2314
-5.0367 -1.0762 2.2314
-4.9995 -1.2572 2.2314
-4.9556 -1.4370 2.2314
-4.9053 -1.6152 2.2314
-4.8486 -1.7915 2.2314
-4.7855 -1.9659 2.2314
-4.7160 -2.1379 2.2314
-4.6403 -2.3075 2.2314
-4.5585 -2.4743 2.2314
-4.4705 -2.6381 2.2314
-4.3767 -2.7988 2.2314
-4.2770 -2.9560 2.2314
-4.1716 -3.1096 2.2314
-4.0606 -3.2594 2.2314
-3.9441 -3.4051 2.2314
-3.8224 -3.5466 2.2314
-3.6955 -3.6836 2.2314
-3.5636 -3.8159 2.2314
-3.4269 -3.9435 2.2314
-3.2856 -4.0660 2.2314
-3.1398 -4.1833 2.2314
-2.9897 -4.2953 2.2314
-2.8357 -4.4018 2.2314
-2.6777 -4.5026 2.2314
-2.5161 -4.5976 2.2314
-2.3511 -4.6866 2.2314
-2.1828 -4.7696 2.2314
-2.0116 -4.8464 2.2314
-1.8376 -4.9168 2.2314
-1.6611 -4.9809 2.2314
-1.4824 -5.0384 2.2314
-1.3016 -5.0894 2.2314
-1.1191 -5.1337 2.2314
-0.9350 -5.1713 2.2314
-0.7496 -5.2022 2.2314
-0.5632 -5.2262 2.2314
-0.3760 -5.2433 2.2314
-0.1884 -5.2536 2.2314
-0.0004 -4.9443 2.2314
0.1763 -4.9410 2.2314
0.3527 -4.9312 2.2314
0.5287 -4.9150 2.2314
0.7039 -4.8923 2.2314
0.8782 -4.8632 2.2314
1.0513 -4.8278 2.2314
1.2229 -4.7860 2.2314
1.3928 -4.7380 2.2314
1.5608 -4.6838 2.2314
1.6469 -4.4099 2.1283
1.8029 -4.3467 2.1283
1.9564 -4.2778 2.1283
2.1073 -4.2034 2.1283
1.7584 -3.2151 1.6594
1.7833 -3.0004 1.5813
1.7575 -2.7298 1.4716
1.7738 -2.5500 1.4087
2.8145 -3.7522 2.1283
2.9452 -3.6470 2.1283
3.0720 -3.5371 2.1283
3.1946 -3.4228 2.1283
3.3129 -3.3042 2.1283
3.4267 -3.1814 2.1283
3.5359 -3.0546 2.1283
3.6404 -2.9240 2.1283
3.7400 -2.7897 2.1283
3.8346 -2.6520 2.1283
3.9241 -2.5111 2.1283
4.0084 -2.3671 2.1283
4.0873 -2.2202 2.1283
4.1609 -2.0707 2.1283
4.2289 -1.9187 2.1283
4.2913 -1.7644 2.1283
4.3481 -1.6081 2.1283
4.3992 -1.4500 2.1283
4.4444 -1.2902 2.1283
4.4839 -1.1290 2.1283
4.5175 -0.9666 2.1283
4.5452 -0.8033 2.1283
4.5670 -0.6391 2.1283
4.5829 -0.4744 2.1283
2.0254 -0.1364 0.9386
1.9811 -0.0622 0.9173
4.5949 0.0209 2.1283
4.5870 0.1856 2.1283
4.5733 0.3499 2.1283
4.5537 0.5135 2.1283
4.5283 0.6761 2.1283
4.4971 0.8376 2.1283
4.4602 0.9978 2.1283
4.4176 1.1564 2.1283
4.3694 1.3133 2.1283
4.3157 1.4682 2.1283
4.2566 1.6211 2.1283
4.1921 1.7716 2.1283
4.1223 1.9197 2.1283
4.0474 2.0651 2.1283
3.9673 2.2076 2.1283
