ply
format ascii 1.0
element vertex 2022
property float32 x
property float32 y
property float32 z
end_header
-11.2515 3.4379 -1.5228
-16.5371 4.4106 -2.2169
-16.5504 3.7835 -2.2007
-16.6342 3.1791 -2.1969
-16.7408 2.5805 -2.1989
-12.2472 1.4399 -1.6021
-11.9816 0.9742 -1.5629
-12.2020 0.5523 -1.5893
-17.8036 0.1661 -2.3183
-18.4376 -0.4901 -2.4035
-19.6095 -1.2268 -2.5622
-21.6105 -2.1331 -2.8340
-25.2938 -3.4173 -3.3335
-30.3556 -5.2169 -4.0257
-29.9253 -6.2566 -3.9988
-13.1192 -3.2384 -1.7688
-12.6962 -3.6222 -1.7294
-12.2803 -3.9856 -1.6924
-11.8704 -4.3294 -1.6574
-11.5425 -4.6859 -1.6352
-11.3575 -5.0931 -1.6350
-11.3765 -5.6005 -1.6668
-11.2120 -6.0289 -1.6744
-11.0206 -6.4465 -1.6805
-11.1867 -7.0946 -1.7446
-23.4617 -16.0889 -3.7490
-30.9649 -22.9112 -5.0793
-26.7791 -21.3435 -4.5182
-26.4201 -22.6553 -4.5946
-25.7355 -23.7238 -4.6234
-25.1571 -24.9197 -4.6798
-25.3371 -26.9682 -4.8929
-24.4848 -28.0119 -4.9219
-24.0269 -29.5667 -5.0426
-27.3360 -36.2226 -6.0091
-25.0501 -35.7979 -5.7881
-20.6231 -31.8477 -5.0284
-21.8184 -36.5029 -5.6382
-18.2528 -33.1885 -5.0236
-18.7702 -37.2365 -5.5325
-17.8985 -38.9247 -5.6860
-15.9199 -38.1770 -5.4912
-24.3565 -64.8734 -9.2018
-22.4674 -67.0679 -9.3948
-23.9685 -81.1096 -11.2363
-20.5396 -79.9676 -10.9709
6.5197 -90.6087 -10.0017
5.7088 -52.7789 -5.8443
7.3903 -51.0890 -5.6823
9.1388 -50.3432 -5.6314
12.5111 -57.1579 -6.4386
8.8112 -34.3069 -3.8969
9.9751 -33.7574 -3.8717
11.3085 -33.7589 -3.9149
13.3329 -35.5140 -4.1700
17.5690 -42.1340 -5.0166
17.2804 -37.5827 -4.5440
10.4865 -20.8043 -2.5583
10.4568 -19.0144 -2.3819
10.5633 -17.6739 -2.2590
11.1879 -17.2784 -2.2573
10.9064 -15.5869 -2.0851
13.2611 -17.5734 -2.4118
11.6529 -14.3407 -2.0231
17.6914 -20.2415 -2.9417
19.8685 -21.1493 -3.1734
20.1374 -19.9491 -3.0979
21.7818 -20.0809 -3.2357
22.5638 -19.3503 -3.2443
25.8752 -20.6251 -3.6090
11.5712 -8.5625 -1.5689
11.0015 -7.5451 -1.4529
15.0469 -8.8027 -1.8957
15.7083 -8.4478 -1.9380
13.4901 -6.6419 -1.6325
10.8238 -3.9484 -1.2478
10.7459 -3.4883 -1.2225
11.4035 -3.2541 -1.2821
12.2940 -3.0355 -1.3679
11.4908 -2.4031 -1.2670
13.6681 -2.3499 -1.4954
12.3003 -1.6626 -1.3372
12.8712 -1.2712 -1.3921
23.4646 -1.4695 -2.5283
13.7934 -0.3675 -1.4825
1.8904 0.0175 -0.2029
12.0703 0.5456 -1.2958
12.6344 1.0265 -1.3582
12.7160 1.4943 -1.3706
21.8589 3.3680 -2.3654
20.0386 3.8284 -2.1800
17.5225 4.0046 -1.9189
17.4957 4.6651 -1.9314
17.4686 5.3364 -1.9466
18.1940 6.2804 -2.0494
16.9786 6.5519 -1.9361
17.0430 7.2898 -1.9704
19.3684 9.1202 -2.2737
18.5192 9.5469 -2.2110
15.1904 8.5344 -1.8475
15.0205 9.1633 -1.8642
14.8213 9.7885 -1.8804
16.5895 11.8327 -2.1556
17.3113 13.3102 -2.3083
13.5710 11.2320 -1.8608
13.3552 11.8862 -1.8872
38.2988 36.6325 -5.5906
35.8022 36.7942 -5.4120
33.3294 36.8082 -5.2313
31.1892 37.0335 -5.0978
28.9369 36.9749 -4.9406
26.8894 37.0231 -4.8122
25.1270 37.3452 -4.7313
9.2438 14.8641 -1.8390
8.5165 14.8583 -1.7984
8.5348 16.2124 -1.9231
7.9504 16.5145 -1.9230
7.3454 16.7726 -1.9204
6.9725 17.6158 -1.9863
6.2672 17.6614 -1.9642
13.2465 42.0615 -4.6205
9.9428 36.0372 -3.9160
8.6404 36.3594 -3.9139
7.2491 36.2412 -3.8699
5.9240 36.3565 -3.8564
4.5767 36.2383 -3.8235
3.2710 36.3536 -3.8204
1.9529 36.2355 -3.7979
0.7262 40.4551 -4.2346
-0.6548 36.4827 -3.8188
-1.9716 36.5854 -3.8347
-3.2822 36.4799 -3.8338
-4.6216 36.5951 -3.8612
-5.9436 36.4770 -3.8694
-7.3192 36.5922 -3.9076
-8.6060 36.2150 -3.8986
-9.1956 33.3295 -3.6221
-10.3377 32.8256 -3.6063
-11.4030 32.1346 -3.5741
-10.4558 26.4165 -2.9790
-12.0875 27.6010 -3.1606
-11.8903 24.6984 -2.8764
-12.5433 23.8270 -2.8268
-13.7697 24.0235 -2.9082
-17.4785 28.1055 -3.4777
-18.1334 26.9511 -3.4150
-19.0357 26.2097 -3.4073
-7.4284 9.4919 -1.2685
-19.4271 23.0675 -3.1759
-16.5802 18.3108 -2.6029
-22.2000 22.8151 -3.3565
-22.2446 21.2769 -3.2478
-22.7549 20.2522 -3.2163
-27.3701 22.6527 -3.7538
-8.3469 6.4178 -1.1133
-8.6022 6.1357 -1.1180
-8.5462 5.6442 -1.0845
-8.8660 5.4088 -1.1006
-9.1760 5.1553 -1.1163
-9.3400 4.8149 -1.1154
-9.0331 4.2535 -1.0607
-9.7677 4.1780 -1.1296
-10.2571 3.9581 -1.1700
-10.1855 3.5159 -1.1476
-11.5504 3.5285 -1.2875
-15.7892 4.2101 -1.7435
-15.8224 3.6160 -1.7332
-15.8856 3.0350 -1.7287
-11.9389 1.8395 -1.2923
-11.6771 1.3722 -1.2590
-11.7646 0.9559 -1.2651
-12.0154 0.5431 -1.2903
-12.5520 0.1163 -1.3478
-17.2220 -0.4589 -1.8515
-17.6791 -1.1071 -1.9054
-18.4124 -1.8185 -1.9920
-19.5910 -2.6480 -2.1304
-21.2776 -3.6581 -2.3287
-13.9149 -2.9101 -1.5347
-13.0219 -3.2152 -1.4493
-12.5898 -3.5927 -1.4159
-12.1608 -3.9476 -1.3839
-11.6890 -4.2640 -1.3479
-11.3710 -4.6170 -1.3306
-11.1955 -5.0212 -1.3314
-11.2291 -5.5287 -1.3593
-11.1331 -5.9873 -1.3739
-10.9057 -6.3800 -1.3743
-10.7471 -6.8166 -1.3854
-10.7934 -7.4024 -1.4258
-27.2661 -20.1765 -3.6978
-25.9518 -20.6862 -3.6205
-27.1778 -23.3072 -3.9085
-26.5446 -24.4719 -3.9440
-25.5095 -25.2711 -3.9251
-25.7509 -27.4110 -4.1137
-25.8277 -29.5507 -4.2953
-23.9974 -29.5327 -4.1671
-27.5343 -36.4881 -5.0084
-25.4291 -36.3422 -4.8624
-22.8031 -35.2167 -4.6015
-21.6208 -36.1749 -4.6244
-20.4832 -37.2464 -4.6663
-18.9629 -37.6213 -4.6269
-17.2191 -37.4496 -4.5285
-15.8955 -38.1210 -4.5393
-24.1967 -64.4521 -7.5687
-22.1614 -66.1585 -7.6729
-23.3131 -78.8968 -9.0496
-20.6535 -80.4162 -9.1350
6.2513 -86.8844 -7.6097
5.7542 -53.2024 -4.6743
7.3926 -51.1079 -4.5100
9.2891 -51.1746 -4.5416
12.3628 -56.4841 -5.0478
8.9301 -34.7719 -3.1333
10.1284 -34.2785 -3.1187
11.1865 -33.3968 -3.0720
12.3134 -32.8007 -3.0547
14.3944 -34.5230 -3.2598
17.4419 -37.9366 -3.6373
10.2939 -20.4237 -1.9914
11.0677 -20.1267 -1.9988
10.5533 -17.6584 -1.7892
12.0543 -18.6177 -1.9279
10.6455 -15.2151 -1.6131
10.9265 -14.4807 -1.5748
11.3315 -13.9463 -1.5588
18.2436 -20.8750 -2.4032
19.9782 -21.2679 -2.5275
20.6699 -20.4784 -2.5184
21.5465 -19.8658 -2.5345
23.0186 -19.7422 -2.6203
60.4964 -38.3757 -6.1678
13.4570 -6.6266 -1.2876
37.5355 -15.2431 -3.4703
11.0644 -4.0369 -1.0078
11.3606 -3.6885 -1.0210
11.6244 -3.3179 -1.0322
11.7464 -2.9011 -1.0319
11.9308 -2.4959 -1.0384
12.6575 -2.1769 -1.0929
11.8989 -1.6091 -1.0206
12.8459 -1.2695 -1.0960
25.2529 -1.5830 -2.1458
21.6255 -0.5775 -1.8325
1.8901 0.0174 -0.1599
12.2173 0.5515 -1.0336
12.3631 1.0037 -1.0471
12.4402 1.4611 -1.0562
22.0753 3.4000 -1.8812
20.0971 3.8384 -1.7213
19.7121 4.5037 -1.6992
17.4971 4.6644 -1.5200
17.4700 5.3357 -1.5316
17.4423 6.0198 -1.5454
17.1757 6.6268 -1.5402
17.5437 7.5029 -1.5946
19.6258 9.2401 -1.8109
18.4019 9.4851 -1.7265
18.3699 10.3195 -1.7554
17.1342 10.4516 -1.6704
14.6678 9.6861 -1.4615
16.5015 11.7687 -1.6836
17.3585 13.3452 -1.8170
44.5786 36.8917 -4.7976
24.7286 22.0067 -2.7422
39.0355 37.3338 -4.4706
36.3276 37.3309 -4.3077
33.8030 37.3282 -4.1613
31.4387 37.3267 -4.0295
29.2126 37.3243 -3.9106
27.1208 37.3389 -3.8049
25.1903 37.4366 -3.7178
9.8349 15.8134 -1.5334
8.3922 14.6404 -1.3887
7.9656 15.1301 -1.4063
8.0056 16.6280 -1.5170
7.3964 16.8878 -1.5148
14.7695 37.3125 -3.2956
6.1867 17.4334 -1.5186
13.2465 42.0589 -3.6185
9.9428 36.0349 -3.0665
8.6132 36.2427 -3.0551
7.2495 36.2412 -3.0303
5.9054 36.2398 -3.0099
4.5770 36.2383 -2.9937
3.2607 36.2369 -2.9816
1.9530 36.2355 -2.9736
0.7262 40.4542 -3.3154
-0.6548 36.4827 -2.9899
-1.9661 36.4813 -2.9938
-3.2825 36.4799 -3.0017
-4.6072 36.4785 -3.0137
-5.9439 36.4770 -3.0298
-7.2963 36.4756 -3.0501
-8.6060 36.2127 -3.0528
-8.8903 32.2209 -2.7422
-9.8771 31.3608 -2.6984
-11.0013 31.0005 -2.7007
-10.0254 25.3275 -2.2374
-10.7553 24.5574 -2.2030
-11.4521 23.7866 -2.1705
-12.7604 24.2377 -2.2532
-14.0184 24.4556 -2.3201
-17.4836 28.1117 -2.7265
-18.3673 27.2968 -2.7114
-19.1070 26.3060 -2.6812
-7.4271 9.4895 -0.9945
-18.7360 22.2450 -2.4020
-11.9440 13.1896 -1.4707
-12.3398 12.6807 -1.4636
-23.7565 22.7210 -2.7215
-23.0509 20.5137 -2.5568
-21.4469 17.7487 -2.3088
-8.2535 6.3453 -0.8642
-8.8840 6.3361 -0.9067
-8.4048 5.5502 -0.8377
-8.7923 5.3632 -0.8574
-9.1716 5.1523 -0.8767
-9.4774 4.8851 -0.8895
-9.6305 4.5342 -0.8889
-9.8738 4.2227 -0.8978
-10.2628 3.9596 -0.9206
-10.3830 3.5834 -0.9203
-12.1399 3.7078 -1.0647
-15.1773 4.0460 -1.3189
-15.2273 3.4791 -1.3131
-11.7207 2.2385 -1.0042
-11.3782 1.7524 -0.9700
-11.3868 1.3374 -0.9671
-11.5156 0.9349 -0.9757
-11.8346 0.5342 -1.0016
-12.4427 0.1145 -1.0532
-16.4259 -0.4387 -1.3924
-16.7676 -1.0511 -1.4253
-17.2359 -1.7034 -1.4711
-17.7815 -2.4046 -1.5258
-18.5912 -3.1974 -1.6059
-13.6751 -2.8608 -1.1907
-12.9737 -3.2042 -1.1402
-12.5409 -3.5795 -1.1139
-11.9979 -3.8955 -1.0786
-11.5471 -4.2130 -1.0521
-11.1826 -4.5413 -1.0342
-11.0403 -4.9523 -1.0379
-11.1024 -5.4671 -1.0626
-11.0857 -5.9626 -1.0819
-10.8408 -6.3428 -1.0806
-10.5967 -6.7220 -1.0807
-10.4946 -7.1983 -1.0970
-10.5339 -7.7958 -1.1307
-26.0857 -20.7950 -2.8809
-25.4439 -21.8224 -2.8972
-24.9587 -23.0119 -2.9366
-12.0791 -11.9672 -1.4721
-11.9475 -12.7188 -1.5119
-24.3545 -27.8675 -3.2090
-24.5868 -30.2605 -3.3831
-25.6481 -33.9911 -3.6973
-15.5068 -22.1634 -2.3502
-14.3890 -22.2237 -2.3017
-13.2884 -22.2350 -2.2533
-20.3104 -36.9348 -3.6687
-19.1586 -38.0121 -3.7069
-17.9521 -39.0466 -3.7443
-15.8713 -38.0654 -3.5948
-24.8223 -66.1225 -6.1587
-22.5115 -67.2080 -6.1827
-20.1659 -68.2504 -6.2100
-20.5070 -79.8507 -7.1960
-7.3439 -50.7725 -4.4807
5.8968 -54.5242 -3.5482
7.3791 -51.0178 -3.3344
10.0767 -55.5174 -3.6489
13.0888 -59.8050 -3.9578
9.0539 -35.2563 -2.3524
10.0370 -33.9716 -2.2883
11.0653 -33.0373 -2.2497
12.2433 -32.6161 -2.2484
13.6416 -32.7197 -2.2865
17.1040 -37.2042 -2.6395
19.0525 -37.8039 -2.7271
19.5996 -35.6446 -2.6185
11.2074 -18.7542 -1.4053
12.7363 -19.6725 -1.5062
10.7384 -15.3490 -1.2030
11.0447 -14.6384 -1.1765
11.4482 -14.0911 -1.1638
18.1101 -20.7240 -1.7624
20.0887 -21.3873 -1.8771
20.7839 -20.5931 -1.8697
21.7387 -20.0449 -1.8875
24.3582 -20.8931 -2.0461
58.4673 -46.6133 -4.7619
57.7399 -42.7353 -4.5691
58.0410 -39.8147 -4.4713
57.8592 -36.7070 -4.3474
62.7425 -36.7145 -4.6062
13.4250 -6.6117 -0.9457
36.1312 -16.2097 -2.4989
11.0156 -4.4741 -0.7492
11.2296 -4.0979 -0.7522
11.2843 -3.6645 -0.7455
11.4417 -3.2665 -0.7465
11.5177 -2.8453 -0.7432
11.4689 -2.4000 -0.7329
12.2004 -2.0990 -0.7732
25.6030 -3.4638 -1.6111
12.8207 -1.2678 -0.8021
25.5761 -1.6048 -1.5931
21.5117 -0.5758 -1.3356
1.8899 0.0173 -0.1171
22.2779 1.0042 -1.3798
13.4361 1.0900 -0.8328
12.1771 1.4294 -0.7562
22.2952 3.4325 -1.3892
20.4144 3.8977 -1.2779
19.8679 4.5381 -1.2512
17.4985 4.6637 -1.1101
17.4714 5.3350 -1.1181
17.4437 6.0191 -1.1277
17.3768 6.7032 -1.1365
16.0240 6.8518 -1.0619
19.8891 9.3627 -1.3375
18.0682 9.3119 -1.2350
17.6458 9.9115 -1.2280
17.0894 10.4230 -1.2128
17.8562 11.7903 -1.2947
16.4147 11.7056 -1.2183
17.4058 13.3802 -1.3250
44.9486 37.1943 -3.5165
24.7287 22.0048 -1.9928
39.0370 37.3321 -3.2479
36.3307 37.3309 -3.1287
33.8058 37.3282 -3.0215
31.4412 37.3267 -2.9250
29.2149 37.3243 -2.8378
27.1106 37.3220 -2.7592
25.1136 37.3199 -2.6881
8.9361 14.3671 -1.0102
8.5160 14.8553 -1.0215
8.0847 15.3553 -1.0345
7.6406 15.8687 -1.0491
7.4478 17.0042 -1.1051
6.8346 17.2651 -1.1047
13.2516 37.3390 -2.3557
13.2465 42.0562 -2.6203
9.9428 36.0327 -2.2203
8.6385 36.3468 -2.2183
7.2500 36.2412 -2.1938
5.9227 36.3439 -2.1851
4.5773 36.2383 -2.1670
3.2703 36.3410 -2.1643
1.9531 36.2355 -2.1522
0.7262 40.4521 -2.3995
-0.6549 36.4827 -2.1640
-1.9719 36.5854 -2.1731
-3.2827 36.4799 -2.1727
-4.6207 36.5825 -2.1877
-5.9443 36.4770 -2.1933
-7.3081 36.5323 -2.2116
-8.6060 36.2103 -2.2102
-8.8562 32.0951 -1.9780
-9.8998 31.4308 -1.9586
-11.1307 31.3632 -1.9791
-10.0506 25.3894 -1.6248
-10.7632 24.5737 -1.5973
-11.9625 24.8451 -1.6429
-12.8424 24.3918 -1.6436
-13.8934 24.2358 -1.6670
-17.2757 27.7754 -1.9535
-19.0867 28.3638 -2.0436
-18.8963 26.0138 -1.9238
-7.4261 9.4875 -0.7216
-11.5031 13.6564 -1.0705
-11.7783 13.0055 -1.0531
-12.2543 12.5918 -1.0557
-12.8041 12.2449 -1.0657
-20.9568 18.6484 -1.6895
-18.0945 14.9730 -1.4162
-8.4400 6.4880 -0.6427
-8.8125 6.2844 -0.6543
-8.6406 5.7053 -0.6268
-9.0340 5.5100 -0.6414
-9.4361 5.3002 -0.6569
-9.1709 4.7265 -0.6271
-9.3195 4.3871 -0.6270
-10.0513 4.2979 -0.6664
-10.4353 4.0255 -0.6829
-10.1955 3.5181 -0.6595
-10.6645 3.2565 -0.6828
-14.7554 3.9326 -0.9365
-14.7752 3.3749 -0.9309
-11.3086 2.1592 -0.7083
-11.0718 1.7046 -0.6902
-11.1002 1.3030 -0.6897
-11.3571 0.9214 -0.7043
-11.6885 0.5269 -0.7243
-12.3357 0.1128 -0.7649
-15.7565 -0.4218 -0.9788
-16.0500 -1.0071 -1.0002
-16.4207 -1.6238 -1.0279
-16.8307 -2.2770 -1.0596
-14.4403 -2.4844 -0.9156
-13.5855 -2.8429 -0.8686
-12.9527 -3.1998 -0.8362
-12.6685 -3.6167 -0.8269
-12.0648 -3.9180 -0.7974
-11.4212 -4.1678 -0.7654
-10.9949 -4.4657 -0.7481
-10.8627 -4.8734 -0.7516
-10.9418 -5.3887 -0.7711
-11.0147 -5.9251 -0.7918
-10.8204 -6.3317 -0.7947
-10.4826 -6.6504 -0.7880
-10.1485 -6.9616 -0.7821
-10.2814 -7.6096 -0.8139
-12.4393 -9.9173 -1.0135
-12.5474 -10.7625 -1.0544
-12.0128 -11.0768 -1.0434
-11.6172 -11.5106 -1.0454
-11.4774 -12.2194 -1.0728
-23.2879 -26.6491 -2.2670
-23.3591 -28.7519 -2.3753
-16.5966 -21.9969 -1.7685
-15.2054 -21.7342 -1.7038
-14.1484 -21.8537 -1.6737
-13.1381 -21.9851 -1.6478
-12.2740 -22.3221 -1.6402
-11.6365 -23.0892 -1.6660
-11.0801 -24.1013 -1.7103
-12.1261 -29.0850 -2.0329
-24.9843 -66.5584 -4.5889
-22.2264 -66.3610 -4.5196
-20.1538 -68.2135 -4.5955
-10.6663 -41.5351 -2.7717
-7.3638 -50.9130 -3.3278
5.4981 -50.8406 -2.1535
7.4793 -51.7142 -2.1998
9.6309 -53.0642 -2.2696
12.0393 -55.0131 -2.3688
14.0771 -54.8204 -2.3795
9.9367 -33.6341 -1.4735
11.0208 -32.9065 -1.4570
12.1741 -32.4341 -1.4534
13.9299 -33.4135 -1.5174
18.4082 -40.0438 -1.8456
19.8937 -39.4757 -1.8493
19.5858 -35.6220 -1.6987
11.5460 -19.3223 -0.9395
12.7530 -19.6997 -0.9783
13.5131 -19.3166 -0.9815
11.1651 -14.7992 -0.7707
11.8518 -14.5890 -0.7803
17.9789 -20.5755 -1.1326
20.2001 -21.5077 -1.2212
20.8988 -20.7088 -1.2157
23.5767 -21.7416 -1.3229
25.8866 -22.2062 -1.4044
44.3511 -35.3626 -2.3314
48.0105 -35.5379 -2.4505
51.7750 -35.5202 -2.5708
55.4488 -35.1818 -2.6834
59.6054 -34.8830 -2.8164
65.1935 -35.0741 -3.0127
13.3932 -6.5970 -0.6063
34.7472 -15.5911 -1.5433
11.2667 -4.5769 -0.4917
11.5763 -4.2252 -0.4971
11.8940 -3.8633 -0.5034
12.2211 -3.4898 -0.5104
11.2984 -2.7918 -0.4663
23.2127 -4.8589 -0.9479
24.4660 -4.2108 -0.9899
24.8843 -3.3681 -0.9989
12.7888 -1.2655 -0.5100
26.4534 -1.6615 -1.0492
21.6170 -0.5799 -0.8539
1.8896 0.0172 -0.0744
26.1946 1.1792 -1.0303
26.3754 2.1382 -1.0373
34.4456 4.0414 -1.3561
23.6480 3.6393 -0.9333
23.4405 4.4740 -0.9285
20.1794 4.6080 -0.8034
17.4999 4.6629 -0.7013
17.4727 5.3344 -0.7057
17.4451 6.0185 -0.7112
17.5820 6.7812 -0.7245
16.2009 6.9264 -0.6758
19.8860 9.3599 -0.8411
19.2540 9.9217 -0.8270
18.7971 10.5568 -0.8213
17.0448 10.3946 -0.7589
15.0189 9.9158 -0.6827
16.2758 11.6054 -0.7567
17.4533 13.4154 -0.8316
44.9529 37.1943 -2.1996
24.7287 22.0027 -1.2455
39.0423 37.3338 -2.0287
36.3337 37.3309 -1.9528
33.8086 37.3282 -1.8846
31.4437 37.3267 -1.8233
29.2171 37.3243 -1.7679
27.1265 37.3411 -1.7187
25.1940 37.4366 -1.6779
9.0679 14.5780 -0.6375
8.6431 15.0761 -0.6444
8.2070 15.5866 -0.6524
7.7580 16.1114 -0.6615
7.4999 17.1219 -0.6908
6.8823 17.3846 -0.6903
13.2516 37.3366 -1.4613
13.2465 42.0536 -1.6249
9.9428 36.0305 -1.3765
8.6420 36.3594 -1.3754
7.2504 36.2412 -1.3595
5.9251 36.3565 -1.3543
4.5775 36.2383 -1.3424
3.2716 36.3536 -1.3411
1.9532 36.2355 -1.3331
0.7262 40.4505 -1.4861
-0.6549 36.4827 -1.3404
-1.9720 36.5854 -1.3460
-3.2829 36.4799 -1.3459
-4.6225 36.5951 -1.3558
-5.9447 36.4770 -1.3590
-7.3206 36.5922 -1.3729
-7.9306 33.3665 -1.2624
-9.0164 32.6738 -1.2485
-9.7938 31.0925 -1.2017
-9.4716 26.6864 -1.0447
-10.1861 25.7300 -1.0219
-10.8149 24.6901 -0.9964
-11.6958 24.2895 -0.9977
-12.7392 24.1942 -1.0131
-13.7228 23.9365 -1.0236
-17.0642 27.4334 -1.2002
-24.2741 36.0699 -1.6174
-18.6907 25.7288 -1.1848
-7.4252 9.4856 -0.4495
-11.2790 13.3893 -0.6544
-11.6755 12.8910 -0.6512
-12.1975 12.5322 -0.6560
-12.7284 12.1714 -0.6618
-17.2928 15.3866 -0.8715
-9.0033 7.4494 -0.4408
-8.7510 6.7265 -0.4172
-9.2222 6.5759 -0.4290
-8.6883 5.7362 -0.3952
-9.2285 5.6279 -0.4112
-8.9528 5.0281 -0.3915
-9.7449 5.0217 -0.4189
-10.3608 4.8766 -0.4385
-10.4795 4.4803 -0.4375
-9.9829 3.8504 -0.4117
-10.2140 3.5238 -0.4167
-10.6830 3.2615 -0.4318
-14.5190 3.8687 -0.5823
-11.4149 2.6066 -0.4548
-10.9932 2.0982 -0.4358
-10.6760 1.6430 -0.4217
-10.8484 1.2728 -0.4274
-11.2033 0.9082 -0.4409
-11.6452 0.5242 -0.4584
-6.8604 0.0623 -0.2705
-15.2015 -0.4078 -0.6010
-15.4303 -0.9691 -0.6125
-15.7229 -1.5558 -0.6274
-16.0742 -2.1757 -0.6457
-14.0735 -2.4222 -0.5698
-13.4441 -2.8141 -0.5494
-12.9899 -3.2098 -0.5365
-12.8027 -3.6559 -0.5351
-12.6167 -4.0980 -0.5343
-11.2545 -4.1077 -0.4837
-10.7801 -4.3792 -0.4708
-10.6629 -4.7844 -0.4739
-10.7216 -5.2810 -0.4857
-10.8925 -5.8602 -0.5037
-10.7582 -6.2961 -0.5087
-10.3635 -6.5756 -0.5019
-10.0397 -6.8877 -0.4988
-9.9381 -7.3563 -0.5076
-10.1133 -8.0637 -0.5319
-12.4109 -10.6464 -0.6737
-11.7550 -10.8401 -0.6599
-11.3433 -11.2402 -0.6602
-11.0665 -11.7829 -0.6694
-22.3051 -25.5266 -1.4059
-14.0039 -17.2383 -0.9225
-13.6209 -18.0543 -0.9407
-15.1625 -21.6744 -1.1017
-14.1638 -21.8790 -1.0870
-13.1656 -22.0327 -1.0717
-12.2376 -22.2574 -1.0618
-11.3767 -22.5753 -1.0579
-10.9560 -23.8329 -1.0988
-11.9307 -28.6181 -1.3000
-10.9187 -29.0895 -1.3038
-14.1995 -42.3978 -1.8777
-15.0208 -50.8434 -2.2279
-10.3933 -40.4747 -1.7571
-10.6791 -48.7980 -2.1015
-11.8312 -65.1879 -2.7885
-6.7629 -46.7610 -1.9893
6.2550 -86.9526 -1.7068
9.4716 -87.5900 -1.7241
7.6563 -52.9415 -1.0461
14.5598 -80.2269 -1.5933
12.8819 -58.8671 -1.1763
9.6168 -37.4532 -0.7539
10.5937 -35.8602 -0.7281
11.3446 -33.8756 -0.6946
21.5060 -57.2994 -1.1879
17.5315 -42.0554 -0.8827
18.2853 -39.7791 -0.8464
20.0760 -39.8403 -0.8606
19.5720 -35.5994 -0.7819
11.9051 -19.9247 -0.4456
12.2333 -18.8983 -0.4310
17.9938 -25.7236 -0.5993
11.1458 -14.7748 -0.3523
18.8553 -23.2118 -0.5674
17.8499 -20.4295 -0.5130
20.3126 -21.6292 -0.5592
19.7903 -19.6121 -0.5232
21.9931 -20.2831 -0.5597
1.9666 -1.6872 -0.0483
2.1156 -1.6870 -0.0502
45.1368 -33.4142 -1.0380
48.8070 -33.4876 -1.0893
52.9051 -33.5716 -1.1481
56.7638 -33.2240 -1.1997
33.7463 -18.1578 -0.6957
13.3616 -6.5823 -0.2691
33.7440 -15.1432 -0.6650
33.7429 -13.7096 -0.6516
11.8495 -4.3257 -0.2246
12.1790 -3.9566 -0.2268
12.5188 -3.5756 -0.2294
12.8703 -3.1811 -0.2323
23.5521 -4.9314 -0.4194
24.6760 -4.2485 -0.4340
27.5865 -3.7356 -0.4799
12.7697 -1.2643 -0.2200
26.2347 -1.6493 -0.4481
22.6892 -0.6101 -0.3847
1.8893 0.0170 -0.0318
26.1831 1.1771 -0.4392
33.7278 2.7321 -0.5637
33.7264 3.9549 -0.5624
24.1574 3.7162 -0.4025
33.7237 6.4347 -0.5621
20.4353 4.6652 -0.3412
17.5013 4.6622 -0.2931
17.4741 5.3337 -0.2940
17.4465 6.0179 -0.2953
17.7917 6.8610 -0.3033
16.3814 7.0025 -0.2818
17.7356 8.3466 -0.3083
19.5461 10.0710 -0.3440
18.3525 10.3059 -0.3275
17.0006 10.3665 -0.3082
16.7861 11.0813 -0.3096
16.2446 11.5819 -0.3055
48.2634 37.0938 -0.9275
44.8474 37.1035 -0.8825
24.7273 21.9995 -0.4994
39.0457 37.3338 -0.8114
36.3131 37.3066 -0.7783
33.7547 37.2657 -0.7484
31.4462 37.3267 -0.7234
29.2194 37.3243 -0.6997
27.1147 37.3221 -0.6783
25.1172 37.3199 -0.6589
9.2034 14.7949 -0.2543
8.7739 15.3032 -0.2566
8.4479 16.0430 -0.2629
8.0734 16.7654 -0.2690
7.5525 17.2410 -0.2714
6.9307 17.5056 -0.2708
13.2516 37.3343 -0.5684
13.2465 42.0510 -0.6312
9.9428 36.0283 -0.5341
8.6148 36.2427 -0.5315
7.2508 36.2412 -0.5266
5.9064 36.2398 -0.5225
4.5778 36.2383 -0.5193
3.2613 36.2369 -0.5169
1.9533 36.2355 -0.5153
0.7262 40.4496 -0.5744
-0.6550 36.4827 -0.5181
-1.9666 36.4813 -0.5189
-3.2831 36.4799 -0.5205
-4.6081 36.4785 -0.5229
-5.9451 36.4770 -0.5261
-7.2977 36.4756 -0.5302
-8.6060 36.2057 -0.5312
-9.0202 32.6852 -0.4848
-9.8612 31.3042 -0.4702
-10.9785 30.9303 -0.4712
-10.2480 25.8848 -0.4007
-10.7710 24.5883 -0.3874
-11.7301 24.3589 -0.3912
-12.7334 24.1814 -0.3967
-13.8965 24.2378 -0.4068
-21.5093 34.5770 -0.5950
-24.2687 36.0592 -0.6374
-21.3370 29.3693 -0.5344
-7.4243 9.4837 -0.1780
-11.1401 13.2233 -0.2566
-11.6423 12.8533 -0.2585
-12.1244 12.4561 -0.2603
-12.9429 12.3754 -0.2693
-15.2863 13.6000 -0.3092
-14.6959 12.1584 -0.2896
-8.4626 6.5041 -0.1629
-9.0289 6.4373 -0.1701
-8.7365 5.7674 -0.1614
-9.6263 5.8698 -0.1748
-9.5212 5.3467 -0.1702
-9.8045 5.0517 -0.1728
-9.8059 4.6148 -0.1708
-10.0428 4.2930 -0.1731
-10.3712 3.9994 -0.1771
-10.2324 3.5295 -0.1735
-10.5730 3.2272 -0.1782
-11.4684 3.0551 -0.1924
-11.2163 2.5606 -0.1876
-10.4420 1.9924 -0.1744
-10.3985 1.5996 -0.1736
-10.6213 1.2455 -0.1775
-11.0677 0.8965 -0.1853
-11.5946 0.5212 -0.1948
-6.8574 0.0619 -0.1158
-14.6647 -0.3943 -0.2491
-14.8654 -0.9346 -0.2543
-15.1219 -1.4972 -0.2609
-15.3970 -2.0849 -0.2683
-13.8893 -2.3913 -0.2447
-13.2501 -2.7743 -0.2364
-12.8579 -3.1780 -0.2325
-12.9394 -3.6957 -0.2375
-11.5003 -3.7361 -0.2145
-11.0296 -4.0263 -0.2094
-10.6622 -4.3320 -0.2062
-10.4251 -4.6784 -0.2058
-10.3802 -5.1135 -0.2094
-10.4683 -5.6327 -0.2161
-10.6344 -6.2243 -0.2251
-10.2529 -6.5061 -0.2228
-9.9334 -6.8156 -0.2220
-9.7863 -7.2447 -0.2254
-9.8764 -7.8756 -0.2348
-12.2069 -10.4724 -0.3001
-11.4769 -10.5845 -0.2924
-11.1900 -11.0893 -0.2962
-10.7430 -11.4393 -0.2961
-10.7147 -12.2631 -0.3083
-13.1913 -16.2392 -0.3974
-12.7170 -16.8576 -0.4024
-12.1733 -17.4028 -0.4059
-11.4515 -17.6907 -0.4039
-13.2372 -22.1541 -0.4958
-12.2407 -22.2645 -0.4894
-11.2612 -22.3476 -0.4831
-10.7437 -23.3726 -0.4977
-10.8708 -26.0773 -0.5477
-10.7971 -28.7673 -0.5967
-10.1031 -30.1686 -0.6189
-9.8580 -33.3700 -0.6778
-10.1800 -39.6463 -0.7984
-9.3960 -42.9374 -0.8583
-10.0716 -55.4961 -1.1024
-6.7616 -46.7551 -0.9241
16.5661 -91.2880 0.2767
12.8802 -58.8629 0.1809
19.3597 -75.4019 0.2355
11.0879 -37.5357 0.1194
18.8031 -56.1508 0.1824
20.8188 -55.4722 0.1845
16.8449 -40.4110 0.1379
18.3125 -39.8409 0.1398
18.4060 -36.5286 0.1322
19.9749 -36.3348 0.1359
11.8821 -19.8875 0.0770
12.0373 -18.5970 0.0748
18.2128 -26.0386 0.1090
18.0596 -23.9415 0.1046
20.9279 -25.7653 0.1178
35.6302 -40.7827 0.1956
21.6454 -23.0503 0.1163
21.5107 -21.3189 0.1134
1.8383 -1.6955 0.0095
1.9704 -1.6906 0.0101
2.1197 -1.6904 0.0107
2.2784 -1.6868 0.0115
48.7299 -33.4383 0.2434
52.0133 -33.0095 0.2587
57.3436 -33.5674 0.2846
33.7981 -18.1881 0.1676
13.5451 -6.6736 0.0672
33.7887 -15.1655 0.1682
33.7841 -13.7286 0.1689
23.4971 -8.5791 0.1181
12.4778 -4.0545 0.0631
12.8312 -3.6656 0.0655
26.0078 -6.4298 0.1339
24.0789 -5.0432 0.1253
24.8896 -4.2868 0.1310
24.6135 -3.3345 0.1312
12.7607 -1.2642 0.0690
26.0472 -1.6391 0.1429
26.0681 -0.7025 0.1453
1.8891 0.0169 0.0107
26.1717 1.1750 0.1511
33.7671 2.7333 0.1986
34.1599 4.0037 0.2050
34.1586 5.2526 0.2093
34.1572 6.5153 0.2139
33.7617 7.7053 0.2162
17.9947 4.7925 0.1180
17.6844 5.3967 0.1189
17.3782 5.9932 0.1199
18.0445 6.9573 0.1279
17.8626 7.6345 0.1302
18.2667 8.5953 0.1371
19.7270 10.1628 0.1526
18.5533 10.4173 0.1481
16.9567 10.3385 0.1399
16.8950 11.1520 0.1443
16.4871 11.7536 0.1459
17.2266 13.2385 0.1582
44.8354 37.0900 0.4282
24.7259 21.9963 0.2460
39.0491 37.3338 0.4053
36.3398 37.3309 0.3944
33.8141 37.3282 0.3846
31.4487 37.3267 0.3758
29.2216 37.3243 0.3679
27.1167 37.3221 0.3607
25.1190 37.3199 0.3542
9.0368 14.5261 0.1356
8.6982 15.1700 0.1395
8.3437 15.8440 0.1436
17.9685 37.3112 0.3339
16.3447 37.3094 0.3301
14.7715 37.3077 0.3266
13.2516 37.3319 0.3238
13.2465 42.0484 0.3617
10.0030 36.2442 0.3095
8.6153 36.2427 0.3075
7.2513 36.2412 0.3058
5.9068 36.2398 0.3044
4.5781 36.2383 0.3033
3.2614 36.2369 0.3025
1.9534 36.2355 0.3019
0.7262 40.4475 0.3367
-0.6550 36.4827 0.3037
-1.9667 36.4813 0.3039
-3.2833 36.4799 0.3044
-4.6084 36.4785 0.3052
-5.9455 36.4770 0.3063
-7.2982 36.4756 0.3076
-8.0132 33.7096 0.2858
-9.1060 32.9941 0.2814
-9.9109 31.4602 0.2703
-9.5577 26.9254 0.2332
-10.3516 26.1446 0.2286
-11.0594 25.2447 0.2230
-11.6126 24.1134 0.2155
-12.7879 24.2833 0.2197
-14.6299 25.5152 0.2341
-21.1407 33.9820 0.3165
-24.2674 36.0546 0.3414
-10.2388 14.0921 0.1359
-7.4234 9.4818 0.0932
-11.1140 13.1913 0.1325
-11.6082 12.8146 0.1317
-12.0865 12.4161 0.1308
-11.4678 10.9641 0.1187
-14.0160 12.4687 0.1390
-13.7139 11.3448 0.1306
-8.9013 6.8406 0.0815
-9.0579 6.4573 0.0799
-8.6520 5.7110 0.0736
-9.2959 5.6677 0.0764
-9.3898 5.2722 0.0747
-9.5406 4.9151 0.0735
-9.6935 4.5612 0.0725
-9.8875 4.2259 0.0718
-10.0676 3.8817 0.0711
-10.2510 3.5352 0.0704
-10.4654 3.1937 0.0700
-11.2687 3.0012 0.0736
-10.4153 2.3771 0.0664
-10.2177 1.9490 0.0637
-10.3353 1.5893 0.0630
-10.5624 1.2379 0.0630
-11.0066 0.8909 0.0644
-11.5444 0.5183 0.0663
-6.8544 0.0614 0.0387
-14.1784 -0.3821 0.0786
-14.3569 -0.9035 0.0783
-14.5659 -1.4431 0.0783
-14.7961 -2.0045 0.0784
-13.5507 -2.3339 0.0709
-13.0596 -2.7353 0.0676
-12.5048 -3.0915 0.0640
-11.7311 -3.3513 0.0595
-6.5599 -2.1316 0.0330
-10.8664 -3.9675 0.0543
-10.6467 -4.3264 0.0529
-10.4130 -4.6737 0.0515
-10.1646 -5.0080 0.0501
-10.1269 -5.4496 0.0499
-10.2221 -5.9837 0.0504
-10.1448 -6.4382 0.0501
-9.9302 -6.8140 0.0493
-9.8312 -7.2787 0.0491
-9.8462 -7.8522 0.0496
-11.6869 -10.0272 0.0595
-11.3135 -10.4348 0.0584
-10.9820 -10.8840 0.0576
-10.4586 -11.1374 0.0559
-10.1851 -11.6580 0.0556
-10.9680 -13.5032 0.0614
-12.2151 -16.1934 0.0704
-11.5290 -16.4829 0.0686
-10.9445 -16.9087 0.0676
-10.6875 -17.8881 0.0689
-12.0888 -21.9898 0.0818
-11.1873 -22.2025 0.0800
-10.6192 -23.1034 0.0808
-10.5771 -25.3744 0.0863
-10.6023 -28.2502 0.0936
-9.8720 -29.4803 0.0955
-9.8507 -33.3471 0.1058
-10.1281 -39.4468 0.1229
-9.1648 -41.8834 0.1284
-9.9239 -54.6858 0.1654
-6.7599 -46.7461 0.1399
-0.0000 -87.7744 2.2349
3.0049 -83.6638 2.1318
6.0696 -84.3873 2.1549
9.0914 -84.0848 2.1549
12.0732 -83.4937 2.1506
14.7216 -81.1289 2.1033
12.8785 -58.8588 1.5381
15.3641 -59.8439 1.5786
16.6824 -56.4781 1.5062
18.9933 -56.7223 1.5317
21.5419 -57.4029 1.5720
16.7892 -40.2800 1.1205
18.3671 -39.9625 1.1310
18.4807 -36.6795 1.0579
19.5192 -35.5084 1.0455
11.6862 -19.5612 0.5891
16.3763 -25.3023 0.7807
17.5547 -25.0996 0.7951
18.7716 -24.8873 0.8110
27.2230 -33.5182 1.1259
28.3036 -32.3992 1.1245
21.0158 -22.3818 0.8045
21.6790 -21.4875 0.8019
1.8292 -1.6873 0.0656
1.9702 -1.6906 0.0686
2.1195 -1.6904 0.0718
2.2828 -1.6903 0.0755
48.1060 -33.0137 1.5546
52.0074 -33.0095 1.6463
57.3368 -33.5674 1.7812
33.7981 -18.1904 1.0323
13.7345 -6.7679 0.4131
33.7886 -15.1677 1.0025
33.7841 -13.7308 0.9904
23.5963 -8.6169 0.6845
23.7779 -7.7278 0.6835
24.8984 -7.1146 0.7104
25.1308 -6.2145 0.7126
22.1566 -4.6420 0.6253
22.9286 -3.9504 0.6448
23.2477 -3.1509 0.6525
12.7518 -1.2641 0.3576
26.2254 -1.6520 0.7359
24.3888 -0.6587 0.6856
1.8888 0.0168 0.0533
25.0993 1.1253 0.7109
33.7671 2.7312 0.9618
34.1599 4.0016 0.9798
34.1586 5.2505 0.9878
34.1572 6.5132 0.9972
20.5519 4.6892 0.6065
18.1418 4.8306 0.5419
17.8280 5.4394 0.5398
17.5185 6.0404 0.5383
17.1900 6.6267 0.5369
18.3567 7.8445 0.5835
16.5749 7.7981 0.5371
18.1551 9.3518 0.6005
16.7807 9.4209 0.5675
16.9130 10.3106 0.5858
17.0054 11.2236 0.6042
16.5948 11.8291 0.6060
16.9334 13.0119 0.6367
44.8397 37.0900 1.7392
24.7246 21.9931 0.9914
39.0525 37.3338 1.6226
36.3429 37.3309 1.5683
33.7935 37.3024 1.5184
31.4512 37.3267 1.4755
29.2239 37.3243 1.4359
27.1187 37.3221 1.4001
25.1035 37.2941 1.3668
23.2176 37.3178 1.3385
8.5946 14.9883 0.5270
8.2420 15.6498 0.5404
17.9697 37.3112 1.2670
16.3458 37.3094 1.2478
14.7622 37.2819 1.2298
13.2516 37.3295 1.2162
13.2466 42.0458 1.3549
10.0036 36.2442 1.1566
8.6158 36.2427 1.1468
7.2517 36.2412 1.1385
5.9071 36.2398 1.1317
4.5783 36.2383 1.1263
3.2616 36.2369 1.1222
1.9521 36.2097 1.1187
0.7262 40.4459 1.2481
-0.6551 36.4827 1.1258
-1.9668 36.4813 1.1271
-3.2835 36.4799 1.1297
-4.6087 36.4785 1.1336
-5.9458 36.4770 1.1389
-7.2935 36.4498 1.1449
-8.6709 36.4741 1.1539
-9.2070 33.3578 1.0642
-10.1223 32.1292 1.0350
-10.1830 28.6852 0.9343
-10.4636 26.4257 0.8714
-11.0222 25.1582 0.8411
-11.5250 23.9297 0.8123
-12.0830 22.9430 0.7918
-12.6495 22.0597 0.7753
-11.5927 18.6331 0.6680
-11.0743 16.4522 0.6026
-10.1753 14.0037 0.5250
-7.4225 9.4799 0.3645
-11.1002 13.1739 0.5204
-11.5773 12.7794 0.5198
-10.8730 11.1686 0.4688
-11.1421 10.6518 0.4626
-11.4853 10.2164 0.4602
-12.6776 10.4866 0.4913
-9.4492 7.2609 0.3550
-9.1803 6.5439 0.3349
-8.9144 5.8835 0.3165
-9.4608 5.7675 0.3274
-9.1347 5.1283 0.3087
-9.6170 4.9537 0.3178
-9.7409 4.5829 0.3153
-10.5344 4.5017 0.3345
-10.3921 4.0062 0.3243
-10.2696 3.5410 0.3153
-11.2919 3.4452 0.3415
-10.6468 2.8349 0.3177
-10.2324 2.3347 0.3017
-10.1210 1.9299 0.2952
-10.2729 1.5790 0.2968
-10.5153 1.2318 0.3013
-11.0090 0.8904 0.3132
-11.4947 0.5153 0.3252
-6.8515 0.0610 0.1930
-13.7062 -0.3702 0.3849
-13.8793 -0.8743 0.3890
-14.0610 -1.3939 0.3939
-14.2347 -1.9293 0.3991
-13.3397 -2.2983 0.3748
-12.7623 -2.6738 0.3598
-11.9662 -2.9591 0.3389
-11.5079 -3.2883 0.3280
-6.5052 -2.1142 0.1868
-10.8506 -3.9624 0.3144
-10.6313 -4.3208 0.3113
-10.4010 -4.6690 0.3083
-10.0541 -4.9543 0.3021
-9.7411 -5.2427 0.2972
-9.6148 -5.6289 0.2984
-9.6890 -6.1497 0.3064
-9.9370 -6.8195 0.3208
-9.8464 -7.2907 0.3252
-9.7939 -7.8113 0.3315
-10.7828 -9.2523 0.3750
-11.1358 -10.2718 0.3987
-10.7137 -10.6190 0.3960
-10.3174 -10.9880 0.3946
-10.0390 -11.4916 0.3985
-10.6422 -13.1031 0.4398
-10.4629 -13.8716 0.4517
-11.2354 -16.0644 0.5085
-10.7556 -16.6180 0.5124
-10.3436 -17.3137 0.5210
-10.4521 -19.0140 0.5595
-11.1854 -22.2002 0.6400
-10.4618 -22.7623 0.6439
-9.9985 -23.9880 0.6670
-10.4829 -27.9337 0.7646
-9.7237 -29.0392 0.7839
-9.2983 -31.4791 0.8392
-10.0776 -39.2524 1.0351
-9.5628 -43.7051 1.1418
-9.8554 -54.3114 1.4077
-6.7582 -46.7372 1.2036
-6.6653 -61.6451 1.5796
-6.2956 -87.5281 2.2349
-3.1504 -87.7137 2.2349
-0.0000 -46.5474 2.2349
1.6062 -44.7235 2.1488
2.2875 -31.8059 1.5313
4.7708 -44.1271 2.1318
6.4186 -44.3912 2.1549
8.0051 -44.1175 2.1549
9.5795 -43.7840 2.1549
11.1395 -43.3913 2.1549
12.6735 -42.9090 2.1534
14.0271 -41.8939 2.1276
15.2860 -40.7352 2.0968
14.6670 -35.1909 1.8387
14.9538 -32.5382 1.7284
15.6176 -30.9991 1.6769
16.3797 -29.7992 1.6443
11.4965 -19.2450 1.0851
16.3913 -25.3273 1.4618
17.5710 -25.1248 1.4873
20.0727 -26.6143 1.6190
21.0488 -25.9183 1.6236
21.8214 -24.9811 1.6150
22.1433 -23.5846 1.5773
1.7548 -1.7394 0.1206
1.8328 -1.6907 0.1219
1.9701 -1.6906 0.1271
2.1193 -1.6904 0.1329
2.2825 -1.6903 0.1395
20.7319 -14.2292 1.2371
21.1865 -13.4488 1.2367
21.8772 -12.8094 1.2514
22.3497 -12.0303 1.2551
24.4195 -12.0347 1.3485
33.7886 -15.1700 1.8379
33.7841 -13.7330 1.8129
23.6965 -8.6550 1.2564
23.8784 -7.7620 1.2528
24.0592 -6.8763 1.2508
24.3554 -6.0243 1.2565
21.1625 -4.4350 1.0849
21.1006 -3.6368 1.0764
21.2996 -2.8882 1.0826
12.7428 -1.2640 0.6462
25.4715 -1.6060 1.2904
24.8289 -0.6721 1.2582
1.8885 0.0167 0.0959
25.2298 1.1296 1.2842
33.7671 2.7291 1.7260
33.7658 3.9534 1.7353
33.7644 5.1879 1.7470
21.1998 4.0411 1.1057
20.5232 4.6814 1.0805
18.2916 4.8693 0.9734
17.9741 5.4828 0.9681
18.4300 6.3536 1.0061
17.7085 6.8254 0.9812
18.8795 8.0667 1.0633
17.0071 8.0003 0.9750
18.5978 9.5785 1.0871
18.8561 10.5847 1.1255
16.8694 10.2829 1.0300
17.1173 11.2962 1.0709
16.7041 11.9058 1.0727
17.3812 13.3547 1.1480
32.8362 27.1585 2.2349
24.6332 21.9098 1.7315
30.7184 29.3639 2.2349
29.6059 30.4083 2.2349
27.7923 30.6756 2.1825
26.0223 30.8813 2.1318
24.8683 31.7590 2.1318
23.6861 32.5956 2.1318
22.4773 33.3901 2.1318
21.2240 34.1113 2.1299
8.4933 14.8107 0.9060
8.1426 15.4600 0.9280
17.3879 36.1010 2.1299
16.0686 36.6744 2.1299
14.7315 37.2019 2.1299
13.2516 37.3272 2.1098
12.0097 38.1174 2.1299
10.0042 36.2442 2.0049
8.6164 36.2427 1.9873
7.2521 36.2412 1.9724
5.9075 36.2398 1.9601
4.5786 36.2383 1.9504
3.2618 36.2369 1.9431
1.9522 36.2097 1.9369
0.7159 39.8684 2.1299
-0.6551 36.4827 1.9490
-1.9669 36.4813 1.9513
-3.2837 36.4799 1.9560
-4.6090 36.4785 1.9631
-5.9462 36.4770 1.9728
-7.2939 36.4498 1.9835
-8.6714 36.4741 1.9997
-9.9617 36.0898 1.9961
-10.2359 32.4876 1.8150
-10.0089 28.1931 1.5932
-10.9391 27.6249 1.5813
-11.4461 26.1240 1.5168
-11.2365 23.3291 1.3761
-11.6679 22.1533 1.3295
-11.1813 19.4980 1.1924
-11.4280 18.3671 1.1465
-10.0319 14.9024 0.9511
-10.1413 13.9558 0.9124
-7.4216 9.4780 0.6360
-10.9133 12.9510 0.8937
-11.5483 12.7463 0.9065
-10.7668 11.0586 0.8124
-11.1271 10.6364 0.8092
-11.4355 10.1712 0.8034
-8.5567 7.0772 0.5821
-9.2409 7.1001 0.6100
-9.3328 6.6519 0.5990
-8.7437 5.7702 0.5467
-9.6679 5.8931 0.5900
-9.5169 5.3422 0.5678
-9.5935 4.9410 0.5605
-10.1396 4.7698 0.5810
-10.6509 4.5508 0.5995
-10.3763 3.9994 0.5746
-10.2883 3.5468 0.5613
-10.7752 3.2869 0.5800
-10.2999 2.7419 0.5478
-10.0787 2.2990 0.5303
-10.0607 1.9178 0.5244
-10.2084 1.5685 0.5279
-10.4757 1.2265 0.5380
-10.9935 0.8885 0.5616
-11.4468 0.5125 0.5823
-6.8485 0.0605 0.3474
-13.2447 -0.3585 0.6708
-13.3844 -0.8439 0.6776
-13.5316 -1.3423 0.6858
-13.7014 -1.8578 0.6960
-12.8593 -2.2163 0.6556
-12.1885 -2.5543 0.6245
-11.8022 -2.9193 0.6085
-11.3396 -3.2409 0.5892
-6.5218 -2.1200 0.3420
-10.8337 -3.9569 0.5741
-10.6151 -4.3150 0.5693
-10.3003 -4.6245 0.5600
-9.7902 -4.8249 0.5403
-9.4767 -5.1011 0.5319
-9.3520 -5.4757 0.5347
-9.2345 -5.8619 0.5387
-9.3123 -6.3915 0.5554
-9.8528 -7.2962 0.6019
-9.8041 -7.8201 0.6147
-10.3457 -8.8781 0.6672
-10.8896 -10.0456 0.7241
-10.5098 -10.4179 0.7222
-10.1431 -10.8032 0.7222
-9.9909 -11.4375 0.7391
-10.4853 -12.9110 0.8085
-10.3216 -13.6853 0.8322
-10.9065 -15.5951 0.9228
-10.4066 -16.0799 0.9277
-10.1351 -16.9660 0.9562
-10.1764 -18.5137 1.0212
-10.9497 -21.7339 1.1753
-10.3500 -22.5207 1.1960
-9.7702 -23.4418 1.2245
-10.3697 -27.6337 1.4221
-9.6527 -28.8290 1.4638
-9.1967 -31.1371 1.5623
-9.1151 -35.5058 1.7630
-8.6999 -39.7637 1.9568
-7.9197 -43.6467 2.1317
-6.4516 -44.6189 2.1658
-5.0019 -46.2641 2.2349
-3.3388 -46.4218 2.2349
-1.6707 -46.5161 2.2349
-0.0000 -31.6495 2.2349
1.1358 -31.6281 2.2349
2.0053 -27.8843 1.9743
3.2440 -30.0074 2.1318
4.3181 -29.8662 2.1318
5.3860 -29.6853 2.1318
6.5159 -29.7837 2.1549
7.5782 -29.5211 2.1549
8.6296 -29.2192 2.1549
9.6549 -28.8374 2.1518
10.6099 -28.2760 2.1380
11.4508 -27.4761 2.1083
12.4359 -27.0611 2.1106
13.3230 -26.4463 2.0999
14.1316 -25.7111 2.0818
14.9843 -25.0853 2.0748
15.8460 -24.4864 2.0725
16.6263 -23.7756 2.0631
17.3233 -22.9706 2.0476
17.6428 -21.7260 1.9935
17.7815 -20.3578 1.9271
17.7546 -18.9118 1.8510
1.7326 -1.7176 0.1743
1.8326 -1.6907 0.1783
1.9699 -1.6906 0.1858
2.1191 -1.6904 0.1942
2.2823 -1.6903 0.2037
18.9986 -13.0410 1.6546
19.3837 -12.3058 1.6505
19.6587 -11.5119 1.6395
19.7913 -10.6546 1.6195
19.6768 -9.6987 1.5825
19.2305 -8.6351 1.5226
19.0290 -7.7365 1.4855
18.7282 -6.8416 1.4437
18.5270 -6.0236 1.4124
18.3985 -5.2596 1.3891
18.3702 -4.5450 1.3755
18.4974 -3.8777 1.3755
18.7350 -3.2302 1.3855
19.0106 -2.5789 1.4000
12.7341 -1.2639 0.9351
19.7309 -1.2453 1.4465
20.2168 -0.5485 1.4817
1.8883 0.0166 0.1385
22.8368 1.0211 1.6792
29.1607 2.3551 2.1519
29.0595 3.4006 2.1549
21.9023 3.3639 1.6342
19.5597 3.7273 1.4704
20.4895 4.6724 1.5539
18.4442 4.9088 1.4130
18.1229 5.5271 1.4045
18.6798 6.4385 1.4664
18.7908 7.2414 1.4965
20.7042 8.8449 1.6751
17.4635 8.2139 1.4376
17.6075 9.0673 1.4770
18.1849 10.2067 1.5570
16.8260 10.2552 1.4728
17.2310 11.3700 1.5447
16.8150 11.9836 1.5467
17.4597 13.4137 1.6510
22.1234 18.2964 2.1549
21.2001 18.8546 2.1317
20.4902 19.5850 2.1317
19.7558 20.2895 2.1317
18.9980 20.9672 2.1317
18.2176 21.6175 2.1317
17.4170 22.2414 2.1318
17.3969 23.9390 2.2349
16.5142 24.5301 2.2349
15.6120 25.0898 2.2349
14.6916 25.6174 2.2349
13.7539 26.1124 2.2349
12.8002 26.5741 2.2349
11.8316 27.0023 2.2349
8.6921 21.9490 1.7905
9.8543 27.7558 2.2349
8.8479 28.0805 2.2349
7.8312 28.3700 2.2349
6.8076 28.6326 2.2356
5.7741 28.8533 2.2358
4.7338 29.0381 2.2360
3.6872 29.1817 2.2358
2.6365 29.2877 2.2355
1.5829 29.3568 2.2352
0.5278 29.3901 2.2349
-0.5187 28.8845 2.1964
-1.5245 28.2724 2.1526
-2.5180 27.9708 2.1349
-3.5247 27.8952 2.1371
-4.5229 27.7442 2.1362
-5.5124 27.5453 2.1343
-6.4930 27.3094 2.1321
-7.4709 27.0643 2.1318
-8.4927 26.9530 2.1449
-9.4588 26.6418 2.1449
-10.8961 27.5144 2.2442
-12.1555 27.7413 2.2957
-11.1386 23.1242 1.9445
-11.3867 21.6178 1.8499
-11.0681 19.2992 1.6834
-11.3995 18.3199 1.6315
-9.9851 14.8318 1.3510
-9.9964 13.7554 1.2839
-7.4207 9.4761 0.9081
-10.7282 12.7304 1.2550
-11.4512 12.6381 1.2845
-11.0870 11.3865 1.1959
-11.0940 10.6039 1.1538
-11.3435 10.0884 1.1402
-11.3315 9.3712 1.1034
-11.3833 8.7454 1.0760
-9.1409 6.5145 0.8405
-8.5791 5.6610 0.7688
-9.8813 6.0225 0.8646
-9.8734 5.5417 0.8450
-9.5216 4.9033 0.7984
-10.2469 4.8196 0.8432
-10.4939 4.4830 0.8487
-10.7787 4.1538 0.8581
-10.7889 3.7187 0.8466
-10.3547 3.1580 0.8021
-10.1221 2.6939 0.7751
-10.0222 2.2855 0.7597
-10.0539 1.9158 0.7555
-10.1572 1.5600 0.7575
-10.3788 1.2145 0.7693
-10.5414 0.8513 0.7776
-10.9715 0.4906 0.8064
-6.8455 0.0601 0.5020
-10.7344 -0.2912 0.7864
-10.7803 -0.6804 0.7900
-10.8370 -1.0756 0.7954
-10.9229 -1.4818 0.8040
-11.0229 -1.9005 0.8148
-11.1322 -2.3337 0.8275
-11.2687 -2.7880 0.8434
-11.2870 -3.2266 0.8518
-11.0366 -3.5883 0.8410
-10.8154 -3.9509 0.8334
-10.6115 -4.3142 0.8281
-10.3319 -4.6393 0.8177
-9.8002 -4.8305 0.7879
-9.4511 -5.0879 0.7731
-9.3589 -5.4804 0.7802
-9.2622 -5.8801 0.7884
-9.1904 -6.3084 0.8001
-9.8902 -7.3246 0.8824
-9.8722 -7.8753 0.9045
-9.8954 -8.4925 0.9330
-10.6652 -9.8395 1.0372
-10.3002 -10.2110 1.0356
-10.0415 -10.6959 1.0466
-9.9535 -11.3956 1.0784
-10.0619 -12.3906 1.1366
-10.1837 -13.5034 1.2034
-9.9946 -14.2923 1.2399
-10.2628 -15.8588 1.3419
-10.0335 -16.7971 1.3889
-10.0642 -18.3108 1.4822
-10.3570 -20.5589 1.6320
-10.3388 -22.4977 1.7543
-9.8796 -23.7058 1.8187
-10.2880 -27.4178 2.0728
-6.5653 -19.6092 1.4630
-6.5624 -22.2199 1.6385
-7.4973 -29.2058 2.1317
-6.4741 -29.5923 2.1409
-5.6470 -31.1232 2.2349
-4.5273 -31.3125 2.2349
-3.4011 -31.4599 2.2349
-2.2701 -31.5654 2.2349
-1.1359 -31.6286 2.2349
-0.0000 -23.9574 2.2349
0.8597 -23.9414 2.2349
1.6390 -22.7915 2.1318
1.7887 -16.5462 1.5528
3.2688 -22.6099 2.1318
4.0774 -22.4741 2.1318
4.8802 -22.3086 2.1318
5.7378 -22.3531 2.1549
6.5344 -22.1265 2.1549
7.3219 -21.8708 2.1549
8.0992 -21.5863 2.1549
8.8652 -21.2734 2.1549
9.6189 -20.9327 2.1549
10.3592 -20.5646 2.1549
11.0851 -20.1696 2.1549
11.7956 -19.7485 2.1549
12.4898 -19.3017 2.1549
13.1668 -18.8300 2.1549
13.8075 -18.3101 2.1521
14.4145 -17.7520 2.1474
14.8623 -17.0171 2.1231
15.2959 -16.2943 2.1015
1.7240 -1.7092 0.2285
1.8325 -1.6907 0.2348
1.9697 -1.6906 0.2446
2.1189 -1.6904 0.2557
2.2821 -1.6903 0.2681
17.2153 -11.8182 1.9729
17.4156 -11.0576 1.9508
17.4551 -10.2227 1.9145
13.3924 -7.2107 1.4409
17.3260 -8.5412 1.8316
17.2186 -7.7329 1.7914
17.0086 -6.9161 1.7442
16.8925 -6.1721 1.7101
16.8249 -5.4713 1.6839
16.7248 -4.7822 1.6573
16.7364 -4.1419 1.6443
16.7956 -3.5220 1.6382
16.8775 -2.9110 1.6366
17.0321 -2.3116 1.6442
12.7261 -1.2639 1.2245
17.4083 -1.0997 1.6719
17.6766 -0.4807 1.6966
1.8880 0.0165 0.1813
18.2005 0.8127 1.7516
18.5273 1.4952 1.7889
18.9941 2.2215 1.8423
19.7660 3.0346 1.9284
20.6480 3.9334 2.0290
18.9310 4.3159 1.8761
18.5998 4.9490 1.8616
18.2748 5.5722 1.8497
18.9373 6.5260 1.9410
19.0548 7.3419 1.9807
20.4115 8.7185 2.1549
17.9468 8.4400 1.9272
17.9254 9.2298 1.9610
18.6405 10.4611 2.0809
16.7826 10.2276 1.9149
17.3466 11.4450 2.0266
17.6138 12.5516 2.1108
17.4959 13.4401 2.1549
16.9889 14.0487 2.1549
16.4611 14.6385 2.1549
15.9133 15.2090 2.1549
15.3462 15.7594 2.1549
14.7605 16.2892 2.1549
14.1569 16.7977 2.1549
13.5362 17.2843 2.1549
12.8993 17.7487 2.1549
12.2468 18.1901 2.1549
11.5796 18.6081 2.1549
10.7818 18.7987 2.1318
10.0951 19.1647 2.1318
9.3964 19.5061 2.1318
8.6864 19.8228 2.1318
7.9661 20.1143 2.1318
7.2362 20.3804 2.1318
6.4978 20.6207 2.1318
5.7516 20.8350 2.1318
4.9986 21.0230 2.1318
4.2397 21.1846 2.1318
3.6448 22.3565 2.2355
2.8398 22.4739 2.2359
2.0312 22.5629 2.2363
1.2199 22.6240 2.2367
0.4069 22.6569 2.2371
-0.4070 22.6612 2.2376
-1.2207 22.6373 2.2380
-2.0324 22.5753 2.2375
-2.8413 22.4851 2.2369
-3.6465 22.3664 2.2364
-4.4469 22.2197 2.2359
-5.2418 22.0452 2.2353
-6.0216 21.8126 2.2317
-6.4985 20.6227 2.1318
-7.2370 20.3826 2.1318
-7.9670 20.1167 2.1318
-7.0922 16.1846 1.7403
-9.3977 19.5088 2.1318
-10.0967 19.1675 2.1318
-10.8953 18.9966 2.1539
-9.8246 15.7877 1.8280
-9.9799 14.8229 1.7557
-9.8925 13.6114 1.6523
-7.4198 9.4742 1.1810
-10.7070 12.7041 1.6294
-11.3689 12.5462 1.6594
-11.2111 11.5130 1.5739
-11.1312 10.6385 1.5070
-11.2867 10.0370 1.4772
-11.4027 9.4293 1.4460
-11.4924 8.8283 1.4151
-8.9562 6.3822 1.0730
-9.7062 6.4040 1.1337
-9.7441 5.9382 1.1115
-10.1535 5.6982 1.1331
-10.2440 5.2746 1.1204
-9.9849 4.6957 1.0719
-11.1531 4.7639 1.1771
-11.1403 4.2924 1.1577
-10.5560 3.6377 1.0816
-10.1997 3.1100 1.0320
-10.0280 2.6682 1.0033
-9.9662 2.2721 0.9874
-10.0067 1.9062 0.9830
-10.1118 1.5524 0.9862
-10.1478 1.1869 0.9839
-10.1819 0.8217 0.9828
-10.6393 0.4751 1.0236
-6.8425 0.0597 0.6570
-10.5104 -0.2858 1.0085
-10.5883 -0.6689 1.0166
-10.6826 -1.0610 1.0276
-10.7732 -1.4621 1.0396
-10.8476 -1.8710 1.0516
-10.9235 -2.2906 1.0651
-11.0697 -2.7395 1.0872
-11.2538 -3.2178 1.1148
-11.0177 -3.5828 1.1024
-10.8076 -3.9488 1.0938
-10.6224 -4.3193 1.0890
-10.3639 -4.6544 1.0779
-9.8115 -4.8367 1.0369
-9.4551 -5.0908 1.0170
-9.3868 -5.4974 1.0293
-9.2901 -5.8985 1.0403
-9.2301 -6.3364 1.0575
-9.2684 -6.8648 1.0885
-9.9415 -7.9313 1.1993
-9.9977 -8.5811 1.2414
-10.4987 -9.6867 1.3449
-10.1639 -10.0768 1.3465
-9.9555 -10.6053 1.3675
-9.9266 -11.3657 1.4177
-9.8937 -12.1844 1.4736
-10.0848 -13.3733 1.5715
-9.8872 -14.1397 1.6179
-10.2075 -15.7745 1.7608
-9.9335 -16.6309 1.8144
-10.0051 -18.2046 1.9446
-6.6757 -13.2522 1.3885
-6.5710 -14.2997 1.4719
-6.5866 -15.8053 1.6008
-6.7431 -17.9718 1.7939
-7.2437 -21.6371 2.1317
-6.4831 -21.9526 2.1378
-5.9513 -23.1848 2.2349
-5.1167 -23.3890 2.2349
-4.2749 -23.5623 2.2349
-3.4271 -23.7043 2.2349
-2.5745 -23.8151 2.2349
-1.7183 -23.8942 2.2349
-0.8598 -23.9417 2.2349
-0.0000 -19.2574 2.2349
0.6910 -19.2446 2.2349
1.3811 -19.2064 2.2349
1.9666 -18.1932 2.1240
1.7578 -12.1593 1.4262
3.2776 -18.0668 2.1318
3.9231 -17.9345 2.1318
4.5633 -17.7786 2.1318
5.1971 -17.5994 2.1318
5.8869 -17.5855 2.1549
6.5123 -17.3579 2.1549
7.1288 -17.1076 2.1549
7.7354 -16.8351 2.1549
8.3315 -16.5405 2.1549
8.9162 -16.2244 2.1549
9.4887 -15.8873 2.1549
10.0482 -15.5295 2.1549
10.5940 -15.1518 2.1549
11.1254 -14.7545 2.1549
11.6416 -14.3383 2.1549
12.1421 -13.9036 2.1549
12.6106 -13.4348 2.1523
1.7212 -1.7066 0.2833
1.8323 -1.6907 0.2916
1.9695 -1.6906 0.3037
2.1187 -1.6904 0.3174
2.2818 -1.6903 0.3327
14.9687 -10.2771 2.1290
15.3014 -9.7164 2.1268
15.4863 -9.0708 2.1074
13.3582 -7.1932 1.7828
15.4968 -7.6405 2.0318
15.4287 -6.9301 1.9904
15.3428 -6.2398 1.9507
15.2775 -5.5830 1.9171
15.1914 -4.9411 1.8843
15.1845 -4.3428 1.8644
15.1746 -3.7563 1.8469
15.2051 -3.1894 1.8370
15.2308 -2.6279 1.8290
15.2833 -2.0752 1.8267
12.7180 -1.2639 1.5149
15.4590 -0.9776 1.8376
15.5822 -0.4247 1.8507
1.8877 0.0163 0.2243
15.8890 0.7085 1.8915
16.0436 1.2937 1.9157
16.3046 1.9060 1.9554
16.5849 2.5452 2.0003
16.8734 3.2133 2.0494
17.0931 3.8958 2.0934
17.1839 4.5712 2.1250
17.1793 5.2371 2.1480
17.0209 5.8645 2.1548
16.7875 6.4672 2.1549
16.5320 7.0603 2.1549
16.2557 7.6436 2.1549
15.9592 8.2163 2.1549
15.6427 8.7776 2.1549
15.3067 9.3270 2.1549
14.9517 9.8638 2.1549
14.5782 10.3873 2.1549
14.1866 10.8969 2.1549
13.7775 11.3920 2.1549
13.3513 11.8720 2.1549
12.9088 12.3363 2.1549
12.4504 12.7845 2.1549
11.9767 13.2160 2.1549
11.4884 13.6303 2.1549
10.9860 14.0269 2.1549
10.4702 14.4053 2.1549
9.9417 14.7651 2.1549
9.4010 15.1060 2.1549
8.8489 15.4274 2.1549
8.2860 15.7291 2.1549
7.7131 16.0108 2.1549
7.1309 16.2720 2.1549
6.5400 16.5124 2.1549
5.9412 16.7319 2.1549
5.2780 16.7488 2.1318
4.6722 16.9237 2.1318
4.0607 17.0772 2.1318
3.4443 17.2091 2.1318
2.8237 17.3193 2.1318
2.1998 17.4076 2.1318
1.6493 18.3194 2.2350
0.9906 18.3698 2.2355
0.3304 18.3962 2.2358
-0.3305 18.3988 2.2361
-0.9911 18.3780 2.2364
-1.6506 18.3338 2.2367
-2.3084 18.2662 2.2369
-2.9626 18.1705 2.2365
-3.6129 18.0514 2.2360
-4.2588 17.9102 2.2357
-4.8997 17.7476 2.2354
-5.5345 17.5625 2.2352
-6.1626 17.3552 2.2350
-6.5463 16.5282 2.1568
-7.0552 16.0993 2.1318
-7.6314 15.8410 2.1318
-8.1983 15.5625 2.1318
-8.7552 15.2641 2.1318
-9.3016 14.9462 2.1318
-9.8366 14.6090 2.1318
-9.8805 13.5938 2.0332
-7.4189 9.4723 1.4550
-10.7102 12.7069 2.0086
-11.1725 12.3284 2.0099
-11.5617 11.8719 2.0007
-11.2372 10.7388 1.8755
-11.3084 10.0554 1.8248
-11.5184 9.5240 1.8012
-11.5302 8.8565 1.7511
-11.5729 8.2459 1.7103
-11.6914 7.7129 1.6847
-9.6101 5.8558 1.3526
-10.0467 5.6375 1.3837
-10.1704 5.2360 1.3730
-12.2100 5.7412 1.6182
-12.0373 5.1408 1.5687
-11.4458 4.4093 1.4689
-10.2800 3.5419 1.3011
-10.0340 3.0589 1.2543
-9.9705 2.6523 1.2326
-9.9464 2.2669 1.2178
-9.9672 1.8981 1.2103
-10.0081 1.5359 1.2068
-10.0436 1.1741 1.2042
-10.1140 0.8156 1.2074
-10.4193 0.4646 1.2400
-6.8396 0.0592 0.8125
-10.3940 -0.2833 1.2342
-10.4759 -0.6624 1.2449
-10.5620 -1.0496 1.2578
-10.6496 -1.4460 1.2725
-10.7395 -1.8530 1.2893
-10.8481 -2.2755 1.3103
-11.0162 -2.7269 1.3404
-11.2444 -3.2159 1.3803
-11.0058 -3.5797 1.3648
-10.8188 -3.9536 1.3573
-10.6334 -4.3245 1.3516
-10.3961 -4.6696 1.3409
-9.8124 -4.8378 1.2862
-9.4592 -5.0936 1.2621
-9.4064 -5.5096 1.2797
-9.3184 -5.9171 1.2949
-9.2704 -6.3647 1.3182
-9.2240 -6.8326 1.3447
-10.0273 -8.0006 1.5018
-10.0800 -8.6526 1.5542
-10.2958 -9.5004 1.6380
-10.0156 -9.9306 1.6481
-9.8626 -10.5071 1.6830
-9.9228 -11.3623 1.7607
-9.8304 -12.1074 1.8193
-9.9939 -13.2538 1.9354
-9.7906 -14.0026 1.9912
-6.5911 -10.1865 1.4133
-6.5823 -11.0209 1.4947
-6.5943 -11.9993 1.5935
-6.5915 -13.0860 1.7047
-6.9240 -15.0689 1.9286
-6.7451 -16.1867 2.0387
-6.4860 -17.2877 2.1460
-6.1060 -18.2399 2.2349
-5.4489 -18.4519 2.2349
-4.7843 -18.6396 2.2349
-4.1131 -18.8029 2.2349
-3.4363 -18.9414 2.2349
-2.7547 -19.0550 2.2349
-2.0694 -19.1435 2.2349
-1.3812 -19.2068 2.2349
-0.6911 -19.2448 2.2349
-0.0000 -16.0852 2.2349
0.5771 -16.0746 2.2349
1.1535 -16.0428 2.2349
1.6486 -15.2525 2.1318
1.9900 -13.7667 1.9331
2.0429 -11.2619 1.5908
3.2770 -14.9817 2.1318
3.8118 -14.8519 2.1318
4.3415 -14.7028 2.1318
4.8652 -14.5343 2.1318
5.3823 -14.3470 2.1318
5.9559 -14.2940 2.1549
6.4631 -14.0670 2.1549
6.9616 -13.8217 2.1549
7.4506 -13.5585 2.1549
7.9295 -13.2777 2.1549
8.3977 -12.9797 2.1549
8.8546 -12.6649 2.1549
9.2994 -12.3339 2.1549
9.7318 -11.9869 2.1549
10.1510 -11.6247 2.1549
10.5566 -11.2475 2.1549
1.7302 -1.7157 0.3406
1.8321 -1.6907 0.3486
1.9693 -1.6906 0.3631
2.1184 -1.6904 0.3794
2.2816 -1.6903 0.3977
12.6755 -8.7036 2.1549
12.9721 -8.2382 2.1549
13.2514 -7.7627 2.1549
13.3241 -7.1758 2.1248
13.5908 -6.7017 2.1289
13.6683 -6.1403 2.1065
13.7139 -5.5783 2.0826
13.7424 -5.0229 2.0596
13.7551 -4.4748 2.0374
13.7938 -3.9459 2.0222
13.8308 -3.4246 2.0097
13.8572 -2.9076 1.9984
13.9028 -2.3997 1.9926
13.9548 -1.8957 1.9904
12.6346 -1.2564 1.7958
14.0990 -0.8924 1.9994
14.1741 -0.3872 2.0082
1.8875 0.0162 0.2675
14.3482 0.6389 2.0370
14.4582 1.1650 2.0586
14.5523 1.7002 2.0808
14.6193 2.2426 2.1020
14.6725 2.7932 2.1242
14.6708 3.3428 2.1414
14.5932 3.8811 2.1505
14.4647 4.4086 2.1549
14.2877 4.9218 2.1549
14.0926 5.4281 2.1549
13.8797 5.9267 2.1549
13.6495 6.4172 2.1549
13.4020 6.8988 2.1549
13.1377 7.3711 2.1549
12.8569 7.8334 2.1549
12.5601 8.2851 2.1549
12.2476 8.7258 2.1549
11.9199 9.1549 2.1549
11.5773 9.5718 2.1549
11.2203 9.9761 2.1549
10.8494 10.3673 2.1549
10.4651 10.7450 2.1549
10.0678 11.1086 2.1549
9.6581 11.4578 2.1549
9.2365 11.7922 2.1549
8.8035 12.1112 2.1549
8.3597 12.4147 2.1549
7.9056 12.7022 2.1549
7.4418 12.9734 2.1549
6.9689 13.2279 2.1549
6.4874 13.4655 2.1549
5.9980 13.6859 2.1549
5.4423 13.7401 2.1318
4.9442 13.9233 2.1318
4.4401 14.0889 2.1318
3.9306 14.2365 2.1318
3.4162 14.3661 2.1318
2.8977 14.4774 2.1318
2.3757 14.5704 2.1318
1.8508 14.6450 2.1318
1.3876 15.4119 2.2349
0.8332 15.4511 2.2349
0.2778 15.4707 2.2349
-0.2779 15.4707 2.2349
-0.8333 15.4512 2.2349
-1.3877 15.4122 2.2349
-1.9404 15.3536 2.2349
-2.4908 15.2755 2.2349
-3.0381 15.1782 2.2349
-3.5817 15.0615 2.2349
-4.1210 14.9258 2.2349
-4.6552 14.7711 2.2349
-5.1837 14.5977 2.2349
-5.7060 14.4056 2.2349
-6.2213 14.1952 2.2349
-6.5178 13.5285 2.1648
-6.8949 13.0875 2.1318
-7.3629 12.8357 2.1318
