ply
format ascii 1.0
element vertex 2039
property float32 x
property float32 y
property float32 z
end_header
-10.2757 10.5604 -1.2114
-11.1903 10.7035 -1.2745
-11.5234 10.2560 -1.2711
-12.3502 10.2216 -1.3225
-15.5783 11.9779 -1.6229
-11.6254 8.2921 -1.1808
-11.6558 7.6980 -1.1565
-11.8759 7.2450 -1.1532
-12.2678 6.8925 -1.1680
-12.7700 6.5831 -1.1941
-16.0182 7.5427 -1.4735
-16.2408 6.9468 -1.4721
-16.4833 6.3608 -1.4744
-16.7675 5.7880 -1.4824
-17.1103 5.2270 -1.4972
-13.0145 3.4703 -1.1288
-11.9434 2.7296 -1.0282
-11.1779 2.1356 -0.9565
-10.9897 1.6933 -0.9359
-11.0233 1.2954 -0.9356
-11.0634 0.8989 -0.9370
-10.9569 0.4953 -0.9272
-10.7000 0.0992 -0.9059
-10.2594 -0.2733 -0.8702
-10.3387 -0.6474 -0.8796
-10.3339 -1.0206 -0.8830
-10.4396 -1.4111 -0.8971
-10.7961 -1.8561 -0.9342
-12.5589 -2.6265 -1.0957
-12.5173 -3.0907 -1.1026
-12.5281 -3.5751 -1.1157
-12.5910 -4.0872 -1.1352
-12.1772 -4.4421 -1.1131
-11.7797 -4.7830 -1.0932
-11.5043 -5.1597 -1.0856
-11.5240 -5.6739 -1.1074
-12.0028 -6.4550 -1.1764
-24.8003 -14.5087 -2.4833
-24.4549 -15.5112 -2.5059
-24.1688 -16.5756 -2.5390
-23.9833 -17.7473 -2.5878
-23.8458 -19.0075 -2.6479
-23.8149 -20.4233 -2.7271
-23.8722 -22.0082 -2.8254
-15.3179 -15.1748 -1.8781
-14.3809 -15.3080 -1.8313
-13.4040 -15.3362 -1.7776
-12.6549 -15.5740 -1.7529
-12.4147 -16.4518 -1.8019
-11.6366 -16.6305 -1.7760
-11.1832 -17.2712 -1.8017
-19.1075 -31.9698 -3.2637
-13.0970 -23.8155 -2.3833
-11.9979 -23.8031 -2.3389
-20.7102 -45.0426 -4.3527
-24.8612 -59.6229 -5.6748
-22.7840 -60.6891 -5.6975
-23.1509 -69.1128 -6.4090
-21.4918 -72.7334 -6.6715
-24.5847 -95.7232 -8.6968
-20.6972 -94.5588 -8.5206
1.9733 -54.9213 -3.5963
8.5960 -79.4774 -5.2295
6.3902 -44.1781 -2.9193
8.4772 -46.7023 -3.1032
11.6964 -53.4398 -3.5751
12.7007 -49.4541 -3.3354
11.0421 -37.3712 -2.5442
9.3044 -27.7783 -1.9115
10.2664 -27.3481 -1.9048
10.8788 -26.0916 -1.8420
11.9686 -26.0324 -1.8655
13.4667 -26.7190 -1.9465
16.7605 -30.4795 -2.2608
18.8793 -31.5905 -2.3897
20.9206 -32.3121 -2.4970
20.2163 -28.8948 -2.2851
21.4128 -28.3785 -2.3010
11.4865 -14.1374 -1.1776
11.4499 -13.1016 -1.1235
11.4155 -12.1526 -1.0751
13.2422 -13.1198 -1.2004
12.2859 -11.3278 -1.0746
11.3633 -9.7461 -0.9613
10.6849 -8.5179 -0.8761
11.0576 -8.1834 -0.8807
11.7339 -8.0485 -0.9095
12.1726 -7.7218 -0.9199
22.1235 -12.9446 -1.6330
57.5735 -30.9675 -4.1577
59.8165 -29.4560 -4.2332
91.8186 -37.2890 -6.2695
80.5795 -26.1637 -5.3400
35.9093 -10.2501 -2.3494
35.8645 -8.8582 -2.3197
35.8254 -7.4952 -2.2939
35.7915 -6.1561 -2.2717
35.7627 -4.8367 -2.2530
26.9794 -2.6668 -1.6892
26.8329 -1.6825 -1.6719
13.5208 -0.3613 -0.8394
22.7463 0.2090 -1.4089
24.1467 1.0895 -1.4941
22.8617 1.8557 -1.4150
24.7625 2.9079 -1.5351
26.0959 4.0188 -1.6224
11.0472 2.1097 -0.6897
11.1778 2.5537 -0.7018
11.2508 2.9991 -0.7113
11.4492 3.4966 -0.7299
11.5525 3.9868 -0.7437
12.0644 4.6545 -0.7854
21.8589 9.3479 -1.4413
13.4084 6.3126 -0.8968
12.1943 6.2852 -0.8286
12.6148 7.0862 -0.8724
17.5220 10.6877 -1.2353
12.2950 8.1189 -0.8853
17.4512 12.4457 -1.2858
17.3035 13.3025 -1.3071
16.2162 13.4195 -1.2585
17.9732 15.9944 -1.4363
18.2037 17.4097 -1.5015
17.0811 17.5525 -1.4579
16.6985 18.4395 -1.4787
15.1618 18.0010 -1.3971
34.4127 43.9672 -3.3100
31.9280 43.9561 -3.2168
29.5766 43.9542 -3.1333
27.3362 43.9523 -3.0578
25.1940 43.9506 -2.9896
22.9840 43.6558 -2.9087
21.1586 43.9462 -2.8729
9.8257 22.4341 -1.4414
8.4243 21.2819 -1.3460
7.8051 21.9933 -1.3714
7.4138 23.5388 -1.4493
13.2560 48.0419 -2.9251
10.1209 42.5858 -2.5678
8.5772 42.8775 -2.5641
6.9870 42.8762 -2.5465
5.4154 42.8748 -2.5325
3.8580 42.8736 -2.5221
2.3108 42.8723 -2.5152
0.7644 42.5780 -2.4946
-0.7739 43.1198 -2.5264
-2.3239 43.1185 -2.5299
-3.8797 43.1172 -2.5368
-5.4456 43.1159 -2.5472
-7.0256 43.1146 -2.5612
-8.5986 42.9857 -2.5713
-9.0292 37.9928 -2.2916
-10.6454 38.5815 -2.3500
-10.0730 31.9824 -1.9700
-11.1420 31.3964 -1.9586
-12.2190 30.8687 -1.9533
-13.5370 30.9081 -1.9869
-16.4304 34.1261 -2.2323
-18.7226 35.5621 -2.3710
-18.8027 32.8014 -2.2328
-8.1312 13.0738 -0.9102
-8.6306 12.8262 -0.9150
-8.7151 11.9984 -0.8788
-9.1872 11.7380 -0.8844
-9.5475 11.3354 -0.8805
-9.6756 10.6844 -0.8576
-10.5255 10.8160 -0.8992
-10.3231 9.8729 -0.8523
-11.8704 10.5636 -0.9496
-12.3108 10.1877 -0.9565
-11.4809 8.8262 -0.8682
-11.2258 8.0060 -0.8280
-11.4364 7.5520 -0.8244
-11.7377 7.1596 -0.8285
-12.2046 6.8558 -0.8450
-12.6888 6.5402 -0.8633
-15.4651 7.2809 -1.0356
-15.6558 6.6952 -1.0336
-15.8817 6.1273 -1.0352
-16.1464 5.5723 -1.0407
-16.4548 5.0254 -1.0503
-12.9749 3.4587 -0.8213
-11.6304 2.6571 -0.7312
-10.7656 2.0560 -0.6730
-10.8338 1.6684 -0.6745
-10.8908 1.2790 -0.6761
-10.9650 0.8901 -0.6796
-10.9316 0.4933 -0.6773
-10.5297 0.0968 -0.6531
-10.1049 -0.2700 -0.6282
-10.0579 -0.6306 -0.6275
-10.1557 -1.0038 -0.6367
-10.1971 -1.3791 -0.6432
-10.3927 -1.7875 -0.6605
-12.3453 -2.5828 -0.7915
-12.3234 -3.0438 -0.7981
-12.3602 -3.5282 -0.8097
-12.4577 -4.0450 -0.8266
-11.7900 -4.3018 -0.7935
-11.4367 -4.6446 -0.7819
-11.2287 -5.0370 -0.7809
-11.1715 -5.5013 -0.7915
-11.6198 -6.2501 -0.8401
-23.6675 -13.8481 -1.7489
-23.4024 -14.8457 -1.7705
-23.1780 -15.8983 -1.7984
-23.0320 -17.0455 -1.8363
-14.1968 -11.3177 -1.1653
-22.9306 -19.6673 -1.9417
-16.5514 -15.2608 -1.4491
-15.1626 -15.0225 -1.3757
-14.2306 -15.1496 -1.3415
-13.3444 -15.2696 -1.3104
-12.5640 -15.4636 -1.2891
-11.8495 -15.7043 -1.2743
-11.2618 -16.0964 -1.2739
-11.0044 -16.9966 -1.3144
-11.1485 -18.6549 -1.4121
-12.1726 -22.1365 -1.6430
-11.3341 -22.4881 -1.6392
-27.0372 -58.8081 -4.2166
-25.0235 -60.0171 -4.2392
-22.3734 -59.6002 -4.1531
-11.4654 -34.2304 -2.3565
-10.2536 -34.7035 -2.3634
-21.3134 -97.3813 -6.5166
1.9730 -54.9184 -2.3548
8.7838 -81.2203 -3.4989
6.4768 -44.7810 -1.9372
8.4317 -46.4554 -2.0204
11.6243 -53.1148 -2.3253
12.5667 -48.9366 -2.1592
9.1182 -30.8627 -1.3742
9.9063 -29.5778 -1.3308
10.1543 -27.0519 -1.2315
10.8318 -25.9813 -1.1984
11.9015 -25.8888 -1.2117
13.7426 -27.2689 -1.2969
18.3314 -33.3392 -1.6136
19.4147 -32.4893 -1.6028
18.8456 -29.1100 -1.4663
20.2010 -28.8757 -1.4876
21.4064 -28.3727 -1.4977
16.7952 -20.6733 -1.1204
11.7125 -13.4035 -0.7473
11.6661 -12.4207 -0.7140
12.3642 -12.2513 -0.7278
20.4554 -18.8624 -1.1609
11.6265 -9.9730 -0.6377
19.9001 -15.8662 -1.0571
11.0557 -8.1832 -0.5699
11.3780 -7.8055 -0.5703
21.6913 -13.7621 -1.0592
23.0743 -13.5030 -1.0995
53.9035 -28.9982 -2.5106
56.9167 -28.0330 -2.5954
62.9773 -28.2558 -2.8159
91.7997 -37.2890 -4.0309
34.6428 -11.2511 -1.4733
34.6096 -9.8819 -1.4516
34.5799 -8.5437 -1.4324
34.5536 -7.2318 -1.4153
34.5304 -5.9420 -1.4005
34.5103 -4.6700 -1.3878
26.7968 -2.6508 -1.0698
26.5423 -1.6663 -1.0533
13.4948 -0.3616 -0.5330
22.7922 0.2077 -0.8971
24.3230 1.0956 -0.9553
22.9937 1.8647 -0.9023
25.4816 2.9904 -1.0004
25.7969 3.9707 -1.0145
11.4312 2.1822 -0.4509
11.8841 2.7141 -0.4709
12.3816 3.2995 -0.4935
12.0959 3.6932 -0.4856
11.2989 3.8984 -0.4575
22.9209 8.8411 -0.9375
22.5682 9.6493 -0.9339
23.4093 11.0189 -0.9815
24.2609 12.5026 -1.0324
20.4882 11.5072 -0.8864
20.9902 12.8013 -0.9248
17.4889 11.5471 -0.7861
17.4528 12.4452 -0.8019
17.4389 13.4049 -0.8207
16.3385 13.5191 -0.7893
18.1134 16.1173 -0.9001
17.9173 17.1339 -0.9182
16.8546 17.3178 -0.8929
16.6438 18.3771 -0.9141
15.1148 17.9434 -0.8631
34.4995 44.0738 -2.0547
31.9309 43.9561 -1.9905
29.5792 43.9542 -1.9374
27.4113 44.0691 -1.8945
25.2631 44.0673 -1.8511
22.9860 43.6558 -1.7951
21.2166 44.0629 -1.7767
9.1615 20.9158 -0.8284
8.5584 21.6191 -0.8425
7.9319 22.3487 -0.8583
7.4659 23.7026 -0.8985
6.6376 24.0540 -0.9013
10.1217 42.5858 -1.5798
8.6012 42.9942 -1.5814
6.9875 42.8762 -1.5659
5.4305 42.9915 -1.5613
3.8583 42.8736 -1.5505
2.3166 42.9764 -1.5499
0.7644 42.5780 -1.5334
-0.7740 43.1198 -1.5530
-2.3241 43.1185 -1.5552
-3.8905 43.2339 -1.5639
-5.4460 43.1159 -1.5663
-7.0452 43.2313 -1.5795
-8.5986 42.9821 -1.5817
-9.1519 38.5062 -1.4292
-9.1521 33.1663 -1.2435
-10.0984 32.0603 -1.2161
-11.1388 31.3850 -1.2062
-12.1086 30.5872 -1.1930
-13.5582 30.9539 -1.2271
-17.4146 36.1671 -1.4598
-18.2700 34.6993 -1.4283
-11.4336 19.9441 -0.8387
-8.2272 13.2269 -0.5693
-8.3746 12.4446 -0.5492
-8.8216 12.1439 -0.5507
-9.1169 11.6471 -0.5437
-10.1412 12.0391 -0.5799
-10.0012 11.0428 -0.5501
-10.3198 10.6034 -0.5476
-10.9014 10.4248 -0.5595
-11.5603 10.2864 -0.5754
-14.6225 12.0993 -0.7076
-10.7870 8.2918 -0.5086
-10.9981 7.8425 -0.5062
-11.3088 7.4667 -0.5093
-11.6959 7.1330 -0.5163
-12.1389 6.8179 -0.5261
-12.5995 6.4930 -0.5372
-14.9570 7.0404 -0.6284
-15.1433 6.4748 -0.6279
-15.3635 5.9261 -0.6297
-15.5909 5.3793 -0.6326
-14.5000 4.4272 -0.5833
-13.0174 3.4690 -0.5199
-11.2876 2.5779 -0.4482
-10.5849 2.0207 -0.4184
-10.6200 1.6347 -0.4185
-10.6631 1.2514 -0.4195
-10.7713 0.8735 -0.4236
-10.9052 0.4912 -0.4292
-10.3363 0.0942 -0.4077
-9.9554 -0.2668 -0.3940
-9.7674 -0.6132 -0.3884
-9.8874 -0.9781 -0.3955
-9.9789 -1.3504 -0.4021
-10.1517 -1.7469 -0.4126
-10.3873 -2.1740 -0.4263
-12.3243 -3.0450 -0.5115
-12.3127 -3.5156 -0.5174
-12.1172 -3.9354 -0.5163
-11.4922 -4.1941 -0.4972
-11.2280 -4.5608 -0.4939
-10.9790 -4.9259 -0.4918
-10.7944 -5.3165 -0.4931
-11.3082 -6.0835 -0.5276
-13.0806 -7.6548 -0.6243
-13.0349 -8.2701 -0.6375
-22.3037 -15.3006 -1.1198
-13.6879 -10.1315 -0.7068
-13.2466 -10.5616 -0.7048
-13.3374 -11.4407 -0.7326
-13.6598 -12.5961 -0.7764
-15.1799 -15.0413 -0.8947
-14.3416 -15.2694 -0.8789
-13.4520 -15.3943 -0.8594
-12.6178 -15.5314 -0.8427
-11.8299 -15.6799 -0.8287
-11.0905 -15.8531 -0.8176
-10.8829 -16.8104 -0.8476
-11.1981 -18.7394 -0.9254
-11.9779 -21.7842 -1.0553
-11.1590 -22.1425 -1.0540
-10.5254 -22.8954 -1.0724
-11.0811 -26.5793 -1.2269
-13.0825 -34.8531 -1.5878
-11.2132 -33.4803 -1.5073
-10.0411 -33.9867 -1.5142
-9.4422 -36.7700 -1.6232
-10.8101 -49.3952 -2.1633
-10.7503 -59.2311 -2.5769
-9.2818 -64.1764 -2.7769
1.9727 -54.9149 -1.1159
8.8049 -81.4231 -1.6614
6.5401 -45.2223 -0.9262
8.5304 -47.0032 -0.9673
17.4723 -79.8428 -1.6528
16.0882 -62.6551 -1.3062
9.3512 -31.6540 -0.6654
9.9021 -29.5678 -0.6274
11.1483 -29.7024 -0.6370
21.3012 -51.0975 -1.1089
22.6568 -49.2883 -1.0839
17.6888 -35.1024 -0.7832
18.1999 -33.1031 -0.7505
19.8877 -33.2838 -0.7679
18.8316 -29.0911 -0.6840
20.1858 -28.8567 -0.6927
21.3999 -28.3670 -0.6963
15.2772 -18.8067 -0.4730
11.9868 -13.7189 -0.3541
11.9275 -12.7004 -0.3372
12.2014 -12.0913 -0.3310
12.2876 -11.3320 -0.3206
11.9016 -10.2102 -0.2993
21.9295 -17.4865 -0.5327
19.3053 -14.2911 -0.4538
21.3018 -14.6153 -0.4855
21.6358 -13.7289 -0.4789
45.6257 -26.7041 -0.9824
49.7991 -26.7946 -1.0448
53.7928 -26.4990 -1.1013
59.2473 -26.5873 -1.1854
65.6702 -26.6807 -1.2859
33.7414 -10.9611 -0.6354
33.7406 -9.6365 -0.6243
33.7399 -8.3388 -0.6142
33.7391 -7.0640 -0.6050
33.7384 -5.8083 -0.5968
33.7376 -4.5681 -0.5893
26.6170 -2.6351 -0.4597
23.4916 -1.4766 -0.4017
13.4689 -0.3620 -0.2283
22.8381 0.2063 -0.3842
23.8008 1.0703 -0.3978
23.1271 1.8737 -0.3846
24.5851 2.8833 -0.4073
25.6364 3.9440 -0.4236
25.4125 4.8492 -0.4194
12.3323 2.8155 -0.2035
12.8735 3.4296 -0.2128
21.8080 6.6568 -0.3615
22.8610 7.8858 -0.3806
33.7235 13.0052 -0.5647
24.1572 10.3267 -0.4075
33.7207 15.8698 -0.5739
33.7191 17.3739 -0.5800
20.3844 11.4472 -0.3549
21.0729 12.8499 -0.3721
17.4905 11.5465 -0.3138
17.4545 12.4447 -0.3189
17.5761 13.5087 -0.3276
16.4624 13.6200 -0.3137
17.4107 15.4903 -0.3400
17.4907 16.7241 -0.3509
16.7369 17.1951 -0.3459
14.8458 16.3902 -0.3169
37.0403 43.9675 -0.8193
34.4048 43.9487 -0.7912
31.9340 43.9561 -0.7662
29.5664 43.9311 -0.7431
27.3411 43.9523 -0.7230
25.1984 43.9506 -0.7045
22.9879 43.6558 -0.6833
21.1622 43.9462 -0.6728
9.3068 21.2457 -0.3188
8.6967 21.9665 -0.3236
8.2266 23.1772 -0.3359
7.5187 23.8683 -0.3408
13.2560 48.0346 -0.6770
10.1224 42.5858 -0.5934
8.5785 42.8775 -0.5917
6.9880 42.8762 -0.5870
5.4161 42.8748 -0.5832
3.8585 42.8736 -0.5804
2.3111 42.8723 -0.5786
0.7644 42.5780 -0.5738
-0.7741 43.1198 -0.5811
-2.3243 43.1185 -0.5821
-3.8804 43.1172 -0.5841
-5.4465 43.1159 -0.5869
-7.0268 43.1146 -0.5908
-8.5986 42.9785 -0.5938
-9.2317 38.8385 -0.5420
-10.4471 37.8563 -0.5344
-10.2374 32.4989 -0.4649
-11.1926 31.5337 -0.4579
-12.2528 30.9488 -0.4570
-13.4638 30.7357 -0.4623
-19.8608 41.2439 -0.6331
-10.7265 20.3705 -0.3197
-11.3092 19.7254 -0.3171
-8.4162 13.5296 -0.2232
-8.5981 12.7754 -0.2168
-8.9305 12.2926 -0.2150
-9.4376 12.0556 -0.2178
-9.8210 11.6578 -0.2180
-9.9564 10.9922 -0.2134
-10.3436 10.6267 -0.2146
-6.9051 6.6025 -0.1391
-11.3900 10.1337 -0.2234
-10.6388 8.8020 -0.2036
-10.5122 8.0795 -0.1968
-10.8786 7.7563 -0.1996
-11.2289 7.4129 -0.2024
-11.6597 7.1099 -0.2069
-12.0596 6.7723 -0.2110
-12.5116 6.4466 -0.2162
-14.4770 6.8132 -0.2476
-14.6581 6.2661 -0.2485
-14.8520 5.7276 -0.2499
-15.0828 5.2028 -0.2523
-13.6137 4.1555 -0.2268
-12.8462 3.4223 -0.2134
-10.7531 2.4550 -0.1784
-10.4506 1.9942 -0.1733
-10.3324 1.5896 -0.1716
-10.3830 1.2177 -0.1729
-10.4517 0.8468 -0.1747
-10.5656 0.4751 -0.1775
-10.1802 0.0920 -0.1721
-9.8741 -0.2654 -0.1682
-9.7998 -0.6160 -0.1684
-9.8516 -0.9753 -0.1710
-9.8821 -1.3380 -0.1734
-10.1100 -1.7405 -0.1797
-10.3926 -2.1759 -0.1872
-12.2970 -3.0392 -0.2249
-12.4426 -3.5537 -0.2312
-11.5232 -3.7434 -0.2179
-11.3456 -4.1416 -0.2186
-11.0944 -4.5075 -0.2181
-10.6273 -4.7690 -0.2135
-10.3467 -5.0969 -0.2127
-11.0321 -5.9359 -0.2324
-12.0869 -7.0743 -0.2612
-12.4450 -7.8969 -0.2765
-12.9931 -8.9146 -0.2972
-12.8696 -9.5270 -0.3036
-12.6148 -10.0590 -0.3075
-12.2111 -10.4759 -0.3081
-11.6047 -10.7022 -0.3038
-11.0068 -10.9075 -0.2995
-10.9287 -11.6369 -0.3099
-13.5487 -15.5065 -0.4014
-12.6289 -15.5466 -0.3920
-11.7993 -15.6408 -0.3849
-10.9730 -15.6865 -0.3774
-10.7482 -16.6039 -0.3913
-11.3162 -18.9387 -0.4379
-10.8366 -19.7103 -0.4478
-11.0049 -21.8386 -0.4882
-10.3469 -22.5090 -0.4958
-10.0045 -23.9990 -0.5217
-9.9932 -26.6251 -0.5718
-10.9857 -32.8034 -0.6970
-9.8835 -33.4558 -0.7040
-9.3840 -36.5459 -0.7627
-9.5103 -43.4591 -0.9004
-10.5947 -58.3781 -1.2022
-8.9385 -61.8073 -1.2666
1.9722 -54.9088 0.1218
8.8830 -82.1526 0.1848
15.5125 -85.4825 0.1976
17.2421 -78.7972 0.1856
17.8727 -69.6106 0.1675
16.3972 -55.5094 0.1368
16.6328 -49.6697 0.1259
18.3442 -48.8787 0.1276
20.8358 -49.9853 0.1349
22.9102 -49.8438 0.1395
16.9707 -33.6802 0.0979
18.2636 -33.2219 0.1007
18.9289 -31.6822 0.1003
19.2767 -29.7815 0.0987
20.1375 -28.7903 0.1002
22.4623 -29.7782 0.1092
16.6768 -20.5316 0.0794
11.8481 -13.5615 0.0555
11.9485 -12.7241 0.0553
12.0430 -11.9356 0.0552
36.2436 -33.4287 0.1648
12.1898 -10.4587 0.0552
21.2887 -16.9776 0.0962
19.6020 -14.5126 0.0885
20.1389 -13.8193 0.0911
22.0252 -13.9780 0.1000
45.0845 -26.3914 0.2058
49.8247 -26.8127 0.2290
54.6928 -26.9471 0.2534
60.0279 -26.9427 0.2808
64.9048 -26.3751 0.3070
33.7901 -10.9797 0.1639
34.1722 -9.7625 0.1681
33.7825 -8.3520 0.1688
33.7788 -7.0750 0.1715
34.1696 -5.8852 0.1765
33.7716 -4.5753 0.1776
23.4184 -2.3202 0.1255
23.5902 -1.4846 0.1290
13.4432 -0.3623 0.0750
24.8588 0.2227 0.1417
25.2028 1.1314 0.1469
23.2619 1.8828 0.1388
23.9049 2.8017 0.1461
23.0821 3.5493 0.1446
22.7959 4.3481 0.1465
12.8154 2.9248 0.0845
26.0037 6.9255 0.1762
26.2058 7.9971 0.1827
22.8451 7.8784 0.1639
34.1571 13.1696 0.2525
33.7619 14.4297 0.2574
34.1547 16.0711 0.2688
33.7968 17.4110 0.2749
20.4770 11.4974 0.1723
18.1840 11.0867 0.1585
17.8334 11.7712 0.1613
17.4800 12.4613 0.1642
17.1966 13.2154 0.1680
17.2609 14.2790 0.1756
18.7764 16.7034 0.1993
17.0852 16.3346 0.1896
17.0783 17.5440 0.1985
16.5712 18.2932 0.2022
16.8150 19.9577 0.2158
34.3558 43.8818 0.4652
31.9369 43.9561 0.4574
29.5846 43.9542 0.4497
27.3435 43.9523 0.4428
25.1703 43.8979 0.4361
23.1442 43.9489 0.4308
21.1639 43.9462 0.4257
2.1659 4.9440 0.0474
1.9575 4.9439 0.0469
8.1128 22.8549 0.2150
13.8426 43.9402 0.4101
13.2560 48.0309 0.4452
10.1929 42.8788 0.3951
8.5791 42.8775 0.3931
6.9885 42.8762 0.3914
5.4165 42.8749 0.3901
3.8588 42.8736 0.3890
2.3112 42.8723 0.3883
0.7697 42.8710 0.3879
-0.7742 43.1198 0.3901
-2.3245 43.1185 0.3904
-3.8807 43.1172 0.3909
-5.4470 43.1159 0.3918
-7.0274 43.1146 0.3930
-8.0891 40.4282 0.3700
-9.2974 39.1119 0.3596
-10.3439 37.4793 0.3466
-10.3368 32.8119 0.3054
-11.1674 31.4600 0.2950
-12.2321 30.8941 0.2922
-14.1369 32.2694 0.3081
-20.3069 42.1666 0.4068
-10.6169 20.1604 0.1968
-11.2974 19.7031 0.1947
-8.2653 13.2857 0.1332
-11.6180 17.2609 0.1757
-9.0421 12.4450 0.1288
-9.3229 11.9078 0.1255
-9.5615 11.3485 0.1219
-9.8672 10.8926 0.1196
-10.4081 10.6919 0.1201
-6.9045 6.6011 0.0761
-11.6914 10.4006 0.1232
-10.2135 8.4490 0.1031
-10.4427 8.0250 0.1011
-10.7717 7.6790 0.1003
-6.8320 4.5096 0.0612
-11.6239 7.0870 0.1004
-12.0271 6.7529 0.1002
-13.8525 7.1364 0.1116
-14.0171 6.5956 0.1092
-14.2019 6.0698 0.1071
-14.3840 5.5459 0.1052
-14.5967 5.0339 0.1035
-13.1822 4.0228 0.0908
-11.3242 3.0160 0.0758
-10.7315 2.4492 0.0699
-10.4330 1.9900 0.0662
-10.1096 1.5546 0.0625
-10.1175 1.1858 0.0610
-10.1836 0.8243 0.0599
-10.2502 0.4602 0.0589
-10.0842 0.0904 0.0567
-9.8817 -0.2663 0.0543
-9.8324 -0.6188 0.0529
-9.8724 -0.9781 0.0521
-9.8378 -1.3328 0.0509
-10.1065 -1.7407 0.0514
-10.3980 -2.1778 0.0519
-11.6044 -2.8689 0.0570
-11.7242 -3.3494 0.0567
-11.3812 -3.6982 0.0543
-11.1741 -4.0799 0.0526
-10.7487 -4.3679 0.0500
-10.3462 -4.6438 0.0476
-10.1937 -5.0224 0.0464
-10.5778 -5.6924 0.0477
-11.7956 -6.9048 0.0529
-10.8545 -6.8887 0.0484
-12.5390 -8.6043 0.0557
-12.5970 -9.3264 0.0559
-12.0569 -9.6153 0.0534
-11.5135 -9.8785 0.0511
-11.0414 -10.1839 0.0493
-10.7792 -10.6832 0.0485
-10.6848 -11.3785 0.0485
-10.7608 -12.3170 0.0495
-12.5156 -15.4085 0.0586
-11.6900 -15.4974 0.0559
-10.9504 -15.6557 0.0536
-10.6443 -16.4448 0.0537
-10.5700 -17.6915 0.0551
-10.4496 -19.0081 0.0567
-10.8863 -21.6051 0.0619
-10.1255 -22.0291 0.0608
-9.7452 -23.3789 0.0623
-6.9425 -18.4985 0.0477
-10.9226 -32.6177 0.0817
-9.8100 -33.2096 0.0811
-9.4668 -36.8709 0.0879
-10.5164 -48.0604 0.1123
-10.1305 -55.8243 0.1282
-8.7342 -60.3984 0.1368
-10.2632 -94.9160 0.2127
-0.0001 -90.3286 2.2346
1.9718 -54.9027 1.3593
6.2451 -86.8296 2.1546
9.3529 -86.5057 2.1546
12.4433 -86.0551 2.1546
14.8619 -81.9036 2.0644
16.0068 -73.1578 1.8592
17.0180 -66.2872 1.7010
16.2840 -55.1307 1.4308
16.6791 -49.8122 1.3095
18.7968 -50.0891 1.3359
21.3565 -51.2390 1.3887
23.7866 -51.7553 1.4278
16.9152 -33.5731 0.9444
18.3178 -33.3235 0.9575
19.3298 -32.3562 0.9514
19.3583 -29.9103 0.9017
20.2274 -28.9217 0.8957
21.9951 -29.1617 0.9297
22.5181 -27.7260 0.9119
11.6868 -13.3783 0.4549
11.7908 -12.5575 0.4426
11.8885 -11.7839 0.4315
18.3488 -16.9257 0.6458
20.7325 -17.7904 0.7093
29.7458 -23.7250 0.9915
21.0689 -15.6007 0.6857
19.5686 -13.4298 0.6232
22.1961 -14.0885 0.6930
45.0776 -26.3914 1.3824
49.0277 -26.3881 1.4795
54.6833 -26.9471 1.6267
60.0166 -26.9427 1.7627
64.8915 -26.3751 1.8848
66.9162 -24.4379 1.9251
33.7901 -10.9824 0.9643
34.1723 -9.7653 0.9687
33.7825 -8.3547 0.9527
33.7788 -7.0776 0.9490
34.1696 -5.8879 0.9576
33.7716 -4.5779 0.9454
27.1400 -2.6910 0.7599
23.6896 -1.4927 0.6642
13.4176 -0.3627 0.3773
25.0760 0.2227 0.7079
26.5914 1.1916 0.7547
21.9090 1.7716 0.6259
22.9277 2.6854 0.6601
23.2196 3.5686 0.6747
22.9308 4.3720 0.6732
24.1036 5.4991 0.7159
25.1867 6.7059 0.7579
25.1176 7.6630 0.7667
22.8303 7.8715 0.7078
34.1571 13.1667 1.0772
33.7619 14.4269 1.0846
34.0672 16.0271 1.1163
33.7615 17.3899 1.1302
20.4715 11.4924 0.7012
18.3298 11.1739 0.6434
17.9769 11.8643 0.6478
17.6213 12.5604 0.6530
17.3247 13.3121 0.6615
17.5470 14.5139 0.6916
18.1274 16.1242 0.7390
16.6980 15.9626 0.7057
16.5757 17.0258 0.7280
16.6828 18.4145 0.7633
16.8795 20.0323 0.8068
34.3978 43.9313 1.7228
31.9399 43.9562 1.6816
29.5873 43.9542 1.6435
27.3460 43.9523 1.6090
25.1703 43.8941 1.5759
23.1462 43.9489 1.5499
2.3807 4.9431 0.1715
2.1661 4.9440 0.1690
1.9576 4.9439 0.1667
1.7323 4.8797 0.1626
13.8437 43.9402 1.4481
13.2560 48.0272 1.5677
10.1936 42.8788 1.3881
8.5797 42.8775 1.3783
6.9890 42.8762 1.3702
5.4169 42.8749 1.3637
3.8590 42.8736 1.3589
2.3100 42.8465 1.3549
0.7697 42.8710 1.3540
-0.7743 43.1198 1.3618
-2.3247 43.1185 1.3633
-3.8810 43.1172 1.3663
-5.4474 43.1159 1.3710
-7.0238 43.0888 1.3764
-8.6270 43.1133 1.3852
-9.4674 39.8236 1.2884
-9.9718 36.1279 1.1785
-7.1652 22.7422 0.7489
-11.0077 31.0075 1.0321
-11.7350 29.6359 0.9984
-11.2881 25.7644 0.8797
-10.0669 20.9018 0.7243
-10.5769 20.0827 0.7074
-11.2641 19.6432 0.7043
-8.3716 13.4554 0.4919
-11.3144 16.8084 0.6276
-9.1034 12.5281 0.4785
-9.5159 12.1532 0.4758
-9.6505 11.4531 0.4605
-9.9729 11.0081 0.4555
-10.4202 10.7032 0.4568
-6.9038 6.5998 0.2912
-10.2177 9.0886 0.4157
-10.1479 8.3938 0.3991
-10.3809 7.9765 0.3955
-10.7683 7.6756 0.3982
-6.8330 4.5096 0.2457
-11.5910 7.0659 0.4059
-11.9947 6.7337 0.4099
-13.4731 6.9397 0.4499
-13.5720 6.3850 0.4436
-13.7592 5.8795 0.4409
-13.9434 5.3749 0.4386
-14.1196 4.8682 0.4366
-11.8482 3.6147 0.3607
-11.0071 2.9306 0.3303
-10.7099 2.4434 0.3172
-10.4154 1.9858 0.3049
-9.7965 1.5056 0.2838
-9.6843 1.1343 0.2780
-9.7049 0.7848 0.2765
-9.7783 0.4382 0.2767
-9.9801 0.0886 0.2809
-9.8893 -0.2673 0.2772
-9.8628 -0.6214 0.2757
-9.8284 -0.9745 0.2744
-9.7939 -1.3276 0.2734
-9.9825 -1.7201 0.2789
-10.8051 -2.2640 0.3027
-10.9759 -2.7144 0.3086
-11.3424 -3.2412 0.3206
-11.2004 -3.6403 0.3187
-10.8254 -3.9535 0.3105
-10.4713 -4.2560 0.3033
-10.2185 -4.5873 0.2993
-10.1102 -4.9821 0.2999
-10.4348 -5.6163 0.3140
-11.2158 -6.5664 0.3430
-10.6496 -6.7596 0.3316
-10.5304 -7.2269 0.3345
-12.1768 -9.0165 0.3953
-11.7805 -9.3961 0.3917
-11.2031 -9.6133 0.3823
-10.8582 -10.0160 0.3812
-10.5120 -10.4195 0.3807
-10.4822 -11.1639 0.3926
-10.4878 -12.0057 0.4074
-11.0211 -13.5700 0.4454
-11.6103 -15.3931 0.4898
-10.9421 -15.6453 0.4836
-10.5303 -16.2702 0.4896
-10.2012 -17.0758 0.5013
-10.1205 -18.4109 0.5282
-10.7494 -21.3353 0.5993
-10.0302 -21.8237 0.6013
-9.6302 -23.1047 0.6254
-6.9419 -18.4985 0.4928
-9.6690 -28.8762 0.7583
-9.7305 -32.9432 0.8542
-9.5379 -37.1507 0.9526
-10.4236 -47.6400 1.2098
-9.7311 -53.6273 1.3509
-8.6898 -60.0961 1.5039
-9.2555 -85.6024 2.1313
-6.4184 -89.2370 2.2138
-3.2422 -90.2678 2.2346
-0.0001 -47.2536 2.2346
1.6175 -45.0411 2.1315
3.2324 -44.9464 2.1315
4.8422 -44.7896 2.1315
6.5141 -45.0538 2.1546
8.1233 -44.7709 2.1546
9.7196 -44.4265 2.1546
11.3008 -44.0214 2.1546
12.8641 -43.5560 2.1546
14.3607 -42.8920 2.1476
15.7001 -41.8406 2.1237
16.8439 -40.4156 2.0828
17.6959 -38.5062 2.0180
16.8600 -33.4665 1.7865
17.9422 -32.6431 1.7780
16.7361 -28.0170 1.5598
17.0145 -26.2913 1.4988
17.4233 -24.9147 1.4572
18.0115 -23.8824 1.4359
18.7318 -23.0663 1.4287
11.5297 -13.1998 0.8441
11.6371 -12.3951 0.8202
21.0451 -20.8621 1.4322
18.8829 -17.4203 1.2440
20.7159 -17.7783 1.3244
24.7399 -19.7348 1.5383
26.1025 -19.3305 1.5821
21.8005 -14.9636 1.2906
22.9252 -14.5534 1.3282
22.4304 -13.1343 1.2741
22.2788 -11.9931 1.2430
21.4722 -10.5830 1.1787
21.0528 -9.4528 1.1388
21.0784 -8.5691 1.1254
21.2620 -7.7667 1.1222
21.6313 -7.0324 1.1303
22.3395 -6.3856 1.1574
23.4171 -5.7931 1.2045
33.7788 -7.0803 1.7274
33.7752 -5.8226 1.7196
33.7716 -4.5806 1.7141
27.0656 -2.6858 1.3713
23.7900 -1.5009 1.2047
13.3920 -0.3630 0.6787
25.2973 0.2227 1.2848
26.7874 1.1984 1.3651
21.3768 1.7269 1.0944
21.0407 2.4627 1.0837
21.0169 3.2284 1.0903
21.2623 4.0522 1.1125
25.3880 5.7901 1.3415
25.3200 6.7393 1.3529
25.2515 7.7018 1.3663
22.8154 7.8645 1.2518
33.7630 13.0121 1.8810
12.8768 5.5014 0.7295
21.6349 10.1764 1.2483
21.0935 10.8630 1.2414
20.4636 11.4862 1.2303
18.4782 11.2627 1.1368
18.1229 11.9590 1.1429
17.7651 12.6612 1.1505
17.4549 13.4105 1.1630
17.8432 14.7571 1.2256
18.5080 16.4609 1.3133
17.8130 17.0266 1.3088
16.3839 16.8270 1.2494
16.7960 18.5376 1.3328
16.9446 20.1075 1.4031
25.7810 32.9232 2.2346
24.5490 33.7814 2.2346
23.2902 34.5962 2.2346
22.0061 35.3667 2.2346
20.6984 36.0923 2.2346
19.3683 36.7724 2.2346
2.3815 4.9442 0.2954
2.1663 4.9440 0.2908
1.9578 4.9439 0.2867
1.7551 4.9437 0.2831
11.8630 37.6507 2.1315
10.4971 38.0287 2.1315
9.1201 38.3604 2.1315
7.7335 38.6453 2.1315
6.3386 38.8832 2.1315
4.9370 39.0741 2.1315
3.5302 39.2177 2.1315
2.1196 39.3138 2.1315
0.7067 39.3624 2.1315
-0.7069 39.3634 2.1315
-2.1200 39.3169 2.1315
-3.5525 39.4639 2.1446
-4.9685 39.3216 2.1446
-6.3792 39.1317 2.1446
-7.7834 38.8942 2.1446
-9.1795 38.6096 2.1446
-9.8167 35.5630 1.9925
-7.1643 22.7376 1.2866
-10.9115 30.7339 1.7589
-11.3718 28.7161 1.6643
-11.2041 25.5705 1.5030
-9.9833 20.7263 1.2373
-10.3143 19.5824 1.1891
-11.1359 19.4177 1.2013
-10.8670 17.4646 1.1026
-11.2669 16.7362 1.0801
-9.2867 12.7792 0.8446
-9.7057 12.3944 0.8404
-9.8823 11.7269 0.8175
-10.3492 11.4223 0.8204
-10.9160 11.2112 0.8315
-6.9032 6.5984 0.5066
-10.0338 8.9239 0.7112
-10.1023 8.3550 0.6931
-10.3511 7.9526 0.6888
-10.6670 7.6024 0.6899
-6.8340 4.5096 0.4304
-11.5602 7.0461 0.7103
-11.0986 6.2296 0.6664
-11.1869 5.7612 0.6574
-11.2741 5.3030 0.6496
-11.4509 4.8921 0.6478
-11.6410 4.4863 0.6476
-11.7644 4.0552 0.6445
-11.4635 3.4964 0.6193
-10.9824 2.9232 0.5859
-10.6873 2.4374 0.5638
-10.0464 1.9147 0.5248
-9.5063 1.4603 0.4924
-9.4020 1.1005 0.4835
-9.3000 0.7513 0.4754
-9.3038 0.4162 0.4734
-9.5128 0.0838 0.4824
-9.7662 -0.2647 0.4942
-9.8335 -0.6204 0.4972
-9.7983 -0.9723 0.4956
-9.7632 -1.3242 0.4947
-9.8569 -1.6992 0.5010
-10.3706 -2.1737 0.5295
-10.5640 -2.6134 0.5425
-11.0144 -3.1484 0.5697
-11.0147 -3.5809 0.5747
-10.6488 -3.8898 0.5612
-10.2827 -4.1802 0.5482
-10.0943 -4.5324 0.5452
-10.0369 -4.9469 0.5501
-10.2956 -5.5423 0.5736
-10.7252 -6.2802 0.6084
-10.5183 -6.6772 0.6085
-10.4093 -7.1448 0.6154
-10.2677 -7.6038 0.6215
-11.4751 -9.1535 0.7126
-10.9196 -9.3711 0.6972
-10.6148 -9.7926 0.6984
-10.3064 -10.2167 0.7005
-10.2078 -10.8727 0.7186
-10.2435 -11.7272 0.7490
-10.8916 -13.4119 0.8298
-11.3133 -15.0008 0.9010
-10.8966 -15.5816 0.9104
-10.3709 -16.0253 0.9127
-9.9969 -16.7353 0.9309
-9.6560 -17.5675 0.9561
-10.6155 -21.0713 1.1239
-9.9556 -21.6632 1.1345
-9.5554 -22.9272 1.1807
-9.2352 -24.6113 1.2484
-9.5011 -28.3771 1.4200
-9.6451 -32.6565 1.6146
-9.9423 -38.7291 1.8947
-9.6184 -43.9633 2.1313
-8.0383 -44.3015 2.1313
-6.4661 -44.7205 2.1381
-5.0775 -46.9646 2.2346
-3.3894 -47.1260 2.2346
-1.6960 -47.2224 2.2346
-0.0001 -31.9737 2.2346
1.1473 -31.9515 2.2346
2.1872 -30.4150 2.1315
3.2767 -30.3115 2.1315
4.3613 -30.1671 2.1315
5.4395 -29.9820 2.1315
6.5801 -30.0788 2.1546
7.6521 -29.8106 2.1546
8.7127 -29.5024 2.1546
9.6917 -28.9492 2.1394
10.4449 -27.8378 2.0849
11.3940 -27.3413 2.0784
12.0700 -26.2666 2.0298
12.6939 -25.1992 1.9828
13.3208 -24.2374 1.9451
13.9456 -23.3478 1.9144
14.5783 -22.5289 1.8908
15.2429 -21.7988 1.8761
15.9405 -21.1384 1.8693
16.6699 -20.5293 1.8692
16.3439 -18.7133 1.7581
17.3981 -18.5334 1.8009
18.7839 -18.6226 1.8762
19.3616 -17.8640 1.8710
19.5584 -16.7869 1.8330
19.5715 -15.6140 1.7829
19.3644 -14.3424 1.7184
19.2072 -13.1854 1.6637
19.0469 -12.0932 1.6135
18.8804 -11.0572 1.5671
18.7997 -10.1218 1.5315
18.8651 -9.2997 1.5110
18.9773 -8.5226 1.4968
19.2013 -7.8076 1.4938
19.4739 -7.1151 1.4966
19.8993 -6.4709 1.5129
20.2178 -5.7808 1.5228
20.3812 -5.0437 1.5230
20.4828 -4.2950 1.5206
20.4810 -3.5324 1.5126
20.3187 -2.7575 1.4948
19.9158 -1.9778 1.4615
19.5878 -1.2373 1.4356
13.3665 -0.3633 0.9797
18.9384 0.1653 1.3900
18.6986 0.8351 1.3760
18.5127 1.4941 1.3677
18.4163 2.1541 1.3677
18.4717 2.8360 1.3808
18.6555 3.5540 1.4054
18.9009 4.3091 1.4370
19.1613 5.0985 1.4721
19.5383 5.9577 1.5190
20.7270 7.1429 1.6329
26.9515 10.3847 2.1546
12.7379 5.4410 1.0348
21.7658 10.2361 1.7997
21.2202 10.9264 1.7885
20.4504 11.4770 1.7598
18.6293 11.3532 1.6394
18.2716 12.0555 1.6472
18.8702 13.4470 1.7460
17.5874 13.5106 1.6733
18.1502 15.0092 1.7792
17.7922 15.8224 1.8009
18.0186 17.2213 1.8875
16.1961 16.6324 1.7600
16.9111 18.6627 1.9114
17.0103 20.1835 2.0054
17.4671 22.3039 2.1546
16.6391 22.8946 2.1546
15.7919 23.4558 2.1546
14.9267 23.9870 2.1546
14.0444 24.4875 2.1546
13.1461 24.9569 2.1546
2.3556 4.8901 0.4149
2.1665 4.9440 0.4129
1.9579 4.9439 0.4070
1.7481 4.9235 0.4001
8.3615 26.5353 2.1315
7.4001 26.8067 2.1315
6.4303 27.0447 2.1315
5.4534 27.2494 2.1315
4.4703 27.4202 2.1315
3.6514 28.8973 2.2351
2.6117 29.0115 2.2356
1.5685 29.0904 2.2361
0.5231 29.1341 2.2367
-0.5234 29.1418 2.2372
-1.5697 29.1097 2.2375
-2.6135 29.0297 2.2368
-3.6536 28.9133 2.2361
-4.6891 28.7614 2.2353
-5.7187 28.5743 2.2346
-6.4321 27.0515 2.1315
-7.4023 26.8143 2.1315
-7.1225 22.6029 1.8150
-9.3169 26.2403 2.1315
-10.2590 25.9040 2.1315
-9.8046 22.3746 1.8676
-9.8604 20.4694 1.7359
-10.2524 19.4631 1.6794
-11.0648 19.2920 1.6965
-11.1652 17.9420 1.6107
-11.2346 16.6867 1.5318
-11.4393 15.7397 1.4803
-9.8502 12.5777 1.2142
-10.1694 12.0664 1.1981
-10.9933 12.1319 1.2417
-11.1120 11.4113 1.2066
-6.9026 6.5971 0.7225
-9.9716 8.8676 1.0085
-10.0865 8.3409 0.9879
-10.1598 7.8047 0.9658
-10.3452 7.3720 0.9563
-10.6869 7.0511 0.9626
-10.5519 6.4306 0.9277
-10.6510 5.9775 0.9156
-10.7692 5.5451 0.9068
-10.8650 5.1096 0.8975
-10.9500 4.6772 0.8887
-11.0742 4.2670 0.8844
-11.2229 3.8676 0.8832
-11.3154 3.4504 0.8788
-10.9559 2.9152 0.8408
-10.6664 2.4318 0.8101
-10.1226 1.9284 0.7618
-9.4225 1.4467 0.7036
-9.3344 1.0918 0.6925
-9.2487 0.7465 0.6825
-9.1816 0.4101 0.6749
-9.3450 0.0816 0.6851
-9.6004 -0.2610 0.7029
-9.8907 -0.6247 0.7241
-9.8552 -0.9787 0.7224
-9.8200 -1.3327 0.7216
-9.8216 -1.6939 0.7246
-10.2078 -2.1404 0.7570
-10.4571 -2.5878 0.7805
-10.9541 -3.1320 0.8242
-10.6649 -3.4680 0.8099
-10.3305 -3.7744 0.7930
-10.1350 -4.1211 0.7876
-10.0466 -4.5118 0.7916
-10.0303 -4.9445 0.8026
-10.1907 -5.4867 0.8294
-10.3690 -6.0725 0.8598
-10.3899 -6.5967 0.8793
-10.2907 -7.0643 0.8905
-10.1541 -7.5207 0.9002
-10.8961 -8.6927 0.9917
-10.5603 -9.0638 0.9888
-10.3166 -9.5186 0.9961
-10.1733 -10.0859 1.0153
-10.1389 -10.8004 1.0486
-10.1492 -11.6205 1.0909
-10.4754 -12.9006 1.1737
-10.7219 -14.2180 1.2564
-10.7350 -15.3521 1.3203
-10.2887 -15.8998 1.3336
-9.8843 -16.5482 1.3561
-9.7096 -17.6665 1.4170
-10.4716 -20.7873 1.6348
-9.8803 -21.5010 1.6607
-9.4905 -22.7734 1.7304
-9.1728 -24.4471 1.8302
-6.5665 -19.6139 1.4489
-8.6217 -29.1937 2.1313
-7.5719 -29.4975 2.1313
-6.5109 -29.7618 2.1313
-5.7040 -31.4386 2.2346
-4.5732 -31.6314 2.2346
-3.4358 -31.7815 2.2346
-2.2933 -31.8887 2.2346
-1.1476 -31.9528 2.2346
-0.0001 -24.1425 2.2346
0.8662 -24.1260 2.2346
1.6514 -22.9665 2.1315
1.7882 -16.5432 1.5405
3.2933 -22.7816 2.1315
4.1078 -22.6435 2.1315
4.9163 -22.4753 2.1315
5.7798 -22.5186 2.1546
6.5817 -22.2884 2.1546
7.3742 -22.0287 2.1546
8.1562 -21.7398 2.1546
8.9266 -21.4223 2.1546
9.6843 -21.0766 2.1546
10.4282 -20.7032 2.1546
11.0805 -20.1630 2.1397
11.7357 -19.6498 2.1301
12.3879 -19.1458 2.1238
13.0395 -18.6495 2.1209
13.6515 -18.1048 2.1150
14.2005 -17.4900 2.1032
14.7653 -16.9076 2.0974
15.3172 -16.3185 2.0931
15.8086 -15.6746 2.0839
16.2751 -15.0180 2.0750
16.6733 -14.3123 2.0609
16.8473 -13.4423 2.0235
16.9446 -12.5518 1.9819
17.0620 -11.7143 1.9473
17.1107 -10.8654 1.9092
17.1349 -10.0365 1.8726
17.2146 -9.2700 1.8458
17.3433 -8.5510 1.8277
17.4967 -7.8591 1.8151
17.6617 -7.1831 1.8064
17.9111 -6.5456 1.8090
18.1395 -5.9001 1.8117
18.3731 -5.2548 1.8173
18.4267 -4.5615 1.8075
18.3886 -3.8573 1.7913
18.2927 -3.1564 1.7720
18.0228 -2.4473 1.7385
17.8668 -1.7757 1.7184
17.7152 -1.1204 1.7010
13.3409 -0.3637 1.2806
17.2716 0.1494 1.6595
17.0943 0.7621 1.6461
17.0090 1.3714 1.6437
16.8392 1.9683 1.6351
16.7676 2.5731 1.6382
16.7418 3.1881 1.6479
16.7025 3.8066 1.6585
16.7418 4.4534 1.6793
16.7612 5.1095 1.7006
16.8331 5.7996 1.7300
16.8961 6.5089 1.7615
12.7206 5.4325 1.3472
17.1652 8.0711 1.8496
17.4844 9.0014 1.9198
18.0414 10.1235 2.0218
18.3328 11.1708 2.1003
18.2580 12.0448 2.1422
17.8867 12.7445 2.1532
17.4109 13.3733 2.1546
16.9030 13.9761 2.1546
16.3747 14.5602 2.1546
15.8269 15.1249 2.1546
15.2602 15.6696 2.1546
14.6752 16.1936 2.1546
14.0728 16.6964 2.1546
13.4538 17.1776 2.1546
12.8188 17.6364 2.1546
12.1687 18.0726 2.1546
11.5042 18.4855 2.1546
10.8263 18.8747 2.1546
10.1356 19.2400 2.1546
9.4330 19.5808 2.1546
2.1666 4.9440 0.5354
1.9581 4.9439 0.5276
7.2625 20.4530 2.1546
6.5209 20.6926 2.1546
5.7717 20.9063 2.1546
4.9620 20.8678 2.1315
4.2085 21.0272 2.1315
3.4500 21.1604 2.1315
2.6875 21.2671 2.1315
1.9219 21.3474 2.1315
1.2098 22.4361 2.2346
0.4034 22.4644 2.2346
-0.4036 22.4647 2.2346
-1.2100 22.4371 2.2346
-2.0151 22.3815 2.2346
-2.8179 22.2980 2.2346
-3.6175 22.1867 2.2346
-4.4129 22.0478 2.2346
-5.2032 21.8813 2.2346
-5.9875 21.6874 2.2346
-6.5207 20.6915 2.1539
-7.1868 20.2393 2.1315
-7.9125 19.9773 2.1315
-8.6290 19.6900 2.1315
-9.3354 19.3779 2.1315
-10.0310 19.0412 2.1315
-10.9237 19.0444 2.1730
-11.4585 18.4118 2.1450
-11.5871 17.2086 2.0506
-11.8141 16.2539 1.9847
-11.6266 14.8444 1.8610
-10.1429 12.0336 1.5520
-11.8211 13.0439 1.7345
-12.0823 12.4063 1.7049
-6.9019 6.5957 0.9390
-9.9454 8.8433 1.3078
-9.9718 8.2451 1.2702
-10.0383 7.7103 1.2414
-10.2234 7.2842 1.2299
-10.3365 6.8189 1.2119
-10.4173 6.3475 1.1926
-10.5244 5.9054 1.1785
-10.6383 5.4768 1.1672
-10.7443 5.0519 1.1568
-10.8443 4.6312 1.1476
-10.9282 4.2098 1.1384
-11.0801 3.8175 1.1378
-11.2436 3.4275 1.1398
-10.9294 2.9073 1.0953
-10.6805 2.4342 1.0596
-10.2632 1.9544 1.0094
-9.4438 1.4492 0.9219
-9.3628 1.0944 0.9084
-9.2765 0.7480 0.8957
-9.2169 0.4109 0.8868
-9.1926 0.0795 0.8825
-9.4396 -0.2573 0.9053
-9.7669 -0.6177 0.9370
-9.9131 -0.9852 0.9526
-9.8776 -1.3413 0.9520
-9.8943 -1.7072 0.9577
-10.0496 -2.1080 0.9781
-10.3554 -2.5634 1.0149
-10.8024 -3.0895 1.0676
-10.4547 -3.4005 1.0433
-10.2291 -3.7382 1.0323
-10.0469 -4.0860 1.0268
-9.9737 -4.4799 1.0338
-9.9761 -4.9187 1.0505
-10.0644 -5.4196 1.0783
-10.0989 -5.9152 1.1028
-10.2934 -6.5364 1.1477
-10.1744 -6.9854 1.1603
-10.0656 -7.4560 1.1765
-10.7024 -8.5393 1.2846
-10.4215 -8.9458 1.2873
-10.2290 -9.4388 1.3032
-10.0900 -10.0044 1.3292
-10.0379 -10.6940 1.3708
-10.0783 -11.5405 1.4307
-10.1480 -12.4987 1.5021
-10.3775 -13.7626 1.6069
-10.4033 -14.8790 1.6912
-10.3052 -15.9267 1.7659
-9.9044 -16.5833 1.7968
-9.8709 -17.9617 1.9053
-6.6894 -13.2802 1.3815
-6.5709 -14.3005 1.4613
-6.5919 -15.8191 1.5905
-8.0708 -21.5118 2.1313
-6.7868 -20.2736 1.9824
-6.5125 -22.0533 2.1313
-5.9959 -23.3597 2.2346
-5.1552 -23.5667 2.2346
-4.3073 -23.7424 2.2346
-3.4532 -23.8865 2.2346
-2.5942 -23.9986 2.2346
-1.7316 -24.0788 2.2346
-0.8664 -24.1267 2.2346
-0.0001 -19.3767 2.2346
0.6952 -19.3636 2.2346
1.3894 -19.3248 2.2346
1.9718 -18.2435 2.1166
1.7627 -12.1943 1.4214
3.2970 -18.1761 2.1315
3.9462 -18.0420 2.1315
4.5899 -17.8841 2.1315
5.2271 -17.7026 2.1315
5.9204 -17.6874 2.1546
6.5489 -17.4570 2.1546
7.1681 -17.2038 2.1546
7.7774 -16.9280 2.1546
8.3758 -16.6301 2.1546
8.9626 -16.3105 2.1546
9.5369 -15.9696 2.1546
10.0980 -15.6081 2.1546
10.6451 -15.2264 2.1546
11.1774 -14.8251 2.1546
11.6944 -14.4048 2.1546
12.1952 -13.9661 2.1546
12.6793 -13.5097 2.1546
13.1461 -13.0361 2.1546
13.5948 -12.5461 2.1546
14.0224 -12.0383 2.1542
14.4050 -11.4951 2.1499
14.6970 -10.8883 2.1356
14.9418 -10.2601 2.1181
15.1870 -9.6452 2.1043
15.4227 -9.0350 2.0926
15.5872 -8.3950 2.0746
15.7623 -7.7729 2.0614
15.8925 -7.1399 2.0455
16.0681 -6.5363 2.0386
16.2050 -5.9234 2.0296
16.3535 -5.3205 2.0250
16.5034 -4.7214 2.0234
16.6435 -4.1214 2.0231
16.6224 -3.4881 2.0061
16.5826 -2.8626 1.9897
16.5272 -2.2455 1.9742
16.4083 -1.6321 1.9537
16.2548 -1.0293 1.9318
13.3154 -0.3640 1.5816
15.9206 0.1364 1.8924
15.7450 0.7007 1.8752
15.5713 1.2543 1.8607
15.3917 1.7979 1.8476
15.2885 2.3449 1.8461
15.1750 2.8885 1.8456
15.0926 3.4385 1.8513
14.9955 3.9877 1.8576
14.9289 4.5498 1.8703
14.8786 5.1250 1.8877
14.8529 5.7205 1.9111
12.6962 5.4210 1.6592
14.8175 6.9659 1.9697
14.8384 7.6378 2.0095
14.8986 8.3586 2.0588
14.8486 9.0464 2.0973
14.7343 9.7189 2.1310
14.4881 10.3216 2.1494
14.1302 10.8520 2.1546
13.7205 11.3433 2.1546
13.2941 11.8195 2.1546
12.8515 12.2801 2.1546
12.3933 12.7244 2.1546
11.9201 13.1521 2.1546
11.4326 13.5626 2.1546
10.9313 13.9555 2.1546
10.4168 14.3303 2.1546
9.8898 14.6866 2.1546
9.3509 15.0241 2.1546
8.8009 15.3423 2.1546
8.2403 15.6409 2.1546
7.6699 15.9195 2.1546
7.0903 16.1780 2.1546
6.5023 16.4159 2.1546
5.9066 16.6330 2.1546
5.2470 16.6488 2.1315
4.6444 16.8218 2.1315
4.0364 16.9736 2.1315
3.4235 17.1041 2.1315
2.8066 17.2131 2.1315
2.1864 17.3005 2.1315
1.5635 17.3661 2.1315
0.9843 18.2521 2.2346
0.3282 18.2752 2.2346
-0.3283 18.2754 2.2346
-0.9845 18.2527 2.2346
-1.6394 18.2071 2.2346
-2.2925 18.1387 2.2346
-2.9429 18.0476 2.2346
-3.5898 17.9337 2.2346
-4.2324 17.7973 2.2346
-4.8701 17.6385 2.2346
-5.5020 17.4575 2.2346
-6.1274 17.2545 2.2346
-6.5155 16.4487 2.1583
-7.0164 16.0089 2.1315
-7.5900 15.7535 2.1315
-8.1547 15.4781 2.1315
-8.7096 15.1829 2.1315
-9.2541 14.8683 2.1315
-9.7876 14.5347 2.1315
-10.3094 14.1823 2.1315
-10.5224 13.4332 2.0731
-10.9416 12.9800 2.0611
-11.2853 12.4514 2.0388
-9.9311 10.1963 1.7257
-6.9013 6.5943 1.1564
-9.9447 8.8415 1.6109
-9.8855 8.1727 1.5515
-9.9374 7.6319 1.5144
-10.1528 7.2329 1.5054
-10.2900 6.7873 1.4874
-10.3783 6.3229 1.4651
-10.5135 5.8984 1.4520
-10.6203 5.4666 1.4374
-10.7209 5.0400 1.4242
-10.8195 4.6196 1.4130
-10.9503 4.2174 1.4080
-11.0983 3.8228 1.4071
-11.2537 3.4297 1.4089
-10.9315 2.9070 1.3533
-10.6947 2.4365 1.3109
-10.4084 1.9812 1.2650
-9.4477 1.4491 1.1400
-9.3916 1.0971 1.1266
-9.3047 0.7495 1.1111
-9.2526 0.4118 1.1012
-9.2154 0.0790 1.0946
-9.2835 -0.2538 1.1019
-9.5807 -0.6066 1.1378
-9.9718 -0.9918 1.1865
-9.9362 -1.3500 1.1860
-9.9684 -1.7208 1.1953
-10.0048 -2.0994 1.2066
-10.3016 -2.5509 1.2514
-10.5846 -3.0281 1.2968
-10.3087 -3.3539 1.2757
-10.0842 -3.6861 1.2622
-9.9887 -4.0632 1.2664
-9.9557 -4.4727 1.2806
-9.9349 -4.8992 1.2984
-9.9404 -5.3537 1.3222
-9.9762 -5.8443 1.3528
-10.2106 -6.4847 1.4139
-10.0890 -6.9278 1.4294
-9.9781 -7.3922 1.4491
-10.5575 -8.4247 1.5748
-10.4398 -8.9626 1.6029
-10.1425 -9.3601 1.6065
-10.0085 -9.9247 1.6395
-9.9354 -10.5859 1.6874
-10.0081 -11.4612 1.7673
-10.0105 -12.3305 1.8434
-10.0338 -13.3081 1.9332
-10.3227 -14.7652 2.0884
-6.5958 -10.1948 1.4068
-6.5769 -11.0128 1.4853
-6.5975 -12.0062 1.5854
-6.5793 -13.0629 1.6919
-6.8106 -14.8233 1.8861
-7.0929 -17.0228 2.1313
-6.4896 -17.2985 2.1345
-6.1418 -18.3482 2.2346
-5.4812 -18.5626 2.2346
-4.8129 -18.7524 2.2346
-4.1379 -18.9175 2.2346
-3.4571 -19.0576 2.2346
-2.7715 -19.1725 2.2346
-2.0821 -19.2619 2.2346
-1.3897 -19.3258 2.2346
-0.6954 -19.3641 2.2346
-0.0001 -16.1684 2.2346
0.5800 -16.1576 2.2346
1.1593 -16.1254 2.2346
1.6568 -15.3305 2.1315
1.9668 -13.6075 1.9007
1.8177 -10.0216 1.4083
3.2930 -15.0567 2.1315
3.8302 -14.9255 2.1315
4.3622 -14.7748 2.1315
4.8881 -14.6046 2.1315
5.4073 -14.4154 2.1315
5.9832 -14.3611 2.1546
6.4922 -14.1319 2.1546
6.9923 -13.8843 2.1546
7.4827 -13.6186 2.1546
7.9629 -13.3352 2.1546
8.4322 -13.0346 2.1546
8.8899 -12.7171 2.1546
9.3355 -12.3833 2.1546
9.7683 -12.0336 2.1546
10.1879 -11.6684 2.1546
10.5935 -11.2885 2.1546
10.9848 -10.8941 2.1546
11.3612 -10.4861 2.1546
11.7222 -10.0648 2.1546
12.0674 -9.6309 2.1546
12.3964 -9.1851 2.1546
12.6968 -8.7197 2.1525
12.9784 -8.2438 2.1503
13.2274 -7.7502 2.1457
13.4500 -7.2452 2.1399
13.6615 -6.7381 2.1354
13.8628 -6.2292 2.1323
14.0639 -5.7222 2.1320
14.2550 -5.2118 2.1330
14.4294 -4.6957 2.1343
14.5681 -4.1690 2.1331
14.7145 -3.6449 2.1358
14.8325 -3.1137 2.1372
14.8728 -2.5687 2.1302
14.9253 -2.0291 2.1278
14.8173 -1.4750 2.1053
14.7324 -0.9340 2.0890
13.2898 -0.3644 1.8830
14.5159 0.1233 2.0579
14.4450 0.6417 2.0516
14.3138 1.1519 2.0393
14.1404 1.6506 2.0235
14.0062 2.1471 2.0158
13.8817 2.6412 2.0120
13.7877 3.1401 2.0151
13.6839 3.6378 2.0195
13.5900 4.1406 2.0280
13.5097 4.6524 2.0413
12.8236 4.9379 1.9648
12.5020 5.3370 1.9452
13.2464 6.2262 2.0961
13.1378 6.7614 2.1177
12.9930 7.2884 2.1368
12.7709 7.7794 2.1464
12.5213 8.2580 2.1546
12.2080 8.6961 2.1546
11.8797 9.1225 2.1546
11.5367 9.5367 2.1546
11.1795 9.9384 2.1546
10.8086 10.3268 2.1546
10.4244 10.7018 2.1546
10.0275 11.0627 2.1546
9.6184 11.4092 2.1546
9.1975 11.7409 2.1546
8.7654 12.0574 2.1546
8.3227 12.3584 2.1546
7.8699 12.6434 2.1546
7.4076 12.9123 2.1546
6.9363 13.1646 2.1546
6.4566 13.4001 2.1546
5.9691 13.6186 2.1546
5.4157 13.6715 2.1315
4.9198 13.8531 2.1315
4.4180 14.0172 2.1315
3.9108 14.1635 2.1315
3.3989 14.2919 2.1315
2.8829 14.4022 2.1315
2.3635 14.4944 2.1315
1.8412 14.5682 2.1315
1.3804 15.3311 2.2346
0.8289 15.3699 2.2346
0.2763 15.3895 2.2346
-0.2765 15.3896 2.2346
-0.8291 15.3704 2.2346
-1.3807 15.3318 2.2346
-1.9306 15.2739 2.2346
-2.4782 15.1968 2.2346
-3.0229 15.1004 2.2346
-3.5639 14.9850 2.2346
-4.1007 14.8507 2.2346
-4.6326 14.6976 2.2346
-5.1589 14.5259 2.2346
-5.6790 14.3358 2.2346
-6.1923 14.1274 2.2346
-6.5076 13.5056 2.1710
-6.8635 13.0263 2.1314
-7.3300 12.7768 2.1313
-7.7875 12.5107 2.1313
-8.2357 12.2289 2.1313
-8.6739 11.9313 2.1313
-9.1016 11.6183 2.1313
-9.5182 11.2902 2.1313
-9.9232 10.9475 2.1313
-9.7408 9.9998 2.0124
-6.9006 6.5929 1.3750
-9.8925 8.7941 1.9057
-9.8394 8.1335 1.8367
-9.9517 7.6419 1.8041
-10.1326 7.2176 1.7874
-10.3105 6.7998 1.7733
-10.4209 6.3478 1.7506
-10.5539 5.9201 1.7348
-10.7043 5.5089 1.7245
-10.8506 5.1000 1.7161
-10.9836 4.6888 1.7080
-11.1192 4.2815 1.7027
-11.2655 3.8795 1.7013
-11.3992 3.4731 1.7001
-10.9120 2.9009 1.6095
-10.6869 2.4339 1.5610
-10.4633 1.9908 1.5156
-9.4516 1.4489 1.3595
-9.4067 1.0981 1.3453
-9.3331 0.7511 1.3289
-9.2888 0.4127 1.3185
-9.2513 0.0786 1.3108
-9.2145 -0.2526 1.3048
-9.4006 -0.5960 1.3322
-9.7971 -0.9752 1.3912
-10.0079 -1.3605 1.4259
-10.0440 -1.7346 1.4377
-10.0815 -2.1163 1.4518
-10.2662 -2.5430 1.4893
-10.3746 -2.9689 1.5182
-10.1248 -3.2949 1.4967
-9.9836 -3.6501 1.4930
-9.9288 -4.0397 1.5043
-9.9617 -4.4762 1.5314
-9.9230 -4.8942 1.5502
-9.8678 -5.3155 1.5692
-9.8890 -5.7941 1.6034
-10.1288 -6.4337 1.6774
-10.0132 -6.8766 1.6967
-9.8939 -7.3308 1.7188
-9.7798 -7.8051 1.7453
-10.3400 -8.8779 1.8996
-10.0571 -9.2823 1.9064
-9.9716 -9.8892 1.9550
-9.9486 -10.6011 2.0225
-6.6075 -7.5676 1.3968
-6.5760 -8.1008 1.4499
-6.5972 -8.7508 1.5220
-6.5936 -9.4321 1.5975
-6.5743 -10.1624 1.6793
-6.7495 -11.3029 1.8256
-7.4043 -13.4755 2.1313
-6.7477 -13.3984 2.0786
-6.4876 -14.1215 2.1524
-6.2069 -14.8977 2.2346
-5.6702 -15.1157 2.2346
-5.1257 -15.3139 2.2346
-4.5741 -15.4920 2.2346
-4.0163 -15.6497 2.2346
-3.4529 -15.7869 2.2346
-2.8847 -15.9033 2.2346
-2.3126 -15.9987 2.2346
-1.7373 -16.0730 2.2346
-1.1595 -16.1261 2.2346
-0.5802 -16.1579 2.2346
-0.0001 -13.8594 2.2346
0.4971 -13.8501 2.2346
0.9936 -13.8227 2.2346
1.4888 -13.7770 2.2346
1.8905 -13.0806 2.1315
1.7704 -9.7616 1.6002
1.8288 -8.3628 1.3810
3.2834 -12.7956 2.1315
3.7395 -12.6668 2.1315
4.1905 -12.5214 2.1315
4.6358 -12.3597 2.1315
5.0748 -12.1818 2.1315
5.5068 -11.9880 2.1315
5.9956 -11.9063 2.1546
6.4165 -11.6791 2.1546
6.8287 -11.4369 2.1546
7.2316 -11.1798 2.1546
7.6247 -10.9083 2.1546
8.0075 -10.6228 2.1546
8.3794 -10.3236 2.1546
8.7400 -10.0112 2.1546
9.0888 -9.6861 2.1546
9.4253 -9.3486 2.1546
9.7492 -8.9993 2.1546
10.0600 -8.6386 2.1546
10.3572 -8.2671 2.1546
10.6406 -7.8852 2.1546
10.9098 -7.4935 2.1546
11.1644 -7.0926 2.1546
11.4041 -6.6829 2.1546
11.6287 -6.2651 2.1546
11.8379 -5.8397 2.1546
12.0314 -5.4073 2.1546
12.2090 -4.9685 2.1546
12.3705 -4.5239 2.1546
12.5158 -4.0740 2.1546
12.6446 -3.6195 2.1546
12.7568 -3.1610 2.1546
12.8524 -2.6991 2.1546
12.9312 -2.2344 2.1546
12.9932 -1.7674 2.1546
13.0383 -1.2989 2.1546
13.0417 -0.8279 2.1505
13.0219 -0.3581 2.1453
12.9824 0.1092 2.1397
12.9130 0.5726 2.1319
12.8646 1.0342 2.1303
12.7638 1.4889 2.1227
12.6634 1.9402 2.1179
12.5659 2.3899 2.1161
12.4567 2.8360 2.1151
12.3159 3.2731 2.1114
12.1650 3.7054 2.1085
12.0708 4.1559 2.1182
11.9674 4.6072 2.1292
11.8381 5.0526 2.1386
11.6936 5.4953 2.1483
11.5059 5.9205 2.1530
11.2868 6.3303 2.1546
11.0450 6.7271 2.1546
10.7895 7.1148 2.1546
10.5206 7.4930 2.1546
10.2386 7.8613 2.1546
9.9439 8.2190 2.1546
9.6368 8.5659 2.1546
9.3179 8.9016 2.1546
8.9875 9.2256 2.1546
8.6460 9.5375 2.1546
8.2938 9.8370 2.1546
7.9315 10.1238 2.1546
7.5594 10.3975 2.1546
7.1781 10.6577 2.1546
6.7880 10.9043 2.1546
6.3896 11.1368 2.1546
5.9834 11.3551 2.1546
5.5101 11.4349 2.1315
5.0943 11.6219 2.1315
4.6724 11.7940 2.1315
4.2447 11.9512 2.1315
3.8118 12.0931 2.1315
3.3743 12.2197 2.1315
2.9328 12.3308 2.1315
2.4876 12.4263 2.1315
2.0394 12.5061 2.1315
1.5888 12.5700 2.1315
1.1912 13.2284 2.2346
0.7153 13.2620 2.2346
0.2385 13.2789 2.2346
-0.2386 13.2790 2.2346
-0.7154 13.2624 2.2346
-1.1914 13.2290 2.2346
-1.6659 13.1788 2.2346
-2.1384 13.1120 2.2346
-2.6084 13.0286 2.2346
-3.0751 12.9287 2.2346
-3.5382 12.8124 2.2346
-3.9969 12.6799 2.2346
-4.4509 12.5312 2.2346
-4.8994 12.3667 2.2346
-5.3420 12.1864 2.2346
-5.7780 11.9905 2.2346
-6.2071 11.7793 2.2346
-6.5011 11.3308 2.1916
-6.7166 10.7893 2.1313
-7.1027 10.5456 2.1313
-7.4801 10.2882 2.1313
-7.8484 10.0175 2.1313
-8.2071 9.7339 2.1313
-8.5556 9.4377 2.1313
-8.8937 9.1291 2.1313
-6.8181 6.5133 1.5759
-9.5365 8.4766 2.1313
-9.7798 8.0833 2.1182
-9.9803 7.6628 2.0994
-10.1366 7.2194 2.0751
-10.3096 6.7982 2.0578
-10.4779 6.3816 2.0430
-10.6428 5.9690 2.0307
-10.7978 5.5560 2.0196
-10.9419 5.1420 2.0093
-11.0826 4.7301 2.0012
-11.2325 4.3242 1.9975
-11.3849 3.9197 1.9969
-11.5248 3.5104 1.9966
-11.2495 2.9897 1.9276
-10.6517 2.4250 1.8077
-10.3392 1.9664 1.7403
-9.4723 1.4513 1.5834
-9.4165 1.0985 1.5653
-9.3642 0.7529 1.5499
-9.3256 0.4136 1.5389
-9.2878 0.0782 1.5300
-9.2510 -0.2544 1.5233
-9.2416 -0.5866 1.5231
-9.6688 -0.9632 1.5969
-10.0417 -1.3659 1.6643
-10.0738 -1.7406 1.6776
-10.1014 -2.1213 1.6925
-10.3165 -2.5563 1.7415
-10.1589 -2.9080 1.7302
-9.9660 -3.2440 1.7148
-9.8449 -3.6002 1.7139
-9.8762 -4.0191 1.7420
-9.9680 -4.4799 1.7842
-9.8781 -4.8729 1.7970
-9.8168 -5.2889 1.8180
-9.9015 -5.8023 1.8698
-10.0537 -6.3869 1.9394
-9.9380 -6.8259 1.9618
-6.7660 -5.0139 1.3694
-9.6950 -7.7384 2.0160
-6.5947 -5.6629 1.4118
-6.5776 -6.0716 1.4531
-6.5910 -6.5372 1.5061
-6.6064 -7.0404 1.5655
-6.5828 -7.5401 1.6222
-6.5838 -8.1112 1.6923
-7.9237 -10.5114 2.1313
-6.7508 -9.6579 1.9070
-7.1557 -11.0622 2.1313
-6.7495 -11.3039 2.1289
-6.4833 -11.8005 2.1764
-6.2198 -12.3512 2.2346
-5.7745 -12.5705 2.2346
-5.3214 -12.7735 2.2346
-4.8611 -12.9598 2.2346
-4.3941 -13.1291 2.2346
-3.9211 -13.2813 2.2346
-3.4428 -13.4161 2.2346
-2.9597 -13.5333 2.2346
-2.4727 -13.6327 2.2346
-1.9822 -13.7143 2.2346
-1.4891 -13.7778 2.2346
-0.9939 -13.8232 2.2346
-0.4973 -13.8504 2.2346
-0.0001 -12.1164 2.2346
0.4345 -12.1083 2.2346
0.8686 -12.0844 2.2346
1.3015 -12.0446 2.2346
1.6526 -11.4359 2.1315
2.0615 -11.3679 2.1315
1.7813 -8.1460 1.5386
2.1646 -8.4363 1.6073
3.2693 -11.0751 2.1315
3.6637 -10.9483 2.1315
4.0532 -10.8073 2.1315
4.4371 -10.6522 2.1315
4.8151 -10.4831 2.1315
5.1865 -10.3005 2.1315
5.5509 -10.1045 2.1315
5.9718 -10.0026 2.1546
6.3245 -9.7783 2.1546
6.6686 -9.5414 2.1546
7.0038 -9.2922 2.1546
7.3295 -9.0311 2.1546
7.6454 -8.7583 2.1546
7.9510 -8.4744 2.1546
8.2460 -8.1797 2.1546
8.5299 -7.8747 2.1546
8.8024 -7.5596 2.1546
9.0632 -7.2351 2.1546
9.3119 -6.9014 2.1546
9.5481 -6.5592 2.1546
9.7718 -6.2088 2.1546
9.9824 -5.8507 2.1546
10.1798 -5.4854 2.1546
10.3638 -5.1135 2.1546
10.5341 -4.7353 2.1546
10.6906 -4.3515 2.1546
10.8329 -3.9625 2.1546
10.9611 -3.5689 2.1546
11.0749 -3.1711 2.1546
11.1742 -2.7698 2.1546
11.2590 -2.3654 2.1546
11.3291 -1.9584 2.1546
11.3844 -1.5495 2.1546
11.4250 -1.1391 2.1546
11.4507 -0.7278 2.1546
11.4617 -0.3161 2.1546
11.4579 0.0955 2.1546
11.4394 0.5064 2.1546
11.4062 0.9161 2.1546
11.3584 1.3241 2.1546
11.2960 1.7299 2.1546
11.2192 2.1329 2.1546
11.1281 2.5326 2.1546
11.0228 2.9286 2.1546
10.9035 3.3203 2.1546
10.7704 3.7073 2.1546
10.6237 4.0890 2.1546
10.4635 4.4650 2.1546
10.2902 4.8349 2.1546
10.1039 5.1982 2.1546
9.9049 5.5543 2.1546
9.6935 5.9030 2.1546
9.4700 6.2438 2.1546
9.2346 6.5762 2.1546
8.9877 6.8999 2.1546
8.7296 7.2145 2.1546
8.4606 7.5196 2.1546
8.1812 7.8148 2.1546
7.8915 8.0997 2.1546
7.5921 8.3741 2.1546
7.2833 8.6377 2.1546
6.9655 8.8900 2.1546
6.6391 9.1308 2.1546
6.3046 9.3598 2.1546
5.9622 9.5768 2.1546
5.5523 9.6767 2.1315
5.1996 9.8667 2.1315
4.8404 10.0442 2.1315
4.4753 10.2088 2.1315
4.1047 10.3604 2.1315
3.7291 10.4987 2.1315
3.3489 10.6238 2.1315
2.9647 10.7353 2.1315
