ply
format ascii 1.0
element vertex 2058
property float32 x
property float32 y
property float32 z
end_header
-33.3456 -2.0916 -2.8305
-27.0587 -2.6753 -2.3057
-26.6602 -3.6063 -2.2834
-26.1948 -4.5062 -2.2581
-26.5540 -5.5561 -2.3069
-25.9397 -6.4075 -2.2742
-11.9843 -3.4211 -1.0617
-11.0483 -3.5876 -0.9905
-10.6249 -3.8770 -0.9653
-10.4687 -4.2518 -0.9652
-10.5947 -4.7529 -0.9928
-10.6907 -5.2648 -1.0197
-10.4776 -5.6359 -1.0189
-10.1829 -5.9583 -1.0113
-9.9802 -6.3313 -1.0139
-9.7774 -6.7067 -1.0179
-9.5506 -7.0684 -1.0209
-9.3598 -7.4619 -1.0292
-9.1663 -7.8620 -1.0391
-9.0399 -8.3352 -1.0588
-8.9767 -8.8940 -1.0889
-9.9782 -10.6229 -1.2567
-9.5009 -10.8718 -1.2458
-9.1222 -11.2278 -1.2490
-8.8362 -11.7110 -1.2674
-9.3525 -13.3677 -1.4102
-11.1539 -17.2277 -1.7749
-26.7257 -44.7209 -4.5079
-23.6446 -42.9995 -4.2481
-22.6581 -44.9567 -4.3603
-20.9074 -45.4757 -4.3368
-19.0246 -45.6295 -4.2853
-17.7497 -47.2836 -4.3795
-15.8893 -47.4382 -4.3396
7.3439 -67.9107 -4.3872
7.4693 -51.6451 -3.3512
9.1442 -50.3829 -3.2880
6.0521 -27.6548 -1.8174
7.0862 -27.5953 -1.8286
8.4219 -28.5064 -1.9072
9.4507 -28.2179 -1.9088
13.8411 -36.8744 -2.5254
14.9123 -35.7693 -2.4838
14.6558 -31.8805 -2.2478
15.5771 -30.9096 -2.2163
15.1475 -27.5491 -2.0119
16.3313 -27.3298 -2.0363
17.4373 -26.9350 -2.0509
14.5906 -20.8563 -1.6258
15.1299 -20.0539 -1.6035
19.9748 -24.5874 -2.0206
1.9949 -2.2830 -0.1932
18.4328 -19.6254 -1.7146
18.7924 -18.6209 -1.6833
15.6922 -14.4703 -1.3570
17.3596 -14.8909 -1.4527
18.6275 -14.8517 -1.5117
15.2045 -11.2540 -1.1992
15.5245 -10.6501 -1.1923
15.6807 -9.9487 -1.1749
16.5127 -9.6632 -1.2091
16.7346 -9.0027 -1.1996
16.3296 -8.0428 -1.1479
16.3055 -7.3158 -1.1257
16.0683 -6.5269 -1.0912
17.2976 -6.3129 -1.1572
24.7815 -8.0484 -1.6355
19.6250 -5.6034 -1.2795
18.2125 -4.4998 -1.1747
17.9105 -3.7485 -1.1444
19.1421 -3.2939 -1.2132
18.4206 -2.4927 -1.1596
18.7416 -1.8539 -1.1734
18.2877 -1.1481 -1.1402
16.7321 -0.4484 -1.0402
12.9144 0.1177 -0.8016
21.0780 0.9495 -1.3079
15.8681 1.2869 -0.9856
16.7481 1.9655 -1.0426
17.5433 2.7004 -1.0960
16.9005 3.2263 -1.0611
18.0089 4.1129 -1.1377
17.8404 4.7543 -1.1357
21.9142 6.6910 -1.4076
56.9160 19.6378 -3.6943
31.4180 12.1188 -2.0636
29.6101 12.6604 -1.9711
30.0895 14.1636 -2.0331
7.6353 3.9348 -0.5245
7.5282 4.2283 -0.5266
7.4194 4.5250 -0.5294
7.3088 4.8257 -0.5329
7.1959 5.1313 -0.5372
7.0804 5.4426 -0.5422
6.9619 5.7607 -0.5481
7.2089 6.4146 -0.5847
7.2151 6.8997 -0.6043
6.9541 7.1454 -0.6029
6.6934 7.3905 -0.6024
6.4321 7.6359 -0.6026
6.1696 7.8819 -0.6036
21.2546 29.2597 -2.1792
21.0740 31.3163 -2.2727
18.2017 29.2634 -2.0734
13.3778 23.3358 -1.6171
11.0922 21.0672 -1.4304
10.1981 21.1799 -1.4114
9.5101 21.7121 -1.4223
10.0832 25.4714 -1.6429
14.1890 39.9797 -2.5429
12.2073 38.7564 -2.4345
10.6599 38.6313 -2.4000
10.3611 43.5945 -2.6825
10.4264 52.1200 -3.1810
2.0304 12.4596 -0.7553
9.3183 73.7742 -4.4479
6.8035 75.6067 -4.5398
5.1080 94.7749 -5.6753
1.7009 94.7773 -5.6676
-1.7058 94.9997 -5.6807
-5.1208 94.9958 -5.6878
-8.5485 94.9895 -5.7024
-10.5843 64.9457 -3.9353
-15.3604 76.7801 -4.6837
-18.2445 76.7612 -4.7206
-22.9139 83.0368 -5.1553
-26.0601 82.7343 -5.1930
-11.8668 33.4356 -2.1249
-11.3630 28.7034 -1.8497
-12.1551 27.7502 -1.8160
-13.0948 27.1955 -1.8103
-9.3469 17.7521 -1.2039
-9.3941 16.3864 -1.1341
-9.4225 15.1485 -1.0719
-9.7130 14.4334 -1.0460
-10.2310 14.0840 -1.0474
-10.7686 13.7571 -1.0520
-9.9539 11.8167 -0.9310
-7.4656 8.2431 -0.6707
-10.6374 10.9298 -0.9207
-9.5099 9.0941 -0.7950
-9.5594 8.5059 -0.7738
-9.7505 8.0680 -0.7661
-9.9620 7.6576 -0.7614
-10.1198 7.2162 -0.7539
-10.2484 6.7665 -0.7457
-10.4065 6.3466 -0.7410
-10.5316 5.9151 -0.7351
-10.7079 5.5182 -0.7339
-10.8331 5.0993 -0.7303
-9.8766 4.2229 -0.6559
-9.8331 3.7929 -0.6444
-9.8916 3.4129 -0.6405
-10.0144 3.0577 -0.6417
-10.0605 2.6810 -0.6389
-10.1121 2.3094 -0.6373
-10.2088 1.9488 -0.6394
-10.8050 1.6632 -0.6734
-24.8314 2.9141 -1.5420
-26.6956 2.1649 -1.6540
-28.3255 1.2760 -1.7533
-40.7282 0.3712 -2.5217
-40.4917 -1.0851 -2.5111
-33.3383 -2.0929 -2.0735
-27.0830 -2.6790 -1.6915
-26.6839 -3.6109 -1.6757
-26.1968 -4.5079 -1.6564
-27.4975 -5.7549 -1.7528
-25.5165 -6.3043 -1.6419
-11.7586 -3.3573 -0.7649
-10.9249 -3.5481 -0.7193
-10.4675 -3.8201 -0.6987
-10.3327 -4.1971 -0.7001
-10.2940 -4.6185 -0.7091
-10.3887 -5.1166 -0.7287
-10.2120 -5.4936 -0.7305
-10.0344 -5.8720 -0.7332
-9.8457 -6.2466 -0.7362
-9.6561 -6.6241 -0.7401
-9.4553 -6.9985 -0.7443
-9.2626 -7.3849 -0.7503
-9.0680 -7.7783 -0.7574
-8.9941 -8.2936 -0.7764
-8.9304 -8.8487 -0.7986
-9.8933 -10.5332 -0.9188
-9.4681 -10.8350 -0.9156
-9.0897 -11.1885 -0.9181
-8.8125 -11.6803 -0.9326
-8.9560 -12.8018 -0.9966
-10.8193 -16.7120 -1.2709
-26.8103 -44.8653 -3.3387
-23.7080 -43.1174 -3.1453
-22.3685 -44.3847 -3.1790
-20.6518 -44.9224 -3.1642
-22.0262 -52.8318 -3.6652
-19.1482 -51.0119 -3.4907
-5.9030 -82.0472 -5.2829
7.3224 -67.7136 -2.8363
8.9517 -61.8973 -2.6040
9.7785 -53.8801 -2.2795
10.7084 -48.9332 -2.0845
7.1750 -27.9423 -1.2001
8.3614 -28.3031 -1.2271
9.5587 -28.5420 -1.2509
10.4837 -27.9313 -1.2391
14.9845 -35.9444 -1.6164
21.1392 -45.9859 -2.0993
15.6545 -31.0647 -1.4417
15.0966 -27.4581 -1.2976
16.2758 -27.2384 -1.3128
17.5990 -27.1863 -1.3386
17.9353 -25.6388 -1.2920
19.2536 -25.5211 -1.3186
20.1669 -24.8253 -1.3178
1.9946 -2.2828 -0.1247
32.5803 -34.6905 -1.9560
18.7447 -18.5749 -1.0832
19.8393 -18.2957 -1.1062
17.8682 -15.3283 -0.9636
18.7250 -14.9306 -0.9789
20.1321 -14.9026 -1.0222
15.5771 -10.6871 -0.7698
22.9260 -14.5470 -1.1046
20.1292 -11.7807 -0.9473
16.7225 -8.9971 -0.7700
22.4024 -11.0351 -1.0109
25.3890 -11.3926 -1.1245
34.9468 -14.1973 -1.5215
17.7339 -6.4730 -0.7601
27.9301 -9.0725 -1.1802
19.6959 -5.6247 -0.8217
19.5053 -4.8202 -0.8044
17.6639 -3.6978 -0.7212
16.5862 -2.8550 -0.6712
16.8321 -2.2786 -0.6761
17.0830 -1.6907 -0.6819
17.4812 -1.0983 -0.6944
16.8574 -0.4526 -0.6672
12.8870 0.1168 -0.5089
20.8801 0.9395 -0.8237
15.9548 1.2931 -0.6295
16.8451 1.9760 -0.6657
17.6240 2.7119 -0.6984
17.0919 3.2620 -0.6802
16.9794 3.8769 -0.6794
22.1770 5.9088 -0.8936
21.8970 6.6846 -0.8896
33.3077 11.4904 -1.3664
31.4702 12.1373 -1.3055
30.0364 12.8410 -1.2619
30.6953 14.4471 -1.3080
30.3487 15.6384 -1.3139
7.6343 4.2874 -0.3363
7.5247 4.5887 -0.3379
7.4133 4.8942 -0.3400
7.2997 5.2049 -0.3425
7.4239 5.7062 -0.3571
7.3388 6.0720 -0.3627
7.3218 6.5146 -0.3726
7.2654 6.9473 -0.3815
7.0025 7.1946 -0.3805
6.7400 7.4415 -0.3799
6.4769 7.6886 -0.3798
21.5552 27.5359 -1.3195
20.8699 28.7282 -1.3380
19.5693 29.0784 -1.3191
18.3888 29.5625 -1.3086
17.8455 31.1273 -1.3471
16.7987 31.9034 -1.3523
10.8717 22.5777 -0.9389
9.2590 21.1378 -0.8638
10.1507 25.6402 -1.0313
14.2423 40.1276 -1.5911
12.4771 39.6106 -1.5507
11.1340 40.3471 -1.5618
10.5265 44.2878 -1.6976
11.5476 57.7209 -2.1940
2.0303 12.4581 -0.4702
9.3217 73.7965 -2.7701
6.8302 75.8989 -2.8371
5.1526 95.5944 -3.5633
1.7140 95.4895 -3.5543
-1.7211 95.8553 -3.5676
-5.1609 95.7378 -3.5678
-8.5896 95.4440 -3.5664
-8.1530 64.5419 -2.4214
-10.6582 65.3969 -2.4669
-12.6506 63.2323 -2.4016
-12.1586 51.1534 -1.9589
-14.1559 51.2967 -1.9835
-10.9450 34.7461 -1.3586
-11.4945 32.3851 -1.2823
-10.0823 25.4671 -1.0228
-10.5939 24.1848 -0.9867
-11.3115 23.4906 -0.9751
-9.3712 17.7972 -0.7529
-9.4257 16.4406 -0.7101
-9.4074 15.1234 -0.6680
-9.7472 14.4834 -0.6555
-10.2414 14.0975 -0.6550
-10.1604 12.9794 -0.6204
-9.8484 11.6907 -0.5761
-7.4633 8.2401 -0.4196
-10.5023 10.7903 -0.5690
-9.5585 9.1400 -0.5005
-9.5727 8.5172 -0.4856
-9.7968 8.1057 -0.4827
-10.0145 7.6973 -0.4802
-10.1725 7.2532 -0.4758
-10.3271 6.8179 -0.4720
-10.4572 6.3770 -0.4680
-10.5836 5.9437 -0.4646
-10.6950 5.5110 -0.4614
-10.8200 5.0925 -0.4594
-9.7815 4.1817 -0.4094
-9.8220 3.7881 -0.4059
-9.9155 3.4206 -0.4052
-10.0357 3.0636 -0.4062
-10.0152 2.6684 -0.4020
-10.0352 2.2914 -0.4000
-10.1324 1.9337 -0.4017
-10.8645 1.6718 -0.4289
-24.7894 2.9080 -0.9758
-29.6774 2.4053 -1.1664
-28.2702 1.2721 -1.1109
-39.7916 0.3606 -1.5653
-39.5763 -1.0625 -1.5604
-33.3311 -2.0941 -1.3190
-27.1074 -2.6828 -1.0780
-26.7076 -3.6154 -1.0687
-25.6259 -4.4109 -1.0331
-27.1494 -5.6835 -1.1043
-26.9221 -6.6530 -1.1062
-11.4910 -3.2815 -0.4776
-10.6906 -3.4726 -0.4501
-10.3363 -3.7728 -0.4415
-10.1953 -4.1418 -0.4423
-10.0535 -4.5112 -0.4437
-10.2927 -5.0699 -0.4629
-10.1173 -5.4433 -0.4643
-9.9416 -5.8183 -0.4664
-9.7545 -6.1893 -0.4685
-9.5606 -6.5592 -0.4710
-9.3542 -6.9243 -0.4736
-9.1629 -7.3061 -0.4776
-8.9907 -7.7127 -0.4835
-8.8861 -8.1946 -0.4941
-8.8846 -8.8040 -0.5120
-9.7965 -10.4309 -0.5866
-9.4027 -10.7609 -0.5866
-9.0525 -11.1435 -0.5901
-8.7770 -11.6340 -0.5998
-8.8285 -12.6203 -0.6346
-9.1049 -14.0648 -0.6912
-26.3377 -44.0771 -2.1204
-24.6789 -44.8859 -2.1174
-22.4273 -44.5041 -2.0621
-20.8711 -45.4020 -2.0694
-19.2424 -51.2659 -2.2714
-14.0050 -96.8349 -4.0717
-7.1349 -99.1775 -4.1402
9.0667 -62.6953 -1.2096
11.4584 -63.1390 -1.2247
14.2857 -65.2831 -1.2745
7.1136 -27.7046 -0.5451
8.4171 -28.4927 -0.5656
9.7715 -29.1786 -0.5852
17.9395 -47.7977 -0.9696
18.9443 -45.4451 -0.9338
20.2638 -44.0838 -0.9187
16.2246 -32.1977 -0.6816
15.0463 -27.3679 -0.5893
16.2208 -27.1478 -0.5956
16.5621 -25.5860 -0.5728
18.0971 -25.8717 -0.5920
18.6818 -24.7647 -0.5803
20.3623 -25.0674 -0.6026
1.9943 -2.2826 -0.0564
32.5803 -34.6927 -0.8832
18.6973 -18.5292 -0.4871
19.7880 -18.2497 -0.4966
17.9605 -15.4086 -0.4352
18.8234 -15.0103 -0.4414
21.8767 -16.1953 -0.4973
19.5876 -13.4397 -0.4325
22.5212 -14.2914 -0.4839
19.9398 -11.6711 -0.4176
16.7095 -8.9910 -0.3417
22.5483 -11.1082 -0.4509
25.2200 -11.3182 -0.4939
33.8930 -13.7710 -0.6510
28.3429 -10.3469 -0.5347
27.8466 -9.0468 -0.5167
19.7672 -5.6461 -0.3613
19.5745 -4.8383 -0.3528
19.3888 -4.0599 -0.3451
16.5108 -2.8428 -0.2906
16.7548 -2.2690 -0.2919
17.0038 -1.6837 -0.2937
18.7676 -1.1801 -0.3217
16.9843 -0.4568 -0.2893
12.8597 0.1159 -0.2180
18.1123 0.8141 -0.3058
16.0424 1.2994 -0.2702
16.9430 1.9867 -0.2851
17.6380 2.7131 -0.2968
17.2874 3.2984 -0.2913
17.0559 3.8935 -0.2882
52.8651 14.0824 -0.8970
50.7883 15.5018 -0.8665
33.1241 11.4253 -0.5691
32.7344 12.6231 -0.5672
31.3675 13.4084 -0.5489
31.1604 14.6642 -0.5516
28.9676 14.9251 -0.5196
7.7432 4.3482 -0.1410
7.4774 4.5594 -0.1384
7.4314 4.9057 -0.1401
7.3838 5.2644 -0.1421
7.3340 5.6367 -0.1443
7.2832 6.0255 -0.1469
7.2296 6.4320 -0.1498
17.2236 16.4683 -0.3674
7.0515 7.2444 -0.1553
6.7871 7.4930 -0.1547
6.5223 7.7419 -0.1544
33.7527 43.1149 -0.8320
21.0052 28.9126 -0.5412
19.9564 29.6518 -0.5396
18.5795 29.8672 -0.5294
18.4711 32.2165 -0.5574
16.8594 32.0168 -0.5416
10.4617 21.7248 -0.3600
23.7366 54.1859 -0.8811
22.0740 62.1896 -0.9787
12.4643 39.5679 -0.6141
11.7294 42.5023 -0.6515
16.6347 69.9826 -1.0614
10.9620 54.7906 -0.8234
2.0302 12.4566 -0.1858
9.2496 73.2214 -1.0852
6.8853 76.5055 -1.1286
5.1530 95.5944 -1.4058
1.7142 95.4895 -1.4019
-1.7210 95.8553 -1.4070
-5.1610 95.7378 -1.4071
-8.3139 92.3771 -1.3615
-8.1716 64.6867 -0.9575
-10.2101 62.6445 -0.9326
-10.2616 51.2891 -0.7692
-11.1514 46.9137 -0.7098
-12.5861 45.6061 -0.6972
-10.9572 34.7833 -0.5381
-9.9560 28.0490 -0.4399
-9.7691 24.6749 -0.3929
-10.3520 23.6315 -0.3827
-9.0891 18.8744 -0.3114
-9.3464 17.7491 -0.2988
-9.4990 16.5677 -0.2852
-9.4089 15.1250 -0.2667
-9.7816 14.5337 -0.2630
-10.2662 14.1308 -0.2630
-10.1810 13.0049 -0.2494
-9.7454 11.5676 -0.2291
-7.4611 8.2371 -0.1690
-10.3759 10.6596 -0.2269
-9.5880 9.1675 -0.2030
-9.6239 8.5621 -0.1979
-9.8486 8.1479 -0.1971
-10.1092 7.7695 -0.1974
-10.2341 7.2965 -0.1954
-10.3933 6.8610 -0.1944
-10.5263 6.4185 -0.1932
-10.5200 5.9074 -0.1899
-10.6098 5.4665 -0.1887
-10.7343 5.0516 -0.1884
-9.7045 4.1483 -0.1683
-9.8063 3.7815 -0.1684
-9.8369 3.3930 -0.1675
-9.9347 3.0323 -0.1680
-9.9297 2.6451 -0.1670
-9.9579 2.2732 -0.1667
-10.0573 1.9189 -0.1679
-10.8552 1.6698 -0.1810
-24.7475 2.9018 -0.4126
-28.1051 2.2764 -0.4691
-28.2151 1.2682 -0.4721
-38.7463 0.3492 -0.6508
-38.5816 -1.0377 -0.6513
-33.3238 -2.0953 -0.5661
-27.1317 -2.6866 -0.4644
-26.7313 -3.6200 -0.4616
-27.5205 -4.7384 -0.4801
-29.2590 -6.1266 -0.5163
-27.1091 -6.7006 -0.4845
-11.3116 -3.2309 -0.2050
-10.3543 -3.3639 -0.1906
-10.1711 -3.7131 -0.1903
-10.0071 -4.0659 -0.1907
-9.8459 -4.4186 -0.1913
-10.2016 -5.0257 -0.2025
-10.0245 -5.3940 -0.2035
-9.8502 -5.7654 -0.2048
-9.6650 -6.1331 -0.2062
-9.4625 -6.4925 -0.2075
-9.2564 -6.8525 -0.2090
-9.0667 -7.2299 -0.2112
-8.9149 -7.6482 -0.2147
-8.7808 -8.0982 -0.2190
-8.8332 -8.7537 -0.2288
-9.7167 -10.3467 -0.2619
-9.3245 -10.6721 -0.2623
-9.0158 -11.0990 -0.2654
-8.7418 -11.5881 -0.2702
-8.7560 -12.5175 -0.2851
-8.7774 -13.5597 -0.3022
-9.5084 -15.9137 -0.3477
-14.0035 -25.4711 -0.5463
-22.8792 -45.4035 -0.9576
-11.7551 -25.5731 -0.5312
-11.5277 -30.7139 -0.6213
-10.7708 -32.1625 -0.6434
-15.6725 -53.0528 -1.0508
-13.7658 -53.6115 -1.0527
-12.8493 -58.7186 -1.1444
-10.1062 -55.6872 -1.0786
-7.1339 -99.1715 -1.8986
2.2711 -63.2265 0.2160
12.5240 -69.0135 0.2411
14.2351 -65.0545 0.2298
14.7421 -57.4171 0.2055
8.4146 -28.4858 0.1035
15.9647 -47.6745 0.1763
17.0062 -45.3133 0.1709
18.0653 -43.3388 0.1670
18.8848 -41.0859 0.1622
16.2513 -32.2524 0.1307
17.8532 -32.4752 0.1354
18.1363 -30.3555 0.1305
16.8175 -25.9821 0.1154
18.7079 -26.7463 0.1231
18.9175 -25.0786 0.1199
33.9477 -41.7946 0.2080
1.9940 -2.2823 0.0119
32.8251 -34.9557 0.1901
32.8245 -32.5317 0.1857
19.7370 -18.2039 0.1094
18.9570 -16.2648 0.1032
19.7103 -15.7187 0.1056
22.2941 -16.5056 0.1179
23.1869 -15.9107 0.1213
22.1307 -14.0449 0.1148
19.7542 -11.5635 0.1018
16.6967 -8.9851 0.0856
21.8082 -10.7447 0.1114
23.5296 -10.5608 0.1200
33.9381 -13.7911 0.1731
27.9627 -10.2095 0.1429
27.8979 -9.0649 0.1430
47.1812 -13.4786 0.2428
19.6442 -4.8565 0.1017
19.4566 -4.0751 0.1014
16.4362 -2.8308 0.0864
16.6784 -2.2595 0.0885
16.9254 -1.6768 0.0908
17.9732 -1.1310 0.0975
17.1130 -0.4612 0.0941
12.8326 0.1150 0.0715
19.1148 0.8582 0.1082
16.1308 1.3057 0.0928
17.0421 1.9974 0.0997
17.7871 2.7352 0.1060
17.4561 3.3297 0.1061
17.1329 3.9102 0.1063
18.6261 4.9607 0.1181
18.5062 5.6476 0.1200
34.2043 11.7961 0.2272
32.5548 12.5521 0.2218
33.4375 14.2914 0.2338
34.8127 16.3811 0.2502
32.4250 16.7045 0.2399
7.8552 4.4106 0.0599
7.3932 4.5076 0.0582
7.3463 4.8491 0.0597
7.2978 5.2026 0.0614
7.2474 5.5696 0.0632
7.1948 5.9519 0.0652
7.1398 6.3516 0.0673
18.1424 17.3455 0.1783
17.0314 17.4959 0.1749
6.8349 7.5452 0.0735
17.9334 21.2854 0.2025
34.2034 43.6877 0.4065
21.1422 29.0993 0.2653
20.3588 30.2477 0.2707
21.0321 33.8076 0.2974
19.2297 33.5377 0.2905
17.1952 32.6525 0.2788
16.3513 33.9534 0.2861
23.2391 53.0471 0.4417
23.0997 58.3421 0.4807
23.9093 67.3565 0.5497
20.8342 66.1339 0.5352
17.8533 64.6887 0.5197
16.2675 68.4341 0.5463
19.3184 96.5521 0.7667
2.0301 12.4551 0.0985
8.5945 95.4912 0.7506
5.1478 95.4903 0.7494
1.7145 95.4895 0.7490
-1.7188 95.7387 0.7512
-5.1611 95.7378 0.7522
-8.3995 93.3249 0.7348
-8.3493 66.0906 0.5220
-9.9942 61.3178 0.4863
-6.8273 34.1223 0.2720
-10.7218 45.1046 0.3617
-10.8985 39.4892 0.3189
-10.3589 32.8824 0.2677
-9.6832 27.2793 0.2241
-9.7519 24.6302 0.2044
-10.1580 23.1874 0.1946
-9.0721 18.8381 0.1601
-9.1656 17.4048 0.1500
-9.5856 16.7178 0.1462
-9.4267 15.1528 0.1347
-9.8047 14.5671 0.1319
-10.3214 14.2059 0.1311
-10.1920 13.0182 0.1227
-9.7897 11.6195 0.1120
-7.4588 8.2340 0.0813
-10.2406 10.5199 0.1067
-9.5991 9.1775 0.0958
-9.6941 8.6240 0.0929
-9.9109 8.1989 0.0913
-10.3062 7.9203 0.0915
-10.3809 7.4005 0.0890
-10.4611 6.9051 0.0867
-10.5963 6.4606 0.0850
-10.4194 5.8504 0.0810
-10.5282 5.4239 0.0795
-10.6501 5.0114 0.0782
-9.6738 4.1346 0.0691
-9.8063 3.7810 0.0683
-9.8295 3.3899 0.0668
-9.8325 3.0006 0.0653
-9.8351 2.6194 0.0639
-9.8818 2.2553 0.0628
-10.0208 1.9114 0.0624
-12.3986 1.9066 0.0758
-27.1187 3.1785 0.1628
-28.0858 2.2735 0.1658
-32.5624 1.4620 0.1892
-16.7542 0.1502 0.0959
-16.4546 -0.4434 0.0929
-16.4073 -1.0325 0.0915
-10.6202 -1.0522 0.0586
-11.0335 -1.4947 0.0602
-10.9690 -1.8892 0.0593
-29.4206 -6.1620 0.1578
-26.9734 -6.6685 0.1437
-11.1983 -3.1991 0.0593
-10.0934 -3.2797 0.0533
-9.9822 -3.6446 0.0525
-9.8362 -3.9970 0.0517
-9.6326 -4.3234 0.0506
-9.7903 -4.8236 0.0515
-9.9358 -5.3467 0.0524
-9.7606 -5.7135 0.0518
-9.5696 -6.0732 0.0511
-9.3665 -6.4272 0.0504
-9.1621 -6.7832 0.0499
-8.9919 -7.1709 0.0496
-8.8404 -7.5849 0.0495
-8.6847 -8.0101 0.0494
-8.7256 -8.6478 0.0507
-9.6383 -10.2639 0.0573
-9.2476 -10.5849 0.0564
-8.9423 -11.0093 0.0562
-8.6974 -11.5300 0.0564
-8.6847 -12.4164 0.0585
-8.6121 -13.3051 0.0604
-9.1034 -15.2368 0.0669
-9.9164 -18.0382 0.0767
-12.5193 -24.8459 0.1026
-11.5546 -25.1384 0.1010
-10.8003 -25.9102 0.1015
-11.3000 -30.1090 0.1153
-10.3762 -30.9858 0.1162
-12.0091 -40.6542 0.1496
-10.7729 -41.9580 0.1518
-9.5005 -43.4179 0.1548
-10.2536 -56.5025 0.1990
-7.1327 -99.1611 0.3407
0.0002 -86.1590 2.2352
2.2731 -63.2845 1.6427
5.7087 -79.3650 2.0642
8.2945 -76.7113 2.0020
11.0927 -76.7106 2.0117
12.5204 -68.9965 1.8207
13.5666 -62.0023 1.6488
14.5813 -56.7935 1.5241
8.4122 -28.4789 0.7724
15.1087 -45.1204 1.2387
16.1200 -42.9541 1.1955
16.6174 -39.8670 1.1266
16.1828 -35.2093 1.0119
16.2782 -32.3074 0.9458
17.1863 -31.2637 0.9340
17.8568 -29.8892 0.9128
17.0810 -26.3906 0.8254
17.9566 -25.6738 0.8239
17.9825 -23.8405 0.7867
18.3816 -22.6318 0.7694
1.9937 -2.2821 0.0801
19.5027 -20.7700 0.7547
20.1378 -19.9595 0.7526
17.9960 -16.5994 0.6512
18.9944 -16.2981 0.6672
20.8399 -16.6208 0.7122
19.6850 -14.5752 0.6559
23.2129 -15.9299 0.7557
21.5438 -13.6737 0.6866
19.5720 -11.4579 0.6117
16.6851 -8.9798 0.5124
21.2448 -10.4683 0.6421
23.7355 -10.6545 0.7072
33.9381 -13.7929 0.9984
37.2968 -13.6194 1.0850
27.8819 -9.0612 0.8033
46.3306 -13.2380 1.3239
19.7144 -4.8749 0.5595
19.5249 -4.0904 0.5512
16.3621 -2.8189 0.4600
16.6026 -2.2500 0.4655
16.8476 -1.6700 0.4717
18.0118 -1.1343 0.5043
17.2437 -0.4655 0.4834
12.8056 0.1142 0.3599
17.7280 0.7950 0.5001
16.2203 1.3122 0.4599
17.1423 2.0083 0.4891
17.8699 2.7470 0.5138
17.5363 3.3441 0.5088
17.2107 3.9271 0.5045
18.5890 4.9499 0.5512
50.2292 15.3258 1.5088
34.2398 11.8065 1.0434
43.9147 16.9296 1.3594
32.9865 14.0968 1.0388
36.4106 17.1309 1.1682
36.0659 18.5782 1.1808
7.3569 4.1304 0.2462
7.3108 4.4570 0.2504
7.2632 4.7938 0.2551
7.2137 5.1422 0.2603
7.1622 5.5037 0.2660
7.1085 5.8800 0.2723
7.0522 6.2732 0.2791
18.2996 17.4946 0.7502
18.0315 18.5220 0.7675
6.8834 7.5982 0.3050
18.0678 21.4435 0.8357
21.6401 27.6389 1.0480
33.8033 46.5224 1.7198
33.0840 49.1507 1.7747
23.5431 37.8416 1.3370
18.8543 32.8808 1.1387
18.7766 35.6533 1.2122
16.3344 33.9162 1.1339
19.2658 43.9748 1.4478
19.5662 49.4149 1.6045
18.1623 51.1634 1.6407
16.8418 53.4577 1.6954
15.6863 56.8338 1.7849
16.4524 69.2075 2.1552
13.9483 69.7085 2.1552
2.0300 12.4536 0.3827
8.9016 70.4572 2.1552
6.3641 70.7051 2.1552
3.7799 70.1093 2.1321
1.3213 73.5805 2.2352
-1.3209 73.5736 2.2352
-3.9612 73.4790 2.2352
-6.4634 71.8111 2.1898
-6.5731 52.0288 1.5925
-9.8506 60.4339 1.8588
-10.0733 50.3439 1.5580
-10.0093 42.1053 1.3127
-9.6118 34.8255 1.0952
-10.3366 32.8100 1.0421
-9.4361 26.5819 0.8539
-9.6149 24.2830 0.7899
-9.9342 22.6753 0.7481
-8.9709 18.6271 0.6241
-9.1903 17.4509 0.5947
-9.6695 16.8632 0.5855
-9.4331 15.1622 0.5371
-9.8711 14.6649 0.5310
-10.3883 14.2972 0.5301
-10.1889 13.0133 0.4950
-9.8461 11.6858 0.4569
-7.4566 8.2310 0.3315
-10.1888 10.4660 0.4353
-9.7042 9.2773 0.3993
-9.7977 8.7155 0.3893
-10.0270 8.2942 0.3856
-10.5112 8.0772 0.3920
-10.9996 7.8409 0.3986
-10.5298 6.9498 0.3715
-10.5108 6.4078 0.3616
-10.3305 5.7998 0.3472
-10.4493 5.3827 0.3437
-10.5671 4.9718 0.3407
-9.6458 4.1222 0.3052
-9.7622 3.7635 0.3037
-9.8108 3.3830 0.3005
-9.7789 2.9837 0.2952
-9.8136 2.6132 0.2925
-9.9110 2.2615 0.2920
-10.1869 1.9426 0.2971
-11.6814 1.7957 0.3377
-11.7910 1.3814 0.3382
-11.3839 0.9209 0.3245
-11.2673 0.5053 0.3196
-11.3129 0.1008 0.3196
-10.4099 -0.2810 0.2934
-10.0768 -0.6346 0.2837
-10.0390 -0.9951 0.2826
-10.0437 -1.3612 0.2831
-10.0224 -1.7267 0.2833
-10.0197 -2.0991 0.2844
-10.0651 -2.4889 0.2872
-11.1623 -3.1894 0.3207
-9.8128 -3.1890 0.2842
-9.8216 -3.5865 0.2872
-9.6799 -3.9340 0.2862
-9.4627 -4.2477 0.2834
-9.4481 -4.6556 0.2870
-9.8593 -5.3062 0.3043
-9.6995 -5.6783 0.3046
-9.4968 -6.0275 0.3041
-9.3031 -6.3843 0.3043
-9.1044 -6.7411 0.3047
-8.9308 -7.1227 0.3066
-8.7802 -7.5339 0.3097
-8.6378 -7.9675 0.3139
-8.6872 -8.6103 0.3260
-9.3964 -10.0070 0.3651
-9.2250 -10.5597 0.3721
-8.9199 -10.9825 0.3747
-8.6840 -11.5131 0.3812
-8.6470 -12.3632 0.3981
-8.4952 -13.1254 0.4118
-8.9834 -15.0367 0.4606
-9.3387 -16.9883 0.5089
-9.1590 -18.1781 0.5336
-11.0084 -23.9515 0.6900
-10.4108 -24.9772 0.7074
-11.1260 -29.6472 0.8268
-10.1507 -30.3142 0.8338
-10.7164 -36.2802 0.9856
-9.7951 -38.1520 1.0253
-9.4068 -42.9919 1.1447
-10.1669 -56.0283 1.4800
-11.8426 -81.8989 2.1495
-8.8267 -81.6367 2.1319
-6.1783 -85.8998 2.2352
-3.0919 -86.0896 2.2352
0.0002 -46.0907 2.2352
1.6101 -44.8256 2.1751
3.1541 -43.8513 2.1321
4.7256 -43.7060 2.1321
6.3584 -43.9727 2.1552
7.9309 -43.7070 2.1552
9.4920 -43.3825 2.1552
11.0395 -43.0000 2.1552
8.4098 -28.4720 1.4418
13.6683 -40.8206 2.0915
13.8894 -37.0121 1.9216
14.4522 -34.6742 1.8270
15.0993 -32.8536 1.7596
15.7153 -31.1918 1.7009
16.3728 -29.7854 1.6564
16.9707 -28.4075 1.6138
16.5023 -25.4979 1.4825
16.4357 -23.5005 1.4010
16.7765 -22.2431 1.3623
17.1961 -21.1736 1.3350
1.9934 -2.2819 0.1484
18.1723 -19.3544 1.3020
18.7191 -18.5547 1.2941
18.0309 -16.6327 1.2058
19.0320 -16.3316 1.2341
20.6689 -16.4857 1.3026
20.3187 -15.0456 1.2473
21.1333 -14.5040 1.2661
20.5174 -13.0234 1.2020
20.3785 -11.9313 1.1695
16.6735 -8.9744 0.9391
20.9171 -10.3080 1.1581
33.9385 -15.2363 1.8503
33.9381 -13.7947 1.8247
36.2132 -13.2257 1.9231
27.8658 -9.0574 1.4637
41.4183 -11.8366 2.1552
19.7852 -4.8934 1.0213
19.5938 -4.1058 1.0047
16.2887 -2.8070 0.8308
16.5274 -2.2407 0.8396
16.7705 -1.6632 0.8497
18.0506 -1.1377 0.9133
17.3767 -0.4700 0.8792
12.7786 0.1133 0.6474
18.0099 0.8068 0.9147
16.3108 1.3187 0.8316
17.2439 2.0194 0.8837
17.9535 2.7589 0.9259
17.6173 3.3586 0.9157
17.2893 3.9441 0.9068
18.5520 4.9390 0.9832
27.7417 8.4631 1.4876
26.8043 9.2412 1.4563
26.2597 10.1220 1.4477
26.2569 11.2194 1.4710
26.7377 12.5784 1.5244
26.3971 13.5961 1.5340
25.4576 14.2911 1.5104
7.2302 4.4074 0.4387
7.1818 4.7396 0.4464
7.1314 5.0831 0.4549
7.0789 5.4392 0.4643
7.0241 5.8097 0.4746
20.8599 18.5542 1.4554
18.4598 17.6464 1.3329
19.4866 20.0152 1.4596
18.5115 20.4325 1.4422
18.2044 21.6042 1.4793
17.9305 22.8994 1.5244
17.2302 23.7118 1.5378
16.6964 24.8031 1.5701
16.1837 26.0109 1.6101
15.6679 27.3222 1.6567
15.4297 29.2964 1.7431
16.3174 33.8789 1.9810
15.8810 36.2467 2.0862
14.7620 37.2795 2.1151
13.5865 38.2711 2.1435
12.2638 38.9243 2.1552
10.8533 39.3207 2.1552
9.4307 39.6681 2.1552
7.9975 39.9662 2.1552
2.0298 12.4521 0.6673
5.0515 39.9804 2.1321
3.6121 40.1274 2.1321
2.0111 37.2994 1.9770
0.7583 42.2197 2.2352
-0.7579 42.2174 2.2352
-2.2730 42.1631 2.2352
-3.7854 42.0567 2.2352
-5.2935 41.8984 2.2352
-6.4814 39.7624 2.1319
-7.9065 39.5128 2.1319
-9.3224 39.2140 2.1319
-9.8800 35.7957 1.9634
-10.3964 32.9982 1.8286
-9.1403 25.7473 1.4434
-9.3329 23.5696 1.3386
-9.6593 22.0468 1.2704
-8.9643 18.6123 1.0897
-9.2813 17.6227 1.0499
-9.7948 17.0808 1.0372
-9.4654 15.2133 0.9432
-9.9655 14.8043 0.9387
-10.4071 14.3222 0.9305
-10.2059 13.0344 0.8693
-9.9033 11.7529 0.8063
-7.4543 8.2280 0.5819
-10.1448 10.4201 0.7615
-9.8198 9.3872 0.7105
-9.9104 8.8151 0.6930
-10.0802 8.3376 0.6827
-10.5355 8.0952 0.6926
-10.9831 7.8285 0.7022
-10.6921 7.0564 0.6662
-10.4386 6.3632 0.6349
-10.2909 5.7770 0.6121
-10.4113 5.3625 0.6066
-9.6547 4.5419 0.5519
-9.6134 4.1078 0.5400
-9.6686 3.7269 0.5345
-9.7426 3.3589 0.5308
-9.7459 2.9732 0.5241
-9.8239 2.6154 0.5221
-9.9417 2.2680 0.5229
-10.3692 1.9769 0.5405
-11.1297 1.7103 0.5757
-11.0297 1.2916 0.5669
-10.9245 0.8832 0.5586
-10.8152 0.4845 0.5509
-10.6556 0.0944 0.5414
-10.2985 -0.2785 0.5226
-9.9723 -0.6285 0.5061
-9.9381 -0.9856 0.5050
-9.9422 -1.3479 0.5066
-9.8553 -1.6984 0.5042
-9.8455 -2.0631 0.5063
-9.8573 -2.4380 0.5103
-10.7631 -3.0759 0.5617
-9.7371 -3.1649 0.5130
-9.7199 -3.5499 0.5176
-9.5975 -3.9011 0.5175
-9.4222 -4.2300 0.5151
-9.3917 -4.6283 0.5214
-9.9073 -5.3326 0.5595
-9.6874 -5.6718 0.5575
-9.4776 -6.0159 0.5567
-9.2842 -6.3719 0.5576
-9.0608 -6.7094 0.5576
-8.8799 -7.0827 0.5610
-8.7295 -7.4909 0.5674
-8.6126 -7.9448 0.5773
-8.6898 -8.6135 0.6021
-9.3783 -9.9884 0.6734
-9.2015 -10.5336 0.6866
-8.9214 -10.9851 0.6940
-8.6976 -11.5317 0.7076
-8.6415 -12.3562 0.7379
-8.4889 -13.1164 0.7639
-8.9554 -14.9909 0.8530
-9.0320 -16.4314 0.9151
-9.1464 -18.1541 0.9913
-10.9446 -23.8142 1.2771
-10.1870 -24.4417 1.2894
-10.9370 -29.1454 1.5149
-9.9663 -29.7651 1.5266
-10.6236 -35.9680 1.8230
-9.7062 -37.8081 1.8964
-9.3184 -42.5907 2.1172
-7.8407 -43.2113 2.1319
-6.4375 -44.5221 2.1830
-4.9520 -45.8036 2.2352
-3.3055 -45.9612 2.2352
-1.6540 -46.0570 2.2352
0.0002 -31.4383 2.2352
1.1285 -31.4186 2.2352
2.0729 -28.8199 2.0543
3.2233 -29.8125 2.1321
4.2908 -29.6746 2.1321
5.3523 -29.4973 2.1321
6.4757 -29.5979 2.1552
7.5322 -29.3399 2.1552
8.4074 -28.4651 2.1123
9.6120 -28.7079 2.1552
10.6326 -28.3348 2.1552
11.6383 -27.9244 2.1552
12.6278 -27.4773 2.1552
13.5662 -26.9277 2.1498
14.2884 -25.9950 2.1160
14.7491 -24.6901 2.0527
15.0270 -23.2196 1.9751
15.3737 -21.9834 1.9168
15.8010 -20.9509 1.8762
16.2421 -20.0001 1.8434
1.9930 -2.2817 0.2169
17.1607 -18.2781 1.7963
17.5584 -17.4053 1.7727
17.6312 -16.2652 1.7213
17.5980 -15.1022 1.6654
17.5920 -14.0326 1.6174
17.7927 -13.1763 1.5927
17.9529 -12.3224 1.5678
18.1005 -11.4903 1.5450
18.2318 -10.6754 1.5239
16.6185 -8.9458 1.3627
18.7813 -9.2565 1.5132
19.2002 -8.6208 1.5225
19.7990 -8.0487 1.5476
20.5837 -7.5186 1.5885
26.3122 -8.5538 2.0076
27.1727 -7.7669 2.0528
19.8566 -4.9121 1.4874
22.9504 -4.8103 1.7069
16.2157 -2.7953 1.1990
16.4527 -2.2314 1.2112
16.6940 -1.6564 1.2251
16.9403 -1.0686 1.2409
16.4986 -0.4471 1.2079
12.7517 0.1124 0.9343
16.3046 0.7296 1.1971
16.4026 1.3253 1.2083
17.3469 2.0305 1.2838
18.0381 2.7710 1.3429
17.6992 3.3733 1.3273
18.6337 4.2499 1.4094
18.5150 4.9282 1.4144
23.2493 7.0913 1.7962
22.9354 7.9061 1.7946
22.5335 8.6845 1.7883
22.2685 9.5140 1.7950
22.0198 10.3577 1.8056
21.7588 11.2059 1.8178
21.5181 12.0784 1.8346
21.1432 12.8873 1.8426
7.1020 4.6866 0.6338
7.0508 5.0252 0.6455
6.9974 5.3761 0.6584
6.9415 5.7410 0.6727
18.9207 16.8281 1.8926
18.6202 17.7983 1.9269
18.2523 18.7461 1.9588
17.6500 19.4802 1.9694
16.9002 20.0550 1.9663
16.1611 20.6383 1.9667
15.3584 21.1345 1.9615
14.6937 21.8267 1.9767
13.9393 22.4023 1.9834
13.2586 23.1194 2.0046
12.6059 23.9333 2.0357
11.4974 23.8699 1.9949
11.0816 25.2910 2.0801
10.2476 25.8775 2.0976
9.5410 26.8738 2.1500
8.5872 27.2535 2.1552
7.6006 27.5350 2.1552
6.6052 27.7818 2.1552
5.5420 27.6938 2.1321
2.0297 12.4506 0.9525
3.5391 28.0086 2.1321
2.5308 28.1134 2.1321
1.5907 29.4987 2.2316
0.5314 29.5816 2.2352
-0.5310 29.5805 2.2352
-1.5927 29.5424 2.2352
-2.6524 29.4674 2.2352
-3.7089 29.3554 2.2352
-4.7610 29.2067 2.2352
-5.8074 29.0214 2.2352
-6.5306 27.4693 2.1319
-7.5143 27.2234 2.1319
-8.4891 26.9431 2.1319
-9.0087 25.3755 2.0315
-9.2069 23.2501 1.8860
-9.3623 21.3677 1.7588
-8.9720 18.6274 1.5581
-9.4350 17.9135 1.5251
-9.9032 17.2689 1.4988
-9.5387 15.3302 1.3587
-10.0694 14.9578 1.3562
-10.2611 14.1205 1.3121
-10.1341 12.9419 1.2348
-9.8919 11.7386 1.1524
-7.4521 8.2249 0.8327
-10.0770 10.3498 1.0830
-9.9148 9.4774 1.0275
-10.0317 8.9224 1.0050
-10.1604 8.4033 0.9863
-10.4657 8.0409 0.9864
-10.8294 7.7183 0.9931
-10.6401 7.0214 0.9512
-10.3954 6.3363 0.9076
-10.3098 5.7871 0.8806
-10.4279 5.3704 0.8728
-9.5944 4.5131 0.7882
-9.5812 4.0935 0.7738
-9.6014 3.7005 0.7634
-9.6408 3.3233 0.7558
-9.7181 2.9642 0.7523
-9.8698 2.6271 0.7555
-10.0114 2.2834 0.7588
-10.5467 2.0102 0.7925
-11.0645 1.6998 0.8254
-11.0025 1.2879 0.8159
-10.8976 0.8805 0.8044
-10.7754 0.4822 0.7928
-10.5653 0.0931 0.7757
-10.1893 -0.2761 0.7475
-9.8696 -0.6226 0.7245
-9.8389 -0.9762 0.7235
-9.7841 -1.3270 0.7218
-9.6933 -1.6710 0.7182
-9.6768 -2.0282 0.7212
-9.7270 -2.4063 0.7301
-9.9715 -2.8502 0.7548
-9.6589 -3.1400 0.7384
-9.6189 -3.5135 0.7438
-9.5008 -3.8623 0.7441
-9.3652 -4.2050 0.7441
-9.3420 -4.6043 0.7541
-9.8423 -5.2982 0.8085
-9.6727 -5.6638 0.8100
-9.4583 -6.0043 0.8088
-9.2539 -6.3517 0.8095
-9.0176 -6.6779 0.8086
-8.8294 -7.0430 0.8131
-8.6947 -7.4616 0.8241
-8.5875 -7.9223 0.8397
-8.6769 -8.6013 0.8773
-9.3587 -9.9683 0.9811
-9.1781 -10.5074 1.0003
-8.9142 -10.9769 1.0131
-8.7085 -11.5470 1.0354
-8.6361 -12.3492 1.0781
-8.5423 -13.1999 1.1241
-8.8574 -14.8277 1.2341
-9.0990 -16.5542 1.3489
-9.1524 -18.1671 1.4518
-9.4379 -20.5368 1.6122
-10.1413 -24.3333 1.8795
-9.5481 -25.4456 1.9368
-9.5016 -28.3789 2.1319
-8.4801 -28.7124 2.1319
-7.4466 -29.0080 2.1319
-6.4499 -29.4815 2.1477
-5.6086 -30.9117 2.2352
-4.4965 -31.0999 2.2352
-3.3780 -31.2469 2.2352
-2.2547 -31.3523 2.2352
-1.1281 -31.4162 2.2352
0.0002 -23.8363 2.2352
0.8556 -23.8213 2.2352
1.6311 -22.6783 2.1321
2.4438 -22.6041 2.1321
3.2532 -22.5001 2.1321
4.0582 -22.3664 2.1321
4.8576 -22.2032 2.1321
5.7116 -22.2492 2.1552
6.5051 -22.0255 2.1552
7.2897 -21.7729 2.1552
8.0643 -21.4917 2.1552
8.8279 -21.1823 2.1552
9.5673 -20.8189 2.1524
10.1927 -20.2327 2.1290
10.8183 -19.6828 2.1115
11.5014 -19.2545 2.1093
12.4316 -19.2104 2.1529
13.1208 -18.7629 2.1552
13.7792 -18.2712 2.1552
14.4188 -17.7560 2.1552
1.9927 -2.2815 0.2856
14.8820 -15.8522 2.0509
14.9941 -14.8644 1.9926
15.1711 -13.9967 1.9492
15.3350 -13.1611 1.9095
15.4626 -12.3350 1.8702
15.7276 -11.6480 1.8517
15.9949 -10.9794 1.8368
16.2634 -10.3251 1.8251
16.5423 -9.6871 1.8175
16.7891 -9.0385 1.8091
17.0394 -8.3989 1.8037
17.3260 -7.7802 1.8047
17.6726 -7.1852 1.8141
18.0875 -6.6078 1.8326
18.5091 -6.0181 1.8537
19.0874 -5.4568 1.8922
19.6285 -4.8566 1.9289
20.2301 -4.2412 1.9734
16.1432 -2.7836 1.5652
16.3784 -2.2221 1.5806
16.6178 -1.6497 1.5983
16.8621 -1.0645 1.6184
15.5513 -0.4222 1.4914
12.7248 0.1115 1.2210
16.4241 0.7341 1.5787
16.3691 1.3217 1.5783
16.9246 1.9802 1.6391
18.1237 2.7832 1.7652
17.7822 3.3882 1.7441
18.5966 4.2404 1.8392
18.4780 4.9174 1.8453
19.8746 6.0610 2.0068
19.8847 6.8534 2.0330
19.7507 7.6109 2.0476
19.5910 8.3690 2.0625
19.3188 9.0861 2.0684
18.9439 9.7551 2.0660
18.5802 10.4282 2.0674
18.1636 11.0700 2.0655
7.0237 4.6345 0.8177
6.9718 4.9684 0.8325
6.9175 5.3142 0.8488
7.3130 6.0478 0.9240
15.9474 14.1825 2.0794
15.4928 14.8079 2.0894
15.0504 15.4565 2.1046
14.5983 16.1110 2.1221
14.0678 16.6927 2.1320
13.5075 17.2485 2.1408
12.8924 17.7400 2.1440
12.2690 18.2237 2.1489
11.5929 18.6301 2.1473
10.9330 19.0630 2.1515
10.2544 19.4678 2.1552
9.5451 19.8156 2.1552
8.8243 20.1381 2.1552
8.0928 20.4350 2.1552
7.3516 20.7059 2.1552
6.6016 20.9504 2.1552
5.8436 21.1684 2.1552
5.0242 21.1309 2.1321
4.2614 21.2933 2.1321
2.0296 12.4491 1.2386
2.7216 21.5374 2.1321
1.9463 21.6187 2.1321
1.2253 22.7207 2.2352
0.4087 22.7487 2.2352
-0.4083 22.7481 2.2352
-1.2248 22.7188 2.2352
-2.0398 22.6609 2.2352
-2.8523 22.5743 2.2352
-3.6613 22.4594 2.2352
-4.4658 22.3161 2.2352
-5.2649 22.1446 2.2352
-6.0577 21.9452 2.2352
-6.5270 20.7148 2.1319
-7.2682 20.4718 2.1319
-8.0006 20.2029 2.1319
-8.6490 19.7389 2.1138
-9.0053 18.6955 2.0347
-9.5942 18.2149 2.0179
-10.0330 17.4942 1.9760
-9.6112 15.4459 1.7818
-10.1458 15.0704 1.7786
-10.1073 13.9080 1.6825
-9.7932 12.5057 1.5536
-9.7544 11.5748 1.4798
-7.4498 8.2219 1.0841
-10.0146 10.2850 1.4019
-10.0055 9.5634 1.3509
-10.1421 9.0199 1.3240
-10.2820 8.5032 1.3007
-10.4625 8.0378 1.2854
-10.6794 7.6108 1.2768
-10.5884 6.9867 1.2343
-10.3975 6.3370 1.1840
-10.3289 5.7972 1.1509
-10.4464 5.3794 1.1409
-9.5492 4.4913 1.0239
-9.5596 4.0838 1.0079
-9.6095 3.7031 0.9977
-9.6892 3.3395 0.9921
-9.7952 2.9872 0.9906
-9.9828 2.6567 0.9985
-10.2552 2.3385 1.0158
-10.7008 2.0390 1.0512
-10.9850 1.6870 1.0716
-10.9754 1.2842 1.0646
-10.8708 0.8778 1.0498
-10.6978 0.4782 1.0300
-10.4762 0.0918 1.0068
-10.1016 -0.2742 0.9703
-9.7687 -0.6167 0.9391
-9.7134 -0.9643 0.9357
-9.6247 -1.3058 0.9303
-9.5360 -1.6443 0.9261
-9.5367 -1.9994 0.9317
-9.5997 -2.3753 0.9448
-9.6640 -2.7628 0.9595
-9.5581 -3.1078 0.9587
-9.5534 -3.4901 0.9694
-9.4586 -3.8457 0.9724
-9.3561 -4.2014 0.9760
-9.3272 -4.5975 0.9888
-9.7868 -5.2689 1.0561
-9.6579 -5.6557 1.0626
-9.4391 -5.9926 1.0607
-9.2098 -6.3220 1.0590
-8.9746 -6.6467 1.0580
-8.7793 -7.0037 1.0632
-8.6698 -7.4409 1.0809
-8.5625 -7.8998 1.1015
-8.6408 -8.5662 1.1497
-9.3349 -9.9436 1.2879
-9.1716 -10.5008 1.3158
-8.9108 -10.9735 1.3333
-8.7241 -11.5685 1.3659
-8.6556 -12.3779 1.4231
-8.6106 -13.3062 1.4925
-8.7612 -14.6675 1.6081
-8.9776 -16.3344 1.7536
-9.1255 -18.1148 1.9075
-6.8762 -14.9636 1.5481
-8.7269 -20.9408 2.1319
-7.9725 -21.2477 2.1319
-7.2070 -21.5270 2.1319
-6.4539 -21.8532 2.1393
-5.9209 -23.0658 2.2352
-5.0904 -23.2688 2.2352
-4.2528 -23.4410 2.2352
-3.4094 -23.5825 2.2352
-2.5612 -23.6929 2.2352
-1.7094 -23.7721 2.2352
-0.8552 -23.8199 2.2352
0.0002 -19.1791 2.2352
0.6885 -19.1669 2.2352
1.3758 -19.1296 2.2352
1.9663 -18.1878 2.1321
2.6176 -18.1044 2.1321
3.2653 -17.9972 2.1321
3.9086 -17.8664 2.1321
4.5467 -17.7122 2.1321
5.1785 -17.5348 2.1321
5.8663 -17.5222 2.1552
6.4899 -17.2967 2.1552
7.1049 -17.0488 2.1552
7.7101 -16.7785 2.1552
8.3050 -16.4864 2.1552
8.8886 -16.1729 2.1552
9.4603 -15.8384 2.1552
10.0192 -15.4833 2.1552
10.5584 -15.0995 2.1539
11.0497 -14.6528 2.1462
11.5414 -14.2136 2.1421
1.9924 -2.2813 0.3545
12.5650 -13.3849 2.1497
12.9031 -12.7923 2.1286
13.2223 -12.1996 2.1086
13.5162 -11.6010 2.0887
13.8147 -11.0214 2.0734
14.1008 -10.4439 2.0598
14.3527 -9.8530 2.0448
14.6046 -9.2728 2.0330
14.8770 -8.7128 2.0272
15.1568 -8.1607 2.0253
15.4402 -7.6115 2.0265
15.6867 -7.0449 2.0256
15.9108 -6.4698 2.0245
16.1807 -5.9120 2.0318
16.4156 -5.3382 2.0372
16.6143 -4.7507 2.0407
16.7597 -4.1477 2.0403
16.8512 -3.5337 2.0360
16.0710 -2.7720 1.9297
16.3045 -2.2129 1.9483
16.5421 -1.6430 1.9697
16.2986 -1.0297 1.9363
15.7783 -0.4291 1.8728
12.6980 0.1106 1.5077
16.9587 0.7571 2.0169
16.5499 1.3355 1.9740
15.9178 1.8616 1.9067
16.8510 2.5870 2.0296
16.8066 3.2015 2.0382
16.7924 3.8282 2.0532
16.7600 4.4593 2.0688
16.7009 5.0922 2.0842
16.5858 5.7155 2.0954
16.4880 6.3527 2.1119
16.3169 6.9694 2.1220
16.1040 7.5732 2.1297
15.8424 8.1571 2.1338
15.5514 8.7273 2.1367
15.2247 9.2780 2.1375
14.8956 9.8277 2.1407
6.8941 4.9126 1.0161
6.8390 5.2535 1.0357
7.3087 6.0437 1.1396
13.3960 11.9126 2.1552
12.9531 12.3796 2.1552
12.4941 12.8303 2.1552
12.0198 13.2643 2.1552
11.5305 13.6810 2.1552
11.0270 14.0800 2.1552
10.5100 14.4608 2.1552
9.9800 14.8228 2.1552
9.4377 15.1657 2.1552
8.8839 15.4892 2.1552
8.3192 15.7928 2.1552
7.7443 16.0762 2.1552
7.1600 16.3389 2.1552
6.5669 16.5809 2.1552
5.9658 16.8017 2.1552
5.3000 16.8189 2.1321
4.6917 16.9948 2.1321
4.0777 17.1490 2.1321
3.4588 17.2815 2.1321
2.0169 12.3707 1.5165
2.2091 17.4807 2.1321
1.5990 17.7603 2.1580
0.9946 18.4418 2.2352
0.3318 18.4648 2.2352
-0.3314 18.4643 2.2352
-0.9942 18.4406 2.2352
-1.6557 18.3934 2.2352
-2.3152 18.3230 2.2352
-2.9718 18.2294 2.2352
-3.6248 18.1127 2.2352
-4.2733 17.9730 2.2352
-4.9166 17.8105 2.2352
-5.5538 17.6254 2.2352
-6.1843 17.4180 2.2352
-6.4927 16.3944 2.1319
-7.0788 16.1545 2.1319
-7.6562 15.8940 2.1319
-8.2243 15.6132 2.1319
-8.7822 15.3125 2.1319
-9.3294 14.9921 2.1319
-9.8650 14.6525 2.1319
-9.5718 13.1704 1.9643
-9.5363 12.1769 1.8653
-9.6202 11.4147 1.7996
-7.4475 8.2189 1.3365
-9.9719 10.2405 1.7217
-10.0527 9.6078 1.6741
-10.1939 9.0653 1.6416
-10.3029 8.5199 1.6080
-10.4925 8.0602 1.5906
-10.5569 7.5229 1.5575
-10.4792 6.9140 1.5076
-10.4165 6.3480 1.4641
-10.3481 5.8074 1.4234
-10.4657 5.3888 1.4112
-9.4869 4.4615 1.2561
-9.5306 4.0709 1.2409
-9.6208 3.7069 1.2338
-9.7215 3.3501 1.2297
-9.8675 3.0087 1.2329
-10.0922 2.6853 1.2473
-10.4350 2.3789 1.2775
-10.7783 2.0532 1.3088
-10.9227 1.6769 1.3173
-10.9265 1.2779 1.3105
-10.8138 0.8726 1.2915
-10.6319 0.4747 1.2661
-10.3997 0.0906 1.2364
-10.0378 -0.2730 1.1930
-9.7005 -0.6129 1.1540
-9.6073 -0.9542 1.1454
-9.5366 -1.2944 1.1410
-9.4673 -1.6330 1.1383
-9.4742 -1.9868 1.1462
-9.5357 -2.3599 1.1623
-9.5996 -2.7449 1.1806
-9.4897 -3.0860 1.1792
-9.4515 -3.4534 1.1883
-9.4030 -3.8236 1.1979
-9.3425 -4.1958 1.2079
-9.3191 -4.5941 1.2246
-9.7791 -5.2653 1.3082
-9.6330 -5.6417 1.3141
-9.4001 -5.9684 1.3100
-9.1659 -6.2924 1.3072
-8.9318 -6.6156 1.3061
-8.7571 -6.9865 1.3157
-8.6659 -7.4381 1.3405
-8.5713 -7.9085 1.3682
-8.6806 -8.6062 1.4334
-9.5574 -10.1813 1.6367
-9.2163 -10.5527 1.6413
-8.9588 -11.0333 1.6642
-8.7945 -11.6626 1.7096
-8.7686 -12.5403 1.7902
-8.9039 -13.7603 1.9167
-9.0456 -15.1446 2.0621
-8.7869 -15.9884 2.1319
-8.2103 -16.2990 2.1319
-6.8686 -14.9478 1.9210
-7.0243 -16.8564 2.1319
-6.4537 -17.2011 2.1442
-6.0811 -18.1651 2.2352
-5.4266 -18.3758 2.2352
-4.7646 -18.5626 2.2352
-4.0961 -18.7250 2.2352
-3.4221 -18.8630 2.2352
-2.7433 -18.9762 2.2352
-2.0607 -19.0645 2.2352
-1.3754 -19.1278 2.2352
-0.6881 -19.1660 2.2352
0.0002 -16.0305 2.2352
0.5754 -16.0203 2.2352
1.1499 -15.9891 2.2352
1.6434 -15.2020 2.1321
2.1878 -15.1324 2.1321
2.7292 -15.0431 2.1321
3.2670 -14.9341 2.1321
3.8004 -14.8055 2.1321
4.3286 -14.6576 2.1321
4.8511 -14.4906 2.1321
5.3670 -14.3047 2.1321
5.9394 -14.2528 2.1552
6.4456 -14.0275 2.1552
6.9432 -13.7839 2.1552
7.4315 -13.5224 2.1552
7.9099 -13.2434 2.1552
8.3776 -12.9473 2.1552
8.8342 -12.6344 2.1552
9.2789 -12.3053 2.1552
9.7112 -11.9603 2.1552
1.9921 -2.2810 0.4238
10.5363 -11.2247 2.1552
10.9281 -10.8351 2.1552
11.3054 -10.4317 2.1552
11.6676 -10.0151 2.1552
12.0143 -9.5857 2.1552
12.3451 -9.1443 2.1552
12.6312 -8.6719 2.1503
12.8927 -8.1866 2.1444
13.1419 -7.6974 2.1396
13.3924 -7.2114 2.1379
13.6393 -6.7245 2.1384
13.8684 -6.2291 2.1390
14.0768 -5.7248 2.1391
14.2632 -5.2122 2.1388
14.4337 -4.6945 2.1388
14.5295 -4.1553 2.1307
14.5666 -3.6057 2.1169
14.6129 -3.0650 2.1075
14.6625 -2.5298 2.1014
14.6759 -1.9926 2.0929
14.6736 -1.4581 2.0849
14.6860 -0.9286 2.0818
14.6818 -0.4000 2.0790
12.6711 0.1098 1.7947
14.7021 0.6556 2.0855
14.6681 1.1829 2.0866
14.6205 1.7092 2.0884
14.5809 2.2377 2.0941
14.5397 2.7689 2.1023
14.4905 3.3027 2.1121
14.4052 3.8320 2.1196
14.2900 4.3564 2.1255
14.1575 4.8780 2.1316
14.0076 5.3963 2.1380
13.8392 5.9103 2.1445
13.6217 6.4050 2.1462
13.4050 6.9013 2.1508
13.1683 7.3892 2.1552
12.8881 7.8532 2.1552
12.5916 8.3068 2.1552
12.2794 8.7493 2.1552
11.9518 9.1803 2.1552
7.3044 6.0396 1.3560
11.2521 10.0053 2.1552
10.8809 10.3983 2.1552
10.4962 10.7778 2.1552
10.0984 11.1432 2.1552
9.6881 11.4942 2.1552
9.2657 11.8302 2.1552
8.8318 12.1509 2.1552
8.3870 12.4560 2.1552
7.9318 12.7450 2.1552
7.4667 13.0175 2.1552
6.9925 13.2734 2.1552
6.5096 13.5123 2.1552
6.0187 13.7338 2.1552
5.4612 13.7884 2.1321
4.9616 13.9726 2.1321
4.4558 14.1390 2.1321
3.9445 14.2873 2.1321
3.4284 14.4174 2.1321
2.9081 14.5292 2.1321
2.0151 12.3586 1.8020
1.8574 14.6972 2.1321
1.3926 15.4666 2.2352
0.8363 15.5057 2.2352
0.2790 15.5251 2.2352
-0.2787 15.5248 2.2352
-0.8359 15.5048 2.2352
-1.3922 15.4651 2.2352
-1.9467 15.4058 2.2352
-2.4987 15.3269 2.2352
-3.0477 15.2285 2.2352
-3.5930 15.1108 2.2352
-4.1337 14.9739 2.2352
-4.6694 14.8179 2.2352
-5.1993 14.6430 2.2352
-5.7227 14.4495 2.2352
-6.2391 14.2375 2.2352
-6.4620 13.4142 2.1405
-6.9133 13.1237 2.1319
-7.3819 12.8703 2.1319
-7.8415 12.6004 2.1319
-8.2912 12.3143 2.1319
-8.7307 12.0123 2.1319
-9.1594 11.6949 2.1319
-9.5520 11.3331 2.1264
-7.4452 8.2158 1.5901
-9.9279 10.1946 2.0401
-10.0810 9.6342 1.9983
-10.1601 9.0345 1.9476
-10.2434 8.4700 1.9032
-10.4289 8.0108 1.8822
-10.4707 7.4608 1.8394
-10.4206 6.8747 1.7852
-10.3610 6.3136 1.7342
-10.2438 5.7483 1.6781
-9.4942 4.8880 1.5248
-9.4342 4.4361 1.4879
-9.5139 4.0632 1.4757
-9.6264 3.7085 1.4708
-9.8082 3.3795 1.4783
-10.0559 3.0657 1.4973
-10.3283 2.7476 1.5213
-10.5960 2.4151 1.5461
-10.8830 2.0726 1.5752
-10.9940 1.6873 1.5806
-10.9976 1.2857 1.5726
-10.8742 0.8770 1.5486
-10.6850 0.4765 1.5174
-10.5001 0.0910 1.4888
-10.1840 -0.2775 1.4437
-9.8372 -0.6220 1.3960
-9.7619 -0.9701 1.3885
-9.6896 -1.3156 1.3833
-9.6189 -1.6596 1.3800
-9.5594 -2.0051 1.3802
-9.6207 -2.3815 1.3997
-9.6693 -2.7654 1.4195
-9.4083 -3.0601 1.3956
-9.3503 -3.4170 1.4035
-9.3724 -3.8117 1.4257
-9.3149 -4.1839 1.4381
-9.2980 -4.5842 1.4592
-9.7214 -5.2348 1.5534
-9.5836 -5.6134 1.5617
-9.4701 -6.0134 1.5766
-9.2473 -6.3489 1.5757
-9.0193 -6.6809 1.5760
-8.8130 -7.0317 1.5823
-8.7150 -7.4808 1.6111
-8.6209 -7.9549 1.6448
-8.7604 -8.6860 1.7290
-9.6057 -10.2336 1.9663
-9.2593 -10.6026 1.9713
-9.0066 -11.0930 2.0002
-8.9007 -11.8042 2.0687
-8.7331 -12.4903 2.1319
-8.2820 -12.8000 2.1319
-7.8198 -13.0932 2.1319
-7.3472 -13.3695 2.1319
-6.8646 -13.6285 2.1319
-6.4509 -14.0397 2.1580
-6.1569 -14.7757 2.2352
-5.6240 -14.9906 2.2352
-5.0835 -15.1860 2.2352
-4.5362 -15.3616 2.2352
-3.9827 -15.5172 2.2352
-3.4238 -15.6525 2.2352
-2.8603 -15.7674 2.2352
-2.2929 -15.8617 2.2352
-1.7224 -15.9352 2.2352
-1.1495 -15.9879 2.2352
-0.5751 -16.0197 2.2352
0.0002 -13.7577 2.2352
0.4938 -13.7489 2.2352
0.9869 -13.7222 2.2352
1.4786 -13.6776 2.2352
1.8776 -12.9871 2.1321
2.3422 -12.9106 2.1321
2.8038 -12.8172 2.1321
3.2616 -12.7070 2.1321
3.7150 -12.5804 2.1321
4.1635 -12.4373 2.1321
4.6064 -12.2780 2.1321
5.0432 -12.1028 2.1321
5.4732 -11.9118 2.1321
5.9598 -11.8321 2.1552
6.3791 -11.6081 2.1552
6.7900 -11.3691 2.1552
7.1918 -11.1153 2.1552
7.5840 -10.8472 2.1552
7.9662 -10.5651 2.1552
8.3377 -10.2694 2.1552
1.9918 -2.2808 0.4935
9.0471 -9.6388 2.1552
9.3840 -9.3048 2.1552
9.7085 -8.9589 2.1552
10.0201 -8.6016 2.1552
10.3185 -8.2334 2.1552
10.6032 -7.8547 2.1552
10.8740 -7.4662 2.1552
11.1304 -7.0682 2.1552
11.3721 -6.6614 2.1552
11.5989 -6.2463 2.1552
11.8105 -5.8235 2.1552
12.0065 -5.3935 2.1552
12.1869 -4.9568 2.1552
12.3513 -4.5142 2.1552
12.4985 -4.0657 2.1550
12.6246 -3.6112 2.1540
12.7139 -3.1477 2.1496
12.8004 -2.6855 2.1475
12.8722 -2.2215 2.1458
12.9292 -1.7561 2.1445
12.9637 -1.2889 2.1422
12.9782 -0.8213 2.1394
12.9906 -0.3546 2.1390
12.6441 0.1089 2.0823
12.9521 0.5769 2.1361
12.9179 1.0411 2.1364
12.8505 1.5016 2.1338
12.8060 1.9646 2.1378
12.7479 2.4270 2.1423
12.6589 2.8845 2.1445
12.5510 3.3381 2.1461
12.4262 3.7875 2.1477
12.2828 4.2313 2.1488
12.1306 4.6725 2.1512
11.9715 5.1120 2.1552
11.7748 5.5360 2.1552
11.5633 5.9525 2.1552
11.3372 6.3610 2.1552
11.0967 6.7610 2.1552
10.8422 7.1520 2.1552
10.5740 7.5335 2.1552
10.2925 7.9051 2.1552
7.3000 6.0355 1.5736
9.6912 8.6166 2.1552
9.3720 8.9557 2.1552
9.0412 9.2830 2.1552
8.6990 9.5983 2.1552
8.3459 9.9012 2.1552
7.9825 10.1912 2.1552
7.6090 10.4680 2.1552
7.2262 10.7313 2.1552
6.8342 10.9807 2.1552
6.4338 11.2161 2.1552
6.0254 11.4370 2.1552
5.5494 11.5185 2.1321
5.1311 11.7078 2.1321
4.7064 11.8820 2.1321
4.2759 12.0411 2.1321
3.8401 12.1848 2.1321
3.3996 12.3129 2.1321
2.9549 12.4253 2.1321
2.5065 12.5219 2.1321
2.0132 12.3464 2.0887
1.6050 12.6990 2.1374
1.2004 13.3304 2.2352
0.7209 13.3642 2.2352
0.2405 13.3810 2.2352
-0.2402 13.3808 2.2352
-0.7205 13.3635 2.2352
-1.1999 13.3293 2.2352
-1.6779 13.2781 2.2352
-2.1537 13.2100 2.2352
-2.6269 13.1250 2.2352
-3.0968 13.0234 2.2352
-3.5628 12.9051 2.2352
-4.0244 12.7704 2.2352
-4.4810 12.6195 2.2352
-4.9320 12.4524 2.2352
-5.3769 12.2694 2.2352
-5.8151 12.0706 2.2352
-6.2461 11.8565 2.2352
-6.4556 11.2546 2.1635
-6.7569 10.8570 2.1319
-7.1442 10.6101 2.1319
-7.5226 10.3495 2.1319
-7.8916 10.0755 2.1319
-8.2507 9.7886 2.1319
-7.4429 8.2127 1.8452
-8.9376 9.1770 2.1319
-9.2645 8.8532 2.1319
-9.5797 8.5178 2.1319
-9.8829 8.1713 2.1319
-10.1738 7.8141 2.1319
-10.3932 7.4049 2.1199
-10.3652 6.8376 2.0620
-10.2760 6.2611 1.9974
-10.1250 5.6811 1.9263
-9.4221 4.8503 1.7575
-9.4068 4.4227 1.7232
-9.4928 4.0537 1.7104
-9.6568 3.7197 1.7140
-9.8935 3.4084 1.7324
-10.3031 3.1405 1.7824
-10.5323 2.8013 1.8026
-10.7160 2.4419 1.8170
-11.0728 2.1081 1.8625
-11.0621 1.6971 1.8484
-11.0700 1.2936 1.8399
-10.9592 0.8833 1.8141
-10.7391 0.4784 1.7728
-10.5530 0.0909 1.7396
-10.3355 -0.2822 1.7035
-9.9788 -0.6315 1.6465
-9.9022 -0.9845 1.6379
-9.8486 -1.3377 1.6351
-9.7764 -1.6873 1.6313
-9.7171 -2.0387 1.6318
-9.7079 -2.4036 1.6429
-9.6068 -2.7480 1.6406
-9.3164 -3.0307 1.6078
-9.2671 -3.3871 1.6185
-9.3603 -3.8073 1.6568
-9.2949 -4.1755 1.6699
-9.2733 -4.5726 1.6936
-9.4389 -5.0833 1.7553
-9.5337 -5.5847 1.8083
-9.5390 -6.0578 1.8485
-9.3463 -6.4174 1.8539
-9.0835 -6.7291 1.8477
-8.8749 -7.0817 1.8551
-8.7696 -7.5283 1.8876
-8.6713 -8.0021 1.9263
-8.8390 -8.7646 2.0314
-8.9434 -9.5287 2.1319
-8.5987 -9.8469 2.1319
-8.2426 -10.1526 2.1319
-7.8755 -10.4452 2.1319
-7.4979 -10.7244 2.1319
-7.1103 -10.9898 2.1319
-6.7132 -11.2410 2.1319
-6.4461 -11.7306 2.1789
-6.1781 -12.2662 2.2352
-5.7352 -12.4829 2.2352
-5.2848 -12.6834 2.2352
-4.8272 -12.8674 2.2352
-4.3631 -13.0348 2.2352
-3.8932 -13.1851 2.2352
-3.4181 -13.3184 2.2352
-2.9384 -13.4342 2.2352
-2.4547 -13.5326 2.2352
-1.9677 -13.6133 2.2352
-1.4781 -13.6762 2.2352
-0.9865 -13.7213 2.2352
-0.4935 -13.7485 2.2352
0.0002 -12.0383 2.2352
0.4321 -12.0307 2.2352
0.8635 -12.0073 2.2352
1.2938 -11.9683 2.2352
1.6429 -11.3642 2.1321
2.0495 -11.2973 2.1321
2.4533 -11.2157 2.1321
2.8539 -11.1195 2.1321
3.2508 -11.0088 2.1321
3.6432 -10.8837 2.1321
4.0309 -10.7446 2.1321
4.4132 -10.5914 2.1321
4.7896 -10.4246 2.1321
5.1596 -10.2442 2.1321
5.5229 -10.0505 2.1321
5.9424 -9.9504 2.1552
6.2942 -9.7286 2.1552
6.6377 -9.4943 2.1552
6.9724 -9.2477 2.1552
7.2979 -8.9892 2.1552
1.9914 -2.2806 0.5637
7.9194 -8.4379 2.1552
8.2146 -8.1459 2.1552
8.4990 -7.8434 2.1552
8.7722 -7.5310 2.1552
9.0339 -7.2089 2.1552
9.2836 -6.8777 2.1552
9.5211 -6.5379 2.1552
9.7461 -6.1897 2.1552
9.9583 -5.8338 2.1552
10.1574 -5.4706 2.1552
10.3432 -5.1006 2.1552
10.5155 -4.7243 2.1552
10.6740 -4.3421 2.1552
10.8186 -3.9546 2.1552
10.9491 -3.5623 2.1552
11.0653 -3.1657 2.1552
11.1671 -2.7654 2.1552
11.2543 -2.3618 2.1552
11.3270 -1.9554 2.1552
11.3850 -1.5470 2.1552
11.4282 -1.1368 2.1552
11.4566 -0.7256 2.1552
11.4703 -0.3137 2.1552
11.4691 0.0982 2.1552
11.4532 0.5096 2.1552
11.4225 0.9200 2.1552
11.3772 1.3288 2.1552
11.3172 1.7356 2.1552
11.2427 2.1399 2.1552
11.1539 2.5410 2.1552
11.0507 2.9385 2.1552
10.9335 3.3319 2.1552
10.8023 3.7207 2.1552
10.6573 4.1044 2.1552
10.4988 4.4826 2.1552
10.3269 4.8546 2.1552
10.1419 5.2202 2.1552
9.9441 5.5788 2.1552
9.7336 5.9299 2.1552
9.5109 6.2732 2.1552
9.2761 6.6082 2.1552
9.0296 6.9345 2.1552
7.2956 6.0314 1.7925
8.5028 7.5594 2.1552
8.2232 7.8573 2.1552
7.9332 8.1449 2.1552
7.6333 8.4219 2.1552
7.3238 8.6879 2.1552
7.0051 8.9428 2.1552
6.6777 9.1860 2.1552
6.3418 9.4174 2.1552
5.9981 9.6367 2.1552
5.5864 9.7381 2.1321
5.2319 9.9302 2.1321
4.8709 10.1096 2.1321
4.5039 10.2760 2.1321
4.1312 10.4292 2.1321
3.7534 10.5690 2.1321
3.3710 10.6954 2.1321
2.9843 10.8081 2.1321
2.5939 10.9069 2.1321
2.2003 10.9919 2.1321
1.8040 11.0628 2.1321
1.4734 11.6572 2.2352
1.0538 11.7019 2.2352
0.6329 11.7317 2.2352
0.2112 11.7465 2.2352
-0.2108 11.7463 2.2352
-0.6325 11.7312 2.2352
-1.0534 11.7011 2.2352
-1.4730 11.6561 2.2352
-1.8907 11.5962 2.2352
-2.3060 11.5215 2.2352
-2.7185 11.4322 2.2352
-3.1276 11.3282 2.2352
-3.5328 11.2098 2.2352
-3.9335 11.0771 2.2352
-4.3294 10.9302 2.2352
-4.7198 10.7694 2.2352
-5.1043 10.5947 2.2352
-5.4825 10.4065 2.2352
-5.8538 10.2049 2.2352
-6.2178 9.9902 2.2352
-6.4505 9.5792 2.1932
-6.6022 9.0827 2.1319
-6.9258 8.8419 2.1319
-7.2407 8.5898 2.1319
-7.4406 8.2096 2.1020
-7.8429 8.0525 2.1319
-8.1294 7.7680 2.1319
-8.4057 7.4734 2.1319
-8.6714 7.1690 2.1319
-8.9262 6.8553 2.1319
-9.1697 6.5326 2.1319
-9.4016 6.2014 2.1319
-9.6217 5.8619 2.1319
-9.8296 5.5147 2.1319
-9.3324 4.8037 1.9846
-9.3696 4.4047 1.9569
-9.4717 4.0442 1.9458
-9.6997 3.7357 1.9630
-10.0464 3.4605 2.0059
-10.4754 3.1924 2.0665
-10.6118 2.8219 2.0712
-10.8381 2.4691 2.0959
-11.1543 2.1231 2.1400
-11.1300 1.7070 2.1213
-11.1413 1.3013 2.1122
-11.0462 0.8897 2.0859
-10.8084 0.4809 2.0355
-10.6068 0.0908 1.9948
-10.4035 -0.2846 1.9564
-10.1256 -0.6413 1.9064
-10.0383 -0.9986 1.8946
-10.0097 -1.3601 1.8964
-9.9407 -1.7162 1.8930
-9.8813 -2.0737 1.8938
-9.8234 -2.4327 1.8974
