ply
format ascii 1.0
element vertex 2091
property float32 x
property float32 y
property float32 z
end_header
-8.6069 -7.9450 0.4776
-8.5907 -8.5209 0.4722
-8.7429 -9.3172 0.4752
-9.3450 -10.7036 0.5016
-9.9081 -12.2059 0.5241
-9.1900 -12.1896 0.4780
-8.7696 -12.5433 0.4473
-9.0898 -14.0479 0.4530
-9.2010 -15.4033 0.4462
-8.7496 -15.9167 0.4107
-10.7479 -21.3282 0.4850
-10.8216 -23.5363 0.4650
-10.8809 -26.0889 0.4396
-11.2892 -30.0547 0.4209
-11.4233 -34.0708 0.3819
-11.5950 -39.1858 0.3316
-11.8200 -45.9304 0.2640
-11.7847 -53.6889 0.1644
-10.9367 -60.0099 0.0237
-12.7162 -87.4091 -0.1974
-8.5624 -78.4861 -0.3851
-6.8285 -93.5513 -0.7068
-3.0235 -81.5401 -0.8327
0.0343 -81.6027 0.7813
3.2003 -88.3066 0.6088
3.2326 -44.8020 0.1889
8.8368 -81.6327 0.1249
8.9618 -61.9634 -0.0725
6.5878 -36.3183 -0.1413
7.9502 -36.3638 -0.2414
11.7578 -45.8463 -0.4320
14.1184 -47.8596 -0.5863
4.4824 -13.4059 -0.2029
12.6303 -33.7098 -0.6094
12.7321 -30.5989 -0.6454
12.8191 -27.9419 -0.6760
12.8944 -25.6407 -0.7023
12.9605 -23.6234 -0.7251
13.0190 -21.8363 -0.7452
13.4569 -20.8352 -0.7854
14.5832 -20.8958 -0.8657
15.8565 -21.0686 -0.9554
17.2235 -21.2539 -1.0515
18.6989 -21.4535 -1.1549
20.3002 -21.6699 -1.2670
20.5499 -20.4165 -1.2948
20.6106 -19.0571 -1.3098
21.0667 -18.1206 -1.3492
24.7571 -19.7942 -1.5969
24.7877 -18.3998 -1.6094
29.8738 -20.5536 -1.9514
37.7358 -24.0130 -2.4787
38.1979 -22.4212 -2.5221
38.2991 -20.6677 -2.5409
38.3961 -18.9714 -2.5588
38.5583 -17.3565 -2.5804
38.8519 -15.8349 -2.6103
39.1409 -14.3345 -2.6394
39.4261 -12.8512 -2.6678
39.5344 -11.3311 -2.6839
39.6181 -9.8280 -2.6978
39.7279 -8.3508 -2.7132
40.6785 -7.0332 -2.7857
65.7198 -8.9413 -4.5122
87.4666 16.7006 -6.1141
87.6080 20.0192 -6.1332
71.6901 19.1198 -5.0260
63.1362 19.2963 -4.4322
59.1294 20.4246 -4.1562
59.2109 22.8679 -4.1668
39.7892 17.0356 -2.8031
34.6182 16.3186 -2.4413
34.2512 17.6775 -2.4176
32.9896 18.5576 -2.3306
31.9690 19.5282 -2.2602
36.2811 23.9939 -2.5667
63.4000 45.2846 -4.4878
38.0517 29.2992 -2.6948
36.0820 29.9070 -2.5563
35.2950 31.4599 -2.5011
33.6516 32.2364 -2.3850
29.7621 30.6335 -2.1093
27.7512 30.6950 -1.9664
26.4673 31.4753 -1.8748
24.0991 30.8408 -1.7061
21.6385 29.8390 -1.5308
39.8493 59.3167 -2.8161
20.9663 33.7644 -1.4797
26.8215 46.8631 -1.8897
33.1181 63.0006 -2.3282
28.0997 58.4491 -1.9700
21.1361 48.3263 -1.4767
24.4292 61.7970 -1.6993
27.2043 76.7514 -1.8818
24.4645 77.7612 -1.6801
25.1044 91.0682 -1.7077
15.8252 66.6359 -1.0625
16.2192 81.1131 -1.0691
-5.0022 93.7890 0.5336
-6.7512 75.5816 0.6349
-5.4614 43.5014 0.4844
-6.4090 39.5383 0.5497
-7.1262 35.7962 0.5982
-6.6819 28.2426 0.5526
-7.0670 25.7216 0.5782
-7.4694 23.8129 0.6062
-7.8237 22.1334 0.6310
-8.1270 20.6104 0.6523
-7.0054 16.0553 0.5601
-7.1872 14.9831 0.5729
-7.4116 14.1290 0.5894
-7.5569 13.2304 0.5998
-7.7396 12.4884 0.6133
-7.9050 11.7893 0.6257
-8.1189 11.2167 0.6420
-8.2530 10.5811 0.6522
-8.3050 9.8942 0.6560
-8.4095 9.3182 0.6640
-8.5278 8.7932 0.6732
-8.6424 8.2938 0.6823
-8.8683 7.9189 0.7002
-8.9679 7.4466 0.7082
-9.0639 6.9918 0.7160
-9.1565 6.5525 0.7237
-9.2464 6.1266 0.7311
-7.1688 4.3876 0.5672
-7.2342 4.0776 0.5727
-7.2981 3.7746 0.5782
-7.3608 3.4774 0.5837
-7.3817 3.1677 0.5859
-4.1406 1.6031 0.3290
-7.5019 2.5981 0.5966
-7.5669 2.3192 0.6025
-7.6618 2.0497 0.6107
-7.7208 1.7704 0.6162
-7.7797 1.4913 0.6217
-7.8152 1.2082 0.6254
-7.8620 0.9271 0.6301
-7.9263 0.6463 0.6362
-7.9912 0.3626 0.6425
-8.0783 0.0753 0.6506
-8.1401 -0.2174 0.6567
-8.2027 -0.5151 0.6630
-8.3619 -0.8283 0.6772
-8.4282 -1.1427 0.6840
-8.4962 -1.4652 0.6911
-8.5662 -1.7971 0.6984
-8.5942 -2.1287 0.7023
-8.7722 -2.5112 0.7187
-8.8488 -2.8816 0.7270
-8.9303 -3.2682 0.7357
-9.0156 -3.6725 0.7450
-9.1052 -4.0969 0.7548
-9.1995 -4.5443 0.7652
-9.2994 -5.0176 0.7763
-9.4055 -5.5206 0.7881
-9.5187 -6.0576 0.8009
-9.6437 -6.6361 0.8149
-9.5373 -7.0813 0.8097
-9.0707 -7.2548 0.7739
-8.7734 -7.5497 0.7526
-8.6013 -7.9570 0.7421
-8.4499 -8.4000 0.7336
-8.7723 -9.3705 0.7668
-9.3230 -10.7046 0.8210
-8.6850 -10.7265 0.7711
-9.1944 -12.2283 0.8237
-8.5722 -12.2959 0.7756
-9.0063 -13.9607 0.8238
-9.1361 -15.3435 0.8461
-8.7866 -16.0385 0.8250
-10.7507 -21.4116 1.0255
-10.8249 -23.6364 1.0514
-10.8634 -26.1587 1.0773
-11.2944 -30.2101 1.1479
-11.4299 -34.2686 1.1959
-11.6037 -39.4453 1.2576
-11.8318 -46.2845 1.3394
-12.1475 -55.7740 1.4532
-11.3193 -62.6918 1.4559
-11.5409 -80.2611 1.6402
-8.5184 -79.3058 1.4025
-5.6948 -79.8574 1.1948
-2.8567 -80.6981 0.9894
0.1469 -69.8199 2.2372
2.8845 -76.0532 2.2342
3.3129 -44.8624 1.1997
8.8127 -80.1495 1.9338
11.9913 -81.9387 1.7642
15.0159 -82.0022 1.5534
10.8940 -49.4344 0.8087
12.1437 -47.0281 0.6476
14.1747 -47.7618 0.5336
4.5036 -13.3972 0.1146
13.0237 -34.5905 0.2047
12.7728 -30.5599 0.0991
12.8646 -27.9256 0.0148
12.9442 -25.6409 -0.0574
13.0140 -23.6359 -0.1197
13.0759 -21.8577 -0.1740
13.7356 -21.1986 -0.2320
14.8915 -21.2726 -0.2983
16.1158 -21.3509 -0.3675
17.0399 -20.9688 -0.4307
18.3629 -21.0117 -0.5046
19.2247 -20.4690 -0.5663
19.2704 -19.0976 -0.6019
19.5914 -18.0709 -0.6435
23.9613 -20.5619 -0.8220
25.3994 -20.2612 -0.9050
25.4165 -18.8242 -0.9362
30.5071 -20.9432 -1.1573
35.1473 -22.3175 -1.3686
35.9528 -21.0585 -1.4330
36.4020 -19.6027 -1.4814
36.7101 -18.1007 -1.5221
37.0102 -16.6253 -1.5605
37.3030 -15.1724 -1.5967
37.5896 -13.7382 -1.6308
37.8314 -12.3060 -1.6613
37.9338 -10.8498 -1.6839
38.0601 -9.4216 -1.7060
38.1826 -8.0087 -1.7262
38.3017 -6.6075 -1.7448
61.7243 -8.3779 -2.8305
70.2419 -6.9755 -3.2396
70.3444 -4.4416 -3.2602
98.5891 15.1537 -4.6266
87.2460 16.6379 -4.0917
84.2753 19.2321 -3.9466
71.7425 19.1071 -3.3520
63.2193 19.2936 -2.9445
59.2478 20.4346 -2.7484
59.2756 22.8572 -2.7359
59.3202 25.3569 -2.7214
34.6517 16.3074 -1.5784
34.6214 17.8382 -1.5639
37.8633 21.2619 -1.6938
32.0570 19.5468 -1.4182
63.3679 41.8296 -2.7678
63.4823 45.2566 -2.7326
35.3564 31.4479 -1.4368
37.6845 36.0203 -1.4935
66.1264 72.9665 -2.4620
61.8117 73.3240 -2.2129
31.0606 39.6457 -1.0618
9.6535 47.8712 0.4658
10.4275 63.3292 0.7799
10.9682 85.6300 1.2763
1.9621 98.0749 2.2342
-1.3222 83.6965 2.1311
-2.9095 56.3379 1.5878
-6.1695 70.4064 2.1792
-5.3868 43.4989 1.4691
-6.4022 39.9200 1.4634
-7.0197 35.5714 1.4092
-6.6585 28.3535 1.2093
-7.1299 26.1189 1.1956
-7.5494 24.2065 1.1862
-7.7786 22.1197 1.1577
-8.2209 20.9466 1.1689
-7.0943 16.3293 0.9700
-7.3109 15.3022 0.9665
-7.5082 14.3667 0.9639
-7.6891 13.5092 0.9621
-7.8560 12.7182 0.9609
-7.9780 11.9356 0.9565
-8.1134 11.2427 0.9555
-7.6777 9.8716 0.8899
-8.3835 10.0152 0.9580
-8.5379 9.4855 0.9632
-8.6521 8.9441 0.9650
-8.7609 8.4282 0.9671
-8.8649 7.9349 0.9696
-8.9648 7.4614 0.9723
-9.0610 7.0055 0.9754
-9.1539 6.5652 0.9789
-9.2439 6.1384 0.9826
-7.3097 4.4835 0.7728
-7.3636 4.1594 0.7748
-7.4288 3.8502 0.7784
-7.4927 3.5471 0.7822
-7.5556 3.2491 0.7863
-4.1357 1.6044 0.4292
-7.6788 2.6649 0.7952
-7.7395 2.3770 0.8000
-7.7999 2.0911 0.8051
-7.8600 1.8061 0.8104
-7.9200 1.5216 0.8160
-7.9801 1.2366 0.8220
-8.0405 0.9505 0.8283
-8.1012 0.6624 0.8349
-8.1625 0.3717 0.8418
-8.2308 0.0776 0.8498
-8.2234 -0.2192 0.8503
-8.2886 -0.5206 0.8586
-8.3620 -0.8290 0.8681
-8.4284 -1.1439 0.8772
-8.4966 -1.4670 0.8869
-8.5667 -1.7995 0.8972
-8.6418 -2.1434 0.9084
-7.9689 -2.2845 0.8412
-8.8498 -2.8862 0.9384
-8.9315 -3.2736 0.9518
-9.0170 -3.6789 0.9662
-9.1067 -4.1044 0.9817
-9.2013 -4.5528 0.9984
-9.3014 -5.0274 1.0165
-9.4078 -5.5319 1.0361
-9.5214 -6.0705 1.0574
-9.6476 -6.6513 1.0812
-9.5225 -7.0841 1.0777
-9.0599 -7.2608 1.0364
-8.8045 -7.5923 1.0190
-8.5956 -7.9690 1.0075
-8.4942 -8.4631 1.0094
-8.7966 -9.4186 1.0612
-9.3007 -10.7052 1.1406
-8.6633 -10.7273 1.0818
-8.1246 -10.8346 1.0349
-8.5161 -12.2501 1.1087
-8.0824 -12.5663 1.0780
-8.2771 -13.9453 1.1341
-8.7386 -16.0053 1.2338
-10.7535 -21.4958 1.5705
-10.8283 -23.7375 1.6430
-10.9172 -26.4015 1.7302
-11.2997 -30.3673 1.8828
-11.4365 -34.4689 2.0198
-11.2567 -38.4921 2.1292
-10.3693 -40.8372 2.1292
-9.3790 -43.4025 2.1292
-8.2754 -46.2674 2.1311
-7.0200 -49.4002 2.1311
-5.6695 -53.6228 2.1602
-4.1497 -59.5954 2.2342
-2.1702 -64.3619 2.2362
0.1552 -40.9622 2.2342
1.7057 -43.0554 2.2342
3.2654 -43.2256 2.1309
5.0888 -45.5743 2.1309
7.2058 -48.6679 2.1542
9.5242 -51.5251 2.1542
11.0169 -49.5994 1.9537
12.2616 -47.1625 1.7449
14.3124 -47.9376 1.6601
4.5316 -13.4082 0.4328
13.0320 -34.4447 1.0314
12.7772 -30.4345 0.8404
12.8683 -27.8189 0.7034
12.9473 -25.5492 0.5864
13.3878 -24.2277 0.4992
13.0784 -21.7880 0.3975
13.7815 -21.2016 0.3361
15.2294 -21.6892 0.2912
16.1650 -21.3541 0.2340
17.8089 -21.8542 0.1844
18.8633 -21.5266 0.1260
19.9902 -21.2292 0.0677
20.4600 -20.2259 0.0087
19.6375 -18.0696 -0.0440
23.7473 -20.3304 -0.1106
25.6245 -20.3939 -0.1753
28.2271 -20.8590 -0.2491
30.5781 -20.9459 -0.3250
33.0748 -20.9562 -0.4057
33.5392 -19.6031 -0.4614
33.9736 -18.2566 -0.5135
34.4025 -16.9276 -0.5624
34.8270 -15.6123 -0.6082
35.2482 -14.3072 -0.6513
35.6673 -13.0089 -0.6916
36.5045 -11.8500 -0.7378
36.5619 -10.4357 -0.7659
36.6511 -9.0537 -0.7917
36.7561 -7.6929 -0.8151
36.8757 -6.3473 -0.8362
36.9905 -5.0090 -0.8546
60.3496 -5.9776 -1.4159
68.9333 -4.3390 -1.6373
92.9919 14.2774 -2.2425
87.1236 16.5940 -2.0860
72.8310 16.5984 -1.7263
71.8284 19.1032 -1.6801
63.3023 19.2908 -1.4562
37.2447 12.8263 -0.8395
57.7424 22.2314 -1.2700
57.8240 24.6777 -1.2353
57.9084 27.2072 -1.1952
60.6673 31.2050 -1.2024
63.8031 35.7656 -1.2054
64.9092 39.5071 -1.1587
63.3313 41.7279 -1.0567
63.5309 45.2046 -0.9773
74.7446 66.3412 -0.7854
66.2797 72.9614 -0.2472
61.7863 73.1113 -0.0559
37.3742 47.5798 0.0850
43.5525 64.4532 0.4334
44.0836 76.5205 0.8804
8.7312 19.8007 0.3669
8.7323 21.8932 0.4566
31.3197 87.4966 2.0288
8.9555 28.1547 0.7187
20.8997 74.8801 2.0880
9.4922 39.4021 1.1924
9.5891 47.1542 1.5403
10.0991 60.7108 2.1309
7.3603 56.7161 2.1309
5.2132 55.7331 2.2342
3.0142 52.3826 2.2342
1.0704 49.3515 2.2342
-0.6575 46.5921 2.2342
-2.1802 43.6455 2.2129
-3.4210 39.8130 2.1311
-4.6116 37.7602 2.1311
-5.6883 35.8531 2.1311
-6.6641 34.0689 2.1308
-6.6349 28.4654 1.8719
-7.1096 26.2149 1.8114
-7.1468 23.0482 1.6727
-7.6939 21.9925 1.6757
-8.2342 21.0799 1.6860
-7.0845 16.3778 1.3749
-7.3019 15.3448 1.3521
-7.5001 14.4052 1.3324
-7.6818 13.5439 1.3155
-7.8493 12.7497 1.3008
-7.9226 11.8901 1.2750
-8.0660 11.2105 1.2642
-7.6694 9.8893 1.1738
-8.3345 9.9841 1.2484
-8.5336 9.5059 1.2535
-8.6481 8.9629 1.2481
-8.7572 8.4456 1.2437
-8.8616 7.9509 1.2403
-8.9617 7.4763 1.2378
-9.0581 7.0193 1.2361
-9.1512 6.5779 1.2353
-9.2414 6.1502 1.2352
-7.3083 4.4923 0.9681
-7.3623 4.1675 0.9675
-7.4273 3.8575 0.9690
-7.4913 3.5538 0.9711
-7.5543 3.2552 0.9737
-4.1307 1.6058 0.5298
-7.6777 2.6700 0.9804
-7.7386 2.3817 0.9845
-7.7990 2.0952 0.9891
-7.8592 1.8098 0.9943
-7.9193 1.5248 0.9999
-7.9795 1.2393 1.0061
-8.0400 0.9527 1.0129
-8.1008 0.6642 1.0203
-8.1623 0.3731 1.0282
-8.2310 0.0785 1.0376
-8.2653 -0.2200 1.0433
-8.3257 -0.5231 1.0528
-8.3622 -0.8297 1.0599
-8.4287 -1.1451 1.0714
-8.4970 -1.4688 1.0837
-8.5673 -1.8020 1.0970
-8.6902 -2.1584 1.1178
-8.7774 -2.5199 1.1349
-8.8507 -2.8909 1.1510
-8.9326 -3.2791 1.1690
-9.0183 -3.6853 1.1886
-9.1083 -4.1118 1.2098
-9.2031 -4.5614 1.2329
-9.3035 -5.0373 1.2580
-9.4102 -5.5431 1.2854
-9.5242 -6.0834 1.3154
-9.6515 -6.6667 1.3491
-9.5077 -7.0870 1.3464
-9.1913 -7.3811 1.3202
-8.7571 -7.5672 1.2773
-8.5900 -7.9811 1.2741
-8.6146 -8.6025 1.3012
-8.7862 -9.4297 1.3537
-9.2784 -10.7059 1.4608
-8.6417 -10.7281 1.3931
-8.0105 -10.7115 1.3252
-7.5245 -10.8547 1.2806
-7.9077 -12.3319 1.3886
-8.2735 -13.9841 1.5039
-7.5996 -13.9669 1.4355
-10.7563 -21.5807 2.1206
-10.5348 -23.1862 2.1792
-9.9782 -24.2354 2.1792
-9.3799 -25.3280 2.1792
-8.7358 -26.4684 2.1792
-7.8640 -27.0509 2.1311
-7.1308 -28.2742 2.1311
-6.3374 -29.5604 2.1311
-5.4772 -30.9163 2.1311
-4.7622 -33.9151 2.2342
-3.6945 -35.5093 2.2342
-2.5281 -37.2062 2.2342
-1.2500 -39.0186 2.2342
0.1588 -28.9782 2.2342
1.2395 -30.0047 2.2342
2.3998 -31.0686 2.2342
3.4788 -30.6859 2.1309
4.7601 -31.7806 2.1309
6.1422 -32.9201 2.1309
7.0204 -31.3595 1.9592
9.2452 -35.3203 2.1292
11.1273 -37.0474 2.1542
10.4381 -30.7198 1.7223
12.6760 -33.3415 1.8015
12.7816 -30.3098 1.5775
12.8720 -27.7128 1.3886
12.9505 -25.4579 1.2272
13.3553 -24.0824 1.1160
13.0808 -21.7186 0.9667
13.1738 -20.2020 0.8629
15.2780 -21.6923 0.8882
16.2144 -21.3572 0.8373
17.8613 -21.8576 0.8194
18.9168 -21.5300 0.7707
19.9911 -21.1754 0.7225
20.5128 -20.2276 0.6566
19.6861 -18.0705 0.5569
23.8056 -20.3323 0.5935
25.6860 -20.3960 0.5622
28.9999 -21.3820 0.5548
30.9675 -21.1660 0.5150
33.1544 -20.9613 0.4761
33.8129 -19.7210 0.4159
34.2517 -18.3674 0.3572
34.6849 -17.0311 0.3029
35.1137 -15.7084 0.2528
35.5394 -14.3958 0.2067
35.7338 -13.0064 0.1634
36.9907 -11.9831 0.1279
37.0596 -10.5558 0.0915
36.7844 -9.0675 0.0587
36.8361 -7.6930 0.0307
36.9015 -6.3376 0.0065
36.9663 -4.9939 -0.0139
59.9125 -5.9189 -0.0496
59.9844 -3.7640 -0.0710
92.9914 14.2613 -0.1233
87.2449 16.5965 -0.0885
63.9914 14.5644 -0.0385
71.9209 19.1011 -0.0062
63.3854 19.2880 0.0341
37.0891 12.7535 0.0473
41.9053 16.1088 0.0894
57.8226 24.6376 0.1802
57.9151 27.1654 0.2452
60.5433 31.0883 0.3326
63.8009 35.7019 0.4408
64.9494 39.4605 0.5516
63.3626 41.6712 0.6501
63.4764 45.0795 0.7761
42.8006 32.7609 0.6170
42.6300 35.1182 0.7182
19.1708 16.9795 0.3749
14.1818 13.4961 0.3200
66.4332 72.9562 1.9719
43.1571 50.9404 1.4626
24.2924 30.8451 0.9382
50.8240 69.5091 2.2342
38.9149 57.4233 1.9464
10.9447 17.4634 0.6230
32.9838 57.0665 2.1393
26.8764 50.5923 1.9900
8.5984 17.6839 0.7288
8.7816 19.8340 0.8555
8.7762 21.9057 0.9879
9.0117 25.0526 1.1801
8.9496 27.9829 1.3756
9.0965 32.3910 1.6605
9.2937 38.3058 2.0466
7.8523 38.2932 2.1309
6.1811 36.7827 2.1309
4.8720 37.0594 2.2342
3.3924 35.6253 2.2342
2.0289 34.2568 2.2342
0.7702 32.9484 2.2342
-0.3937 31.6954 2.2342
-1.4715 30.4934 2.2342
-2.4710 29.3387 2.2342
-3.2422 26.9252 2.1311
-4.0651 25.9041 2.1311
-4.8310 24.9188 2.1311
-5.5443 23.9670 2.1311
-6.2093 23.0462 2.1311
-6.8298 22.1544 2.1311
-7.5763 21.7700 2.1792
-8.1297 20.9115 2.1792
-7.0759 16.4295 1.7833
-7.3628 15.5356 1.7573
-7.5639 14.5826 1.7201
-7.6744 13.5789 1.6715
-7.9179 12.9042 1.6589
-7.6519 11.5202 1.5481
-7.7910 10.8610 1.5272
-7.9212 10.2435 1.5088
-8.3019 9.9725 1.5406
-8.5292 9.5263 1.5457
-8.7271 9.0680 1.5477
-8.7535 8.4631 1.5220
-8.8581 7.9671 1.5127
-9.0445 7.5632 1.5193
-9.1421 7.1007 1.5128
-9.2363 6.6540 1.5076
-9.2389 6.1621 1.4893
-7.3068 4.5011 1.1646
-7.3609 4.1757 1.1613
-7.4257 3.8649 1.1607
-7.4899 3.5606 1.1610
-7.5530 3.2614 1.1622
-4.1256 1.6072 0.6306
-7.6767 2.6752 1.1667
-7.7376 2.3863 1.1701
-7.7981 2.0994 1.1743
-7.8584 1.8135 1.1792
-7.9186 1.5280 1.1849
-7.9789 1.2421 1.1913
-8.0395 0.9550 1.1986
-8.1004 0.6661 1.2067
-8.1620 0.3744 1.2157
-8.2307 0.0794 1.2265
-8.3013 -0.2206 1.2384
-7.3157 -0.4598 1.0933
-8.3069 -0.8248 1.2444
-8.3732 -1.1388 1.2582
-8.4411 -1.4609 1.2732
-8.5111 -1.7925 1.2894
-8.5833 -2.1348 1.3070
-8.7780 -2.5238 1.3445
-8.8517 -2.8955 1.3648
-8.9338 -3.2846 1.3876
-9.0197 -3.6918 1.4124
-9.1099 -4.1193 1.4394
-9.2049 -4.5700 1.4689
-9.4198 -5.1092 1.5195
-9.5282 -5.6227 1.5553
-9.5269 -6.0964 1.5752
-9.6555 -6.6822 1.6190
-9.4404 -7.0506 1.6071
-9.1818 -7.3885 1.5891
-8.7488 -7.5761 1.5415
-8.5843 -7.9933 1.5422
-8.6153 -8.6227 1.5808
-8.7758 -9.4408 1.6477
-9.2562 -10.7067 1.7818
-8.6200 -10.7289 1.7051
-8.0173 -10.7497 1.6338
-7.4779 -10.8184 1.5743
-7.8449 -12.2711 1.7116
-8.2475 -13.9852 1.8717
-7.5954 -14.0075 1.8003
-8.7601 -17.6407 2.1792
-8.1167 -17.9356 2.1311
-7.6389 -18.6347 2.1311
-7.1316 -19.3495 2.1311
-6.5926 -20.0812 2.1311
-6.0196 -20.8308 2.1311
-5.4103 -21.5995 2.1311
-4.7616 -22.3888 2.1311
-4.2676 -24.3222 2.2342
-3.4953 -25.1970 2.2342
-2.6712 -26.0981 2.2342
-1.7908 -27.0273 2.2342
-0.8493 -27.9866 2.2342
0.1607 -22.4016 2.2342
0.9895 -23.0067 2.2342
1.8645 -23.6163 2.2342
2.7884 -24.2296 2.2342
3.6235 -23.9168 2.1506
4.5741 -24.2890 2.1309
5.6139 -24.8815 2.1309
6.3551 -24.1154 2.0172
7.8700 -26.0467 2.1292
9.0996 -26.6379 2.1292
10.4012 -27.2259 2.1292
11.7792 -27.8089 2.1292
12.8757 -27.6071 2.0709
12.9537 -25.3670 1.8656
13.0223 -23.3979 1.6885
13.0832 -21.6494 1.5343
13.1758 -20.1406 1.4032
13.2233 -18.7180 1.2833
13.2665 -17.4236 1.1770
13.3060 -16.2379 1.0821
13.3425 -15.1451 0.9972
13.3763 -14.1322 0.9209
13.4078 -13.1884 0.8521
19.7349 -18.0714 1.1601
23.8641 -20.3343 1.3001
25.7476 -20.3979 1.3025
29.0688 -21.3847 1.3681
30.9680 -21.1198 1.3585
33.1631 -20.9215 1.3587
33.8213 -19.6840 1.2967
34.2601 -18.3333 1.2319
34.6933 -16.9998 1.1727
35.1221 -15.6797 1.1188
35.5475 -14.3694 1.0700
35.7414 -12.9824 1.0196
36.9919 -11.9588 1.0033
37.0606 -10.5341 0.9591
37.1282 -9.1330 0.9202
37.1948 -7.7512 0.8866
37.2607 -6.3849 0.8580
36.9669 -4.9821 0.8262
59.9131 -5.9036 1.3063
59.9848 -3.7523 1.2827
99.0452 -2.6478 2.0886
92.9908 14.2453 1.9955
87.1167 16.5516 1.9088
63.9907 14.5450 1.4394
71.7246 19.0223 1.6650
63.4688 19.2852 1.5281
57.6612 19.7975 1.4465
41.9685 16.1080 1.1018
57.8213 24.5974 1.5951
35.2049 16.4858 1.0243
42.3421 21.7052 1.3039
42.4129 23.6920 1.3868
42.3399 25.6776 1.4743
42.3858 27.8238 1.5761
42.4617 30.0976 1.6906
42.5417 32.4984 1.8180
42.6266 35.0436 1.9598
19.2495 17.0131 0.9544
14.2401 13.5217 0.7631
38.1419 38.9010 2.2142
35.1260 38.4830 2.2142
14.6543 17.2540 1.0055
13.6556 17.2938 1.0226
24.5089 33.4274 2.0087
23.5401 34.6355 2.1180
20.5275 32.6535 2.0345
10.1318 17.4722 1.1104
9.3294 17.5005 1.1355
8.5936 17.6079 1.1676
8.8169 19.8329 1.3450
8.7405 21.7197 1.5076
8.8309 24.4301 1.7368
8.9436 27.8125 2.0265
8.0590 28.5208 2.1310
6.7920 27.7974 2.1311
5.5988 27.0777 2.1311
4.6913 27.6379 2.2342
3.5813 26.8945 2.2342
2.5352 26.1582 2.2342
1.5491 25.4299 2.2342
0.6194 24.7098 2.2342
-0.2574 23.9984 2.2342
-1.0846 23.2960 2.2342
-1.8651 22.6027 2.2342
-2.6017 21.9186 2.2342
-3.1556 20.3323 2.1383
-3.7711 19.6286 2.1311
-3.7335 16.2633 1.8239
-4.9207 18.3849 2.1311
-5.4479 17.7758 2.1311
-5.9458 17.1751 2.1311
-6.4159 16.5825 2.1311
-6.8598 15.9979 2.1311
-7.2938 15.4527 2.1355
-7.4897 14.4945 2.0799
-7.6692 13.6181 2.0310
-7.2063 11.7839 1.8284
-7.3651 11.1237 1.7977
-7.6286 10.6669 1.7977
-7.7796 10.0896 1.7756
-8.2739 9.9666 1.8341
-8.5249 9.5470 1.8400
-8.7230 9.0872 1.8374
-8.7498 8.4806 1.8023
-8.8547 7.9834 1.7870
-9.0413 7.5784 1.7908
-9.1391 7.1148 1.7794
-9.2335 6.6671 1.7698
-9.2364 6.1741 1.7452
-7.3053 4.5100 1.3624
-7.3596 4.1838 1.3564
-7.4241 3.8722 1.3537
-7.4885 3.5674 1.3522
-7.5517 3.2677 1.3519
-4.1206 1.6086 0.7320
-7.6756 2.6803 1.3542
-7.7366 2.3910 1.3569
-7.7972 2.1036 1.3606
-7.8576 1.8173 1.3653
-7.9179 1.5313 1.3710
-7.9784 1.2449 1.3777
-8.0390 0.9574 1.3855
-8.1001 0.6679 1.3944
-8.1617 0.3758 1.4044
-8.2305 0.0802 1.4166
-8.1336 -0.2157 1.4014
-7.9907 -0.5023 1.3792
-7.9709 -0.7921 1.3792
-7.9667 -1.0846 1.3829
-8.0315 -1.3917 1.3997
-8.1466 -1.7180 1.4266
-8.2158 -2.0462 1.4467
-8.7787 -2.5276 1.5557
-8.9614 -2.9358 1.5995
-9.0447 -3.3306 1.6275
-9.0488 -3.7096 1.6429
-9.1115 -4.1269 1.6707
-9.2068 -4.5787 1.7067
-9.4220 -5.1193 1.7675
-9.5306 -5.6343 1.8114
-9.5297 -6.1096 1.8371
-9.6595 -6.6978 1.8910
-9.4296 -7.0566 1.8772
-9.1722 -7.3959 1.8595
-8.7405 -7.5849 1.8073
-8.5785 -8.0056 1.8121
-8.6159 -8.6432 1.8627
-8.7653 -9.4520 1.9434
-9.2338 -10.7074 2.1040
-8.5980 -10.7294 2.0183
-7.9957 -10.7502 1.9388
-7.4940 -10.8731 1.8828
-7.8215 -12.2719 2.0428
-7.8191 -13.3019 2.1311
-7.4599 -13.8055 2.1311
-7.0814 -14.3135 2.1311
-6.6825 -14.8262 2.1311
-6.2622 -15.3436 2.1311
-4.7715 -13.0088 1.7474
-5.3530 -16.3930 2.1311
-4.8616 -16.9253 2.1311
-4.3439 -17.4627 2.1311
-3.9822 -18.8763 2.2342
-3.3796 -19.4505 2.2342
-2.7445 -20.0302 2.2342
-2.0751 -20.6152 2.2342
-1.3692 -21.2056 2.2342
-0.6247 -21.8011 2.2342
0.1619 -18.2427 2.2342
0.8335 -18.6398 2.2342
1.5351 -19.0308 2.2342
2.2677 -19.4147 2.2342
3.0327 -19.7905 2.2342
3.7547 -19.7544 2.1896
4.4488 -19.5650 2.1309
5.2778 -19.8930 2.1309
6.1423 -20.2081 2.1309
7.0433 -20.5085 2.1309
6.3227 -16.4701 1.6880
7.0301 -16.5235 1.6721
9.9681 -21.2854 2.1292
11.0248 -21.5072 2.1292
12.1225 -21.7033 2.1292
13.0856 -21.5803 2.1009
10.9998 -16.7606 1.6215
13.2251 -18.6636 1.7973
13.2681 -17.3751 1.6684
13.3075 -16.1944 1.5535
13.3438 -15.1060 1.4506
13.3775 -14.0969 1.3582
13.4088 -13.1564 1.2749
13.4382 -12.2757 1.1996
13.4659 -11.4470 1.1315
13.4920 -10.6641 1.0698
13.5168 -9.9213 1.0137
13.5404 -9.2140 0.9629
13.5629 -8.5378 0.9167
13.5846 -7.8893 0.8747
13.5942 -7.2592 0.8360
34.4804 -16.8602 2.0304
34.9061 -15.5510 1.9730
35.3287 -14.2515 1.9219
28.1829 -10.2158 1.4796
36.9931 -11.9344 1.8795
37.0617 -10.5125 1.8274
37.1291 -9.1139 1.7820
37.1956 -7.7346 1.7430
37.2614 -6.3707 1.7102
36.9674 -4.9704 1.6671
47.9236 -4.7099 2.1305
48.9917 -3.0551 2.1542
49.3634 -1.3130 2.1542
49.0353 0.4459 2.1311
49.0669 2.1987 2.1311
48.9274 3.9456 2.1311
50.9703 5.9472 2.2342
50.4727 7.7233 2.2342
49.8080 9.4514 2.2342
48.9845 11.1192 2.2342
48.0130 12.7159 2.2342
46.9056 14.2316 2.2342
43.5649 14.9351 2.1310
42.2885 16.2054 2.1309
38.2026 16.2254 1.9893
34.9370 16.3332 1.8857
32.1000 16.4269 1.8011
29.6065 16.5093 1.7319
36.2044 21.9170 2.2142
34.5328 22.6266 2.2142
32.8483 23.2388 2.2142
31.1615 23.7576 2.2142
20.6846 16.9702 1.5535
19.2891 17.0119 1.5354
14.2690 13.5193 1.2071
16.7917 17.0866 1.5139
15.6643 17.1203 1.5095
14.6041 17.1520 1.5088
13.6028 17.1820 1.5114
12.6534 17.2104 1.5172
11.7495 17.2374 1.5258
10.9105 17.3022 1.5406
10.0822 17.3298 1.5549
9.2851 17.3564 1.5715
8.5902 17.5348 1.6046
8.6564 19.3927 1.7958
8.7368 21.6145 2.0281
8.1324 22.3883 2.1310
7.1280 22.0461 2.1310
6.1655 21.6864 2.1311
5.2440 21.3116 2.1311
4.5732 21.9353 2.2342
3.6890 21.5162 2.2342
2.8438 21.0867 2.2342
2.0363 20.6484 2.2342
1.2650 20.2027 2.2342
0.5287 19.7507 2.2342
-0.1741 19.2936 2.2342
-0.8446 18.8325 2.2342
-1.4841 18.3680 2.2342
-2.0939 17.9010 2.2342
-2.6752 17.4322 2.2342
-3.0907 16.2350 2.1384
-3.5834 15.7305 2.1311
-4.0626 15.2813 2.1311
-4.5189 14.8323 2.1311
-4.9530 14.3837 2.1311
-5.3659 13.9360 2.1311
-5.7585 13.4894 2.1311
-6.1316 13.0440 2.1311
-6.4859 12.6000 2.1311
-6.8222 12.1577 2.1311
-7.1067 11.6605 2.1208
-7.2494 10.9842 2.0755
-7.3823 10.3541 2.0353
-7.5440 9.8127 2.0095
-8.2459 9.9607 2.1284
-8.5327 9.5815 2.1398
-8.6459 9.0303 2.1117
-8.7537 8.5058 2.0868
-8.8570 8.0049 2.0649
-8.9561 7.5249 2.0458
-9.0517 7.0631 2.0292
-9.1441 6.6175 2.0150
-9.2338 6.1861 2.0031
-7.3038 4.5190 1.5618
-7.3582 4.1921 1.5530
-7.4226 3.8797 1.5481
-7.4870 3.5742 1.5449
-7.6430 3.3142 1.5620
-4.1155 1.6100 0.8339
-7.7687 2.7186 1.5621
-7.8306 2.4252 1.5641
-7.7963 2.1079 1.5484
-7.8568 1.8210 1.5529
-7.9173 1.5346 1.5586
-8.0757 1.2630 1.5848
-8.1372 0.9715 1.5932
-8.1991 0.6780 1.6030
-8.2616 0.3818 1.6141
-8.2303 0.0811 1.6082
-8.1351 -0.2154 1.5911
-7.8888 -0.4961 1.5456
-7.9510 -0.7908 1.5618
-8.0146 -1.0923 1.5796
-8.0149 -1.3905 1.5862
-7.9748 -1.6839 1.5862
-7.9839 -1.9912 1.5974
-8.0537 -2.3223 1.6224
-8.9624 -2.9406 1.8193
-9.0459 -3.3363 1.8521
-9.0391 -3.7116 1.8686
-9.1131 -4.1345 1.9040
-9.2086 -4.5875 1.9465
-9.3098 -5.0673 1.9932
-9.4241 -5.5815 2.0461
-9.5467 -6.1319 2.1044
-9.6787 -6.7241 2.1691
-9.4188 -7.0626 2.1491
-9.0189 -7.2873 2.0983
-8.7321 -7.5939 2.0749
-8.5728 -8.0179 2.0841
-8.4393 -8.4854 2.1031
-8.5130 -9.2020 2.1792
-8.2684 -9.6120 2.1792
-7.8339 -9.8016 2.1311
-7.5684 -10.2039 2.1311
-7.2892 -10.6068 2.1311
-6.9957 -11.0101 2.1311
-6.6874 -11.4140 2.1311
-6.3638 -11.8182 2.1311
-6.0242 -12.2226 2.1311
-5.6682 -12.6271 2.1311
-5.2951 -13.0316 2.1311
-4.7438 -12.9964 2.0614
-4.4948 -13.8398 2.1311
-4.1232 -14.4424 2.1610
-3.7926 -15.3536 2.2342
-3.3005 -15.7739 2.2342
-2.7858 -16.1925 2.2342
-2.2474 -16.6090 2.2342
-1.6845 -17.0228 2.2342
-1.0960 -17.4335 2.2342
-0.4809 -17.8403 2.2342
0.1628 -15.3728 2.2342
0.7268 -15.6523 2.2342
1.3118 -15.9221 2.2342
1.9181 -16.1813 2.2342
2.5462 -16.4290 2.2342
3.1965 -16.6639 2.2342
3.8528 -16.8127 2.2246
4.3541 -16.3013 2.1309
5.0397 -16.4823 2.1309
4.6002 -13.3234 1.7056
6.4775 -16.7919 2.1309
7.2299 -16.9176 2.1309
7.9977 -17.0078 2.1292
8.7935 -17.0887 2.1292
9.6107 -17.1446 2.1292
10.4490 -17.1738 2.1292
10.8789 -16.5232 2.0485
12.1852 -17.1437 2.1292
13.0813 -17.0805 2.1292
13.3089 -16.1510 2.0250
13.3451 -15.0669 1.9042
13.3786 -14.0616 1.7957
13.4099 -13.1245 1.6980
13.4392 -12.2467 1.6097
13.4667 -11.4207 1.5298
13.4928 -10.6401 1.4575
13.5175 -9.8995 1.3918
13.5410 -9.1940 1.3323
13.5635 -8.5196 1.2782
13.5851 -7.8727 1.2292
13.6059 -7.2501 1.1848
13.6259 -6.6488 1.1447
13.6454 -6.0665 1.1085
13.6643 -5.5007 1.0760
13.6826 -4.9495 1.0469
13.7006 -4.4108 1.0211
13.7182 -3.8830 0.9984
13.7355 -3.3644 0.9786
13.7526 -2.8535 0.9617
13.7694 -2.3489 0.9475
13.7861 -1.8491 0.9359
13.8026 -1.3530 0.9269
13.8191 -0.8591 0.9204
13.8356 -0.3661 0.9164
13.8520 0.1270 0.9149
13.8685 0.6216 0.9159
32.1831 2.5938 2.1311
32.0108 3.7315 2.1311
33.2888 5.0881 2.2342
32.9306 6.2410 2.2342
32.4879 7.3647 2.2342
31.9648 8.4537 2.2342
31.3658 9.5028 2.2342
30.6960 10.5073 2.2342
29.9612 11.4635 2.2342
29.1672 12.3679 2.2342
27.3802 12.7791 2.1600
26.1610 13.3648 2.1311
25.2701 14.0664 2.1311
24.3466 14.7120 2.1311
23.3964 15.3012 2.1311
22.4251 15.8343 2.1311
21.4368 16.3110 2.1310
20.4388 16.7341 2.1310
19.3289 17.0107 2.1193
18.0347 17.0494 2.0853
16.8292 17.0855 2.0579
15.7008 17.1192 2.0365
14.6398 17.1510 2.0205
13.6378 17.1809 2.0093
12.6876 17.2094 2.0025
11.7831 17.2364 1.9999
10.9435 17.3011 2.0055
10.1147 17.3288 2.0106
9.3171 17.3554 2.0191
8.6115 17.5121 2.0460
8.1274 18.1336 2.1310
7.3093 18.0028 2.1310
6.5151 17.8485 2.1311
5.7451 17.6726 2.1311
5.2368 18.3071 2.2324
4.4846 18.0977 2.2342
3.7534 17.8558 2.2342
3.0474 17.5980 2.2342
2.3662 17.3258 2.2342
1.7096 17.0404 2.2342
1.0770 16.7432 2.2342
0.4680 16.4352 2.2342
-0.1179 16.1175 2.2342
-0.6811 15.7912 2.2342
-1.2223 15.4570 2.2342
-1.7420 15.1159 2.2342
-2.2407 14.7686 2.2342
-2.7190 14.4159 2.2342
-3.1581 13.9727 2.2206
-3.4498 13.0644 2.1311
-3.8509 12.7157 2.1311
-4.2346 12.3639 2.1311
-4.6016 12.0095 2.1311
-4.9523 11.6527 2.1311
-5.2871 11.2941 2.1311
-5.6065 10.9338 2.1311
-5.9111 10.5722 2.1311
-6.2012 10.2095 2.1311
-6.4772 9.8460 2.1311
-6.7396 9.4819 2.1311
-6.9888 9.1173 2.1311
-7.2251 8.7523 2.1311
-7.6170 8.5765 2.1792
-7.8335 8.2032 2.1792
-8.0378 7.8300 2.1792
-8.2303 7.4569 2.1792
-8.4113 7.0841 2.1792
-8.5812 6.7117 2.1792
-8.7401 6.3396 2.1792
-8.8883 5.9680 2.1792
-7.3023 4.5281 1.7630
-7.3568 4.2004 1.7514
-7.4210 3.8872 1.7443
-7.4856 3.5811 1.7393
-7.6417 3.3206 1.7572
-4.1104 1.6114 0.9365
-7.7676 2.7239 1.7551
-7.8295 2.4300 1.7564
-7.7954 2.1121 1.7378
-7.8560 1.8248 1.7420
-7.9166 1.5379 1.7478
-8.0751 1.2659 1.7766
-8.1367 0.9739 1.7856
-8.1987 0.6799 1.7961
-8.2613 0.3832 1.8083
-8.2300 0.0820 1.8015
-8.1367 -0.2151 1.7826
-7.7125 -0.4851 1.6926
-7.7734 -0.7737 1.7104
-7.8357 -1.0691 1.7300
-7.8996 -1.3722 1.7518
-7.9654 -1.6842 1.7756
-7.9705 -1.9907 1.7877
-7.9142 -2.2854 1.7877
-8.8575 -2.9107 2.0170
-8.9448 -3.3042 2.0554
-9.0364 -3.7166 2.0975
-9.1331 -4.1505 2.1438
-9.1707 -4.5766 2.1792
-9.0481 -4.9336 2.1792
-8.9160 -5.2903 2.1792
-8.7744 -5.6465 2.1792
-8.6229 -6.0023 2.1792
-8.4616 -6.3576 2.1792
-8.2901 -6.7123 2.1792
-8.1083 -7.0665 2.1792
-7.7412 -7.2563 2.1311
-7.5425 -7.6013 2.1311
-7.3329 -7.9456 2.1311
-7.1123 -8.2890 2.1311
-6.8803 -8.6314 2.1311
-6.6367 -8.9727 2.1311
-6.3812 -9.3127 2.1311
-6.1133 -9.6514 2.1311
-5.8329 -9.9884 2.1311
-5.5395 -10.3238 2.1311
-5.2327 -10.6571 2.1311
-4.9123 -10.9882 2.1311
-4.5778 -11.3169 2.1311
-4.2288 -11.6428 2.1311
-4.0519 -12.5445 2.2342
-3.6543 -12.8794 2.2342
-3.2402 -13.2103 2.2342
-2.8090 -13.5368 2.2342
-2.3603 -13.8584 2.2342
-1.8936 -14.1745 2.2342
-1.4085 -14.4847 2.2342
-0.9044 -14.7883 2.2342
-0.3808 -15.0846 2.2342
0.1634 -13.2713 2.2342
0.6491 -13.4779 2.2342
1.1503 -13.6738 2.2342
1.6669 -13.8581 2.2342
2.1991 -14.0301 2.2342
2.7469 -14.1889 2.2342
3.3102 -14.3334 2.2342
3.8891 -14.4627 2.2342
4.2762 -13.9023 2.1309
4.6203 -13.3104 2.0269
5.4530 -14.0674 2.1309
6.0623 -14.1226 2.1309
6.6851 -14.1578 2.1309
7.3207 -14.1720 2.1309
7.9620 -14.1523 2.1292
6.6776 -10.9380 1.6493
7.6522 -11.5850 1.7538
9.9687 -13.9824 2.1292
10.6558 -13.8728 2.1292
11.3498 -13.7349 2.1292
12.0492 -13.5672 2.1292
10.7058 -11.2230 1.7875
13.4110 -13.0925 2.1218
13.4402 -12.2176 2.0206
13.4676 -11.3942 1.9290
13.4936 -10.6160 1.8460
13.5182 -9.8775 1.7708
13.5417 -9.1740 1.7026
13.5641 -8.5014 1.6407
13.5857 -7.8561 1.5846
13.6064 -7.2349 1.5338
13.6264 -6.6351 1.4879
13.6458 -6.0540 1.4466
13.6646 -5.4894 1.4095
13.6830 -4.9393 1.3764
13.7009 -4.4017 1.3471
13.7185 -3.8749 1.3214
13.7358 -3.3573 1.2990
13.7528 -2.8473 1.2799
13.7696 -2.3436 1.2639
13.7862 -1.8447 1.2510
13.8027 -1.3494 1.2411
13.8192 -0.8563 1.2341
13.8356 -0.3643 1.2300
13.8520 0.1280 1.2288
13.8685 0.6218 1.2305
23.9574 1.9297 2.1309
23.8406 2.7765 2.1309
23.6685 3.6136 2.1309
23.4422 4.4372 2.1309
24.2856 5.4980 2.2342
23.9400 6.3225 2.2342
23.5437 7.1224 2.2342
23.0993 7.8949 2.2342
22.6099 8.6372 2.2342
22.0786 9.3469 2.2342
21.5088 10.0220 2.2342
20.9040 10.6608 2.2342
20.2677 11.2619 2.2342
19.6035 11.8243 2.2342
18.9151 12.3472 2.2342
18.2059 12.8303 2.2342
17.2559 13.1036 2.2056
16.0967 13.1518 2.1485
15.2500 13.3923 2.1311
14.5259 13.7019 2.1311
13.7973 13.9750 2.1311
13.0665 14.2127 2.1311
12.3361 14.4158 2.1311
11.6081 14.5855 2.1311
10.8846 14.7230 2.1311
10.1674 14.8296 2.1311
9.4581 14.9066 2.1311
8.7582 14.9555 2.1311
8.0687 14.9773 2.1311
7.3909 14.9734 2.1310
6.8474 15.2155 2.1695
6.3687 15.6163 2.2342
5.7006 15.5409 2.2342
5.0481 15.4444 2.2342
4.4116 15.3280 2.2342
3.7914 15.1932 2.2342
3.1879 15.0411 2.2342
2.6012 14.8728 2.2342
2.0315 14.6896 2.2342
1.4788 14.4924 2.2342
0.9432 14.2823 2.2342
0.4245 14.0602 2.2342
-0.0773 13.8271 2.2342
-0.5625 13.5838 2.2342
-1.0311 13.3312 2.2342
-1.4834 13.0698 2.2342
-1.9196 12.8006 2.2342
-2.3400 12.5241 2.2342
-2.7448 12.2410 2.2342
-3.1343 11.9518 2.2342
-3.3470 11.1192 2.1311
-3.6902 10.8332 2.1311
-4.0198 10.5429 2.1311
-4.3359 10.2487 2.1311
-4.6388 9.9509 2.1311
-4.9289 9.6498 2.1311
-5.2063 9.3459 2.1311
-5.4715 9.0393 2.1311
-5.7246 8.7305 2.1311
-5.9660 8.4196 2.1311
-6.1958 8.1068 2.1311
-6.4144 7.7925 2.1311
-6.6220 7.4767 2.1311
-6.8188 7.1596 2.1311
-7.0051 6.8415 2.1311
-7.1810 6.5224 2.1311
-7.3469 6.2026 2.1311
-7.6721 6.0148 2.1792
-7.8216 5.6865 2.1792
-7.9613 5.3577 2.1792
-7.3008 4.5372 1.9663
-7.3554 4.2089 1.9519
-7.4194 3.8948 1.9425
-7.4841 3.5881 1.9356
-7.5477 3.2867 1.9307
-4.1053 1.6128 1.0398
-7.6762 2.6976 1.9273
-7.7355 2.4060 1.9273
-7.7945 2.1165 1.9291
-7.8552 1.8286 1.9331
-7.9159 1.5412 1.9389
-7.9766 1.2534 1.9464
-8.0375 0.9644 1.9558
-8.0989 0.6736 1.9670
-8.1608 0.3800 1.9801
-8.2302 0.0829 1.9967
-8.1383 -0.2147 1.9760
-7.4936 -0.4715 1.8227
-7.6002 -0.7571 1.8534
-7.6612 -1.0464 1.8750
-7.7238 -1.3433 1.8988
-7.7883 -1.6490 1.9250
-7.8549 -1.9646 1.9539
-7.8939 -2.2829 1.9781
-8.6240 -2.8383 2.1792
-8.5432 -3.1609 2.1792
-8.4540 -3.4828 2.1792
-8.3563 -3.8039 2.1792
-8.2501 -4.1243 2.1792
-8.1352 -4.4438 2.1792
-8.0116 -4.7624 2.1792
-7.7052 -4.9679 2.1311
-7.5669 -5.2775 2.1311
-7.4196 -5.5859 2.1311
-7.2632 -5.8932 2.1311
-7.0976 -6.1991 2.1311
-6.9227 -6.5037 2.1311
-6.7382 -6.8067 2.1311
-6.5440 -7.1081 2.1311
-6.3399 -7.4077 2.1311
-6.1258 -7.7053 2.1311
-5.9013 -8.0008 2.1311
-5.6664 -8.2941 2.1311
-5.4208 -8.5849 2.1311
-5.1642 -8.8729 2.1311
-4.8965 -9.1581 2.1311
-4.6174 -9.4400 2.1311
-4.3267 -9.7185 2.1311
-4.0242 -9.9933 2.1311
-3.8889 -10.7605 2.2342
-3.5461 -11.0397 2.2342
-3.1901 -11.3139 2.2342
-2.8206 -11.5827 2.2342
-2.4374 -11.8457 2.2342
-2.0402 -12.1023 2.2342
-1.6288 -12.3521 2.2342
-1.2030 -12.5945 2.2342
-0.7625 -12.8289 2.2342
-0.3071 -13.0548 2.2342
0.1639 -11.6646 2.2342
0.5900 -11.8230 2.2342
1.0279 -11.9706 2.2342
1.4775 -12.1067 2.2342
1.9386 -12.2307 2.2342
2.4113 -12.3418 2.2342
2.8951 -12.4392 2.2342
3.3901 -12.5222 2.2342
3.8957 -12.5900 2.2342
4.2220 -12.0978 2.1381
4.7096 -12.0907 2.1309
5.2204 -12.1070 2.1309
5.7397 -12.1054 2.1309
6.2669 -12.0852 2.1309
6.8013 -12.0455 2.1309
6.8210 -11.1347 1.9797
7.8820 -11.8945 2.1292
8.4325 -11.7913 2.1292
8.9866 -11.6653 2.1292
9.5429 -11.5157 2.1292
10.1003 -11.3419 2.1292
10.6574 -11.1430 2.1292
11.2126 -10.9186 2.1292
11.7644 -10.6680 2.1292
12.3111 -10.3909 2.1292
12.8509 -10.0868 2.1292
13.3819 -9.7556 2.1292
13.5424 -9.1540 2.0741
11.5697 -7.2354 1.7096
11.3491 -6.5486 1.6215
13.6069 -7.2197 1.8840
13.6269 -6.6213 1.8324
13.6462 -6.0415 1.7860
13.6650 -5.4781 1.7444
13.6833 -4.9291 1.7072
13.7012 -4.3926 1.6744
13.7188 -3.8668 1.6456
13.7360 -3.3501 1.6206
13.7530 -2.8411 1.5993
13.7698 -2.3383 1.5816
13.7864 -1.8403 1.5674
13.8029 -1.3458 1.5566
13.8193 -0.8536 1.5490
13.8357 -0.3624 1.5448
13.8521 0.1291 1.5439
13.8685 0.6220 1.5462
19.0659 1.5348 2.1309
18.9785 2.2082 2.1309
18.8511 2.8748 2.1309
18.6844 3.5322 2.1309
18.4794 4.1779 2.1309
18.3097 4.8287 2.1394
18.8298 5.6880 2.2342
18.5028 6.3142 2.2342
18.1419 6.9194 2.2342
17.7490 7.5017 2.2342
17.3264 8.0596 2.2342
16.8761 8.5918 2.2342
16.4006 9.0969 2.2342
15.9021 9.5742 2.2342
15.3830 10.0227 2.2342
14.8457 10.4419 2.2342
14.2925 10.8315 2.2342
13.7257 11.1913 2.2342
13.1476 11.5212 2.2342
12.5603 11.8214 2.2342
11.9660 12.0921 2.2342
11.3665 12.3337 2.2342
10.7639 12.5468 2.2342
10.1598 12.7319 2.2342
9.5559 12.8898 2.2342
8.9538 13.0212 2.2342
8.3548 13.1270 2.2342
7.7604 13.2080 2.2342
7.1716 13.2652 2.2342
6.5896 13.2995 2.2342
6.0153 13.3119 2.2342
5.4497 13.3033 2.2342
4.8933 13.2748 2.2342
4.3470 13.2272 2.2342
3.8113 13.1616 2.2342
3.2868 13.0789 2.2342
2.7737 12.9801 2.2342
2.2726 12.8660 2.2342
1.7836 12.7374 2.2342
1.3071 12.5953 2.2342
0.8431 12.4405 2.2342
0.3918 12.2737 2.2342
-0.0467 12.0958 2.2342
-0.4723 11.9073 2.2342
-0.8851 11.7091 2.2342
-1.2852 11.5017 2.2342
-1.6724 11.2858 2.2342
-2.0470 11.0620 2.2342
-2.4091 10.8307 2.2342
-2.7586 10.5927 2.2342
-3.0958 10.3483 2.2342
-3.2928 9.7200 2.1506
-3.5616 9.3882 2.1311
-3.8489 9.1395 2.1311
-4.1250 8.8863 2.1311
-4.3902 8.6291 2.1311
-4.6445 8.3682 2.1311
-4.8881 8.1038 2.1311
-5.1213 7.8362 2.1311
-5.3442 7.5658 2.1311
-5.5570 7.2928 2.1311
-5.7598 7.0173 2.1311
-5.9528 6.7396 2.1311
-6.1361 6.4600 2.1311
-6.3100 6.1786 2.1311
-6.4746 5.8955 2.1311
-6.6300 5.6110 2.1311
-6.7763 5.3252 2.1311
-6.9138 5.0382 2.1311
-7.0425 4.7502 2.1311
-7.1626 4.4613 2.1311
-7.2741 4.1716 2.1311
-7.3773 3.8812 2.1311
-7.4722 3.5902 2.1311
-7.5603 3.2993 2.1315
-4.1026 1.6152 1.1448
-7.6846 2.7063 2.1246
-7.7461 2.4145 2.1244
-7.8075 2.1246 2.1262
-7.8688 1.8359 2.1301
-7.9303 1.5476 2.1361
-7.9921 1.2588 2.1442
-8.0544 0.9689 2.1544
-8.1173 0.6770 2.1668
-8.1730 0.3820 2.1792
-8.1743 0.0832 2.1792
-8.1399 -0.2144 2.1717
-7.4014 -0.4658 1.9781
-7.3817 -0.7359 1.9781
-7.4368 -1.0168 2.0001
-7.5458 -1.3140 2.0387
-7.6089 -1.6132 2.0672
-7.6740 -1.9221 2.0986
-7.7416 -2.2422 2.1332
-7.6674 -2.5274 2.1311
-7.5933 -2.8140 2.1311
-7.5114 -3.0996 2.1311
-7.4218 -3.3843 2.1311
-7.3243 -3.6680 2.1311
-7.2190 -3.9505 2.1311
-7.1057 -4.2318 2.1311
-6.9843 -4.5118 2.1311
-6.8548 -4.7903 2.1311
-6.7170 -5.0674 2.1311
-6.5710 -5.3428 2.1311
-6.4164 -5.6165 2.1311
-6.2534 -5.8883 2.1311
-6.0816 -6.1580 2.1311
-5.9011 -6.4256 2.1311
-5.7117 -6.6908 2.1311
-5.5132 -6.9536 2.1311
-5.3056 -7.2136 2.1311
-5.0886 -7.4707 2.1311
-4.8622 -7.7247 2.1311
-4.6262 -7.9754 2.1311
-4.3805 -8.2225 2.1311
-4.1248 -8.4658 2.1311
-3.9127 -8.8257 2.1607
-3.7568 -9.3722 2.2342
-3.4569 -9.6134 2.2342
-3.1460 -9.8493 2.2342
-2.8240 -10.0795 2.2342
-2.4909 -10.3036 2.2342
-2.1464 -10.5213 2.2342
-1.7905 -10.7320 2.2342
-1.4230 -10.9354 2.2342
-1.0438 -11.1309 2.2342
-0.6530 -11.3179 2.2342
-0.2505 -11.4960 2.2342
0.1643 -10.3951 2.2342
0.5435 -10.5200 2.2342
0.9319 -10.6344 2.2342
1.3295 -10.7378 2.2342
1.7359 -10.8296 2.2342
2.1510 -10.9092 2.2342
2.5745 -10.9761 2.2342
3.0062 -11.0295 2.2342
3.4456 -11.0689 2.2342
3.8923 -11.0935 2.2342
4.1452 -10.5898 2.1309
4.5840 -10.5834 2.1309
5.0283 -10.5611 2.1309
5.4776 -10.5224 2.1309
5.9312 -10.4665 2.1309
6.3884 -10.3929 2.1309
6.8483 -10.3010 2.1309
7.3101 -10.1902 2.1309
7.7729 -10.0601 2.1309
8.2289 -9.9019 2.1292
8.6901 -9.7317 2.1292
9.1490 -9.5408 2.1292
9.6045 -9.3289 2.1292
7.6578 -6.9270 1.6215
10.4998 -8.8408 2.1292
10.9369 -8.5644 2.1292
11.3651 -8.2663 2.1292
11.7828 -7.9467 2.1292
12.1886 -7.6056 2.1292
11.1646 -6.4281 1.8895
12.9580 -6.8606 2.1292
13.3185 -6.4576 2.1292
13.6466 -6.0289 2.1270
13.6654 -5.4667 2.0808
13.6837 -4.9188 2.0396
13.7015 -4.3834 2.0032
13.7190 -3.8586 1.9714
13.7362 -3.3429 1.9438
13.7532 -2.8349 1.9204
11.7462 -1.9901 1.6215
11.8574 -1.5790 1.6215
13.8030 -1.3422 1.8736
13.8194 -0.8509 1.8656
13.8357 -0.3605 1.8612
13.8521 0.1301 1.8606
13.8685 0.6222 1.8636
15.8198 1.2727 2.1309
15.7502 1.8308 2.1309
15.6498 2.3839 2.1309
15.5190 2.9301 2.1309
15.3584 3.4676 2.1309
15.1689 3.9947 2.1309
14.9514 4.5097 2.1309
14.7070 5.0111 2.1309
15.1364 5.7639 2.2342
14.8276 6.2567 2.2342
14.4947 6.7311 2.2342
14.1392 7.1859 2.2342
13.7627 7.6202 2.2342
13.3670 8.0330 2.2342
12.9536 8.4238 2.2342
12.5243 8.7919 2.2342
12.0808 9.1369 2.2342
11.6247 9.4585 2.2342
11.1579 9.7565 2.2342
10.6817 10.0308 2.2342
10.1980 10.2814 2.2342
9.7081 10.5086 2.2342
9.2136 10.7126 2.2342
8.7159 10.8935 2.2342
8.2164 11.0520 2.2342
7.7161 11.1883 2.2342
7.2165 11.3031 2.2342
6.7185 11.3969 2.2342
6.2233 11.4703 2.2342
5.7316 11.5240 2.2342
5.2446 11.5585 2.2342
4.7628 11.5747 2.2342
4.2871 11.5732 2.2342
3.8182 11.5547 2.2342
3.3565 11.5199 2.2342
2.9027 11.4696 2.2342
2.4571 11.4044 2.2342
2.0203 11.3251 2.2342
1.5925 11.2323 2.2342
1.1741 11.1267 2.2342
0.7653 11.0090 2.2342
0.3663 10.8799 2.2342
-0.0227 10.7398 2.2342
-0.4015 10.5895 2.2342
-0.7700 10.4295 2.2342
-1.1283 10.2604 2.2342
-1.4762 10.0827 2.2342
-1.8136 9.8969 2.2342
-2.1407 9.7035 2.2342
-2.4574 9.5031 2.2342
-2.7637 9.2960 2.2342
-3.0598 9.0826 2.2342
-3.3248 8.8084 2.2203
-3.4541 8.2402 2.1311
-3.7075 8.0211 2.1311
-3.9513 7.7975 2.1311
-4.1856 7.5697 2.1311
-4.4107 7.3380 2.1311
-4.6265 7.1027 2.1311
-4.8331 6.8640 2.1311
-5.0308 6.6223 2.1311
-5.2195 6.3776 2.1311
-5.3995 6.1304 2.1311
-5.5708 5.8806 2.1311
-5.7334 5.6287 2.1311
-5.8876 5.3747 2.1311
-6.0335 5.1188 2.1311
-6.1710 4.8612 2.1311
-6.3004 4.6021 2.1311
-6.4217 4.3415 2.1311
-6.5351 4.0797 2.1311
-6.6405 3.8167 2.1311
-6.7381 3.5527 2.1311
-6.8280 3.2879 2.1311
-6.9103 3.0222 2.1311
-4.1008 1.6180 1.2511
-7.0521 2.4890 2.1311
-7.1118 2.2216 2.1311
-7.1641 1.9538 2.1311
-7.2091 1.6857 2.1311
-7.2467 1.4174 2.1311
-7.2771 1.1490 2.1311
-7.3003 0.8805 2.1311
-7.3163 0.6120 2.1311
-7.3251 0.3436 2.1311
-7.3268 0.0755 2.1311
-7.3214 -0.1925 2.1311
-7.3089 -0.4601 2.1311
-7.2892 -0.7274 2.1311
-7.2625 -0.9941 2.1311
-7.2286 -1.2603 2.1311
-7.1876 -1.5259 2.1311
-7.1394 -1.7908 2.1311
-7.0841 -2.0549 2.1311
-7.0216 -2.3182 2.1311
-6.9519 -2.5805 2.1311
-6.8750 -2.8418 2.1311
-6.7907 -3.1019 2.1311
-6.6991 -3.3608 2.1311
-6.6001 -3.6184 2.1311
-6.4937 -3.8746 2.1311
-6.3798 -4.1293 2.1311
-6.2583 -4.3823 2.1311
-6.1292 -4.6335 2.1311
-5.9923 -4.8828 2.1311
-5.8478 -5.1301 2.1311
-5.6953 -5.3752 2.1311
-5.5350 -5.6179 2.1311
-5.3666 -5.8582 2.1311
-5.1902 -6.0958 2.1311
-5.0055 -6.3305 2.1311
-4.8126 -6.5622 2.1311
-4.6114 -6.7907 2.1311
-4.4017 -7.0157 2.1311
-4.1835 -7.2370 2.1311
-3.9568 -7.4544 2.1311
-3.8854 -8.0057 2.2251
-3.6453 -8.2574 2.2342
-3.3799 -8.4713 2.2342
-3.1053 -8.6799 2.2342
-2.8212 -8.8830 2.2342
-2.5277 -9.0801 2.2342
-2.2247 -9.2709 2.2342
-1.9121 -9.4550 2.2342
-1.5899 -9.6320 2.2342
-1.2582 -9.8015 2.2342
-0.9169 -9.9630 2.2342
-0.5660 -10.1161 2.2342
-0.2056 -10.2603 2.2342
0.1646 -9.3659 2.2342
0.5058 -9.4665 2.2342
0.8545 -9.5572 2.2342
1.2105 -9.6375 2.2342
1.5734 -9.7068 2.2342
1.9431 -9.7648 2.2342
2.3192 -9.8108 2.2342
2.7014 -9.8445 2.2342
3.0894 -9.8653 2.2342
3.4827 -9.8726 2.2342
3.8809 -9.8661 2.2342
4.0950 -9.4119 2.1359
4.4732 -9.3559 2.1309
4.8639 -9.3070 2.1309
5.2571 -9.2429 2.1309
5.6521 -9.1633 2.1309
6.0482 -9.0678 2.1309
6.4447 -8.9558 2.1309
6.8406 -8.8272 2.1309
7.2353 -8.6815 2.1309
7.6277 -8.5185 2.1309
8.0103 -8.3311 2.1292
8.3949 -8.1330 2.1292
6.8128 -6.1472 1.6532
9.1473 -7.6833 2.1292
9.5129 -7.4316 2.1292
9.8698 -7.1621 2.1292
10.2170 -6.8750 2.1292
10.5532 -6.5705 2.1292
10.8772 -6.2489 2.1292
11.1878 -5.9106 2.1292
11.4839 -5.5562 2.1292
11.7642 -5.1862 2.1292
12.0276 -4.8013 2.1292
12.2730 -4.4024 2.1292
12.4993 -3.9902 2.1292
12.7054 -3.5659 2.1292
12.8905 -3.1303 2.1292
13.0537 -2.6847 2.1292
12.0067 -2.0295 1.9376
11.0098 -1.4625 1.7611
11.2142 -1.0876 1.7814
13.4725 -0.8268 2.1292
13.5160 -0.3503 2.1292
13.5343 0.1281 2.1292
13.5274 0.6071 2.1292
13.4951 1.0850 2.1292
13.4488 1.5618 2.1309
13.3663 2.0337 2.1309
13.2592 2.5002 2.1309
13.1280 2.9599 2.1309
12.9732 3.4115 2.1309
12.7955 3.8536 2.1309
12.5958 4.2851 2.1309
12.3749 4.7047 2.1309
12.1337 5.1115 2.1309
12.4486 5.7710 2.2342
12.1566 6.1674 2.2342
11.8467 6.5475 2.2342
11.5204 6.9104 2.2342
11.1787 7.2557 2.2342
10.8230 7.5827 2.2342
10.4546 7.8909 2.2342
10.0748 8.1802 2.2342
9.6849 8.4501 2.2342
9.2862 8.7006 2.2342
8.8799 8.9316 2.2342
8.4673 9.1431 2.2342
8.0495 9.3351 2.2342
7.6277 9.5079 2.2342
7.2029 9.6616 2.2342
6.7763 9.7965 2.2342
6.3488 9.9129 2.2342
5.9214 10.0113 2.2342
5.4950 10.0920 2.2342
5.0704 10.1555 2.2342
4.6483 10.2022 2.2342
4.2296 10.2326 2.2342
3.8148 10.2474 2.2342
3.4046 10.2469 2.2342
2.9996 10.2317 2.2342
2.6002 10.2024 2.2342
2.2070 10.1595 2.2342
1.8203 10.1037 2.2342
1.4405 10.0354 2.2342
1.0680 9.9551 2.2342
0.7030 9.8634 2.2342
0.3458 9.7609 2.2342
-0.0033 9.6481 2.2342
-0.3443 9.5254 2.2342
-0.6768 9.3934 2.2342
-1.0009 9.2525 2.2342
-1.3163 9.1031 2.2342
-1.6231 8.9459 2.2342
-1.9211 8.7811 2.2342
-2.2103 8.6092 2.2342
-2.4906 8.4306 2.2342
-2.7621 8.2457 2.2342
-3.0248 8.0548 2.2342
-3.2786 7.8584 2.2342
-3.3809 7.3465 2.1437
-3.5947 7.1227 2.1360
-3.8035 6.9047 2.1311
-4.0122 6.6991 2.1311
-4.2128 6.4896 2.1311
-4.4052 6.2764 2.1311
-4.5895 6.0599 2.1311
-4.7657 5.8403 2.1311
-4.9340 5.6178 2.1311
-5.0944 5.3925 2.1311
-5.2470 5.1648 2.1311
-5.3918 4.9347 2.1311
-5.5289 4.7025 2.1311
-5.6584 4.4683 2.1311
-5.7804 4.2323 2.1311
-5.8949 3.9947 2.1311
-6.0020 3.7555 2.1311
-6.1017 3.5150 2.1311
-6.1941 3.2732 2.1311
-6.2794 3.0304 2.1311
-6.3574 2.7866 2.1311
-4.0989 1.6208 1.3589
-6.4922 2.2964 2.1311
-6.5491 2.0503 2.1311
-6.5989 1.8037 2.1311
-6.6419 1.5566 2.1311
-6.6779 1.3092 2.1311
-6.7071 1.0616 2.1311
-6.7294 0.8138 2.1311
-6.7450 0.5659 2.1311
-6.7537 0.3181 2.1311
-6.7557 0.0703 2.1311
-6.7509 -0.1772 2.1311
-6.7393 -0.4244 2.1311
-6.7210 -0.6712 2.1311
-6.6960 -0.9176 2.1311
-6.6642 -1.1634 2.1311
-6.6257 -1.4086 2.1311
-6.5804 -1.6530 2.1311
-6.5283 -1.8966 2.1311
-6.4695 -2.1393 2.1311
-6.4038 -2.3809 2.1311
-6.3313 -2.6215 2.1311
-6.2519 -2.8608 2.1311
-6.1656 -3.0988 2.1311
-6.0724 -3.3353 2.1311
-5.9723 -3.5703 2.1311
-5.8651 -3.8036 2.1311
-5.7509 -4.0351 2.1311
-5.6295 -4.2647 2.1311
-5.5011 -4.4922 2.1311
-5.3654 -4.7175 2.1311
-5.2225 -4.9404 2.1311
-5.0723 -5.1608 2.1311
-4.9148 -5.3786 2.1311
-4.7499 -5.5934 2.1311
-4.5775 -5.8053 2.1311
-4.3977 -6.0139 2.1311
-4.2103 -6.2190 2.1311
-4.0153 -6.4206 2.1311
-3.8428 -6.6706 2.1480
-3.7766 -7.1413 2.2342
-3.5480 -7.3397 2.2342
-3.3113 -7.5333 2.2342
-3.0664 -7.7218 2.2342
-2.8134 -7.9049 2.2342
-2.5521 -8.0823 2.2342
-2.2827 -8.2538 2.2342
-2.0050 -8.4188 2.2342
-1.7192 -8.5772 2.2342
-1.4253 -8.7286 2.2342
-1.1232 -8.8725 2.2342
-0.8131 -9.0086 2.2342
-0.4950 -9.1364 2.2342
-0.1691 -9.2557 2.2342
0.1648 -8.5138 2.2342
0.4748 -8.5964 2.2342
0.7908 -8.6696 2.2342
1.1127 -8.7329 2.2342
1.4402 -8.7861 2.2342
1.7730 -8.8286 2.2342
2.1108 -8.8601 2.2342
2.4534 -8.8801 2.2342
2.8003 -8.8883 2.2342
3.1511 -8.8843 2.2342
3.5054 -8.8676 2.2342
3.8627 -8.8378 2.2342
4.1136 -8.5677 2.1765
4.3725 -8.3340 2.1309
4.7189 -8.2661 2.1309
5.0660 -8.1846 2.1309
5.4131 -8.0889 2.1309
5.7597 -7.9788 2.1309
6.1049 -7.8541 2.1309
6.4481 -7.7147 2.1309
6.7884 -7.5602 2.1309
7.1251 -7.3907 2.1309
7.4572 -7.2059 2.1309
6.9984 -6.2988 1.9159
8.0979 -6.7852 2.1292
8.4110 -6.5551 2.1292
8.7159 -6.3100 2.1292
9.0118 -6.0501 2.1292
9.2976 -5.7757 2.1292
9.5724 -5.4871 2.1292
9.8353 -5.1847 2.1292
10.0853 -4.8689 2.1292
10.3215 -4.5404 2.1292
10.5430 -4.1996 2.1292
10.7489 -3.8474 2.1292
10.9384 -3.4844 2.1292
11.1107 -3.1115 2.1292
11.2651 -2.7295 2.1292
11.4009 -2.3395 2.1292
11.5175 -1.9423 2.1292
11.1820 -1.4817 2.0499
11.6912 -1.1307 2.1292
11.7474 -0.7186 2.1292
11.7828 -0.3038 2.1292
11.7972 0.1126 2.1292
11.7905 0.5293 2.1292
11.7627 0.9452 2.1292
11.7139 1.3590 2.1292
11.6538 1.7711 2.1309
11.5635 2.1777 2.1309
11.4530 2.5787 2.1309
11.3228 2.9732 2.1309
11.1732 3.3600 2.1309
11.0051 3.7381 2.1309
10.8190 4.1066 2.1309
10.6156 4.4645 2.1309
10.3959 4.8112 2.1309
10.1605 5.1457 2.1309
10.3906 5.7323 2.2342
10.1140 6.0555 2.2342
9.8239 6.3641 2.2342
9.5214 6.6575 2.2342
9.2075 6.9354 2.2342
8.8832 7.1974 2.2342
8.5496 7.4432 2.2342
8.2077 7.6726 2.2342
7.8585 7.8856 2.2342
7.5031 8.0819 2.2342
7.1423 8.2617 2.2342
6.7772 8.4250 2.2342
6.4087 8.5719 2.2342
6.0377 8.7026 2.2342
5.6649 8.8172 2.2342
5.2914 8.9160 2.2342
4.9177 8.9993 2.2342
4.5446 9.0675 2.2342
4.1729 9.1207 2.2342
3.8032 9.1595 2.2342
3.4361 9.1842 2.2342
3.0721 9.1952 2.2342
2.7118 9.1930 2.2342
2.3557 9.1778 2.2342
2.0042 9.1503 2.2342
1.6577 9.1108 2.2342
1.3166 9.0598 2.2342
0.9813 8.9977 2.2342
0.6520 8.9250 2.2342
0.3290 8.8421 2.2342
0.0126 8.7494 2.2342
-0.2971 8.6474 2.2342
-0.5997 8.5364 2.2342
-0.8953 8.4170 2.2342
-1.1836 8.2894 2.2342
-1.4645 8.1541 2.2342
-1.7379 8.0115 2.2342
-2.0037 7.8620 2.2342
-2.2619 7.7058 2.2342
-2.5123 7.5434 2.2342
-2.7551 7.3750 2.2342
-2.9900 7.2010 2.2342
-3.2172 7.0218 2.2342
-3.3970 6.7586 2.2084
-3.4800 6.3418 2.1311
-3.6745 6.1574 2.1311
-3.8615 5.9689 2.1311
-4.0413 5.7767 2.1311
-4.2137 5.5811 2.1311
-4.3788 5.3821 2.1311
-4.5366 5.1801 2.1311
-4.6872 4.9753 2.1311
-4.8307 4.7677 2.1311
-4.9670 4.5577 2.1311
-5.0962 4.3454 2.1311
-5.2183 4.1309 2.1311
-5.3335 3.9145 2.1311
-5.4417 3.6963 2.1311
-5.5430 3.4764 2.1311
-5.6375 3.2550 2.1311
-5.7251 3.0322 2.1311
-5.8060 2.8082 2.1311
-4.0187 1.7654 1.4565
-4.0557 1.6072 1.4532
-6.0083 2.1300 2.1311
-6.0624 1.9022 2.1311
-6.1100 1.6738 2.1311
-6.1510 1.4449 2.1311
-6.1854 1.2155 2.1311
-6.2134 0.9858 2.1311
-6.2349 0.7559 2.1311
-6.2499 0.5259 2.1311
-6.2585 0.2959 2.1311
-6.2606 0.0659 2.1311
-6.2563 -0.1639 2.1311
-6.2456 -0.3934 2.1311
-6.2286 -0.6226 2.1311
-6.2051 -0.8513 2.1311
-6.1752 -1.0794 2.1311
-6.1389 -1.3069 2.1311
-6.0962 -1.5336 2.1311
-6.0470 -1.7595 2.1311
-5.9915 -1.9844 2.1311
-5.9295 -2.2083 2.1311
-5.8610 -2.4309 2.1311
-4.1304 -1.8934 1.5213
-5.7047 -2.8723 2.1311
-5.6167 -3.0908 2.1311
-5.5222 -3.3076 2.1311
-5.4212 -3.5227 2.1311
-5.3135 -3.7359 2.1311
-5.1992 -3.9471 2.1311
-5.0783 -4.1561 2.1311
-4.9507 -4.3628 2.1311
-4.8164 -4.5670 2.1311
-4.6754 -4.7686 2.1311
-4.5275 -4.9674 2.1311
-4.3729 -5.1633 2.1311
-4.2115 -5.3560 2.1311
-4.0432 -5.5454 2.1311
-3.8680 -5.7313 2.1311
-3.8237 -6.1344 2.2107
-3.6662 -6.3864 2.2342
-3.4609 -6.5689 2.2342
-3.2482 -6.7469 2.2342
-3.0284 -6.9199 2.2342
-2.8013 -7.0879 2.2342
-2.5669 -7.2505 2.2342
-2.3253 -7.4075 2.2342
-2.0765 -7.5584 2.2342
-1.8206 -7.7032 2.2342
-1.5575 -7.8414 2.2342
-1.2875 -7.9727 2.2342
-1.0105 -8.0967 2.2342
-0.7266 -8.2132 2.2342
-0.4360 -8.3218 2.2342
-0.1388 -8.4221 2.2342
0.1650 -7.7960 2.2342
0.4486 -7.8648 2.2342
0.7373 -7.9247 2.2342
1.0307 -7.9754 2.2342
1.3288 -8.0165 2.2342
1.6311 -8.0478 2.2342
1.9374 -8.0688 2.2342
2.2474 -8.0792 2.2342
2.5607 -8.0787 2.2342
2.8769 -8.0670 2.2342
3.1956 -8.0438 2.2342
3.5164 -8.0087 2.2342
3.8387 -7.9614 2.2342
4.1373 -7.8546 2.2209
4.2789 -7.4675 2.1309
4.5878 -7.3862 2.1309
4.8963 -7.2922 2.1309
5.2035 -7.1855 2.1309
5.5089 -7.0660 2.1309
5.8118 -6.9333 2.1309
6.1117 -6.7875 2.1309
6.4076 -6.6286 2.1309
6.6990 -6.4564 2.1309
6.9852 -6.2710 2.1309
7.2652 -6.0725 2.1309
7.5384 -5.8609 2.1309
7.8040 -5.6365 2.1309
