ply
format ascii 1.0
element vertex 2175
property float32 x
property float32 y
property float32 z
end_header
5.3752 -4.0913 2.2225
5.4915 -3.8711 2.2225
5.6008 -3.6490 2.2225
5.7033 -3.4252 2.2225
5.7990 -3.1998 2.2225
5.8879 -2.9728 2.2225
5.9701 -2.7445 2.2225
6.0456 -2.5149 2.2225
6.1144 -2.2842 2.2225
6.1767 -2.0524 2.2225
6.2322 -1.8197 2.2225
6.2812 -1.5861 2.2225
6.3237 -1.3518 2.2225
6.3595 -1.1169 2.2225
6.3888 -0.8814 2.2225
6.4116 -0.6454 2.2225
6.4279 -0.4091 2.2225
6.4376 -0.1725 2.2225
6.1420 0.0613 2.1194
6.1389 0.2872 2.1194
6.1294 0.5130 2.1194
6.1138 0.7389 2.1194
6.0918 0.9645 2.1194
6.0636 1.1898 2.1194
4.7273 1.1093 1.6618
4.5879 1.2560 1.6238
5.9411 1.8634 2.1194
5.8875 2.0868 2.1194
5.8275 2.3094 2.1194
5.7611 2.5312 2.1194
5.6881 2.7520 2.1194
5.6087 2.9717 2.1194
5.5227 3.1903 2.1194
5.4300 3.4076 2.1194
5.3308 3.6234 2.1194
5.2248 3.8377 2.1194
5.1120 4.0503 2.1194
4.9925 4.2610 2.1194
4.8661 4.4697 2.1194
4.7328 4.6763 2.1194
4.5925 4.8806 2.1194
4.4452 5.0824 2.1194
4.2909 5.2815 2.1194
4.2231 5.6020 2.1675
4.0507 5.7996 2.1675
3.8709 5.9938 2.1675
3.6837 6.1844 2.1675
3.4891 6.3713 2.1675
3.2867 6.5536 2.1673
3.0678 6.7117 2.1608
2.8467 6.8739 2.1573
2.6214 7.0376 2.1558
2.1846 6.5809 1.9703
1.9175 6.5567 1.9210
1.7034 6.7121 1.9268
1.4833 6.8720 1.9351
1.2563 7.0370 1.9461
1.0214 7.2076 1.9599
0.7774 7.3832 1.9764
0.5183 7.4914 1.9764
0.2771 8.3266 2.1675
-0.0212 8.4291 2.1675
-0.3264 8.5228 2.1675
-0.6382 8.6074 2.1675
-0.9564 8.6824 2.1675
-1.2809 8.7473 2.1675
-1.6113 8.8018 2.1675
-1.9473 8.8454 2.1675
-2.2887 8.8776 2.1675
-2.5766 8.7006 2.1194
-2.9196 8.7086 2.1194
-3.2667 8.7041 2.1194
-3.6173 8.6868 2.1194
-3.9710 8.6562 2.1194
-4.3271 8.6119 2.1194
-4.6850 8.5536 2.1194
-5.0442 8.4808 2.1194
-5.4038 8.3932 2.1194
-5.7633 8.2906 2.1194
-6.1218 8.1725 2.1194
-6.4785 8.0388 2.1194
-6.8325 7.8893 2.1194
-7.1830 7.7238 2.1194
-7.5290 7.5422 2.1194
-7.8695 7.3444 2.1194
-8.2037 7.1305 2.1194
-8.9453 7.2362 2.2225
-9.2790 6.9783 2.2225
-9.6027 6.7039 2.2225
-9.9154 6.4134 2.2225
-10.2159 6.1070 2.2225
-10.5031 5.7853 2.2225
-10.7760 5.4487 2.2225
-11.0335 5.0980 2.2225
-11.2746 4.7338 2.2225
-11.4984 4.3570 2.2225
-11.7038 3.9683 2.2225
-11.8901 3.5688 2.2225
-12.0564 3.1594 2.2225
-12.2020 2.7413 2.2225
-12.3264 2.3156 2.2225
-12.4288 1.8835 2.2225
-12.5090 1.4462 2.2225
-12.5665 1.0051 2.2225
-12.6011 0.5613 2.2225
-12.6127 0.1163 2.2225
-12.4458 -0.3245 2.1951
-12.0803 -0.7422 2.1365
-11.9282 -1.1566 2.1192
-11.8520 -1.5731 2.1192
-11.7548 -1.9845 2.1192
-11.6369 -2.3898 2.1192
-11.4989 -2.7878 2.1192
-11.3414 -3.1774 2.1192
-11.1652 -3.5576 2.1192
-10.9898 -3.9342 2.1229
-10.7596 -4.2862 2.1192
-10.6822 -4.6989 2.1495
-10.7432 -5.1860 2.2128
-10.5206 -5.5449 2.2225
-10.2367 -5.8665 2.2225
-9.9399 -6.1729 2.2225
-9.6313 -6.4637 2.2225
-9.3118 -6.7387 2.2225
-8.9827 -6.9974 2.2225
-8.6449 -7.2397 2.2225
-8.2995 -7.4655 2.2225
-7.9476 -7.6747 2.2225
-7.5901 -7.8673 2.2225
-7.2280 -8.0434 2.2225
-6.8623 -8.2031 2.2225
-6.4939 -8.3466 2.2225
-6.1236 -8.4741 2.2225
-5.7523 -8.5857 2.2225
-5.3807 -8.6820 2.2225
-5.0095 -8.7630 2.2225
-4.6395 -8.8293 2.2225
-4.2714 -8.8811 2.2225
-3.9057 -8.9189 2.2225
-3.5429 -8.9430 2.2225
-3.1837 -8.9540 2.2225
-2.8284 -8.9522 2.2225
-2.4610 -8.8783 2.2076
-2.0387 -8.5240 2.1257
-1.7075 -8.4627 2.1194
-1.3877 -8.4164 2.1193
-1.0734 -8.3599 2.1193
-0.7649 -8.2937 2.1193
-0.4624 -8.2183 2.1193
-0.1699 -7.6086 2.1659
0.1021 -7.5723 2.1785
0.3721 -7.5381 2.1942
0.6408 -7.5039 2.2126
0.9045 -7.4324 2.2225
1.1590 -7.3201 2.2225
1.4073 -7.2011 2.2225
1.6492 -7.0756 2.2225
1.8846 -6.9439 2.2225
2.1135 -6.8063 2.2225
2.3359 -6.6631 2.2225
2.5516 -6.5146 2.2225
2.7607 -6.3611 2.2225
2.9631 -6.2027 2.2225
3.1589 -6.0398 2.2225
3.3479 -5.8726 2.2225
3.5304 -5.7012 2.2225
3.7061 -5.5260 2.2225
3.8751 -5.3471 2.2225
4.0375 -5.1648 2.2225
4.1933 -4.9792 2.2225
4.3424 -4.7905 2.2225
4.4850 -4.5989 2.2225
4.6209 -4.4045 2.2225
4.7503 -4.2076 2.2225
4.8732 -4.0083 2.2225
4.9896 -3.8067 2.2225
5.0995 -3.6031 2.2225
5.2030 -3.3974 2.2225
5.3001 -3.1900 2.2225
5.3907 -2.9808 2.2225
5.4750 -2.7701 2.2225
5.5530 -2.5579 2.2225
5.6246 -2.3444 2.2225
5.6899 -2.1297 2.2225
5.7489 -1.9139 2.2225
5.8016 -1.6971 2.2225
5.8481 -1.4794 2.2225
5.8884 -1.2610 2.2225
5.9224 -1.0418 2.2225
5.9502 -0.8222 2.2225
5.9717 -0.6020 2.2225
5.9871 -0.3815 2.2225
5.9962 -0.1607 2.2225
5.9991 0.0603 2.2225
5.7177 0.2683 2.1194
5.7086 0.4791 2.1194
5.6936 0.6897 2.1194
5.6725 0.9002 2.1194
5.6456 1.1103 2.1194
4.7160 1.1092 1.7808
4.5830 1.2575 1.7427
5.5286 1.7379 2.1194
5.4776 1.9458 2.1194
5.4205 2.1529 2.1194
5.3572 2.3591 2.1194
5.2879 2.5642 2.1194
5.2124 2.7682 2.1194
5.1307 2.9709 2.1194
5.0428 3.1722 2.1194
4.9486 3.3719 2.1194
4.8482 3.5700 2.1194
4.7414 3.7663 2.1194
4.6284 3.9606 2.1194
4.5089 4.1529 2.1194
4.3830 4.3429 2.1194
4.2507 4.5304 2.1194
4.1118 4.7154 2.1194
3.9665 4.8976 2.1194
3.8147 5.0768 2.1194
3.6563 5.2529 2.1194
3.4913 5.4257 2.1194
3.3198 5.5949 2.1194
3.1416 5.7603 2.1194
2.9569 5.9217 2.1194
2.7655 6.0789 2.1194
2.6258 6.3730 2.1675
2.4167 6.5243 2.1675
2.1600 6.5470 2.1273
1.8567 6.3929 2.0343
1.6479 6.5446 2.0421
1.4331 6.7007 2.0526
1.2116 6.8616 2.0660
0.9823 7.0281 2.0825
0.7444 7.2010 2.1023
0.4965 7.3810 2.1256
0.2391 7.6209 2.1675
-0.0341 7.7075 2.1675
-0.3060 7.6131 2.1194
-0.5841 7.6811 2.1194
-0.8674 7.7404 2.1194
-1.1556 7.7904 2.1194
-1.4486 7.8310 2.1194
-1.7459 7.8616 2.1194
-2.0473 7.8819 2.1194
-2.3525 7.8916 2.1194
-2.6609 7.8903 2.1194
-2.9723 7.8777 2.1194
-3.2862 7.8534 2.1194
-3.6021 7.8171 2.1194
-3.9195 7.7685 2.1194
-4.2378 7.7073 2.1194
-4.5565 7.6333 2.1194
-4.8750 7.5461 2.1194
-5.1926 7.4455 2.1194
-5.5086 7.3314 2.1194
-5.8224 7.2036 2.1194
-6.1331 7.0620 2.1194
-6.4401 6.9064 2.1194
-6.7425 6.7370 2.1194
-7.0396 6.5536 2.1194
-7.6870 6.6654 2.2225
-7.9847 6.4441 2.2225
-8.2741 6.2085 2.2225
-8.5543 5.9589 2.2225
-8.8245 5.6956 2.2225
-9.0837 5.4189 2.2225
-9.3311 5.1293 2.2225
-9.5658 4.8272 2.2225
-9.7869 4.5133 2.2225
-9.9937 4.1881 2.2225
-10.1854 3.8523 2.2225
-10.3612 3.5067 2.2225
-10.5205 3.1521 2.2225
-10.6627 2.7894 2.2225
-10.7871 2.4194 2.2225
-10.8933 2.0431 2.2225
-10.9809 1.6615 2.2225
-11.0494 1.2757 2.2225
-11.0987 0.8866 2.2225
-11.1285 0.4954 2.2225
-11.1388 0.1032 2.2225
-11.1294 -0.2891 2.2225
-11.1005 -0.6801 2.2225
-11.0521 -1.0690 2.2225
-10.9846 -1.4546 2.2225
-10.8982 -1.8358 2.2225
-10.7933 -2.2118 2.2225
-10.6704 -2.5814 2.2225
-10.5298 -2.9437 2.2225
-10.3724 -3.2979 2.2225
-10.1986 -3.6431 2.2225
-10.0092 -3.9786 2.2225
-9.8049 -4.3036 2.2225
-9.5865 -4.6174 2.2225
-9.3548 -4.9195 2.2225
-9.1106 -5.2093 2.2225
-8.8548 -5.4863 2.2225
-8.5883 -5.7502 2.2225
-8.3119 -6.0006 2.2225
-8.0266 -6.2372 2.2225
-7.7331 -6.4598 2.2225
-7.4325 -6.6682 2.2225
-7.1254 -6.8623 2.2225
-6.8129 -7.0421 2.2225
-6.4956 -7.2076 2.2225
-6.1745 -7.3587 2.2225
-5.8502 -7.4957 2.2225
-5.5236 -7.6186 2.2225
-5.1953 -7.7277 2.2225
-4.8660 -7.8230 2.2225
-4.5364 -7.9048 2.2225
-4.2071 -7.9734 2.2225
-3.8787 -8.0291 2.2225
-3.5517 -8.0721 2.2225
-3.2267 -8.1028 2.2225
-2.9041 -8.1214 2.2225
-2.5844 -8.1284 2.2225
-2.2680 -8.1241 2.2225
-1.9553 -8.1088 2.2225
-1.6467 -8.0830 2.2225
-1.3423 -8.0469 2.2225
-1.0411 -7.9885 2.2190
-0.7389 -7.8483 2.1953
-0.4488 -7.7137 2.1754
-0.1745 -7.1899 2.2225
0.0822 -7.1200 2.2225
0.3340 -7.0424 2.2225
0.5807 -6.9574 2.2225
0.8221 -6.8654 2.2225
1.0581 -6.7665 2.2225
1.2886 -6.6610 2.2225
1.5135 -6.5493 2.2225
1.7327 -6.4316 2.2225
1.9461 -6.3082 2.2225
2.1536 -6.1794 2.2225
2.3552 -6.0453 2.2225
2.5509 -5.9062 2.2225
2.7405 -5.7624 2.2225
2.9240 -5.6141 2.2225
3.1015 -5.4615 2.2225
3.2729 -5.3048 2.2225
3.4382 -5.1443 2.2225
3.5973 -4.9801 2.2225
3.7503 -4.8124 2.2225
3.8972 -4.6414 2.2225
4.0380 -4.4673 2.2225
4.1726 -4.2903 2.2225
4.3011 -4.1105 2.2225
4.4235 -3.9281 2.2225
4.5399 -3.7433 2.2225
4.6501 -3.5562 2.2225
4.7543 -3.3669 2.2225
4.8524 -3.1756 2.2225
4.9444 -2.9824 2.2225
5.0305 -2.7876 2.2225
5.1105 -2.5910 2.2225
5.1845 -2.3930 2.2225
5.2525 -2.1937 2.2225
5.3145 -1.9931 2.2225
5.3706 -1.7914 2.2225
5.4208 -1.5886 2.2225
5.4649 -1.3850 2.2225
5.5032 -1.1805 2.2225
5.5355 -0.9754 2.2225
5.5618 -0.7697 2.2225
5.5823 -0.5635 2.2225
5.5968 -0.3570 2.2225
5.6054 -0.1502 2.2225
5.6081 0.0568 2.2225
5.6045 0.2638 2.2224
5.3361 0.4490 2.1194
5.3216 0.6463 2.1194
5.3015 0.8433 2.1194
5.2757 1.0400 2.1194
4.7047 1.1091 1.9013
4.5780 1.2590 1.8634
5.1640 1.6270 2.1194
5.1154 1.8213 2.1194
5.0609 2.0147 2.1194
5.0007 2.2072 2.1194
4.9346 2.3985 2.1194
4.8628 2.5886 2.1194
4.7851 2.7774 2.1194
4.7016 2.9648 2.1194
4.6122 3.1505 2.1194
4.5168 3.3345 2.1194
4.4156 3.5166 2.1194
4.3084 3.6968 2.1194
4.1953 3.8747 2.1194
4.0762 4.0504 2.1194
3.9511 4.2236 2.1194
3.8200 4.3941 2.1194
3.6828 4.5618 2.1194
3.5397 4.7265 2.1194
3.3905 4.8881 2.1194
3.2353 5.0463 2.1194
3.0740 5.2009 2.1194
2.9067 5.3517 2.1194
2.7335 5.4986 2.1194
2.5542 5.6413 2.1194
2.3690 5.7795 2.1194
2.1778 5.9130 2.1194
1.9808 6.0417 2.1194
1.7780 6.1652 2.1194
1.5694 6.2833 2.1194
1.3551 6.3957 2.1194
1.1352 6.5021 2.1194
0.9099 6.6023 2.1194
0.6791 6.6960 2.1194
0.4431 6.7830 2.1194
0.2020 6.8628 2.1194
-0.0440 6.9352 2.1194
-0.2949 7.0000 2.1194
-0.5502 7.0568 2.1194
-0.8099 7.1052 2.1194
-1.0737 7.1451 2.1194
-1.3414 7.1761 2.1194
-1.6126 7.1978 2.1194
-1.8870 7.2100 2.1194
-2.1643 7.2124 2.1194
-2.4441 7.2048 2.1194
-2.7262 7.1867 2.1194
-3.0099 7.1580 2.1194
-3.2949 7.1184 2.1194
-3.5808 7.0676 2.1194
-3.8669 7.0055 2.1194
-4.1529 6.9317 2.1194
-4.4382 6.8463 2.1194
-4.7221 6.7489 2.1194
-5.0042 6.6394 2.1194
-5.2837 6.5178 2.1194
-5.5600 6.3840 2.1194
-5.8326 6.2380 2.1194
-6.1006 6.0797 2.1194
-6.6729 6.1966 2.2225
-6.9424 6.0051 2.2225
-7.2048 5.8011 2.2225
-7.4597 5.5847 2.2225
-7.7061 5.3561 2.2225
-7.9433 5.1158 2.2225
-8.1706 4.8639 2.2225
-8.3872 4.6010 2.2225
-8.5925 4.3274 2.2225
-8.7857 4.0436 2.2225
-8.9662 3.7503 2.2225
-9.1334 3.4480 2.2225
-9.2866 3.1373 2.2225
-9.4253 2.8189 2.2225
-9.5490 2.4937 2.2225
-9.6573 2.1623 2.2225
-9.7497 1.8256 2.2225
-9.8259 1.4845 2.2225
-9.8856 1.1397 2.2225
-9.9286 0.7922 2.2225
-9.9547 0.4429 2.2225
-9.9639 0.0926 2.2225
-9.9560 -0.2576 2.2225
-9.9313 -0.6068 2.2225
-9.8897 -0.9542 2.2225
-9.8315 -1.2989 2.2225
-9.7568 -1.6399 2.2225
-9.6661 -1.9764 2.2225
-9.5596 -2.3076 2.2225
-9.4378 -2.6327 2.2225
-9.3011 -2.9509 2.2225
-9.1501 -3.2615 2.2225
-8.9854 -3.5638 2.2225
-8.8074 -3.8572 2.2225
-8.6169 -4.1411 2.2225
-8.4145 -4.4150 2.2225
-8.2009 -4.6784 2.2225
-7.9768 -4.9308 2.2225
-7.7429 -5.1719 2.2225
-7.5000 -5.4013 2.2225
-7.2489 -5.6188 2.2225
-6.9901 -5.8241 2.2225
-6.7245 -6.0171 2.2225
-6.4529 -6.1977 2.2225
-6.1758 -6.3657 2.2225
-5.8941 -6.5211 2.2225
-5.6084 -6.6639 2.2225
-5.3194 -6.7941 2.2225
-5.0278 -6.9119 2.2225
-4.7341 -7.0172 2.2225
-4.4390 -7.1104 2.2225
-4.1431 -7.1914 2.2225
-3.8469 -7.2605 2.2225
-3.5509 -7.3179 2.2225
-3.2557 -7.3639 2.2225
-2.9618 -7.3986 2.2225
-2.6694 -7.4223 2.2225
-2.3792 -7.4354 2.2225
-2.0915 -7.4380 2.2225
-1.8066 -7.4305 2.2225
-1.5249 -7.4132 2.2225
-1.2467 -7.3864 2.2225
-0.9723 -7.3503 2.2225
-0.7019 -7.3054 2.2225
-0.4359 -7.2518 2.2225
-0.1746 -6.6562 2.2225
0.0633 -6.5959 2.2225
0.2968 -6.5284 2.2225
0.5260 -6.4538 2.2225
0.7505 -6.3724 2.2225
0.9703 -6.2844 2.2225
1.1852 -6.1902 2.2225
1.3952 -6.0900 2.2225
1.6000 -5.9840 2.2225
1.7996 -5.8725 2.2225
1.9940 -5.7556 2.2225
2.1830 -5.6337 2.2225
2.3667 -5.5069 2.2225
2.5448 -5.3754 2.2225
2.7174 -5.2396 2.2225
2.8845 -5.0995 2.2225
3.0460 -4.9554 2.2225
3.2018 -4.8075 2.2225
3.3520 -4.6560 2.2225
3.4965 -4.5010 2.2225
3.6354 -4.3427 2.2225
3.7685 -4.1813 2.2225
3.8959 -4.0170 2.2225
4.0177 -3.8499 2.2225
4.1337 -3.6802 2.2225
4.2440 -3.5081 2.2225
4.3485 -3.3337 2.2225
4.4474 -3.1570 2.2225
4.5406 -2.9784 2.2225
4.6281 -2.7979 2.2225
4.7098 -2.6156 2.2225
4.7859 -2.4316 2.2225
4.8563 -2.2462 2.2225
4.9210 -2.0594 2.2225
4.9800 -1.8714 2.2225
5.0334 -1.6821 2.2225
5.0811 -1.4919 2.2225
5.1231 -1.3008 2.2225
5.1595 -1.1088 2.2225
5.1902 -0.9162 2.2225
5.2153 -0.7229 2.2225
5.2347 -0.5292 2.2225
5.2485 -0.3351 2.2225
5.2566 -0.1408 2.2225
5.2591 0.0537 2.2225
5.2559 0.2482 2.2225
5.2384 0.4420 2.2188
4.9898 0.6075 2.1194
4.9890 0.7955 2.1273
4.9458 0.9773 2.1194
4.6931 1.1089 2.0234
4.5730 1.2605 1.9860
4.8391 1.5281 2.1194
4.7926 1.7103 2.1194
4.7407 1.8916 2.1194
4.6833 2.0719 2.1194
4.6203 2.2510 2.1194
4.5519 2.4289 2.1194
4.4779 2.6054 2.1194
4.3984 2.7805 2.1194
4.3134 2.9538 2.1194
4.2228 3.1255 2.1194
4.1266 3.2952 2.1194
4.0249 3.4629 2.1194
3.9175 3.6284 2.1194
3.8046 3.7915 2.1194
3.6861 3.9522 2.1194
3.5620 4.1102 2.1194
3.4323 4.2653 2.1194
3.2970 4.4175 2.1194
3.1562 4.5665 2.1194
3.0098 4.7122 2.1194
2.8578 4.8543 2.1194
2.7003 4.9927 2.1194
2.5373 5.1272 2.1194
2.3689 5.2575 2.1194
2.1950 5.3835 2.1194
2.0158 5.5049 2.1194
1.8313 5.6215 2.1194
1.6415 5.7331 2.1194
1.4466 5.8395 2.1194
1.2466 5.9403 2.1194
1.0417 6.0355 2.1194
0.8318 6.1246 2.1194
0.6173 6.2075 2.1194
0.3981 6.2839 2.1194
0.1746 6.3536 2.1194
-0.0533 6.4163 2.1194
-0.2853 6.4717 2.1194
-0.5211 6.5195 2.1194
-0.7606 6.5595 2.1194
-1.0035 6.5915 2.1194
-1.2496 6.6152 2.1194
-1.4986 6.6303 2.1194
-1.7501 6.6365 2.1194
-2.0040 6.6337 2.1194
-2.2597 6.6215 2.1194
-2.5171 6.5998 2.1194
-2.7756 6.5683 2.1194
-3.0349 6.5269 2.1194
-3.2945 6.4753 2.1194
-3.5541 6.4134 2.1194
-3.8130 6.3409 2.1194
-4.0709 6.2579 2.1194
-4.3272 6.1641 2.1194
-4.5815 6.0596 2.1194
-4.8330 5.9441 2.1194
-5.0814 5.8178 2.1194
-5.3260 5.6805 2.1194
-5.8369 5.8015 2.2225
-6.0835 5.6349 2.2225
-6.3243 5.4570 2.2225
-6.5585 5.2681 2.2225
-6.7857 5.0684 2.2225
-7.0050 4.8580 2.2225
-7.2160 4.6372 2.2225
-7.4178 4.4064 2.2225
-7.6101 4.1660 2.2225
-7.7920 3.9163 2.2225
-7.9631 3.6578 2.2225
-8.1229 3.3910 2.2225
-8.2707 3.1164 2.2225
-8.4061 2.8346 2.2225
-8.5286 2.5461 2.2225
-8.6378 2.2518 2.2225
-8.7334 1.9521 2.2225
-8.8149 1.6479 2.2225
-8.8822 1.3398 2.2225
-8.9350 1.0286 2.2225
-8.9730 0.7151 2.2225
-8.9962 0.3999 2.2225
-9.0045 0.0841 2.2225
-8.9978 -0.2318 2.2225
-8.9763 -0.5469 2.2225
-8.9399 -0.8604 2.2225
-8.8889 -1.1716 2.2225
-8.8235 -1.4796 2.2225
-8.7438 -1.7838 2.2225
-8.6502 -2.0835 2.2225
-8.5430 -2.3779 2.2225
-8.4227 -2.6663 2.2225
-8.2895 -2.9483 2.2225
-8.1441 -3.2230 2.2225
-7.9869 -3.4901 2.2225
-7.8184 -3.7489 2.2225
-7.6392 -3.9991 2.2225
-7.4499 -4.2401 2.2225
-7.2510 -4.4716 2.2225
-7.0432 -4.6931 2.2225
-6.8271 -4.9045 2.2225
-6.6032 -5.1055 2.2225
-6.3723 -5.2957 2.2225
-6.1351 -5.4751 2.2225
-5.8919 -5.6434 2.2225
-5.6437 -5.8007 2.2225
-5.3908 -5.9467 2.2225
-5.1340 -6.0815 2.2225
-4.8739 -6.2051 2.2225
-4.6109 -6.3176 2.2225
-4.3457 -6.4188 2.2225
-4.0788 -6.5091 2.2225
-3.8107 -6.5884 2.2225
-3.5419 -6.6569 2.2225
-3.2730 -6.7148 2.2225
-3.0043 -6.7622 2.2225
-2.7363 -6.7994 2.2225
-2.4694 -6.8265 2.2225
-2.2040 -6.8437 2.2225
-1.9405 -6.8513 2.2225
-1.6791 -6.8495 2.2225
-1.4204 -6.8386 2.2225
-1.1644 -6.8189 2.2225
-0.9116 -6.7905 2.2225
-0.6622 -6.7537 2.2225
-0.4165 -6.7089 2.2225
-0.1747 -6.1897 2.2225
0.0466 -6.1373 2.2225
0.2642 -6.0779 2.2225
0.4780 -6.0119 2.2225
0.6876 -5.9394 2.2225
0.8931 -5.8606 2.2225
1.0942 -5.7758 2.2225
1.2908 -5.6852 2.2225
1.4829 -5.5891 2.2225
1.6703 -5.4876 2.2225
1.8529 -5.3810 2.2225
2.0307 -5.2694 2.2225
2.2035 -5.1532 2.2225
2.3713 -5.0324 2.2225
2.5341 -4.9072 2.2225
2.6917 -4.7780 2.2225
2.8442 -4.6448 2.2225
2.9915 -4.5079 2.2225
3.1336 -4.3674 2.2225
3.2704 -4.2235 2.2225
3.4019 -4.0763 2.2225
3.5281 -3.9261 2.2225
3.6489 -3.7730 2.2225
3.7644 -3.6171 2.2225
3.8745 -3.4586 2.2225
3.9793 -3.2977 2.2225
4.0787 -3.1345 2.2225
4.1727 -2.9691 2.2225
4.2613 -2.8017 2.2225
4.3445 -2.6324 2.2225
4.4224 -2.4614 2.2225
4.4948 -2.2887 2.2225
4.5618 -2.1145 2.2225
4.6235 -1.9389 2.2225
4.6797 -1.7621 2.2225
4.7306 -1.5841 2.2225
4.7760 -1.4050 2.2225
4.8161 -1.2251 2.2225
4.8508 -1.0443 2.2225
4.8800 -0.8629 2.2225
4.9039 -0.6809 2.2225
4.9224 -0.4984 2.2225
4.9355 -0.3155 2.2225
4.9432 -0.1324 2.2225
4.9454 0.0509 2.2225
4.9423 0.2342 2.2225
4.9338 0.4174 2.2225
4.9145 0.5999 2.2201
4.6731 0.7470 2.1194
4.6495 0.9209 2.1194
4.6207 1.0944 2.1194
4.5678 1.2620 2.1107
4.5474 1.4394 2.1194
4.5030 1.6107 2.1194
4.4534 1.7812 2.1194
4.3986 1.9506 2.1194
4.3385 2.1188 2.1194
4.2732 2.2858 2.1194
4.2027 2.4514 2.1194
4.1270 2.6155 2.1194
4.0460 2.7779 2.1194
3.9598 2.9385 2.1194
3.8683 3.0972 2.1194
3.7715 3.2539 2.1194
3.6696 3.4084 2.1194
3.5623 3.5606 2.1194
3.4499 3.7102 2.1194
3.3322 3.8572 2.1194
3.2093 4.0014 2.1194
3.0812 4.1426 2.1194
2.9480 4.2807 2.1194
2.8095 4.4155 2.1194
2.6660 4.5468 2.1194
2.5173 4.6745 2.1194
2.3636 4.7983 2.1194
2.2049 4.9180 2.1194
0.7949 1.9601 0.8253
1.8728 5.1445 2.1194
1.6994 5.2509 2.1194
1.5213 5.3524 2.1194
1.3385 5.4489 2.1194
1.1512 5.5400 2.1194
0.9595 5.6257 2.1194
0.7634 5.7056 2.1194
0.5631 5.7796 2.1194
0.3588 5.8473 2.1194
0.1506 5.9087 2.1194
-0.0614 5.9633 2.1194
-0.2769 6.0112 2.1194
-0.4957 6.0519 2.1194
-0.7177 6.0852 2.1194
-0.9425 6.1110 2.1194
-1.1700 6.1290 2.1194
-1.3999 6.1389 2.1194
-1.6318 6.1407 2.1194
-1.8656 6.1340 2.1194
-2.1008 6.1187 2.1194
-2.3371 6.0946 2.1194
-2.5742 6.0615 2.1194
-0.9154 1.9598 0.6900
-0.9850 1.9277 0.6846
-3.2863 5.9067 2.1194
-3.5226 5.8361 2.1194
-3.7575 5.7559 2.1194
-3.9908 5.6659 2.1194
-4.2218 5.5662 2.1194
-4.4501 5.4567 2.1194
-4.6752 5.3373 2.1194
-5.1348 5.4615 2.2225
-5.3626 5.3159 2.2225
-5.5853 5.1602 2.2225
-5.8025 4.9944 2.2225
-6.0137 4.8188 2.2225
-6.2181 4.6336 2.2225
-6.4154 4.4390 2.2225
-6.6049 4.2352 2.2225
-6.7861 4.0225 2.2225
-6.9585 3.8013 2.2225
-7.1215 3.5720 2.2225
-7.2747 3.3349 2.2225
-7.4176 3.0905 2.2225
-7.5498 2.8393 2.2225
-7.6708 2.5818 2.2225
-7.7803 2.3185 2.2225
-7.8778 2.0500 2.2225
-7.9631 1.7769 2.2225
-8.0359 1.4997 2.2225
-8.0960 1.2193 2.2225
-8.1432 0.9361 2.2225
-8.1772 0.6508 2.2225
-8.1980 0.3642 2.2225
-8.2056 0.0769 2.2225
-8.1998 -0.2104 2.2225
-8.1808 -0.4970 2.2225
-8.1487 -0.7823 2.2225
-8.1034 -1.0655 2.2225
-8.0453 -1.3460 2.2225
-7.9744 -1.6232 2.2225
-7.8912 -1.8964 2.2225
-7.7958 -2.1651 2.2225
-7.6885 -2.4285 2.2225
-7.5698 -2.6863 2.2225
-7.4400 -2.9378 2.2225
-7.2995 -3.1825 2.2225
-7.1489 -3.4201 2.2225
-6.9885 -3.6500 2.2225
-6.8188 -3.8718 2.2225
-6.6405 -4.0853 2.2225
-6.4539 -4.2900 2.2225
-6.2596 -4.4857 2.2225
-6.0582 -4.6721 2.2225
-5.8502 -4.8490 2.2225
-5.6361 -5.0163 2.2225
-5.4166 -5.1737 2.2225
-5.1921 -5.3211 2.2225
-4.9631 -5.4586 2.2225
-4.7303 -5.5859 2.2225
-4.4941 -5.7032 2.2225
-4.2551 -5.8103 2.2225
-4.0137 -5.9074 2.2225
-3.7704 -5.9945 2.2225
-3.5258 -6.0716 2.2225
-3.2801 -6.1388 2.2225
-3.0340 -6.1964 2.2225
-2.7878 -6.2443 2.2225
-2.5419 -6.2828 2.2225
-2.2966 -6.3120 2.2225
-2.0525 -6.3321 2.2225
-1.8097 -6.3433 2.2225
-1.5686 -6.3458 2.2225
-1.3296 -6.3398 2.2225
-1.0930 -6.3255 2.2225
-0.8589 -6.3031 2.2225
-0.6276 -6.2728 2.2225
-0.3995 -6.2350 2.2225
-0.1747 -5.7782 2.2225
0.0320 -5.7322 2.2225
0.2354 -5.6797 2.2225
0.4355 -5.6208 2.2225
0.6319 -5.5557 2.2225
0.8246 -5.4846 2.2225
1.0133 -5.4078 2.2225
1.1981 -5.3255 2.2225
1.3787 -5.2378 2.2225
1.5551 -5.1449 2.2225
1.7272 -5.0471 2.2225
1.8948 -4.9445 2.2225
2.0578 -4.8374 2.2225
2.2163 -4.7258 2.2225
2.3701 -4.6101 2.2225
2.5193 -4.4903 2.2225
2.6636 -4.3667 2.2225
2.8031 -4.2394 2.2225
2.9377 -4.1086 2.2225
3.0674 -3.9744 2.2225
3.1922 -3.8371 2.2225
3.3120 -3.6968 2.2225
3.4268 -3.5536 2.2225
3.5366 -3.4077 2.2225
3.6413 -3.2592 2.2225
3.7410 -3.1083 2.2225
3.8356 -2.9551 2.2225
3.9251 -2.7998 2.2225
4.0095 -2.6424 2.2225
4.0888 -2.4832 2.2225
4.1630 -2.3222 2.2225
4.2320 -2.1596 2.2225
4.2959 -1.9955 2.2225
4.3547 -1.8300 2.2225
4.4084 -1.6633 2.2225
4.4569 -1.4954 2.2225
4.5003 -1.3265 2.2225
4.5385 -1.1567 2.2225
4.5716 -0.9861 2.2225
4.5995 -0.8147 2.2225
4.6223 -0.6428 2.2225
4.6399 -0.4705 2.2225
4.6523 -0.2978 2.2225
4.6596 -0.1248 2.2225
4.6617 0.0483 2.2225
4.6587 0.2215 2.2225
4.6504 0.3946 2.2225
4.6370 0.5675 2.2225
4.6185 0.7401 2.2225
4.3855 0.8707 2.1213
4.3540 1.0337 2.1194
4.3214 1.1968 2.1194
4.2839 1.3592 2.1194
4.2414 1.5208 2.1194
4.1940 1.6815 2.1194
4.1416 1.8411 2.1194
4.0842 1.9995 2.1194
4.0219 2.1567 2.1194
3.9546 2.3125 2.1194
3.8823 2.4667 2.1194
3.8051 2.6193 2.1194
3.7229 2.7702 2.1194
3.6358 2.9191 2.1194
3.5437 3.0660 2.1194
3.4466 3.2107 2.1194
3.3447 3.3530 2.1194
3.2378 3.4929 2.1194
3.1260 3.6302 2.1194
3.0093 3.7647 2.1194
2.8878 3.8963 2.1194
2.7615 4.0248 2.1194
2.6303 4.1501 2.1194
2.4944 4.2719 2.1194
2.3538 4.3901 2.1194
2.2086 4.5046 2.1194
0.8026 1.7993 0.8263
0.7377 1.8292 0.8211
0.6718 1.8567 0.8158
0.6050 1.8819 0.8105
0.5373 1.9046 0.8051
0.4688 1.9249 0.7996
0.3997 1.9427 0.7941
0.3299 1.9580 0.7885
0.7028 5.3347 2.1194
0.5152 5.4012 2.1194
0.3241 5.4617 2.1194
0.1294 5.5161 2.1194
-0.0685 5.5642 2.1194
-0.2695 5.6058 2.1194
-0.4734 5.6407 2.1194
-0.6800 5.6687 2.1194
-0.8890 5.6895 2.1194
-1.1003 5.7030 2.1194
-0.4505 1.9579 0.7268
-0.5202 1.9425 0.7213
-0.5894 1.9247 0.7159
-0.6578 1.9044 0.7105
-0.7255 1.8817 0.7052
-0.7924 1.8565 0.7000
-0.8583 1.8289 0.6949
-0.9232 1.7990 0.6898
-0.9869 1.7667 0.6848
-3.2712 5.3993 2.1194
-3.4867 5.3220 2.1194
-3.7004 5.2359 2.1194
-3.9118 5.1409 2.1194
-4.1204 5.0369 2.1194
-4.5364 5.1636 2.2225
-4.7481 5.0360 2.2225
-4.9556 4.8992 2.2225
-5.1583 4.7533 2.2225
-5.3559 4.5983 2.2225
-5.5476 4.4346 2.2225
-5.7332 4.2622 2.2225
-5.9121 4.0813 2.2225
-6.0837 3.8923 2.2225
-6.2478 3.6953 2.2225
-6.4037 3.4908 2.2225
-6.5511 3.2790 2.2225
-6.6895 3.0604 2.2225
-6.8185 2.8353 2.2225
-6.9378 2.6041 2.2225
-7.0470 2.3673 2.2225
-7.1457 2.1254 2.2225
-7.2336 1.8789 2.2225
-7.3105 1.6284 2.2225
-7.3762 1.3743 2.2225
-7.4303 1.1172 2.2225
-7.4728 0.8577 2.2225
-7.5035 0.5965 2.2225
-7.5224 0.3340 2.2225
-7.5293 0.0709 2.2225
-7.5243 -0.1923 2.2225
-7.5074 -0.4548 2.2225
-7.4786 -0.7161 2.2225
-7.4381 -0.9757 2.2225
-7.3859 -1.2328 2.2225
-7.3223 -1.4870 2.2225
-7.2475 -1.7378 2.2225
-7.1617 -1.9845 2.2225
-7.0652 -2.2266 2.2225
-6.9583 -2.4637 2.2225
-6.8414 -2.6953 2.2225
-6.7148 -2.9209 2.2225
-6.5788 -3.1401 2.2225
-6.4340 -3.3525 2.2225
-6.2806 -3.5577 2.2225
-6.1193 -3.7555 2.2225
-5.9503 -3.9455 2.2225
-5.7742 -4.1274 2.2225
-5.5915 -4.3010 2.2225
-5.4026 -4.4661 2.2225
-5.2080 -4.6225 2.2225
-5.0082 -4.7701 2.2225
-4.8036 -4.9087 2.2225
-4.5948 -5.0382 2.2225
-4.3822 -5.1587 2.2225
-4.1663 -5.2699 2.2225
-3.9476 -5.3720 2.2225
-3.7264 -5.4649 2.2225
-3.5033 -5.5486 2.2225
-3.2786 -5.6232 2.2225
-3.0528 -5.6888 2.2225
-2.8262 -5.7455 2.2225
-2.5993 -5.7933 2.2225
-2.3724 -5.8324 2.2225
-2.1459 -5.8629 2.2225
-1.9201 -5.8850 2.2225
-1.6953 -5.8988 2.2225
-1.4719 -5.9045 2.2225
-1.2501 -5.9022 2.2225
-1.0302 -5.8921 2.2225
-0.8125 -5.8745 2.2225
-0.5972 -5.8495 2.2225
-0.3845 -5.8173 2.2225
-0.1748 -5.4120 2.2225
0.0189 -5.3715 2.2225
0.2098 -5.3246 2.2225
0.3975 -5.2718 2.2225
0.5821 -5.2130 2.2225
0.7633 -5.1486 2.2225
0.9410 -5.0786 2.2225
1.1151 -5.0033 2.2225
1.2854 -4.9229 2.2225
1.4518 -4.8375 2.2225
1.6143 -4.7474 2.2225
1.7726 -4.6526 2.2225
1.9269 -4.5534 2.2225
2.0769 -4.4500 2.2225
2.2225 -4.3424 2.2225
2.3638 -4.2310 2.2225
2.5007 -4.1158 2.2225
2.6330 -3.9971 2.2225
2.7609 -3.8749 2.2225
2.8841 -3.7494 2.2225
3.0027 -3.6209 2.2225
3.1166 -3.4894 2.2225
3.2258 -3.3550 2.2225
3.3303 -3.2180 2.2225
3.4300 -3.0785 2.2225
3.5250 -2.9366 2.2225
3.6151 -2.7924 2.2225
3.7005 -2.6462 2.2225
3.7810 -2.4979 2.2225
3.8566 -2.3478 2.2225
3.9274 -2.1959 2.2225
3.9933 -2.0424 2.2225
4.0544 -1.8875 2.2225
4.1105 -1.7311 2.2225
4.1618 -1.5736 2.2225
4.2081 -1.4148 2.2225
4.2495 -1.2551 2.2225
4.2861 -1.0945 2.2225
4.3176 -0.9330 2.2225
4.3443 -0.7709 2.2225
4.3660 -0.6083 2.2225
4.3828 -0.4451 2.2225
4.3947 -0.2816 2.2225
4.4016 -0.1178 2.2225
4.4036 0.0460 2.2225
4.4006 0.2099 2.2225
4.3927 0.3738 2.2225
4.3798 0.5374 2.2225
4.3620 0.7008 2.2225
4.3392 0.8637 2.2225
4.1363 0.9844 2.1322
4.0803 1.1328 2.1194
4.0444 1.2863 2.1194
4.0037 1.4391 2.1194
3.9583 1.5909 2.1194
3.9082 1.7416 2.1194
3.8533 1.8912 2.1194
3.7938 2.0395 2.1194
3.7295 2.1865 2.1194
3.6604 2.3319 2.1194
3.5867 2.4756 2.1194
3.5083 2.6176 2.1194
3.4252 2.7577 2.1194
3.3373 2.8958 2.1194
3.2449 3.0317 2.1194
3.1478 3.1653 2.1194
3.0460 3.2965 2.1194
2.9397 3.4251 2.1194
2.8288 3.5510 2.1194
2.7133 3.6740 2.1194
2.5933 3.7940 2.1194
2.4689 3.9108 2.1194
2.3400 4.0243 2.1194
2.2067 4.1343 2.1194
0.8074 1.6547 0.8270
0.7477 1.6849 0.8222
0.6869 1.7128 0.8173
0.6252 1.7386 0.8124
0.5626 1.7622 0.8074
0.4992 1.7835 0.8023
0.4351 1.8025 0.7972
0.3704 1.8191 0.7921
0.3051 1.8335 0.7869
0.2393 1.8454 0.7816
0.1731 1.8550 0.7764
0.1066 1.8622 0.7711
0.0400 1.8670 0.7658
-0.0268 1.8694 0.7605
-0.0937 1.8694 0.7552
-0.1605 1.8670 0.7500
-0.2272 1.8621 0.7447
-0.2937 1.8549 0.7395
-0.3598 1.8453 0.7342
-0.4256 1.8333 0.7291
-0.4909 1.8190 0.7239
-0.5557 1.8023 0.7189
-0.6198 1.7833 0.7138
-0.6832 1.7620 0.7089
-0.7458 1.7384 0.7040
-0.8075 1.7126 0.6991
-0.8682 1.6846 0.6944
-0.9279 1.6544 0.6897
-0.9865 1.6221 0.6852
-3.2502 4.9430 2.1194
-3.4469 4.8606 2.1194
-3.6519 4.7838 2.1255
-4.0198 4.8986 2.2225
-4.2177 4.7867 2.2225
-4.4120 4.6662 2.2225
-4.6023 4.5374 2.2225
-4.7880 4.4003 2.2225
-4.9687 4.2551 2.2225
-5.1441 4.1018 2.2225
-5.3137 3.9408 2.2225
-5.4770 3.7721 2.2225
-5.6336 3.5961 2.2225
-5.7832 3.4130 2.2225
-5.9253 3.2230 2.2225
-6.0595 3.0266 2.2225
-6.1855 2.8240 2.2225
-6.3029 2.6156 2.2225
-6.4113 2.4017 2.2225
-6.5105 2.1829 2.2225
-6.6002 1.9595 2.2225
-6.6801 1.7320 2.2225
-6.7500 1.5008 2.2225
-6.8096 1.2665 2.2225
-6.8588 1.0296 2.2225
-6.8974 0.7905 2.2225
-6.9254 0.5498 2.2225
-6.9426 0.3080 2.2225
-6.9490 0.0657 2.2225
-6.9446 -0.1767 2.2225
-6.9293 -0.4185 2.2225
-6.9034 -0.6593 2.2225
-6.8667 -0.8985 2.2225
-6.8196 -1.1356 2.2225
-6.7620 -1.3701 2.2225
-6.6942 -1.6014 2.2225
-6.6165 -1.8292 2.2225
-6.5290 -2.0529 2.2225
-6.4320 -2.2721 2.2225
-6.3258 -2.4864 2.2225
-6.2107 -2.6953 2.2225
-6.0871 -2.8986 2.2225
-5.9553 -3.0957 2.2225
-5.8157 -3.2864 2.2225
-5.6687 -3.4704 2.2225
-5.5146 -3.6474 2.2225
-5.3539 -3.8171 2.2225
-5.1870 -3.9794 2.2225
-5.0143 -4.1339 2.2225
-4.8362 -4.2806 2.2225
-4.6532 -4.4193 2.2225
-4.4657 -4.5499 2.2225
-4.2740 -4.6722 2.2225
-4.0788 -4.7861 2.2225
-3.8803 -4.8917 2.2225
-3.6789 -4.9890 2.2225
-3.4751 -5.0778 2.2225
-3.2694 -5.1582 2.2225
-3.0619 -5.2302 2.2225
-2.8532 -5.2939 2.2225
-2.6437 -5.3494 2.2225
-2.4335 -5.3967 2.2225
-2.2232 -5.4359 2.2225
-2.0130 -5.4671 2.2225
-1.8032 -5.4905 2.2225
-1.5942 -5.5062 2.2225
-1.3863 -5.5142 2.2225
-1.1796 -5.5149 2.2225
-0.9745 -5.5082 2.2225
-0.7713 -5.4944 2.2225
-0.5701 -5.4737 2.2225
-0.3712 -5.4461 2.2225
-0.1749 -5.0838 2.2225
0.0072 -5.0478 2.2225
0.1867 -5.0059 2.2225
0.3635 -4.9582 2.2225
0.5373 -4.9048 2.2225
0.7082 -4.8461 2.2225
0.8759 -4.7820 2.2225
1.0402 -4.7129 2.2225
1.2011 -4.6388 2.2225
1.3585 -4.5600 2.2225
1.5122 -4.4765 2.2225
1.6622 -4.3887 2.2225
1.8084 -4.2965 2.2225
1.9506 -4.2002 2.2225
2.0888 -4.1000 2.2225
2.2229 -3.9960 2.2225
2.3529 -3.8883 2.2225
2.4787 -3.7772 2.2225
2.6002 -3.6627 2.2225
2.7175 -3.5450 2.2225
2.8303 -3.4243 2.2225
2.9388 -3.3007 2.2225
3.0429 -3.1744 2.2225
3.1425 -3.0454 2.2225
3.2376 -2.9139 2.2225
3.3282 -2.7802 2.2225
3.4142 -2.6442 2.2225
3.4957 -2.5061 2.2225
3.5725 -2.3660 2.2225
3.6448 -2.2241 2.2225
3.7124 -2.0806 2.2225
3.7754 -1.9354 2.2225
3.8338 -1.7888 2.2225
3.8874 -1.6408 2.2225
3.9364 -1.4915 2.2225
3.9807 -1.3412 2.2225
4.0203 -1.1898 2.2225
4.0553 -1.0376 2.2225
4.0855 -0.8846 2.2225
4.1110 -0.7309 2.2225
4.1317 -0.5766 2.2225
4.1478 -0.4219 2.2225
4.1591 -0.2668 2.2225
4.1657 -0.1115 2.2225
4.1675 0.0439 2.2225
4.1646 0.1994 2.2225
4.1570 0.3547 2.2225
4.1446 0.5099 2.2225
4.1275 0.6648 2.2225
4.1056 0.8193 2.2225
4.0790 0.9732 2.2225
3.9120 1.0887 2.1480
3.8255 1.2197 2.1194
3.8049 1.3710 2.1297
3.7431 1.5081 2.1194
3.6951 1.6508 2.1194
3.6426 1.7923 2.1194
3.5856 1.9326 2.1194
3.5241 2.0715 2.1194
3.4581 2.2089 2.1194
3.3876 2.3446 2.1194
3.3127 2.4786 2.1194
3.2333 2.6108 2.1194
3.1495 2.7409 2.1194
3.0613 2.8689 2.1194
2.9687 2.9946 2.1194
2.8717 3.1180 2.1194
2.7704 3.2388 2.1194
2.6648 3.3570 2.1194
2.5549 3.4723 2.1194
2.4408 3.5847 2.1194
2.3225 3.6940 2.1194
2.2000 3.8000 2.1194
0.8096 1.5237 0.8275
0.7545 1.5540 0.8230
0.6985 1.5824 0.8185
0.6414 1.6086 0.8140
0.5835 1.6329 0.8093
0.5247 1.6550 0.8046
0.4652 1.6750 0.7999
0.4050 1.6928 0.7951
0.3441 1.7085 0.7902
0.2828 1.7219 0.7854
0.2210 1.7331 0.7804
0.1589 1.7421 0.7755
0.0965 1.7489 0.7706
0.0339 1.7534 0.7656
-0.0289 1.7557 0.7606
-0.0917 1.7556 0.7557
-0.1544 1.7534 0.7507
-0.2170 1.7488 0.7458
-0.2794 1.7421 0.7408
-0.3416 1.7330 0.7359
-0.4034 1.7218 0.7311
-0.4647 1.7083 0.7263
-0.5255 1.6926 0.7215
-0.5857 1.6748 0.7168
-0.6453 1.6548 0.7121
-0.7040 1.6326 0.7075
-0.7620 1.6084 0.7030
-0.8190 1.5821 0.6985
-0.8751 1.5537 0.6942
-0.9301 1.5234 0.6899
-0.9840 1.4911 0.6857
-1.0367 1.4568 0.6816
-3.5691 4.6598 2.2225
-3.7549 4.5615 2.2225
-3.9377 4.4554 2.2225
-4.1169 4.3415 2.2225
-4.2923 4.2200 2.2225
-4.4633 4.0909 2.2225
-4.6297 3.9544 2.2225
-4.7910 3.8106 2.2225
-4.9468 3.6598 2.2225
-5.0968 3.5020 2.2225
-5.2406 3.3375 2.2225
-5.3778 3.1666 2.2225
-5.5080 2.9895 2.2225
-5.6310 2.8065 2.2225
-5.7464 2.6180 2.2225
-5.8539 2.4243 2.2225
-5.9531 2.2256 2.2225
-6.0439 2.0225 2.2225
-6.1259 1.8152 2.2225
-6.1990 1.6042 2.2225
-6.2628 1.3900 2.2225
-6.3174 1.1729 2.2225
-6.3624 0.9535 2.2225
-6.3977 0.7321 2.2225
-6.4233 0.5093 2.2225
-6.4391 0.2855 2.2225
-6.4450 0.0612 2.2225
-6.4411 -0.1632 2.2225
-6.4273 -0.3870 2.2225
-6.4037 -0.6100 2.2225
-6.3703 -0.8315 2.2225
-6.3273 -1.0511 2.2225
-6.2749 -1.2684 2.2225
-6.2131 -1.4829 2.2225
-6.1421 -1.6941 2.2225
-6.0623 -1.9017 2.2225
-5.9737 -2.1053 2.2225
-5.8766 -2.3044 2.2225
-5.7714 -2.4988 2.2225
-5.6583 -2.6879 2.2225
-5.5377 -2.8716 2.2225
-5.4097 -3.0495 2.2225
-5.2749 -3.2213 2.2225
-5.1336 -3.3867 2.2225
-4.9860 -3.5456 2.2225
-4.8327 -3.6977 2.2225
-4.6739 -3.8428 2.2225
-4.5100 -3.9807 2.2225
-4.3415 -4.1113 2.2225
-4.1686 -4.2345 2.2225
-3.9919 -4.3501 2.2225
-3.8116 -4.4582 2.2225
-3.6282 -4.5585 2.2225
-3.4419 -4.6511 2.2225
-3.2533 -4.7360 2.2225
-3.0626 -4.8132 2.2225
-2.8703 -4.8826 2.2225
-2.6766 -4.9443 2.2225
-2.4819 -4.9984 2.2225
-2.2865 -5.0449 2.2225
-2.0907 -5.0838 2.2225
-1.8949 -5.1154 2.2225
-1.6993 -5.1395 2.2225
-1.5043 -5.1565 2.2225
-1.3100 -5.1664 2.2225
-1.1168 -5.1693 2.2225
-0.9249 -5.1653 2.2225
-0.7345 -5.1546 2.2225
-0.5459 -5.1374 2.2225
-0.3593 -5.1137 2.2225
-0.1749 -4.7877 2.2225
-0.0034 -4.7556 2.2225
0.1659 -4.7178 2.2225
0.3327 -4.6745 2.2225
0.4968 -4.6259 2.2225
0.6583 -4.5721 2.2225
0.8168 -4.5132 2.2225
0.9723 -4.4495 2.2225
1.1247 -4.3810 2.2225
1.2738 -4.3079 2.2225
1.4195 -4.2304 2.2225
1.5618 -4.1486 2.2225
1.7005 -4.0627 2.2225
1.8356 -3.9728 2.2225
1.9669 -3.8791 2.2225
2.0944 -3.7817 2.2225
2.2181 -3.6808 2.2225
2.3378 -3.5765 2.2225
2.4536 -3.4689 2.2225
2.5653 -3.3583 2.2225
2.6729 -3.2446 2.2225
2.7763 -3.1282 2.2225
2.8756 -3.0091 2.2225
2.9706 -2.8874 2.2225
3.0614 -2.7633 2.2225
3.1479 -2.6369 2.2225
3.2301 -2.5083 2.2225
3.3079 -2.3777 2.2225
3.3814 -2.2451 2.2225
3.4505 -2.1108 2.2225
3.5152 -1.9748 2.2225
3.5754 -1.8372 2.2225
3.6313 -1.6982 2.2225
3.6826 -1.5578 2.2225
3.7295 -1.4162 2.2225
3.7719 -1.2736 2.2225
3.8099 -1.1299 2.2225
3.8433 -0.9854 2.2225
3.8722 -0.8400 2.2225
3.8966 -0.6941 2.2225
3.9165 -0.5475 2.2225
3.9318 -0.4006 2.2225
3.9426 -0.2532 2.2225
3.9489 -0.1057 2.2225
3.9506 0.0420 2.2225
3.9478 0.1897 2.2225
3.9404 0.3373 2.2225
3.9285 0.4847 2.2225
3.9121 0.6318 2.2225
3.8911 0.7785 2.2225
3.8655 0.9246 2.2225
3.8355 1.0702 2.2225
3.7116 1.1864 2.1703
3.5872 1.2959 2.1194
3.5455 1.4322 2.1194
3.4996 1.5675 2.1194
3.4493 1.7016 2.1194
3.3947 1.8345 2.1194
3.3358 1.9661 2.1194
3.2727 2.0961 2.1194
3.2053 2.2246 2.1194
3.1336 2.3513 2.1194
3.0577 2.4762 2.1194
2.9777 2.5991 2.1194
2.8934 2.7199 2.1194
2.8050 2.8386 2.1194
2.7124 2.9548 2.1194
2.6158 3.0686 2.1194
2.5151 3.1798 2.1194
2.4104 3.2882 2.1194
2.3017 3.3938 2.1194
2.1891 3.4963 2.1194
0.8094 1.4043 0.8277
0.7587 1.4347 0.8236
0.7069 1.4632 0.8195
0.6541 1.4899 0.8152
0.6004 1.5147 0.8109
0.5458 1.5375 0.8066
0.4905 1.5583 0.8021
0.4344 1.5771 0.7977
0.3778 1.5939 0.7932
0.3205 1.6086 0.7886
0.2627 1.6213 0.7840
0.2046 1.6319 0.7794
0.1461 1.6404 0.7747
0.0873 1.6467 0.7701
0.0284 1.6510 0.7654
-0.0307 1.6531 0.7607
-0.0898 1.6531 0.7560
-0.1489 1.6509 0.7514
-0.2079 1.6467 0.7467
-0.2666 1.6403 0.7421
-0.3251 1.6318 0.7375
-0.3833 1.6212 0.7329
-0.4410 1.6085 0.7284
-0.4983 1.5938 0.7239
-0.5550 1.5769 0.7194
-0.6110 1.5581 0.7150
-0.6664 1.5373 0.7107
-0.7209 1.5144 0.7064
-0.7747 1.4897 0.7022
-0.8274 1.4630 0.6981
-0.8793 1.4344 0.6941
-0.9300 1.4040 0.6902
-0.9796 1.3717 0.6863
-1.0281 1.3377 0.6825
-3.5200 4.2624 2.2225
-3.6894 4.1617 2.2225
-3.8555 4.0539 2.2225
-4.0179 3.9391 2.2225
-4.1762 3.8173 2.2225
-4.3300 3.6887 2.2225
-4.4790 3.5534 2.2225
-4.6230 3.4117 2.2225
-4.7614 3.2636 2.2225
-4.8940 3.1095 2.2225
-5.0205 2.9495 2.2225
-5.1406 2.7839 2.2225
-5.2539 2.6129 2.2225
-5.3601 2.4368 2.2225
-5.4590 2.2560 2.2225
-5.5504 2.0708 2.2225
-5.6339 1.8815 2.2225
-5.7093 1.6885 2.2225
-5.7765 1.4921 2.2225
-5.8352 1.2927 2.2225
-5.8853 1.0908 2.2225
-5.9267 0.8867 2.2225
-5.9592 0.6809 2.2225
-5.9828 0.4737 2.2225
-5.9973 0.2657 2.2225
-6.0028 0.0572 2.2225
-5.9993 -0.1513 2.2225
-5.9867 -0.3594 2.2225
-5.9651 -0.5667 2.2225
-5.9346 -0.7726 2.2225
-5.8952 -0.9769 2.2225
-5.8471 -1.1791 2.2225
-5.7904 -1.3787 2.2225
-5.7253 -1.5754 2.2225
-5.6520 -1.7688 2.2225
-5.5706 -1.9586 2.2225
-5.4814 -2.1443 2.2225
-5.3847 -2.3257 2.2225
-5.2806 -2.5024 2.2225
-5.1696 -2.6741 2.2225
-5.0518 -2.8406 2.2225
-4.9276 -3.0015 2.2225
-4.7972 -3.1566 2.2225
-4.6611 -3.3057 2.2225
-4.5195 -3.4487 2.2225
-4.3728 -3.5852 2.2225
-4.2213 -3.7152 2.2225
-4.0653 -3.8384 2.2225
-3.9053 -3.9549 2.2225
-3.7415 -4.0644 2.2225
-3.5743 -4.1669 2.2225
-3.4041 -4.2623 2.2225
-3.2312 -4.3506 2.2225
-3.0558 -4.4318 2.2225
-2.8785 -4.5058 2.2225
-2.6994 -4.5726 2.2225
-2.5189 -4.6323 2.2225
-2.3373 -4.6848 2.2225
-2.1550 -4.7303 2.2225
-1.9722 -4.7688 2.2225
-1.7891 -4.8003 2.2225
-1.6061 -4.8250 2.2225
-1.4235 -4.8429 2.2225
-1.2415 -4.8541 2.2225
-1.0603 -4.8587 2.2225
-0.8802 -4.8569 2.2225
-0.7014 -4.8488 2.2225
-0.5241 -4.8344 2.2225
-0.3486 -4.8140 2.2225
-0.1750 -4.5189 2.2225
-0.0130 -4.4901 2.2225
0.1469 -4.4559 2.2225
0.3046 -4.4165 2.2225
0.4600 -4.3720 2.2225
0.6128 -4.3225 2.2225
0.7630 -4.2682 2.2225
0.9104 -4.2092 2.2225
1.0549 -4.1456 2.2225
1.1964 -4.0777 2.2225
1.3348 -4.0055 2.2225
1.4700 -3.9291 2.2225
1.6019 -3.8488 2.2225
1.7303 -3.7646 2.2225
1.8553 -3.6768 2.2225
1.9767 -3.5853 2.2225
2.0945 -3.4905 2.2225
2.2086 -3.3924 2.2225
2.3190 -3.2911 2.2225
2.4255 -3.1868 2.2225
2.5282 -3.0796 2.2225
2.6269 -2.9697 2.2225
2.7217 -2.8571 2.2225
2.8126 -2.7421 2.2225
2.8993 -2.6247 2.2225
2.9820 -2.5050 2.2225
3.0606 -2.3832 2.2225
3.1351 -2.2594 2.2225
3.2054 -2.1338 2.2225
3.2715 -2.0063 2.2225
3.3334 -1.8773 2.2225
3.3911 -1.7467 2.2225
3.4446 -1.6146 2.2225
3.4938 -1.4813 2.2225
3.5387 -1.3468 2.2225
3.5793 -1.2112 2.2225
3.6156 -1.0746 2.2225
3.6477 -0.9372 2.2225
3.6753 -0.7989 2.2225
3.6987 -0.6601 2.2225
3.7177 -0.5207 2.2225
3.7324 -0.3809 2.2225
3.7428 -0.2407 2.2225
3.7488 -0.1003 2.2225
3.7504 0.0402 2.2225
3.7476 0.1807 2.2225
3.7406 0.3211 2.2225
3.7291 0.4614 2.2225
3.7133 0.6013 2.2225
3.6931 0.7408 2.2225
3.6686 0.8798 2.2225
3.6397 1.0182 2.2225
3.6065 1.1558 2.2225
3.5259 1.2770 2.1957
3.3696 1.3647 2.1233
3.3193 1.4907 2.1194
3.2854 1.6251 2.1287
3.2188 1.7442 2.1194
3.1624 1.8690 2.1194
3.1019 1.9923 2.1194
3.0374 2.1141 2.1194
2.9688 2.2342 2.1194
2.8962 2.3524 2.1194
2.8196 2.4687 2.1194
2.7390 2.5830 2.1194
2.6545 2.6951 2.1194
2.5661 2.8050 2.1194
2.4738 2.9124 2.1194
2.3777 3.0172 2.1194
2.2778 3.1194 2.1194
0.8530 1.2628 0.8315
0.8073 1.2949 0.8278
0.7604 1.3253 0.8240
0.7125 1.3540 0.8202
0.6637 1.3809 0.8162
0.6139 1.4061 0.8123
0.5632 1.4294 0.8082
0.5117 1.4509 0.8041
0.4595 1.4706 0.7999
0.4066 1.4884 0.7957
0.3531 1.5042 0.7914
0.2990 1.5181 0.7871
0.2446 1.5301 0.7828
0.1897 1.5400 0.7784
0.1345 1.5480 0.7740
0.0790 1.5540 0.7696
0.0234 1.5580 0.7652
-0.0324 1.5600 0.7608
-0.0882 1.5600 0.7564
-0.1439 1.5580 0.7520
-0.1996 1.5540 0.7476
-0.2550 1.5480 0.7432
-0.3102 1.5400 0.7389
-0.3651 1.5300 0.7345
-0.4196 1.5180 0.7303
-0.4736 1.5041 0.7260
-0.5271 1.4882 0.7218
-0.5800 1.4704 0.7177
-0.6322 1.4507 0.7136
-0.6837 1.4292 0.7096
-0.7344 1.4058 0.7056
-0.7842 1.3806 0.7017
-0.8331 1.3537 0.6979
-0.8810 1.3250 0.6942
-0.9278 1.2946 0.6906
-0.9735 1.2625 0.6870
-1.0181 1.2288 0.6836
-3.4676 3.8993 2.2225
-3.6221 3.7971 2.2225
-3.7731 3.6884 2.2225
-3.9201 3.5732 2.2225
-4.0629 3.4519 2.2225
-4.2012 3.3244 2.2225
-4.3347 3.1909 2.2225
-4.4631 3.0516 2.2225
-4.5859 2.9068 2.2225
-4.7031 2.7566 2.2225
-4.8142 2.6012 2.2225
-4.9190 2.4409 2.2225
-5.0173 2.2760 2.2225
-5.1088 2.1068 2.2225
-5.1932 1.9335 2.2225
-5.2704 1.7565 2.2225
-5.3401 1.5761 2.2225
-5.4021 1.3927 2.2225
-5.4564 1.2065 2.2225
-5.5027 1.0180 2.2225
-5.5409 0.8276 2.2225
-5.5709 0.6355 2.2225
-5.5928 0.4422 2.2225
-5.6062 0.2482 2.2225
-5.6114 0.0537 2.2225
-5.6082 -0.1408 2.2225
-5.5966 -0.3349 2.2225
-5.5768 -0.5283 2.2225
-5.5487 -0.7205 2.2225
-5.5124 -0.9112 2.2225
-5.4681 -1.0999 2.2225
-5.4159 -1.2864 2.2225
-5.3558 -1.4702 2.2225
-5.2882 -1.6510 2.2225
-5.2131 -1.8285 2.2225
-5.1307 -2.0023 2.2225
-5.0413 -2.1721 2.2225
-4.9452 -2.3376 2.2225
-4.8425 -2.4986 2.2225
-4.7335 -2.6548 2.2225
-4.6185 -2.8059 2.2225
-4.4978 -2.9518 2.2225
-4.3717 -3.0921 2.2225
-4.2404 -3.2267 2.2225
-4.1042 -3.3555 2.2225
-3.9636 -3.4782 2.2225
-3.8187 -3.5948 2.2225
-3.6700 -3.7050 2.2225
-3.5176 -3.8089 2.2225
-3.3620 -3.9063 2.2225
-3.2035 -3.9971 2.2225
-3.0423 -4.0814 2.2225
-2.8787 -4.1590 2.2225
-2.7132 -4.2299 2.2225
-2.5459 -4.2942 2.2225
-2.3772 -4.3518 2.2225
-2.2074 -4.4028 2.2225
-2.0366 -4.4471 2.2225
-1.8654 -4.4850 2.2225
-1.6937 -4.5163 2.2225
-1.5221 -4.5411 2.2225
-1.3506 -4.5596 2.2225
-1.1796 -4.5718 2.2225
-1.0092 -4.5779 2.2225
-0.8398 -4.5778 2.2225
-0.6714 -4.5718 2.2225
-0.5043 -4.5599 2.2225
-0.3388 -4.5422 2.2225
-0.1750 -4.2736 2.2225
-0.0218 -4.2477 2.2225
0.1296 -4.2166 2.2225
0.2790 -4.1806 2.2225
0.4262 -4.1397 2.2225
0.5712 -4.0940 2.2225
0.7137 -4.0437 2.2225
0.8536 -3.9889 2.2225
0.9909 -3.9298 2.2225
1.1254 -3.8664 2.2225
1.2570 -3.7989 2.2225
0.8056 -2.1670 1.2921
1.5112 -3.6522 2.2225
1.6335 -3.5732 2.2225
1.7526 -3.4906 2.2225
1.8684 -3.4046 2.2225
1.9807 -3.3153 2.2225
2.0896 -3.2228 2.2225
2.1949 -3.1272 2.2225
2.2967 -3.0287 2.2225
2.3947 -2.9274 2.2225
2.4891 -2.8234 2.2225
2.5798 -2.7169 2.2225
2.6666 -2.6079 2.2225
2.7496 -2.4966 2.2225
2.8287 -2.3832 2.2225
2.9039 -2.2676 2.2225
2.9752 -2.1501 2.2225
3.0426 -2.0308 2.2225
3.1059 -1.9097 2.2225
3.1652 -1.7871 2.2225
3.2205 -1.6629 2.2225
3.2717 -1.5373 2.2225
3.3189 -1.4105 2.2225
3.3620 -1.2825 2.2225
3.4009 -1.1534 2.2225
3.4357 -1.0234 2.2225
3.4664 -0.8925 2.2225
3.4930 -0.7609 2.2225
3.5154 -0.6286 2.2225
3.5336 -0.4958 2.2225
3.5477 -0.3626 2.2225
3.5576 -0.2291 2.2225
3.5633 -0.0953 2.2225
3.5648 0.0385 2.2225
3.5622 0.1724 2.2225
3.5553 0.3062 2.2225
3.5443 0.4398 2.2225
3.5291 0.5731 2.2225
3.5097 0.7059 2.2225
3.4861 0.8383 2.2225
3.4584 0.9700 2.2225
3.4265 1.1011 2.2225
3.3904 1.2312 2.2225
3.3502 1.3605 2.2225
3.1946 1.4386 2.1477
3.1062 1.5407 2.1194
3.0561 1.6606 2.1194
3.0020 1.7792 2.1194
2.9440 1.8964 2.1194
2.8822 2.0120 2.1194
2.8165 2.1259 2.1194
2.7470 2.2381 2.1194
2.6736 2.3483 2.1194
2.5965 2.4566 2.1194
2.5157 2.5628 2.1194
2.4311 2.6667 2.1194
2.3429 2.7683 2.1194
2.2511 2.8674 2.1194
0.8453 1.1623 0.8311
0.8032 1.1941 0.8277
0.7600 1.2244 0.8242
0.7157 1.2532 0.8207
0.6705 1.2803 0.8170
0.6242 1.3058 0.8133
0.5771 1.3296 0.8095
0.5292 1.3517 0.8057
0.4805 1.3720 0.8018
0.4312 1.3906 0.7978
0.3811 1.4074 0.7938
0.3305 1.4224 0.7898
0.2795 1.4355 0.7857
0.2280 1.4468 0.7816
0.1761 1.4563 0.7775
0.1239 1.4638 0.7734
0.0714 1.4695 0.7692
0.0188 1.4733 0.7650
-0.0339 1.4752 0.7609
-0.0866 1.4752 0.7567
-0.1394 1.4733 0.7525
-0.1920 1.4694 0.7484
-0.2444 1.4638 0.7442
-0.2966 1.4562 0.7401
-0.3485 1.4467 0.7360
-0.4000 1.4354 0.7320
-0.4511 1.4222 0.7280
-0.5017 1.4072 0.7240
-0.5517 1.3904 0.7201
-0.6011 1.3718 0.7162
-0.6498 1.3515 0.7124
-0.6977 1.3293 0.7087
-0.7448 1.3055 0.7050
-0.7910 1.2800 0.7014
-0.8363 1.2529 0.6979
-0.8806 1.2241 0.6945
-0.9238 1.1938 0.6911
-0.9659 1.1619 0.6879
-1.0068 1.1286 0.6847
-3.4123 3.5662 2.2225
-3.5530 3.4631 2.2225
-3.6901 3.3541 2.2225
-3.8232 3.2393 2.2225
-3.9520 3.1189 2.2225
-4.0763 2.9929 2.2225
-4.1957 2.8616 2.2225
-4.3100 2.7252 2.2225
-4.4189 2.5838 2.2225
-4.5221 2.4377 2.2225
-4.6195 2.2871 2.2225
-4.7108 2.1322 2.2225
-4.7957 1.9734 2.2225
-4.8740 1.8109 2.2225
-4.9456 1.6449 2.2225
-5.0103 1.4758 2.2225
-5.0678 1.3039 2.2225
-5.1182 1.1296 2.2225
-5.1611 0.9531 2.2225
-5.1966 0.7748 2.2225
-5.2245 0.5950 2.2225
-5.2447 0.4142 2.2225
-5.2572 0.2326 2.2225
-5.2621 0.0506 2.2225
-5.2592 -0.1314 2.2225
-5.2485 -0.3131 2.2225
-5.2302 -0.4941 2.2225
-5.2042 -0.6740 2.2225
-5.1707 -0.8525 2.2225
-5.1297 -1.0293 2.2225
-5.0813 -1.2039 2.2225
-5.0257 -1.3762 2.2225
-4.9630 -1.5457 2.2225
-4.8934 -1.7121 2.2225
-4.8171 -1.8752 2.2225
-4.7342 -2.0346 2.2225
-4.6449 -2.1902 2.2225
-4.5496 -2.3415 2.2225
-4.4484 -2.4884 2.2225
-4.3416 -2.6307 2.2225
-4.2293 -2.7681 2.2225
-4.1120 -2.9004 2.2225
-3.9898 -3.0275 2.2225
-3.8631 -3.1492 2.2225
-3.7320 -3.2653 2.2225
-3.5970 -3.3756 2.2225
-3.4582 -3.4802 2.2225
-3.3161 -3.5788 2.2225
-3.1707 -3.6715 2.2225
-3.0226 -3.7580 2.2225
-2.8719 -3.8384 2.2225
-2.7189 -3.9127 2.2225
-2.5639 -3.9807 2.2225
-2.4072 -4.0425 2.2225
-2.2490 -4.0981 2.2225
-2.0897 -4.1475 2.2225
-0.9980 -2.1675 1.1495
-1.7685 -4.2277 2.2225
-1.6072 -4.2586 2.2225
-1.4458 -4.2835 2.2225
-1.2844 -4.3023 2.2225
-1.1233 -4.3153 2.2225
-0.9628 -4.3224 2.2225
-0.8029 -4.3238 2.2225
-0.6441 -4.3195 2.2225
-0.4863 -4.3096 2.2225
-0.3299 -4.2943 2.2225
-0.1751 -4.0486 2.2225
-0.0298 -4.0252 2.2225
0.1137 -3.9969 2.2225
0.2554 -3.9638 2.2225
0.3952 -3.9261 2.2225
0.3003 -2.1887 1.2525
0.3784 -2.1726 1.2584
0.4558 -2.1537 1.2642
0.5325 -2.1318 1.2699
0.6083 -2.1072 1.2755
0.6832 -2.0799 1.2810
0.7570 -2.0498 1.2864
1.4274 -3.4707 2.2225
1.5441 -3.3964 2.2225
1.6577 -3.3186 2.2225
1.7682 -3.2375 2.2225
1.8755 -3.1532 2.2225
1.9795 -3.0658 2.2225
2.0801 -2.9755 2.2225
2.1773 -2.8823 2.2225
0.8552 -1.0493 0.8369
2.3614 -2.6878 2.2225
2.4481 -2.5868 2.2225
2.5312 -2.4835 2.2225
2.6107 -2.3778 2.2225
2.6865 -2.2701 2.2225
2.7586 -2.1603 2.2225
2.8269 -2.0486 2.2225
2.8914 -1.9351 2.2225
2.9521 -1.8200 2.2225
3.0090 -1.7032 2.2225
3.0620 -1.5850 2.2225
3.1111 -1.4654 2.2225
3.1563 -1.3446 2.2225
3.1976 -1.2227 2.2225
3.2350 -1.0997 2.2225
3.2684 -0.9757 2.2225
3.2979 -0.8510 2.2225
3.3233 -0.7255 2.2225
3.3448 -0.5993 2.2225
3.3623 -0.4727 2.2225
3.3758 -0.3457 2.2225
3.3853 -0.2183 2.2225
3.3908 -0.0907 2.2225
3.3922 0.0370 2.2225
3.3896 0.1647 2.2225
3.3830 0.2923 2.2225
3.3724 0.4197 2.2225
3.3578 0.5468 2.2225
3.3392 0.6735 2.2225
3.3165 0.7997 2.2225
3.2898 0.9253 2.2225
3.2592 1.0501 2.2225
3.2245 1.1742 2.2225
3.1859 1.2973 2.2225
3.1433 1.4194 2.2225
3.0419 1.5130 2.1831
2.9120 1.5869 2.1246
2.8531 1.6958 2.1194
2.7974 1.8073 2.1194
2.7381 1.9172 2.1194
2.6752 2.0254 2.1194
2.6085 2.1320 2.1194
2.5383 2.2367 2.1194
2.4644 2.3395 2.1194
2.3870 2.4401 2.1194
2.3061 2.5387 2.1194
2.2217 2.6349 2.1194
0.8363 1.0694 0.8306
0.7975 1.1010 0.8275
0.7576 1.1311 0.8242
0.7167 1.1599 0.8209
0.6747 1.1871 0.8176
0.6319 1.2128 0.8141
0.5881 1.2369 0.8106
0.5435 1.2595 0.8070
0.4981 1.2804 0.8034
0.4520 1.2996 0.7997
0.4052 1.3173 0.7960
0.3578 1.3332 0.7922
0.3099 1.3473 0.7883
0.2615 1.3598 0.7845
0.2127 1.3705 0.7806
0.1636 1.3794 0.7767
0.1141 1.3866 0.7728
0.0644 1.3920 0.7688
0.0146 1.3956 0.7649
-0.0353 1.3974 0.7609
-0.0853 1.3974 0.7570
-0.1352 1.3955 0.7530
-0.1850 1.3919 0.7491
-0.2347 1.3865 0.7452
-0.2841 1.3794 0.7413
-0.3333 1.3704 0.7374
-0.3821 1.3597 0.7336
-0.4305 1.3472 0.7298
-0.4784 1.3330 0.7260
-0.5257 1.3171 0.7223
-0.5725 1.2995 0.7187
-0.6186 1.2802 0.7151
-0.6640 1.2592 0.7115
-0.7086 1.2367 0.7080
-0.7524 1.2125 0.7046
-0.7953 1.1868 0.7013
-0.8372 1.1596 0.6980
-0.8782 1.1308 0.6949
-0.9181 1.1007 0.6918
-0.9568 1.0691 0.6888
-0.9945 1.0361 0.6859
-1.0309 1.0018 0.6831
-3.4822 3.1560 2.2225
-3.6066 3.0472 2.2225
-3.7270 2.9333 2.2225
-3.8430 2.8142 2.2225
-3.9544 2.6902 2.2225
-4.0611 2.5614 2.2225
-4.1626 2.4281 2.2225
-4.2589 2.2904 2.2225
-4.3497 2.1485 2.2225
-4.4347 2.0028 2.2225
-4.5138 1.8533 2.2225
-4.5868 1.7004 2.2225
-4.6534 1.5444 2.2225
-4.7136 1.3856 2.2225
-4.7672 1.2241 2.2225
-4.8140 1.0604 2.2225
-4.8540 0.8947 2.2225
-4.8870 0.7273 2.2225
-4.9130 0.5586 2.2225
-4.9319 0.3889 2.2225
-4.9436 0.2185 2.2225
-4.9481 0.0478 2.2225
-4.9454 -0.1230 2.2225
-4.9356 -0.2935 2.2225
-4.9186 -0.4633 2.2225
-4.8945 -0.6322 2.2225
-4.8634 -0.7997 2.2225
-4.8253 -0.9657 2.2225
-4.7804 -1.1298 2.2225
-4.7287 -1.2916 2.2225
-4.6704 -1.4509 2.2225
-4.6057 -1.6074 2.2225
-4.5346 -1.7608 2.2225
-4.4575 -1.9108 2.2225
-4.3744 -2.0573 2.2225
-4.2856 -2.1998 2.2225
-4.1912 -2.3384 2.2225
-4.0916 -2.4726 2.2225
-3.9870 -2.6023 2.2225
-3.8775 -2.7273 2.2225
-3.7634 -2.8475 2.2225
-3.6450 -2.9627 2.2225
-3.5226 -3.0726 2.2225
-3.3963 -3.1773 2.2225
-1.0128 -1.0160 0.6891
-0.9758 -1.0496 0.6921
-2.9973 -3.4586 2.2225
-2.8585 -3.5412 2.2225
-2.7172 -3.6180 2.2225
-2.5737 -3.6890 2.2225
-2.4282 -3.7542 2.2225
-2.2810 -3.8137 2.2225
-2.1324 -3.8673 2.2225
-1.0216 -2.0175 1.1453
-0.9491 -2.0502 1.1515
-0.8754 -2.0803 1.1578
-0.8006 -2.1076 1.1642
-0.7248 -2.1322 1.1706
-0.6482 -2.1540 1.1770
-0.5707 -2.1729 1.1834
-0.4927 -2.1889 1.1898
-0.7693 -4.0913 2.2225
-0.6191 -4.0884 2.2225
-0.4698 -4.0803 2.2225
-0.3218 -4.0670 2.2225
-0.0961 -2.1084 1.2199
-0.0206 -2.1069 1.2258
0.0549 -2.1027 1.2317
0.1301 -2.0958 1.2375
0.2051 -2.0860 1.2433
0.2796 -2.0735 1.2490
0.3536 -2.0583 1.2546
0.4270 -2.0404 1.2601
0.4996 -2.0197 1.2655
0.5715 -1.9964 1.2708
0.6424 -1.9705 1.2760
0.7123 -1.9420 1.2811
0.7811 -1.9110 1.2861
1.4612 -3.2324 2.2225
1.5697 -3.1590 2.2225
1.6752 -3.0824 2.2225
1.7777 -3.0027 2.2225
1.8771 -2.9201 2.2225
0.7347 -1.0553 0.8274
0.7720 -1.0259 0.8303
0.8082 -0.9953 0.8331
0.8434 -0.9634 0.8358
2.3256 -2.4659 2.2225
2.4053 -2.3677 2.2225
2.4814 -2.2673 2.2225
2.5540 -2.1648 2.2225
2.6231 -2.0604 2.2225
2.6886 -1.9541 2.2225
2.7505 -1.8460 2.2225
2.8087 -1.7363 2.2225
2.8633 -1.6251 2.2225
2.9141 -1.5124 2.2225
2.9613 -1.3984 2.2225
3.0047 -1.2832 2.2225
3.0443 -1.1669 2.2225
3.0802 -1.0495 2.2225
3.1123 -0.9313 2.2225
3.1406 -0.8122 2.2225
3.1650 -0.6924 2.2225
3.1856 -0.5720 2.2225
3.2024 -0.4511 2.2225
3.2154 -0.3298 2.2225
3.2244 -0.2082 2.2225
3.2297 -0.0864 2.2225
3.2310 0.0355 2.2225
3.2286 0.1575 2.2225
3.2222 0.2793 2.2225
3.2120 0.4009 2.2225
3.1979 0.5223 2.2225
3.1800 0.6432 2.2225
3.1582 0.7637 2.2225
3.1325 0.8835 2.2225
3.1031 1.0027 2.2225
3.0697 1.1210 2.2225
3.0326 1.2384 2.2225
2.9917 1.3548 2.2225
2.9470 1.4701 2.2225
2.8974 1.5835 2.2216
2.7647 1.6482 2.1588
2.6609 1.7242 2.1194
2.6040 1.8289 2.1194
2.5436 1.9319 2.1194
2.4797 2.0333 2.1194
2.4123 2.1328 2.1194
2.3415 2.2304 2.1194
2.2674 2.3261 2.1194
2.1899 2.4196 2.1194
0.8260 0.9833 0.8300
0.7902 1.0146 0.8271
0.7535 1.0445 0.8241
0.7156 1.0732 0.8211
0.6768 1.1004 0.8179
0.6370 1.1262 0.8147
0.5963 1.1506 0.8114
0.5548 1.1735 0.8081
0.5125 1.1949 0.8047
0.4694 1.2147 0.8013
0.4257 1.2330 0.7978
0.3813 1.2497 0.7942
0.3364 1.2648 0.7906
0.2909 1.2782 0.7870
0.2450 1.2901 0.7833
0.1987 1.3002 0.7797
0.1521 1.3087 0.7760
0.1052 1.3155 0.7722
0.0581 1.3206 0.7685
0.0108 1.3240 0.7647
-0.0366 1.3257 0.7610
-0.0840 1.3257 0.7572
-0.1313 1.3240 0.7535
-0.1786 1.3205 0.7498
-0.2257 1.3154 0.7461
-0.2726 1.3086 0.7424
-0.3193 1.3001 0.7387
-0.3656 1.2899 0.7351
-0.4115 1.2781 0.7315
-0.4569 1.2646 0.7279
-0.5019 1.2495 0.7244
-0.5462 1.2328 0.7209
-0.5900 1.2145 0.7175
-0.6330 1.1947 0.7141
