ply
format ascii 1.0
element vertex 2168
property float32 x
property float32 y
property float32 z
end_header
13.5318 2.1126 2.2223
5.9351 1.1461 0.9777
5.9353 1.3687 0.9821
6.0330 1.6212 1.0041
13.2558 4.0772 2.2223
13.1292 4.5597 2.2202
13.0026 5.0453 2.2212
12.8407 5.5201 2.2193
12.6542 5.9863 2.2161
5.9657 3.0887 1.0604
5.9369 3.3490 1.0728
11.6804 7.1526 2.1496
11.8353 7.8443 2.2223
11.5778 8.2859 2.2223
6.0533 4.6691 1.1901
6.0638 5.0340 1.2237
5.9386 5.3008 1.2329
10.3798 9.9560 2.2223
10.0400 10.3459 2.2223
9.6847 10.7233 2.2223
5.9608 7.0955 1.4222
5.9643 7.6396 1.4843
5.9410 8.1993 1.5475
5.9415 8.8510 1.6262
5.9422 9.5763 1.7161
5.9428 10.3908 1.8196
5.9436 11.3143 1.9397
5.9445 12.3734 2.0803
5.6604 12.9513 2.1391
5.1995 13.1625 2.1391
4.7301 13.3558 2.1391
2.5212 8.0210 1.2681
3.7692 13.6871 2.1391
3.2792 13.8245 2.1392
2.7839 13.9427 2.1392
2.2840 14.0414 2.1392
1.8662 14.8008 2.2423
1.3353 14.8628 2.2423
0.8022 14.9039 2.2423
0.2680 14.9240 2.2423
-0.2667 14.9231 2.2423
-0.8009 14.9013 2.2423
-1.3337 14.8585 2.2423
-1.8642 14.7948 2.2423
-2.3916 14.7104 2.2423
-2.9150 14.6054 2.2423
-3.4335 14.4801 2.2423
-3.9464 14.3347 2.2423
-4.4527 14.1695 2.2423
-4.9517 13.9849 2.2423
-5.4426 13.7811 2.2423
-5.9246 13.5587 2.2423
-6.1025 12.7047 2.1390
-6.5433 12.4581 2.1390
-6.9736 12.1950 2.1390
-7.3927 11.9159 2.1390
-7.8001 11.6213 2.1390
-8.1951 11.3118 2.1390
-8.5772 10.9879 2.1390
-6.6795 7.9521 1.5971
-9.3007 10.2995 2.1390
-9.6412 9.9362 2.1390
-9.9669 9.5611 2.1390
-10.3410 9.2315 2.1523
-10.6378 8.8322 2.1523
-10.9186 8.4229 2.1523
-11.1832 8.0044 2.1523
-10.0584 6.6673 1.8938
-11.6625 7.1424 2.1523
-11.8769 6.7004 2.1523
-12.0741 6.2519 2.1523
-12.2540 5.7976 2.1523
-12.4166 5.3384 2.1523
-12.5617 4.8748 2.1523
-12.6893 4.4075 2.1523
-12.7994 3.9373 2.1523
-12.8921 3.4647 2.1523
-12.9672 2.9906 2.1523
-13.0249 2.5154 2.1523
-13.0652 2.0400 2.1523
-13.0883 1.5649 2.1523
-13.0943 1.0907 2.1523
-13.0834 0.6181 2.1523
-13.0556 0.1477 2.1523
-13.0113 -0.3200 2.1523
-12.9506 -0.7844 2.1523
-12.8737 -1.2450 2.1523
-12.7809 -1.7011 2.1523
-12.6725 -2.1523 2.1523
-12.5486 -2.5980 2.1523
-12.4097 -3.0378 2.1523
-12.2559 -3.4711 2.1523
-12.0877 -3.8976 2.1523
-11.9054 -4.3168 2.1523
-11.7092 -4.7282 2.1523
-11.4995 -5.1314 2.1523
-11.2767 -5.5261 2.1523
-11.0411 -5.9118 2.1523
-10.7930 -6.2882 2.1523
-10.5330 -6.6550 2.1523
-10.2613 -7.0117 2.1523
-9.9169 -7.3128 2.1390
-9.6249 -7.6465 2.1390
-9.3224 -7.9693 2.1390
-9.0099 -8.2810 2.1390
-6.7238 -6.6413 1.6555
-8.3565 -8.8699 2.1390
-8.0163 -9.1466 2.1390
-7.6678 -9.4113 2.1390
-7.3112 -9.6636 2.1390
-6.9471 -9.9034 2.1390
-6.8931 -10.6194 2.2423
-6.4968 -10.8440 2.2423
-6.0938 -11.0549 2.2423
-5.6846 -11.2519 2.2423
-5.2696 -11.4350 2.2423
-4.8493 -11.6040 2.2423
-4.4241 -11.7588 2.2423
-3.9944 -11.8992 2.2423
-3.5607 -12.0251 2.2423
-3.1235 -12.1366 2.2423
-2.6831 -12.2334 2.2423
-2.2400 -12.3155 2.2423
-1.7946 -12.3829 2.2423
-1.3475 -12.4355 2.2423
-0.8989 -12.4733 2.2423
-0.4494 -12.4962 2.2423
0.0005 -11.0641 2.2423
0.3988 -11.0579 2.2423
0.7967 -11.0384 2.2423
1.1939 -11.0057 2.2423
1.5898 -10.9597 2.2423
1.9842 -10.9005 2.2423
2.2673 -10.3302 2.1392
2.6394 -10.2486 2.1392
3.0088 -10.1545 2.1392
3.3751 -10.0480 2.1392
3.7380 -9.9292 2.1392
4.0970 -9.7981 2.1392
4.4518 -9.6550 2.1392
4.8021 -9.4998 2.1392
5.1473 -9.3327 2.1392
5.4872 -9.1538 2.1392
5.8213 -8.9634 2.1392
5.9271 -8.4447 2.0619
5.9276 -7.8305 1.9596
5.9281 -7.2719 1.8689
5.9285 -6.7606 1.7880
5.9289 -6.2895 1.7156
5.9292 -5.8531 1.6506
5.9296 -5.4466 1.5919
5.9299 -5.0661 1.5390
5.9302 -4.7083 1.4910
5.9792 -4.4062 1.4593
6.1468 -4.1973 1.4592
9.6069 -6.0655 2.2223
9.8416 -5.7297 2.2223
10.0652 -5.3851 2.2223
10.2772 -5.0322 2.2223
5.9319 -2.6447 1.2582
6.0138 -2.4261 1.2531
10.8409 -3.9267 2.2223
6.0498 -1.9485 1.2218
6.0371 -1.7077 1.2029
6.0474 -1.4782 1.1904
6.0562 -1.2517 1.1793
6.0481 -1.0251 1.1666
5.9335 -0.7877 1.1352
5.9337 -0.5718 1.1275
6.0330 -0.3634 1.1399
11.8122 -0.2867 2.2223
11.8481 0.1378 2.2223
6.0465 0.2876 1.1321
11.8741 0.9928 2.2223
11.8641 1.4223 2.2223
11.8385 1.8522 2.2223
5.9351 1.1481 1.1180
5.9353 1.3707 1.1235
6.0307 1.6226 1.1486
11.5792 3.5655 2.2223
11.4750 3.9892 2.2223
6.0537 2.3511 1.1848
6.0461 2.6013 1.1976
6.0548 2.8665 1.2157
5.9641 3.0900 1.2159
5.9369 3.3512 1.2309
10.5209 6.4465 2.2223
10.3081 6.8361 2.2223
10.0804 7.2183 2.2223
9.8381 7.5925 2.2223
6.1066 5.0721 1.4164
5.9386 5.3034 1.4175
5.9757 5.7344 1.4713
5.9393 6.1230 1.5123
5.9396 6.5795 1.5683
5.9401 7.0738 1.6312
5.9405 7.6122 1.7021
5.9410 8.2025 1.7822
5.9415 8.8544 1.8732
5.9422 9.5799 1.9773
5.9428 10.3946 2.0970
5.6867 10.8291 2.1392
5.3021 11.0401 2.1392
4.9092 11.2364 2.1392
4.5087 11.4176 2.1392
4.1009 11.5829 2.1391
2.5186 8.0152 1.4613
3.2670 11.8672 2.1392
2.8420 11.9850 2.1392
2.4125 12.0863 2.1392
2.0235 12.4435 2.1871
1.6170 12.8284 2.2423
1.1570 12.8816 2.2423
0.6951 12.9168 2.2423
0.2322 12.9342 2.2423
-0.2310 12.9335 2.2423
-0.6938 12.9149 2.2423
-1.1555 12.8783 2.2423
-1.6152 12.8238 2.2423
-2.0724 12.7516 2.2423
-2.5262 12.6618 2.2423
-2.9759 12.5545 2.2423
-3.4208 12.4300 2.2423
-3.8602 12.2884 2.2423
-4.2934 12.1302 2.2423
-4.7199 11.9554 2.2423
-5.1388 11.7646 2.2423
-5.5496 11.5580 2.2423
-5.9517 11.3361 2.2423
-6.0523 10.5881 2.1390
-6.4176 10.3482 2.1390
-6.7729 10.0950 2.1390
-7.1177 9.8287 2.1390
-7.4516 9.5500 2.1390
-6.6681 7.9420 1.8347
-8.0848 8.9570 2.1390
-8.3832 8.6438 2.1390
-8.6691 8.3202 2.1390
-8.9420 7.9866 2.1390
-9.2017 7.6438 2.1390
-9.4477 7.2922 2.1390
-9.6800 6.9324 2.1390
-9.8981 6.5650 2.1390
-10.1645 6.2290 2.1523
-10.3551 5.8458 2.1523
-10.5309 5.4567 2.1523
-10.6918 5.0624 2.1523
-10.8377 4.6634 2.1523
-10.9685 4.2604 2.1523
-11.0842 3.8538 2.1523
-11.1846 3.4444 2.1523
-11.2699 3.0326 2.1523
-11.3399 2.6191 2.1523
-11.3947 2.2044 2.1523
-11.4344 1.7892 2.1523
-11.4591 1.3739 2.1523
-11.4688 0.9591 2.1523
-11.4636 0.5454 2.1523
-11.4436 0.1332 2.1523
-11.4091 -0.2769 2.1523
-11.3602 -0.6844 2.1523
-11.2969 -1.0888 2.1523
-11.2197 -1.4896 2.1523
-11.1285 -1.8864 2.1523
-11.0238 -2.2786 2.1523
-10.9056 -2.6659 2.1523
-10.7743 -3.0479 2.1523
-10.6300 -3.4239 2.1523
-10.4732 -3.7939 2.1523
-10.3041 -4.1572 2.1523
-10.1228 -4.5135 2.1523
-9.8687 -4.8326 2.1390
-9.6656 -5.1718 2.1390
-9.4513 -5.5030 2.1390
-9.2263 -5.8258 2.1390
-8.9909 -6.1401 2.1390
-8.7454 -6.4454 2.1390
-8.4902 -6.7415 2.1390
-8.2255 -7.0281 2.1390
-7.9518 -7.3050 2.1390
-6.7145 -6.6291 1.8727
-7.3786 -7.8285 2.1390
-7.0798 -8.0746 2.1390
-6.7734 -8.3101 2.1390
-6.4950 -8.5813 2.1507
-6.4355 -9.1706 2.2423
-6.0927 -9.3827 2.2423
-5.7433 -9.5828 2.2423
-5.3879 -9.7708 2.2423
-5.0269 -9.9465 2.2423
-4.6606 -10.1098 2.2423
-4.2894 -10.2606 2.2423
-3.9137 -10.3987 2.2423
-3.5340 -10.5240 2.2423
-3.1506 -10.6364 2.2423
-2.7639 -10.7359 2.2423
-2.3743 -10.8224 2.2423
-1.9823 -10.8957 2.2423
-1.5883 -10.9558 2.2423
-1.1925 -11.0028 2.2423
-0.7956 -11.0365 2.2423
-0.3977 -11.0569 2.2423
0.0005 -9.9119 2.2423
0.3575 -9.9063 2.2423
0.7140 -9.8887 2.2423
1.0699 -9.8591 2.2423
1.4247 -9.8175 2.2423
1.7780 -9.7639 2.2423
2.0316 -9.2526 2.1392
2.3648 -9.1789 2.1392
2.6955 -9.0939 2.1392
3.0234 -8.9977 2.1392
3.3482 -8.8905 2.1392
3.6694 -8.7722 2.1392
3.9868 -8.6430 2.1392
4.2999 -8.5030 2.1392
4.6084 -8.3524 2.1392
4.9121 -8.1911 2.1392
5.2104 -8.0194 2.1392
5.5032 -7.8375 2.1392
5.7900 -7.6454 2.1392
5.9281 -7.2688 2.0890
5.9285 -6.7575 1.9990
5.9289 -6.2866 1.9184
5.9293 -5.8503 1.8460
5.9296 -5.4439 1.7808
5.9299 -5.0635 1.7219
5.9302 -4.7057 1.6686
5.9305 -4.3678 1.6202
5.9308 -4.0474 1.5763
5.9310 -3.7423 1.5364
5.9375 -3.4544 1.5018
5.9641 -3.1887 1.4754
5.9755 -2.9236 1.4481
5.9319 -2.6425 1.4104
6.0192 -2.4261 1.4063
9.6656 -3.4976 2.2223
9.8080 -3.1555 2.2223
6.0354 -1.7051 1.3495
10.0572 -2.4549 2.2223
10.1636 -2.0972 2.2223
6.0489 -1.0232 1.3105
5.9335 -0.7857 1.2754
5.9337 -0.5699 1.2671
6.0338 -0.3615 1.2816
10.5044 -0.2515 2.2223
10.5331 0.1260 2.2223
6.0435 0.2895 1.2732
10.5500 0.8856 2.2223
10.5378 1.2668 2.2223
6.0664 0.9511 1.2825
5.9351 1.1501 1.2595
5.9353 1.3727 1.2660
6.0298 1.6244 1.2946
10.2693 3.1656 2.2223
10.1739 3.5404 2.2223
10.0645 3.9123 2.2223
9.9413 4.2807 2.2223
9.8043 4.6452 2.2223
5.9624 3.0914 1.3726
5.9369 3.3534 1.3903
6.1143 3.7488 1.4592
5.9890 3.9741 1.4592
5.9604 4.2704 1.4854
5.9380 4.5851 1.5167
5.9383 4.9348 1.5578
5.9386 5.3060 1.6036
5.9389 5.7018 1.6546
5.9393 6.1258 1.7117
5.9397 6.5824 1.7755
5.9401 7.0768 1.8471
5.9405 7.6153 1.9277
5.9410 8.2058 2.0188
5.9416 8.8578 2.1224
5.6731 9.1495 2.1392
5.3489 9.3592 2.1392
5.0166 9.5565 2.1392
4.6766 9.7412 2.1392
4.3295 9.9130 2.1392
3.9758 10.0716 2.1392
3.6159 10.2166 2.1392
2.4949 7.9425 1.6420
2.8801 10.4649 2.1392
2.5052 10.5679 2.1392
2.1264 10.6564 2.1392
1.8284 11.2474 2.2423
1.4251 11.3095 2.2423
1.0197 11.3559 2.2423
0.6127 11.3868 2.2423
0.2047 11.4020 2.2423
-0.2035 11.4015 2.2423
-0.6114 11.3853 2.2423
-1.0183 11.3534 2.2423
-1.4235 11.3059 2.2423
-1.8265 11.2429 2.2423
-2.2266 11.1645 2.2423
-2.6232 11.0708 2.2423
-3.0157 10.9620 2.2423
-3.4034 10.8383 2.2423
-3.7858 10.7000 2.2423
-4.1624 10.5473 2.2423
-4.5325 10.3804 2.2423
-4.8955 10.1997 2.2423
-5.2511 10.0055 2.2423
-5.5986 9.7981 2.2423
-5.9375 9.5780 2.2423
-6.0263 8.9859 2.1560
-6.2845 8.6817 2.1390
-6.5806 8.4374 2.1390
-6.6567 7.9318 2.0735
-7.1430 7.9172 2.1390
-7.4084 7.6422 2.1390
-7.6628 7.3580 2.1390
-7.9060 7.0649 2.1390
-8.1376 6.7635 2.1390
-8.3574 6.4542 2.1390
-8.5651 6.1375 2.1390
-8.7605 5.8140 2.1390
-8.9434 5.4842 2.1390
-9.1137 5.1484 2.1390
-9.2710 4.8074 2.1390
-9.4154 4.4615 2.1390
-9.5466 4.1114 2.1390
-9.6647 3.7574 2.1390
-9.7695 3.4002 2.1390
-9.8610 3.0402 2.1390
-9.9391 2.6780 2.1390
-10.0039 2.3140 2.1390
-10.1177 1.9608 2.1523
-10.1560 1.5926 2.1523
-10.1810 1.2241 2.1523
-10.1926 0.8558 2.1523
-10.1911 0.4882 2.1523
-10.1764 0.1218 2.1523
-10.1488 -0.2429 2.1523
-10.1082 -0.6056 2.1523
-9.9930 -0.9597 2.1390
-9.9275 -1.3147 2.1390
-9.8497 -1.6663 2.1390
-9.7598 -2.0140 2.1390
-9.6579 -2.3576 2.1390
-9.5442 -2.6966 2.1390
-9.4191 -3.0306 2.1390
-9.2826 -3.3593 2.1390
-9.1351 -3.6823 2.1390
-8.9767 -3.9993 2.1390
-8.8078 -4.3098 2.1390
-8.6286 -4.6137 2.1390
-8.4394 -4.9106 2.1390
-8.2404 -5.2001 2.1390
-8.0320 -5.4820 2.1390
-7.8144 -5.7561 2.1390
-7.5880 -6.0219 2.1390
-7.3530 -6.2794 2.1390
-7.1097 -6.5282 2.1390
-6.7052 -6.6168 2.0912
-6.5997 -6.9989 2.1390
-6.3336 -7.2204 2.1390
-6.0760 -7.4514 2.1445
-6.0599 -8.0031 2.2423
-5.7600 -8.2047 2.2423
-5.4539 -8.3958 2.2423
-5.1419 -8.5761 2.2423
-4.8244 -8.7455 2.2423
-4.5016 -8.9040 2.2423
-4.1740 -9.0512 2.2423
-3.8420 -9.1872 2.2423
-3.5058 -9.3117 2.2423
-3.1659 -9.4248 2.2423
-2.8226 -9.5262 2.2423
-2.4763 -9.6159 2.2423
-2.1274 -9.6939 2.2423
-1.7763 -9.7601 2.2423
-1.4232 -9.8144 2.2423
-1.0686 -9.8568 2.2423
-0.7129 -9.8872 2.2423
-0.3564 -9.9055 2.2423
0.0005 -8.9685 2.2423
0.3236 -8.9633 2.2423
0.6463 -8.9472 2.2423
0.9684 -8.9202 2.2423
1.2895 -8.8823 2.2423
1.6092 -8.8335 2.2423
1.9272 -8.7739 2.2423
2.1400 -8.3033 2.1392
2.4391 -8.2259 2.1392
2.7357 -8.1384 2.1392
3.0293 -8.0407 2.1392
3.3196 -7.9330 2.1392
3.6064 -7.8155 2.1392
3.8893 -7.6881 2.1392
4.1679 -7.5510 2.1392
4.4420 -7.4043 2.1392
4.7113 -7.2482 2.1392
4.9754 -7.0828 2.1392
5.2340 -6.9082 2.1392
5.4868 -6.7247 2.1392
5.7335 -6.5323 2.1392
5.9289 -6.2837 2.1231
5.9293 -5.8474 2.0433
5.9296 -5.4411 1.9715
5.9299 -5.0608 1.9066
5.9302 -4.7031 1.8479
5.9305 -4.3653 1.7946
5.9308 -4.0450 1.7463
5.9310 -3.7399 1.7025
5.9313 -3.4485 1.6627
5.9315 -3.1690 1.6265
5.9317 -2.9000 1.5938
5.9319 -2.6403 1.5641
5.9321 -2.3888 1.5373
5.9324 -2.1446 1.5132
5.9457 -1.9108 1.4949
5.9613 -1.6820 1.4795
5.9752 -1.4564 1.4658
6.0098 -1.2380 1.4592
6.0497 -1.0213 1.4558
5.9335 -0.7837 1.4169
5.9337 -0.5679 1.4080
6.0346 -0.3595 1.4247
9.4483 -0.2230 2.2223
9.4719 0.1165 2.2223
6.0404 0.2913 1.4155
9.4824 0.7992 2.2223
9.4692 1.1415 2.2223
6.0637 0.9528 1.4269
5.9351 1.1521 1.4023
5.9353 1.3747 1.4099
6.0307 1.6268 1.4423
6.0518 1.8677 1.4592
5.9941 2.0880 1.4592
5.9737 2.3243 1.4704
5.9590 2.5682 1.4853
5.9424 2.8176 1.5022
5.9367 3.0802 1.5245
5.9370 3.3557 1.5513
5.9372 3.6425 1.5813
5.9374 3.9423 1.6148
5.9377 4.2566 1.6521
5.9380 4.5876 1.6937
5.9383 4.9373 1.7400
5.9386 5.3086 1.7915
5.9389 5.7045 1.8489
5.9393 6.1286 1.9129
5.9397 6.5853 1.9846
5.9401 7.0798 2.0650
5.8956 7.5609 2.1392
5.6290 7.7780 2.1392
5.3541 7.9852 2.1392
5.0713 8.1821 2.1392
4.7809 8.3684 2.1392
4.4833 8.5437 2.1392
4.1790 8.7077 2.1392
3.8684 8.8603 2.1392
3.5520 9.0010 2.1392
3.2302 9.1297 2.1392
2.4915 7.9343 1.8357
2.5724 9.3501 2.1392
2.2374 9.4415 2.1392
1.9906 9.9788 2.2423
1.6329 10.0475 2.2423
1.2727 10.1026 2.2423
0.9106 10.1439 2.2423
0.5471 10.1713 2.2423
0.1829 10.1848 2.2423
-0.1817 10.1844 2.2423
-0.5459 10.1701 2.2423
-0.9092 10.1418 2.2423
-1.2712 10.0998 2.2423
-1.6311 10.0440 2.2423
-1.9885 9.9744 2.2423
-2.3429 9.8914 2.2423
-2.6936 9.7949 2.2423
-3.0402 9.6853 2.2423
-3.3821 9.5626 2.2423
-3.7189 9.4271 2.2423
-4.0500 9.2790 2.2423
-4.3750 9.1186 2.2423
-4.6933 8.9462 2.2423
-5.0046 8.7620 2.2423
-5.3083 8.5664 2.2423
-5.6041 8.3598 2.2423
-5.8915 8.1423 2.2423
-6.0194 7.7211 2.1875
-6.1432 7.3233 2.1390
-6.3913 7.0873 2.1390
-6.6300 6.8425 2.1390
-6.8590 6.5894 2.1390
-7.0781 6.3283 2.1390
-7.2870 6.0596 2.1390
-7.4853 5.7839 2.1390
-7.6730 5.5014 2.1390
-7.8497 5.2128 2.1390
-8.0154 4.9183 2.1390
-8.1698 4.6184 2.1390
-8.3127 4.3136 2.1390
-8.4441 4.0045 2.1390
-8.5639 3.6913 2.1390
-8.6718 3.3745 2.1390
-8.7680 3.0547 2.1390
-8.8522 2.7323 2.1390
-8.9245 2.4077 2.1390
-8.9849 2.0814 2.1390
-9.0333 1.7538 2.1390
-9.0697 1.4253 2.1390
-9.0942 1.0965 2.1390
-9.1069 0.7677 2.1390
-9.1077 0.4394 2.1390
-9.0968 0.1120 2.1390
-9.0742 -0.2142 2.1390
-9.0401 -0.5386 2.1390
-8.9946 -0.8608 2.1390
-8.9378 -1.1806 2.1390
-8.8698 -1.4975 2.1390
-8.7909 -1.8111 2.1390
-8.7011 -2.1210 2.1390
-8.6006 -2.4270 2.1390
-8.4897 -2.7286 2.1390
-8.3685 -3.0255 2.1390
-8.2373 -3.3175 2.1390
-8.0962 -3.6040 2.1390
-7.9455 -3.8849 2.1390
-7.7854 -4.1599 2.1390
-7.6162 -4.4286 2.1390
-7.4380 -4.6908 2.1390
-7.2513 -4.9462 2.1390
-7.0561 -5.1946 2.1390
-6.8528 -5.4356 2.1390
-6.6417 -5.6691 2.1390
-6.4230 -5.8948 2.1390
-6.1971 -6.1125 2.1390
-6.0381 -6.4004 2.1656
-6.0008 -6.8380 2.2423
-5.7429 -7.0398 2.2423
-5.4785 -7.2324 2.2423
-5.2081 -7.4156 2.2423
-4.9319 -7.5892 2.2423
-4.6503 -7.7532 2.2423
-4.3635 -7.9072 2.2423
-4.0720 -8.0513 2.2423
-3.7760 -8.1852 2.2423
-3.4759 -8.3090 2.2423
-3.1720 -8.4223 2.2423
-2.8647 -8.5252 2.2423
-2.5542 -8.6175 2.2423
-2.2410 -8.6992 2.2423
-1.9253 -8.7701 2.2423
-1.6076 -8.8304 2.2423
-1.2881 -8.8798 2.2423
-0.9672 -8.9183 2.2423
-0.6452 -8.9460 2.2423
-0.3225 -8.9627 2.2423
0.0005 -8.1810 2.2423
0.2953 -8.1762 2.2423
0.5898 -8.1614 2.2423
0.8837 -8.1366 2.2423
1.1766 -8.1018 2.2423
1.4683 -8.0570 2.2423
1.7584 -8.0023 2.2423
2.0034 -7.7703 2.1950
2.2253 -7.5018 2.1392
2.4956 -7.4215 2.1392
2.7633 -7.3319 2.1392
3.0279 -7.2332 2.1392
3.2893 -7.1254 2.1392
3.5470 -7.0086 2.1392
3.8008 -6.8830 2.1392
4.0503 -6.7487 2.1392
4.2954 -6.6057 2.1392
4.5357 -6.4542 2.1392
4.7709 -6.2943 2.1392
5.0008 -6.1263 2.1392
5.2250 -5.9503 2.1392
5.4434 -5.7663 2.1392
5.6555 -5.5747 2.1392
5.8612 -5.3756 2.1392
5.9299 -5.0581 2.0932
5.9302 -4.7005 2.0290
5.9305 -4.3628 1.9709
5.9308 -4.0425 1.9182
5.9310 -3.7375 1.8703
5.9313 -3.4461 1.8269
5.9315 -3.1666 1.7875
5.9317 -2.8977 1.7517
5.9319 -2.6381 1.7194
5.9321 -2.3866 1.6903
5.9324 -2.1424 1.6641
5.9326 -1.9044 1.6407
5.9327 -1.6719 1.6198
5.9329 -1.4440 1.6014
5.9331 -1.2202 1.5854
5.9333 -0.9996 1.5716
5.9335 -0.7817 1.5600
5.9337 -0.5658 1.5505
5.9338 -0.3515 1.5430
5.9340 -0.1381 1.5375
5.9342 0.0750 1.5341
5.9344 0.2882 1.5326
5.9346 0.5022 1.5331
5.9347 0.7175 1.5356
5.9349 0.9346 1.5401
5.9351 1.1541 1.5467
5.9353 1.3768 1.5554
5.9355 1.6031 1.5663
5.9357 1.8339 1.5794
5.9359 2.0699 1.5950
5.9361 2.3118 1.6131
5.9363 2.5605 1.6338
5.9365 2.8171 1.6574
5.9367 3.0825 1.6841
5.9370 3.3580 1.7140
5.9372 3.6449 1.7474
5.9374 3.9446 1.7847
5.9377 4.2591 1.8263
5.9380 4.5901 1.8726
5.9383 4.9399 1.9241
5.9386 5.3113 1.9813
5.9389 5.7072 2.0452
5.9393 6.1314 2.1163
5.7861 6.4179 2.1392
5.5605 6.6302 2.1392
5.3267 6.8342 2.1392
5.0852 7.0295 2.1392
4.8363 7.2158 2.1392
4.5803 7.3927 2.1392
4.3175 7.5601 2.1392
4.0483 7.7177 2.1392
3.7732 7.8651 2.1392
3.4924 8.0020 2.1392
3.2065 8.1284 2.1392
2.9158 8.2440 2.1392
2.4881 7.9260 2.0309
2.3218 8.4419 2.1392
2.0354 8.5915 2.1562
1.7965 9.0086 2.2423
1.4736 9.0703 2.2423
1.1485 9.1197 2.2423
0.8218 9.1568 2.2423
0.4938 9.1814 2.2423
0.1651 9.1936 2.2423
-0.1639 9.1932 2.2423
-0.4926 9.1804 2.2423
-0.8205 9.1551 2.2423
-1.1471 9.1174 2.2423
-1.4720 9.0674 2.2423
-1.7946 9.0050 2.2423
-2.1145 8.9305 2.2423
-2.4312 8.8440 2.2423
-2.7442 8.7456 2.2423
-3.0531 8.6355 2.2423
-3.3574 8.5139 2.2423
-3.6566 8.3809 2.2423
-3.9504 8.2369 2.2423
-4.2383 8.0821 2.2423
-4.5199 7.9166 2.2423
-4.7948 7.7409 2.2423
-5.0626 7.5551 2.2423
-5.3229 7.3596 2.2423
-5.5754 7.1548 2.2423
-5.8198 6.9409 2.2423
-6.0198 6.6785 2.2290
-6.0297 6.2260 2.1519
-6.2016 5.9607 2.1390
-6.4007 5.7256 2.1390
-6.5906 5.4835 2.1390
-6.7712 5.2350 2.1390
-6.9422 4.9804 2.1390
-7.1034 4.7200 2.1390
-7.1968 4.4188 2.1220
-7.3368 4.1504 2.1220
-7.4665 3.8774 2.1220
-7.6469 3.6293 2.1390
-7.7568 3.3463 2.1390
-7.8562 3.0600 2.1390
-7.9448 2.7708 2.1390
-8.0227 2.4791 2.1390
-8.0899 2.1854 2.1390
-8.1462 1.8899 2.1390
-8.1917 1.5932 2.1390
-8.2264 1.2956 2.1390
-8.2503 0.9976 2.1390
-8.2634 0.6994 2.1390
-8.2659 0.4016 2.1390
-8.2576 0.1044 2.1390
-8.2388 -0.1917 2.1390
-8.2094 -0.4863 2.1390
-8.1697 -0.7791 2.1390
-8.1197 -1.0698 2.1390
-8.0595 -1.3579 2.1390
-7.9893 -1.6432 2.1390
-7.9092 -1.9253 2.1390
-7.8193 -2.2038 2.1390
-7.7199 -2.4785 2.1390
-7.6111 -2.7490 2.1390
-7.4930 -3.0150 2.1390
-7.3660 -3.2763 2.1390
-7.2301 -3.5324 2.1390
-7.0856 -3.7833 2.1390
-6.9327 -4.0285 2.1390
-6.7716 -4.2679 2.1390
-6.6026 -4.5011 2.1390
-6.4259 -4.7279 2.1390
-6.2417 -4.9482 2.1390
-6.0502 -5.1616 2.1390
-6.0242 -5.5261 2.2021
-5.9193 -5.8357 2.2423
-5.6975 -6.0366 2.2423
-5.4692 -6.2295 2.2423
-5.2347 -6.4141 2.2423
-4.9943 -6.5904 2.2423
-4.7483 -6.7581 2.2423
-4.4969 -6.9171 2.2423
-4.2405 -7.0673 2.2423
-3.9794 -7.2084 2.2423
-3.7138 -7.3404 2.2423
-3.4441 -7.4631 2.2423
-3.1706 -7.5765 2.2423
-2.8936 -7.6803 2.2423
-2.6134 -7.7746 2.2423
-2.3302 -7.8592 2.2423
-2.0446 -7.9341 2.2423
-1.7566 -7.9992 2.2423
-1.4668 -8.0544 2.2423
-1.1753 -8.0997 2.2423
-0.8825 -8.1350 2.2423
-0.5887 -8.1603 2.2423
-0.2943 -8.1757 2.2423
0.0005 -7.5130 2.2423
0.2713 -7.5086 2.2423
0.5419 -7.4950 2.2423
0.8118 -7.4721 2.2423
1.0809 -7.4399 2.2423
1.3488 -7.3986 2.2423
1.6152 -7.3481 2.2423
1.8799 -7.2885 2.2423
2.0439 -6.8879 2.1392
2.2922 -6.8138 2.1392
2.5379 -6.7312 2.1392
2.7807 -6.6401 2.1392
3.0205 -6.5407 2.1392
3.2570 -6.4331 2.1392
3.4897 -6.3172 2.1392
3.7186 -6.1934 2.1392
3.9433 -6.0616 2.1392
4.1635 -5.9220 2.1392
4.3790 -5.7747 2.1392
4.5895 -5.6200 2.1392
4.7948 -5.4578 2.1392
4.9947 -5.2885 2.1392
5.1887 -5.1121 2.1392
5.3768 -4.9288 2.1392
5.5587 -4.7389 2.1392
5.7341 -4.5425 2.1392
5.9028 -4.3399 2.1392
5.9308 -4.0400 2.0920
5.9310 -3.7351 2.0401
5.9313 -3.4438 1.9930
5.9315 -3.1643 1.9502
5.9317 -2.8954 1.9116
5.9319 -2.6358 1.8766
5.9321 -2.3844 1.8451
5.9324 -2.1402 1.8167
5.9326 -1.9023 1.7914
5.9327 -1.6698 1.7689
5.9329 -1.4420 1.7491
5.9331 -1.2181 1.7319
5.9333 -0.9975 1.7171
5.9335 -0.7796 1.7047
5.9337 -0.5638 1.6946
5.9339 -0.3494 1.6867
5.9340 -0.1360 1.6810
5.9342 0.0770 1.6775
5.9344 0.2903 1.6762
5.9346 0.5042 1.6770
5.9347 0.7195 1.6800
5.9349 0.9366 1.6852
5.9351 1.1562 1.6927
5.9353 1.3788 1.7025
5.9355 1.6052 1.7147
5.9357 1.8360 1.7294
5.9359 2.0720 1.7468
5.9361 2.3139 1.7669
5.9363 2.5627 1.7899
5.9365 2.8193 1.8160
5.9367 3.0848 1.8455
5.9370 3.3603 1.8785
5.9372 3.6472 1.9155
5.9374 3.9471 1.9567
5.9377 4.2615 2.0026
5.9380 4.5926 2.0536
5.9383 4.9425 2.1103
5.8450 5.2302 2.1392
5.6622 5.4440 2.1392
5.4714 5.6510 2.1392
5.2727 5.8511 2.1392
5.0665 6.0439 2.1392
4.8530 6.2290 2.1392
4.6325 6.4062 2.1392
4.4052 6.5752 2.1392
4.1716 6.7358 2.1392
3.9319 6.8876 2.1392
3.6865 7.0305 2.1392
3.4357 7.1641 2.1392
3.1798 7.2883 2.1392
2.9193 7.4029 2.1392
2.6545 7.5077 2.1392
2.3857 7.6024 2.1392
2.1135 7.6870 2.1392
1.9267 8.1353 2.2423
1.6352 8.2023 2.2423
1.3413 8.2582 2.2423
1.0454 8.3030 2.2423
0.7480 8.3366 2.2423
0.4494 8.3589 2.2423
0.1503 8.3700 2.2423
-0.1491 8.3697 2.2423
-0.4482 8.3581 2.2423
-0.7467 8.3352 2.2423
-1.0440 8.3011 2.2423
-1.3397 8.2558 2.2423
-1.6334 8.1994 2.2423
-1.9247 8.1319 2.2423
-2.2131 8.0535 2.2423
-2.4982 7.9644 2.2423
-2.7795 7.8647 2.2423
-3.0568 7.7545 2.2423
-3.3294 7.6340 2.2423
-3.5972 7.5035 2.2423
-3.8597 7.3631 2.2423
-4.1165 7.2131 2.2423
-4.3673 7.0537 2.2423
-4.6117 6.8851 2.2423
-4.8494 6.7078 2.2423
-5.0800 6.5219 2.2423
-5.3033 6.3278 2.2423
-5.5190 6.1257 2.2423
-5.7267 5.9159 2.2423
-5.9262 5.6989 2.2423
-6.0209 5.3887 2.2070
-6.0320 5.0214 2.1470
-6.1752 4.7769 2.1390
-6.3320 4.5453 2.1390
-6.4800 4.3085 2.1390
-6.6189 4.0667 2.1390
-6.7487 3.8204 2.1390
-6.8692 3.5699 2.1390
-6.9802 3.3155 2.1390
-7.0817 3.0577 2.1390
-7.1735 2.7968 2.1390
-7.2556 2.5331 2.1390
-7.3280 2.2671 2.1390
-7.3906 1.9991 2.1390
-7.4433 1.7295 2.1390
-7.4861 1.4586 2.1390
-7.5191 1.1868 2.1390
-7.5422 0.9145 2.1390
-7.5555 0.6421 2.1390
-7.5590 0.3698 2.1390
-7.5527 0.0981 2.1390
-7.5367 -0.1727 2.1390
-7.5111 -0.4423 2.1390
-7.4760 -0.7104 2.1390
-7.4315 -0.9765 2.1390
-7.3776 -1.2405 2.1390
-7.3145 -1.5018 2.1390
-7.2423 -1.7604 2.1390
-7.1611 -2.0157 2.1390
-7.0711 -2.2677 2.1390
-6.9725 -2.5158 2.1390
-6.8654 -2.7600 2.1390
-6.7500 -2.9998 2.1390
-6.6264 -3.2350 2.1390
-6.4949 -3.4654 2.1390
-6.3556 -3.6907 2.1390
-6.2274 -3.9223 2.1454
-6.0546 -4.1250 2.1390
-6.0191 -4.4261 2.1847
-6.0014 -4.7551 2.2423
-5.8180 -4.9609 2.2423
-5.6279 -5.1599 2.2423
-5.4312 -5.3520 2.2423
-5.2283 -5.5369 2.2423
-5.0193 -5.7145 2.2423
-4.8046 -5.8845 2.2423
-4.5844 -6.0469 2.2423
-4.3589 -6.2014 2.2423
-4.1285 -6.3479 2.2423
-3.8934 -6.4862 2.2423
-3.6539 -6.6163 2.2423
-3.4103 -6.7380 2.2423
-3.1628 -6.8511 2.2423
-2.9118 -6.9556 2.2423
-2.6576 -7.0514 2.2423
-2.4003 -7.1383 2.2423
-2.1404 -7.2164 2.2423
-1.8780 -7.2854 2.2423
-1.6136 -7.3455 2.2423
-1.3473 -7.3964 2.2423
-1.0796 -7.4381 2.2423
-0.8106 -7.4707 2.2423
-0.5408 -7.4941 2.2423
-0.2703 -7.5082 2.2423
0.0005 -6.9389 2.2423
0.2507 -6.9347 2.2423
0.5007 -6.9221 2.2423
0.7501 -6.9008 2.2423
0.9986 -6.8710 2.2423
1.2461 -6.8326 2.2423
1.4922 -6.7858 2.2423
1.7366 -6.7305 2.2423
1.9791 -6.6668 2.2423
2.1173 -6.2916 2.1392
2.3442 -6.2150 2.1392
2.5684 -6.1306 2.1392
2.7897 -6.0385 2.1392
3.0079 -5.9387 2.1392
3.2226 -5.8313 2.1392
3.4338 -5.7166 2.1392
3.6410 -5.5945 2.1392
3.8440 -5.4652 2.1392
4.0427 -5.3288 2.1392
4.2367 -5.1855 2.1392
4.4258 -5.0353 2.1392
4.6098 -4.8786 2.1392
4.7885 -4.7153 2.1392
4.9615 -4.5458 2.1392
5.1288 -4.3701 2.1392
5.2901 -4.1885 2.1392
5.4452 -4.0010 2.1392
5.5938 -3.8081 2.1392
5.7358 -3.6098 2.1392
5.8709 -3.4063 2.1392
5.9315 -3.1620 2.1151
5.9317 -2.8931 2.0734
5.9319 -2.6336 2.0357
5.9322 -2.3822 2.0018
5.9324 -2.1380 1.9713
5.9326 -1.9001 1.9441
5.9327 -1.6676 1.9200
5.9329 -1.4398 1.8987
5.9331 -1.2160 1.8803
5.9333 -0.9954 1.8645
5.9335 -0.7775 1.8513
5.9337 -0.5617 1.8405
5.9339 -0.3474 1.8322
5.9340 -0.1340 1.8263
5.9342 0.0791 1.8228
5.9344 0.2923 1.8216
5.9346 0.5063 1.8227
5.9347 0.7216 1.8263
5.9349 0.9387 1.8322
5.9351 1.1583 1.8406
5.9353 1.3810 1.8515
5.9355 1.6074 1.8651
5.9357 1.8382 1.8814
5.9359 2.0742 1.9005
5.9361 2.3161 1.9226
5.9363 2.5649 1.9479
5.9365 2.8215 1.9766
5.9367 3.0870 2.0089
5.9370 3.3626 2.0452
5.9372 3.6496 2.0857
5.9374 3.9495 2.1308
5.8237 4.1822 2.1392
5.6786 4.3944 2.1392
5.5256 4.6015 2.1392
5.3648 4.8029 2.1392
5.1964 4.9986 2.1392
5.0207 5.1880 2.1392
4.8379 5.3711 2.1392
4.6483 5.5474 2.1392
4.4519 5.7167 2.1392
4.2493 5.8788 2.1392
4.0405 6.0333 2.1392
3.8259 6.1800 2.1392
3.6058 6.3188 2.1392
3.3805 6.4493 2.1392
3.1503 6.5714 2.1392
2.9155 6.6849 2.1392
2.6765 6.7895 2.1392
2.4335 6.8852 2.1392
2.1871 6.9718 2.1392
2.0267 7.3739 2.2378
1.7661 7.4598 2.2423
1.4989 7.5210 2.2423
1.2294 7.5721 2.2423
0.9582 7.6130 2.2423
0.6856 7.6437 2.2423
0.4120 7.6641 2.2423
0.1378 7.6742 2.2423
-0.1366 7.6739 2.2423
-0.4108 7.6634 2.2423
-0.6843 7.6425 2.2423
-0.9569 7.6114 2.2423
-1.2280 7.5700 2.2423
-1.4972 7.5185 2.2423
-1.7643 7.4570 2.2423
-2.0287 7.3854 2.2423
-2.2902 7.3041 2.2423
-2.5482 7.2130 2.2423
-2.8026 7.1124 2.2423
-3.0528 7.0024 2.2423
-3.2985 6.8831 2.2423
-3.5395 6.7549 2.2423
-3.7753 6.6178 2.2423
-4.0056 6.4722 2.2423
-4.2301 6.3182 2.2423
-4.4485 6.1561 2.2423
-4.6606 5.9861 2.2423
-4.8659 5.8085 2.2423
-5.0643 5.6237 2.2423
-5.2555 5.4318 2.2423
-5.4392 5.2332 2.2423
-5.6152 5.0282 2.2423
-5.7833 4.8171 2.2423
-5.9434 4.6002 2.2423
-6.0218 4.3253 2.2153
-6.0278 4.0104 2.1666
-6.0794 3.7377 2.1390
-6.1994 3.5119 2.1390
-6.3109 3.2822 2.1390
-6.4138 3.0489 2.1390
-6.5079 2.8124 2.1390
-6.5932 2.5730 2.1390
-6.6696 2.3310 2.1390
-6.7371 2.0867 2.1390
-6.7956 1.8406 2.1390
-6.8450 1.5929 2.1390
-6.8854 1.3440 2.1390
-6.9167 1.0942 2.1390
-6.9390 0.8438 2.1390
-6.9522 0.5932 2.1390
-6.9564 0.3428 2.1390
-6.9516 0.0927 2.1390
-6.9379 -0.1566 2.1390
-6.9154 -0.4049 2.1390
-6.8840 -0.6517 2.1390
-6.8439 -0.8969 2.1390
-6.7952 -1.1402 2.1390
-6.7380 -1.3811 2.1390
-6.6724 -1.6195 2.1390
-6.5985 -1.8550 2.1390
-6.5165 -2.0874 2.1390
-6.4265 -2.3164 2.1390
-6.3285 -2.5418 2.1390
-6.2282 -2.7655 2.1408
-6.1098 -2.9804 2.1390
-6.0219 -3.2107 2.1507
-6.0172 -3.4918 2.1959
-6.0031 -3.7787 2.2423
-5.8547 -3.9864 2.2423
-5.6993 -4.1886 2.2423
-5.5372 -4.3849 2.2423
-5.3686 -4.5752 2.2423
-5.1936 -4.7594 2.2423
-5.0126 -4.9371 2.2423
-4.8257 -5.1082 2.2423
-4.6333 -5.2726 2.2423
-4.4354 -5.4300 2.2423
-4.2325 -5.5804 2.2423
-4.0246 -5.7235 2.2423
-3.8122 -5.8591 2.2423
-3.5953 -5.9873 2.2423
-3.3744 -6.1078 2.2423
-3.1496 -6.2205 2.2423
-2.9212 -6.3254 2.2423
-2.6895 -6.4222 2.2423
-2.4548 -6.5110 2.2423
-2.2172 -6.5916 2.2423
-1.9772 -6.6639 2.2423
-1.7349 -6.7279 2.2423
-1.4906 -6.7836 2.2423
-1.2447 -6.8308 2.2423
-0.9974 -6.8695 2.2423
-0.7489 -6.8996 2.2423
-0.4996 -6.9213 2.2423
-0.2497 -6.9344 2.2423
0.0005 -6.4395 2.2423
0.2328 -6.4357 2.2423
0.4648 -6.4238 2.2423
0.6964 -6.4040 2.2423
0.9271 -6.3762 2.2423
1.1568 -6.3405 2.2423
1.3852 -6.2969 2.2423
1.6121 -6.2454 2.2423
1.8371 -6.1860 2.2423
2.0032 -5.9500 2.1804
2.1758 -5.7663 2.1392
2.3838 -5.6877 2.1392
2.5891 -5.6019 2.1392
2.7914 -5.5091 2.1392
2.9906 -5.4092 2.1392
3.1863 -5.3023 2.1392
3.3783 -5.1887 2.1392
3.5665 -5.0684 2.1392
3.7506 -4.9415 2.1392
3.9303 -4.8082 2.1392
4.1054 -4.6686 2.1392
4.2757 -4.5228 2.1392
4.4411 -4.3710 2.1392
4.6012 -4.2134 2.1392
4.7559 -4.0501 2.1392
4.9051 -3.8813 2.1392
5.0483 -3.7072 2.1392
5.1856 -3.5280 2.1392
5.3167 -3.3438 2.1392
5.4414 -3.1549 2.1392
5.5596 -2.9615 2.1392
5.6710 -2.7637 2.1392
5.7755 -2.5619 2.1392
5.8730 -2.3562 2.1392
5.9324 -2.1358 2.1281
5.9326 -1.8979 2.0989
5.9328 -1.6655 2.0731
5.9329 -1.4377 2.0504
5.9331 -1.2139 2.0308
5.9333 -0.9933 2.0139
5.9335 -0.7754 1.9999
5.9337 -0.5596 1.9885
5.9339 -0.3453 1.9798
5.9340 -0.1319 1.9737
5.9342 0.0812 1.9701
5.9344 0.2944 1.9690
5.9346 0.5084 1.9705
5.9347 0.7236 1.9746
5.9349 0.9408 1.9812
5.9351 1.1604 1.9906
5.9353 1.3831 2.0026
5.9355 1.6095 2.0175
5.9357 1.8403 2.0354
5.9359 2.0763 2.0563
5.9361 2.3183 2.0805
5.9363 2.5672 2.1081
5.9358 2.8235 2.1392
5.8398 3.0390 2.1392
5.7359 3.2510 2.1392
5.6241 3.4594 2.1392
5.5046 3.6639 2.1392
5.3775 3.8640 2.1392
5.2430 4.0596 2.1392
5.1011 4.2503 2.1392
4.9522 4.4359 2.1392
4.7963 4.6160 2.1392
4.6338 4.7905 2.1392
4.4647 4.9590 2.1392
4.2893 5.1212 2.1392
4.1078 5.2770 2.1392
3.9205 5.4261 2.1392
3.7276 5.5683 2.1392
3.5293 5.7033 2.1392
3.3261 5.8309 2.1392
3.1181 5.9509 2.1392
2.9055 6.0632 2.1392
2.6889 6.1675 2.1392
2.4683 6.2637 2.1392
2.2442 6.3517 2.1392
2.0334 6.4843 2.1568
1.8726 6.8156 2.2423
1.6285 6.8810 2.2423
1.3821 6.9372 2.2423
1.1336 6.9841 2.2423
0.8835 7.0217 2.2423
0.6322 7.0499 2.2423
0.3799 7.0687 2.2423
0.1271 7.0779 2.2423
-0.1259 7.0777 2.2423
-0.3787 7.0681 2.2423
-0.6309 7.0489 2.2423
-0.8822 7.0203 2.2423
-1.1322 6.9824 2.2423
-1.3805 6.9350 2.2423
-1.6268 6.8785 2.2423
-1.8707 6.8128 2.2423
-2.1119 6.7380 2.2423
-2.3499 6.6544 2.2423
-2.5846 6.5619 2.2423
-2.8155 6.4608 2.2423
-3.0424 6.3512 2.2423
-3.2648 6.2333 2.2423
-3.4826 6.1072 2.2423
-3.6953 5.9733 2.2423
-3.9027 5.8316 2.2423
-4.1045 5.6825 2.2423
-4.3005 5.5261 2.2423
-4.4904 5.3628 2.2423
-4.6739 5.1926 2.2423
-4.8507 5.0160 2.2423
-5.0208 4.8332 2.2423
-5.1838 4.6444 2.2423
-5.3395 4.4499 2.2423
-5.4879 4.2501 2.2423
-5.6285 4.0452 2.2423
-5.7614 3.8356 2.2423
-5.8864 3.6215 2.2423
-6.0032 3.4032 2.2423
-6.0084 3.1273 2.2043
-6.0087 2.8587 2.1688
-6.0202 2.6040 2.1413
-6.0934 2.3802 2.1390
-6.1648 2.1569 2.1390
-6.2279 1.9313 2.1390
-6.2827 1.7040 2.1390
-6.3292 1.4752 2.1390
-6.3673 1.2452 2.1390
-6.3971 1.0143 2.1390
-6.4185 0.7828 2.1390
-6.4315 0.5511 2.1390
-6.4362 0.3194 2.1390
-6.4326 0.0880 2.1390
-6.4207 -0.1427 2.1390
-6.4006 -0.3725 2.1390
-6.3723 -0.6011 2.1390
-6.3360 -0.8281 2.1390
-6.2917 -1.0534 2.1390
-6.2395 -1.2767 2.1390
-6.1794 -1.4976 2.1390
-6.1117 -1.7159 2.1390
-6.0364 -1.9314 2.1390
-6.0146 -2.1657 2.1609
-6.0151 -2.4136 2.1943
-6.0156 -2.6688 2.2315
-5.9354 -2.8931 2.2423
-5.8189 -3.1002 2.2423
-5.6954 -3.3027 2.2423
-5.5650 -3.5006 2.2423
-5.4279 -3.6935 2.2423
-5.2844 -3.8813 2.2423
-5.1345 -4.0638 2.2423
-4.9786 -4.2406 2.2423
-4.8168 -4.4118 2.2423
-4.6493 -4.5770 2.2423
-4.4763 -4.7361 2.2423
-4.2981 -4.8889 2.2423
-4.1149 -5.0353 2.2423
-3.9268 -5.1752 2.2423
-3.7342 -5.3083 2.2423
-3.5373 -5.4345 2.2423
-3.3363 -5.5538 2.2423
-3.1315 -5.6659 2.2423
-2.9230 -5.7708 2.2423
-2.7112 -5.8684 2.2423
-2.4962 -5.9585 2.2423
-2.2784 -6.0412 2.2423
-2.0580 -6.1162 2.2423
-1.8353 -6.1835 2.2423
-1.6104 -6.2431 2.2423
-1.3837 -6.2949 2.2423
-1.1555 -6.3389 2.2423
-0.9259 -6.3749 2.2423
-0.6952 -6.4030 2.2423
-0.4637 -6.4232 2.2423
-0.2317 -6.4353 2.2423
0.0005 -6.0008 2.2423
0.2171 -5.9972 2.2423
0.4334 -5.9862 2.2423
0.6492 -5.9676 2.2423
0.8643 -5.9416 2.2423
1.0784 -5.9082 2.2423
1.2913 -5.8674 2.2423
1.5027 -5.8193 2.2423
1.7124 -5.7638 2.2423
1.9201 -5.7011 2.2423
2.0279 -5.3723 2.1392
2.2217 -5.2989 2.1392
2.4129 -5.2187 2.1392
2.6014 -5.1319 2.1392
2.7869 -5.0386 2.1392
2.9691 -4.9388 2.1392
3.1479 -4.8326 2.1392
3.3230 -4.7203 2.1392
3.4943 -4.6017 2.1392
3.6615 -4.4773 2.1392
3.8244 -4.3469 2.1392
3.9828 -4.2108 2.1392
4.1365 -4.0691 2.1392
4.2853 -3.9220 2.1392
4.4291 -3.7697 2.1392
4.5676 -3.6122 2.1392
4.7006 -3.4498 2.1392
4.8280 -3.2826 2.1392
4.9496 -3.1108 2.1392
5.0653 -2.9347 2.1392
5.1748 -2.7544 2.1392
5.2780 -2.5701 2.1392
5.3748 -2.3820 2.1392
5.4650 -2.1904 2.1392
5.5485 -1.9955 2.1392
5.6251 -1.7974 2.1392
5.6948 -1.5965 2.1392
5.7574 -1.3930 2.1392
5.8128 -1.1871 2.1392
5.8609 -0.9791 2.1392
5.9016 -0.7691 2.1392
5.9337 -0.5575 2.1388
5.9339 -0.3432 2.1296
5.9340 -0.1298 2.1232
5.9342 0.0833 2.1196
5.9344 0.2965 2.1187
5.9346 0.5105 2.1205
5.9348 0.7258 2.1251
5.9349 0.9429 2.1325
5.9251 1.1606 2.1392
5.8890 1.3744 2.1392
5.8450 1.5871 2.1392
5.7934 1.7984 2.1392
5.7340 2.0079 2.1392
5.6669 2.2154 2.1392
5.5923 2.4206 2.1392
5.5101 2.6231 2.1392
5.4204 2.8229 2.1392
5.3234 3.0194 2.1392
5.2192 3.2125 2.1392
5.1078 3.4019 2.1392
4.9894 3.5873 2.1392
4.8642 3.7684 2.1392
4.7322 3.9450 2.1392
4.5936 4.1168 2.1392
4.4487 4.2836 2.1392
4.2975 4.4450 2.1392
4.1404 4.6010 2.1392
3.9774 4.7511 2.1392
3.8089 4.8952 2.1392
3.6349 5.0331 2.1392
3.4559 5.1646 2.1392
3.2719 5.2894 2.1392
3.0833 5.4074 2.1392
2.8903 5.5184 2.1392
2.6932 5.6222 2.1392
0.8580 1.9688 0.7365
2.2877 5.8075 2.1392
2.0799 5.8888 2.1392
1.9592 6.2497 2.2423
1.7354 6.3184 2.2423
1.5092 6.3789 2.2423
1.2808 6.4308 2.2423
1.0505 6.4741 2.2423
0.8187 6.5089 2.2423
0.5858 6.5350 2.2423
0.3520 6.5523 2.2423
0.1178 6.5609 2.2423
-0.1166 6.5607 2.2423
-0.3509 6.5518 2.2423
-0.5846 6.5341 2.2423
-0.8175 6.5077 2.2423
-1.0491 6.4727 2.2423
-1.2792 6.4290 2.2423
-1.5075 6.3767 2.2423
-1.7336 6.3160 2.2423
-1.9572 6.2470 2.2423
-2.1779 6.1697 2.2423
-2.3955 6.0842 2.2423
-0.8577 1.9688 0.7369
-0.9274 1.9368 0.7374
-3.0264 5.7805 2.2423
-3.2284 5.6640 2.2423
-3.4259 5.5402 2.2423
-3.6184 5.4092 2.2423
-3.8058 5.2713 2.2423
-3.9878 5.1267 2.2423
-4.1642 4.9755 2.2423
-4.3346 4.8181 2.2423
-4.4991 4.6547 2.2423
-4.6572 4.4854 2.2423
-4.8088 4.3107 2.2423
-4.9537 4.1307 2.2423
-5.0917 3.9456 2.2423
-5.2227 3.7559 2.2423
-5.3465 3.5617 2.2423
-5.4630 3.3633 2.2423
-5.5720 3.1611 2.2423
-5.6734 2.9553 2.2423
-5.7672 2.7461 2.2423
-5.8531 2.5340 2.2423
-5.9312 2.3191 2.2423
-6.0012 2.1019 2.2423
-6.0095 1.8659 2.2224
-6.0097 1.6322 2.2028
-6.0099 1.4029 2.1865
-6.0101 1.1775 2.1732
-6.0103 0.9551 2.1630
-6.0122 0.7354 2.1562
-6.0147 0.5175 2.1525
-6.0158 0.3007 2.1511
-6.0155 0.0845 2.1520
-6.0136 -0.1315 2.1551
-6.0114 -0.3477 2.1608
-6.0116 -0.5649 2.1702
-6.0119 -0.7836 2.1825
-6.0123 -1.0045 2.1978
-6.0128 -1.2281 2.2162
-6.0132 -1.4551 2.2376
-5.9603 -1.6712 2.2423
-5.8875 -1.8816 2.2423
-5.8074 -2.0889 2.2423
-5.7201 -2.2930 2.2423
-5.6258 -2.4937 2.2423
-5.5245 -2.6906 2.2423
-5.4166 -2.8836 2.2423
-5.3021 -3.0725 2.2423
-5.1812 -3.2570 2.2423
-5.0540 -3.4369 2.2423
-4.9207 -3.6120 2.2423
-4.7816 -3.7822 2.2423
-4.6367 -3.9473 2.2423
-4.4863 -4.1070 2.2423
-4.3306 -4.2611 2.2423
-4.1698 -4.4096 2.2423
-4.0041 -4.5523 2.2423
-3.8336 -4.6890 2.2423
-3.6587 -4.8196 2.2423
-3.4794 -4.9439 2.2423
-3.2961 -5.0618 2.2423
-3.1090 -5.1732 2.2423
-2.9182 -5.2780 2.2423
-2.7241 -5.3760 2.2423
-2.5268 -5.4671 2.2423
-2.3265 -5.5514 2.2423
-2.1236 -5.6286 2.2423
-1.9182 -5.6987 2.2423
-1.7107 -5.7616 2.2423
-1.5011 -5.8173 2.2423
-1.2898 -5.8658 2.2423
-1.0771 -5.9068 2.2423
-0.8630 -5.9405 2.2423
-0.6480 -5.9668 2.2423
-0.4323 -5.9856 2.2423
-0.2160 -5.9969 2.2423
0.0005 -5.6120 2.2423
0.2031 -5.6086 2.2423
0.4055 -5.5983 2.2423
0.6074 -5.5809 2.2423
0.8086 -5.5565 2.2423
1.0089 -5.5251 2.2423
1.2080 -5.4869 2.2423
1.4057 -5.4417 2.2423
1.6019 -5.3897 2.2423
1.7962 -5.3309 2.2423
1.9884 -5.2653 2.2423
2.0781 -4.9544 2.1392
2.2569 -4.8792 2.1392
2.4331 -4.7978 2.1392
2.6064 -4.7103 2.1392
2.7767 -4.6168 2.1392
2.9438 -4.5173 2.1392
3.1074 -4.4120 2.1392
3.2674 -4.3010 2.1392
3.4235 -4.1843 2.1392
3.5756 -4.0622 2.1392
3.7235 -3.9347 2.1392
3.8670 -3.8020 2.1392
4.0058 -3.6642 2.1392
4.1399 -3.5215 2.1392
4.2691 -3.3741 2.1392
4.3931 -3.2221 2.1392
4.5118 -3.0656 2.1392
4.6251 -2.9049 2.1392
4.7328 -2.7401 2.1392
4.8347 -2.5714 2.1392
4.9308 -2.3990 2.1392
5.0208 -2.2231 2.1392
5.1046 -2.0439 2.1392
5.1821 -1.8617 2.1392
5.2533 -1.6766 2.1392
5.3179 -1.4888 2.1392
5.3758 -1.2987 2.1392
5.4270 -1.1063 2.1392
5.4714 -0.9120 2.1392
5.5089 -0.7159 2.1392
5.5395 -0.5184 2.1392
5.5629 -0.3197 2.1392
5.5793 -0.1200 2.1392
5.5885 0.0805 2.1392
5.5905 0.2814 2.1392
5.5853 0.4825 2.1392
5.5729 0.6836 2.1392
5.5531 0.8843 2.1392
5.5262 1.0845 2.1392
5.4919 1.2838 2.1392
5.4504 1.4820 2.1392
5.4018 1.6788 2.1392
5.3459 1.8740 2.1392
5.2829 2.0673 2.1392
5.2128 2.2584 2.1392
5.1358 2.4470 2.1392
5.0518 2.6329 2.1392
4.9609 2.8159 2.1392
4.8634 2.9956 2.1392
4.7592 3.1718 2.1392
4.6485 3.3443 2.1392
4.5314 3.5127 2.1392
4.4081 3.6770 2.1392
4.2788 3.8367 2.1392
4.1435 3.9918 2.1392
4.0024 4.1418 2.1392
3.8558 4.2867 2.1392
3.7038 4.4263 2.1392
3.5466 4.5602 2.1392
3.3845 4.6883 2.1392
3.2176 4.8105 2.1392
3.0461 4.9264 2.1392
2.8704 5.0360 2.1392
2.6906 5.1391 2.1392
0.8658 1.8081 0.7388
0.8007 1.8380 0.7384
0.7346 1.8655 0.7380
0.6675 1.8907 0.7376
0.5996 1.9134 0.7373
0.5309 1.9337 0.7371
0.4616 1.9515 0.7368
0.3916 1.9668 0.7366
0.9777 6.0272 2.2423
0.7620 6.0595 2.2423
0.5452 6.0837 2.2423
0.3277 6.0998 2.2423
0.1096 6.1078 2.2423
-0.1085 6.1077 2.2423
-0.3265 6.0994 2.2423
-0.5440 6.0830 2.2423
-0.7607 6.0585 2.2423
-0.9763 6.0260 2.2423
-0.3912 1.9668 0.7368
-0.4612 1.9515 0.7371
-0.5306 1.9337 0.7373
-0.5992 1.9134 0.7376
-0.6672 1.8907 0.7380
-0.7342 1.8655 0.7383
-0.8003 1.8380 0.7388
-0.8654 1.8081 0.7392
-0.9294 1.7758 0.7397
-3.0056 5.2752 2.2423
-3.1895 5.1602 2.2423
-3.3690 5.0386 2.2423
-3.5437 4.9105 2.2423
-3.7134 4.7761 2.2423
-3.8778 4.6356 2.2423
-4.0369 4.4894 2.2423
-4.1903 4.3374 2.2423
-4.3379 4.1802 2.2423
-4.4794 4.0177 2.2423
-4.6148 3.8503 2.2423
-4.7437 3.6782 2.2423
-4.8662 3.5017 2.2423
-4.9820 3.3210 2.2423
-5.0909 3.1364 2.2423
-5.1930 2.9482 2.2423
-5.2879 2.7566 2.2423
-5.3758 2.5619 2.2423
-5.4564 2.3644 2.2423
-5.5296 2.1643 2.2423
-5.5955 1.9619 2.2423
-5.6539 1.7576 2.2423
-5.7048 1.5515 2.2423
-5.7482 1.3440 2.2423
-5.7840 1.1353 2.2423
-5.8122 0.9258 2.2423
-5.8328 0.7156 2.2423
-5.8458 0.5051 2.2423
-5.8513 0.2946 2.2423
-5.8492 0.0843 2.2423
-5.8396 -0.1256 2.2423
-5.8224 -0.3346 2.2423
-5.7979 -0.5427 2.2423
-5.7660 -0.7495 2.2423
-5.7268 -0.9547 2.2423
-5.6804 -1.1581 2.2423
-5.6268 -1.3595 2.2423
-5.5662 -1.5586 2.2423
-5.4987 -1.7552 2.2423
-5.4243 -1.9491 2.2423
-5.3432 -2.1399 2.2423
-5.2556 -2.3275 2.2423
-5.1614 -2.5117 2.2423
-5.0610 -2.6923 2.2423
-4.9544 -2.8689 2.2423
-4.8418 -3.0416 2.2423
-4.7233 -3.2100 2.2423
-4.5991 -3.3739 2.2423
-4.4693 -3.5332 2.2423
-4.3342 -3.6877 2.2423
-4.1939 -3.8372 2.2423
-4.0486 -3.9816 2.2423
-3.8985 -4.1207 2.2423
-3.7438 -4.2544 2.2423
-3.5846 -4.3825 2.2423
-3.4212 -4.5048 2.2423
-3.2538 -4.6213 2.2423
-3.0825 -4.7318 2.2423
-2.9076 -4.8362 2.2423
-2.7293 -4.9343 2.2423
-2.5478 -5.0262 2.2423
-2.3634 -5.1117 2.2423
-2.1762 -5.1907 2.2423
-1.9864 -5.2630 2.2423
-1.7944 -5.3288 2.2423
-1.6002 -5.3878 2.2423
-1.4042 -5.4400 2.2423
-1.2066 -5.4854 2.2423
-1.0076 -5.5239 2.2423
-0.8074 -5.5555 2.2423
-0.6062 -5.5801 2.2423
-0.4044 -5.5977 2.2423
-0.2020 -5.6084 2.2423
0.0005 -5.2647 2.2423
0.1906 -5.2615 2.2423
0.3805 -5.2518 2.2423
0.5700 -5.2354 2.2423
0.7588 -5.2124 2.2423
0.9468 -5.1830 2.2423
1.1336 -5.1470 2.2423
1.3192 -5.1045 2.2423
1.5032 -5.0556 2.2423
1.6854 -5.0002 2.2423
1.8658 -4.9386 2.2423
2.0028 -4.7728 2.1972
2.1176 -4.5761 2.1392
2.2828 -4.4996 2.1392
2.4454 -4.4173 2.1392
2.6050 -4.3294 2.1392
2.7616 -4.2359 2.1392
2.9150 -4.1369 2.1392
3.0649 -4.0325 2.1392
3.2112 -3.9229 2.1392
3.3537 -3.8081 2.1392
3.4922 -3.6884 2.1392
3.6266 -3.5637 2.1392
3.7566 -3.4343 2.1392
3.8821 -3.3003 2.1392
4.0029 -3.1618 2.1392
4.1189 -3.0191 2.1392
4.2300 -2.8722 2.1392
4.3359 -2.7213 2.1392
4.4365 -2.5666 2.1392
4.5318 -2.4083 2.1392
4.6215 -2.2466 2.1392
4.7055 -2.0816 2.1392
4.7837 -1.9135 2.1392
4.8559 -1.7426 2.1392
4.9222 -1.5690 2.1392
4.9823 -1.3930 2.1392
5.0362 -1.2147 2.1392
5.0838 -1.0344 2.1392
5.1250 -0.8523 2.1392
5.1597 -0.6686 2.1392
5.1878 -0.4836 2.1392
5.2093 -0.2974 2.1392
5.2242 -0.1104 2.1392
5.2324 0.0773 2.1392
5.2339 0.2653 2.1392
5.2285 0.4536 2.1392
5.2164 0.6418 2.1392
5.1975 0.8296 2.1392
5.1719 1.0169 2.1392
5.1394 1.2033 2.1392
5.1001 1.3887 2.1392
5.0542 1.5727 2.1392
5.0015 1.7552 2.1392
4.9422 1.9359 2.1392
4.8762 2.1145 2.1392
4.8038 2.2907 2.1392
4.7248 2.4644 2.1392
4.6395 2.6354 2.1392
4.5479 2.8032 2.1392
4.4502 2.9678 2.1392
4.3464 3.1288 2.1392
4.2366 3.2861 2.1392
4.1211 3.4394 2.1392
3.9999 3.5886 2.1392
3.8731 3.7332 2.1392
3.7410 3.8733 2.1392
3.6038 4.0085 2.1392
3.4615 4.1387 2.1392
3.3144 4.2636 2.1392
3.1627 4.3831 2.1392
3.0066 4.4970 2.1392
2.8463 4.6052 2.1392
2.6820 4.7074 2.1392
0.8706 1.6635 0.7408
0.8107 1.6936 0.7404
0.7497 1.7216 0.7400
0.6878 1.7474 0.7397
0.6250 1.7710 0.7394
0.5615 1.7923 0.7391
0.4971 1.8113 0.7388
0.4322 1.8280 0.7386
0.3667 1.8423 0.7384
0.3007 1.8543 0.7383
0.2343 1.8639 0.7381
0.1676 1.8711 0.7380
0.1007 1.8759 0.7380
0.0337 1.8783 0.7380
-0.0333 1.8783 0.7380
-0.1004 1.8759 0.7380
-0.1673 1.8711 0.7381
-0.2339 1.8639 0.7382
-0.3003 1.8543 0.7384
-0.3663 1.8423 0.7386
-0.4318 1.8280 0.7388
-0.4968 1.8113 0.7391
-0.5611 1.7923 0.7393
-0.6247 1.7710 0.7397
-0.6875 1.7475 0.7400
-0.7494 1.7216 0.7404
-0.8103 1.6937 0.7408
-0.8702 1.6635 0.7412
-0.9290 1.6312 0.7417
-2.9804 4.8240 2.2423
-3.1482 4.7105 2.2423
-3.3116 4.5910 2.2423
-3.4704 4.4657 2.2423
-3.6243 4.3347 2.2423
-3.7732 4.1982 2.2423
-3.9168 4.0565 2.2423
-4.0550 3.9097 2.2423
-4.1876 3.7581 2.2423
-4.3144 3.6018 2.2423
-4.4353 3.4412 2.2423
-4.5501 3.2764 2.2423
-4.6587 3.1076 2.2423
-4.7610 2.9353 2.2423
-4.8568 2.7594 2.2423
-4.9460 2.5804 2.2423
-5.0286 2.3985 2.2423
-5.1044 2.2139 2.2423
-5.1733 2.0269 2.2423
-5.2354 1.8377 2.2423
-5.2905 1.6467 2.2423
-5.3385 1.4540 2.2423
-5.3796 1.2599 2.2423
-5.4135 1.0646 2.2423
-5.4404 0.8686 2.2423
-5.4602 0.6719 2.2423
-5.4728 0.4749 2.2423
-5.4784 0.2778 2.2423
-5.4769 0.0809 2.2423
-5.4683 -0.1156 2.2423
-5.4527 -0.3114 2.2423
-5.4302 -0.5063 2.2423
-5.4008 -0.7000 2.2423
-5.3645 -0.8923 2.2423
-5.3214 -1.0830 2.2423
-5.2717 -1.2717 2.2423
-5.2153 -1.4584 2.2423
-5.1525 -1.6427 2.2423
-5.0832 -1.8245 2.2423
-5.0076 -2.0035 2.2423
-4.9258 -2.1795 2.2423
-4.8379 -2.3523 2.2423
-4.7441 -2.5217 2.2423
-4.6445 -2.6875 2.2423
-4.5392 -2.8496 2.2423
-4.4284 -3.0076 2.2423
-4.3123 -3.1615 2.2423
-4.1909 -3.3111 2.2423
-4.0644 -3.4562 2.2423
-3.9331 -3.5967 2.2423
-3.7971 -3.7323 2.2423
-3.6565 -3.8630 2.2423
-3.5115 -3.9885 2.2423
-3.3624 -4.1089 2.2423
-3.2093 -4.2238 2.2423
-3.0524 -4.3333 2.2423
-2.8918 -4.4371 2.2423
-2.7279 -4.5353 2.2423
-2.5607 -4.6276 2.2423
-2.3905 -4.7139 2.2423
-2.2175 -4.7943 2.2423
-2.0419 -4.8685 2.2423
-1.8639 -4.9366 2.2423
-1.6838 -4.9984 2.2423
-1.5016 -5.0539 2.2423
-1.3177 -5.1030 2.2423
-1.1323 -5.1457 2.2423
-0.9455 -5.1819 2.2423
-0.7576 -5.2116 2.2423
-0.5689 -5.2347 2.2423
-0.3794 -5.2513 2.2423
-0.1896 -5.2613 2.2423
0.0005 -4.9523 2.2423
0.1794 -4.9493 2.2423
0.3581 -4.9401 2.2423
0.5364 -4.9246 2.2423
0.7141 -4.9030 2.2423
0.8909 -4.8752 2.2423
1.0667 -4.8412 2.2423
1.2413 -4.8012 2.2423
1.4144 -4.7551 2.2423
1.5859 -4.7029 2.2423
1.7555 -4.6448 2.2423
1.9231 -4.5808 2.2423
2.0060 -4.3330 2.1538
2.1477 -4.2314 2.1392
2.3006 -4.1539 2.1392
2.4507 -4.0710 2.1392
2.5979 -3.9829 2.1392
2.7421 -3.8896 2.1392
2.8830 -3.7913 2.1392
3.0204 -3.6880 2.1392
3.1543 -3.5799 2.1392
3.2844 -3.4671 2.1392
3.4106 -3.3496 2.1392
3.5327 -3.2278 2.1392
3.6505 -3.1016 2.1392
3.7639 -2.9712 2.1392
3.8728 -2.8368 2.1392
3.9769 -2.6985 2.1392
4.0763 -2.5565 2.1392
4.1706 -2.4109 2.1392
4.2599 -2.2620 2.1392
4.3439 -2.1098 2.1392
4.4225 -1.9546 2.1392
4.4957 -1.7965 2.1392
4.5633 -1.6357 2.1392
4.6253 -1.4725 2.1392
4.6814 -1.3070 2.1392
4.7317 -1.1394 2.1392
4.7761 -0.9700 2.1392
4.8144 -0.7988 2.1392
4.8466 -0.6262 2.1392
4.8727 -0.4524 2.1392
4.8926 -0.2775 2.1392
4.9062 -0.1019 2.1392
4.9135 0.0744 2.1392
4.9145 0.2510 2.1392
4.9091 0.4277 2.1392
4.8974 0.6044 2.1392
4.8793 0.7807 2.1392
4.8548 0.9564 2.1392
4.8240 1.1313 2.1392
4.7868 1.3052 2.1392
4.7433 1.4779 2.1392
4.6935 1.6490 2.1392
4.6375 1.8184 2.1392
4.5753 1.9858 2.1392
4.5070 2.1511 2.1392
4.4326 2.3139 2.1392
4.3523 2.4741 2.1392
4.2661 2.6314 2.1392
4.1741 2.7855 2.1392
4.0765 2.9364 2.1392
3.9733 3.0837 2.1392
3.8647 3.2273 2.1392
3.7508 3.3670 2.1392
3.6318 3.5025 2.1392
3.5077 3.6336 2.1392
3.3788 3.7601 2.1392
3.2453 3.8820 2.1392
3.1072 3.9989 2.1392
2.9649 4.1108 2.1392
2.8184 4.2174 2.1392
2.6680 4.3186 2.1392
0.8727 1.5325 0.7427
0.8176 1.5628 0.7423
0.7613 1.5912 0.7419
0.7041 1.6175 0.7415
0.6460 1.6417 0.7412
0.5870 1.6638 0.7409
0.5273 1.6838 0.7406
0.4669 1.7016 0.7404
0.4059 1.7173 0.7402
0.3443 1.7308 0.7400
0.2824 1.7420 0.7398
0.2200 1.7510 0.7397
0.1574 1.7578 0.7397
0.0946 1.7623 0.7396
0.0317 1.7646 0.7396
-0.0313 1.7646 0.7396
-0.0942 1.7623 0.7397
-0.1571 1.7578 0.7397
-0.2197 1.7510 0.7398
-0.2820 1.7420 0.7400
-0.3440 1.7308 0.7402
-0.4055 1.7173 0.7404
-0.4665 1.7016 0.7406
-0.5269 1.6838 0.7409
-0.5866 1.6638 0.7412
-0.6456 1.6417 0.7415
-0.7037 1.6174 0.7419
-0.7609 1.5911 0.7422
-0.8172 1.5628 0.7427
-0.8724 1.5325 0.7431
-0.9264 1.5002 0.7436
-0.9793 1.4660 0.7441
-3.1045 4.3060 2.2423
-3.2535 4.1887 2.2423
-3.3980 4.0661 2.2423
-3.5378 3.9383 2.2423
-3.6727 3.8056 2.2423
-3.8025 3.6682 2.2423
-3.9270 3.5262 2.2423
-4.0462 3.3799 2.2423
-4.1599 3.2294 2.2423
-4.2678 3.0751 2.2423
-4.3700 2.9170 2.2423
-4.4662 2.7555 2.2423
-4.5563 2.5907 2.2423
-4.6404 2.4230 2.2423
-4.7181 2.2524 2.2423
-4.7896 2.0794 2.2423
-4.8547 1.9040 2.2423
-4.9132 1.7266 2.2423
-4.9653 1.5474 2.2423
-5.0108 1.3667 2.2423
-5.0497 1.1846 2.2423
-5.0820 1.0014 2.2423
-5.1076 0.8174 2.2423
-5.1265 0.6328 2.2423
-5.1388 0.4479 2.2423
-5.1444 0.2628 2.2423
-5.1434 0.0779 2.2423
-5.1357 -0.1066 2.2423
-5.1215 -0.2905 2.2423
-5.1007 -0.4736 2.2423
-5.0734 -0.6556 2.2423
-5.0397 -0.8364 2.2423
-4.9996 -1.0155 2.2423
-4.9533 -1.1930 2.2423
-4.9007 -1.3685 2.2423
-4.8419 -1.5418 2.2423
-4.7771 -1.7127 2.2423
-4.7064 -1.8811 2.2423
-4.6298 -2.0467 2.2423
-4.5476 -2.2092 2.2423
-4.4597 -2.3686 2.2423
-4.3663 -2.5247 2.2423
-4.2676 -2.6772 2.2423
-4.1637 -2.8260 2.2423
-4.0547 -2.9708 2.2423
-3.9408 -3.1117 2.2423
-3.8221 -3.2483 2.2423
-3.6988 -3.3805 2.2423
-3.5711 -3.5083 2.2423
-3.4390 -3.6313 2.2423
-3.3028 -3.7496 2.2423
-3.1627 -3.8630 2.2423
-3.0188 -3.9713 2.2423
-2.8713 -4.0744 2.2423
-2.7204 -4.1723 2.2423
-2.5663 -4.2648 2.2423
-2.4091 -4.3517 2.2423
-2.2490 -4.4331 2.2423
-2.0863 -4.5089 2.2423
-1.9212 -4.5788 2.2423
-1.7538 -4.6430 2.2423
-1.5843 -4.7012 2.2423
-1.4129 -4.7536 2.2423
-1.2399 -4.7999 2.2423
-1.0654 -4.8401 2.2423
-0.8897 -4.8742 2.2423
-0.7129 -4.9022 2.2423
-0.5353 -4.9240 2.2423
-0.3570 -4.9397 2.2423
-0.1784 -4.9491 2.2423
0.0005 -4.6695 2.2423
0.1693 -4.6667 2.2423
0.3378 -4.6579 2.2423
0.5060 -4.6433 2.2423
0.6736 -4.6229 2.2423
0.8404 -4.5966 2.2423
1.0062 -4.5645 2.2423
1.1708 -4.5266 2.2423
1.3341 -4.4831 2.2423
1.4958 -4.4338 2.2423
1.6557 -4.3789 2.2423
1.8137 -4.3184 2.2423
1.9696 -4.2524 2.2423
2.0255 -3.9888 2.1392
2.1695 -3.9155 2.1392
2.3110 -3.8372 2.1392
2.4498 -3.7540 2.1392
2.5856 -3.6659 2.1392
2.7184 -3.5730 2.1392
2.8479 -3.4755 2.1392
2.9740 -3.3734 2.1392
3.0965 -3.2669 2.1392
3.2153 -3.1561 2.1392
3.3302 -3.0410 2.1392
3.4411 -2.9220 2.1392
3.5479 -2.7989 2.1392
3.6503 -2.6721 2.1392
3.7483 -2.5416 2.1392
3.8417 -2.4076 2.1392
3.9304 -2.2703 2.1392
4.0142 -2.1298 2.1392
4.0932 -1.9863 2.1392
4.1670 -1.8399 2.1392
4.2357 -1.6908 2.1392
4.2992 -1.5393 2.1392
4.3572 -1.3854 2.1392
4.4099 -1.2294 2.1392
4.4569 -1.0715 2.1392
4.4984 -0.9118 2.1392
4.5342 -0.7506 2.1392
4.5643 -0.5880 2.1392
4.5885 -0.4242 2.1392
4.6069 -0.2595 2.1392
4.6194 -0.0941 2.1392
4.6260 0.0718 2.1392
4.6266 0.2381 2.1392
4.6212 0.4044 2.1392
4.6099 0.5707 2.1392
4.5925 0.7366 2.1392
4.5692 0.9019 2.1392
4.5398 1.0665 2.1392
4.5045 1.2300 2.1392
4.4633 1.3924 2.1392
4.4162 1.5533 2.1392
4.3632 1.7126 2.1392
4.3044 1.8700 2.1392
4.2398 2.0254 2.1392
4.1696 2.1784 2.1392
4.0938 2.3289 2.1392
4.0125 2.4767 2.1392
3.9258 2.6216 2.1392
3.8337 2.7633 2.1392
3.7365 2.9017 2.1392
3.6341 3.0366 2.1392
3.5269 3.1677 2.1392
3.4147 3.2949 2.1392
3.2979 3.4181 2.1392
3.1766 3.5369 2.1392
3.0509 3.6513 2.1392
2.9210 3.7611 2.1392
2.7871 3.8660 2.1392
2.6493 3.9661 2.1392
0.8726 1.4131 0.7444
0.8217 1.4435 0.7439
0.7698 1.4721 0.7435
0.7168 1.4987 0.7432
0.6629 1.5235 0.7428
0.6082 1.5463 0.7425
0.5527 1.5672 0.7423
0.4965 1.5860 0.7420
0.4396 1.6028 0.7418
0.3821 1.6175 0.7416
0.3242 1.6302 0.7414
0.2659 1.6408 0.7413
0.2072 1.6493 0.7412
0.1482 1.6556 0.7411
0.0891 1.6599 0.7411
0.0298 1.6620 0.7410
-0.0295 1.6620 0.7411
-0.0887 1.6599 0.7411
-0.1479 1.6556 0.7412
-0.2068 1.6493 0.7413
-0.2655 1.6408 0.7414
-0.3238 1.6302 0.7416
-0.3818 1.6175 0.7418
-0.4392 1.6028 0.7420
-0.4961 1.5860 0.7422
-0.5523 1.5671 0.7425
-0.6078 1.5463 0.7428
-0.6625 1.5235 0.7432
-0.7164 1.4987 0.7435
-0.7694 1.4721 0.7439
-0.8213 1.4435 0.7443
-0.8722 1.4131 0.7448
-0.9220 1.3809 0.7453
-0.9706 1.3469 0.7458
-3.0586 3.9397 2.2423
-3.1946 3.8246 2.2423
-3.3262 3.7047 2.2423
-3.4531 3.5801 2.2423
-3.5754 3.4510 2.2423
-3.6927 3.3177 2.2423
-3.8050 3.1803 2.2423
-3.9120 3.0390 2.2423
-4.0138 2.8940 2.2423
-4.1101 2.7455 2.2423
