ply
format ascii 1.0
element vertex 2090
property float32 x
property float32 y
property float32 z
end_header
-20.8894 28.7514 -0.6193
-22.5849 28.8476 -0.6379
-28.6615 34.0189 -0.7739
-25.7152 28.3879 -0.6657
-28.6118 29.3923 -0.7123
-30.1592 28.8347 -0.7238
-6.5017 5.7840 -0.1508
-6.6048 5.4639 -0.1484
-37.5138 28.8294 -0.8181
-39.3238 28.0340 -0.8341
-43.2193 28.5282 -0.8934
-46.7657 28.5132 -0.9438
-50.7954 28.5210 -1.0026
-52.0405 26.8101 -1.0063
-61.9436 29.1476 -1.1753
-24.8770 10.6326 -0.4639
-24.8771 9.5918 -0.4566
-24.8772 8.5795 -0.4500
-24.8773 7.5919 -0.4442
-24.8774 6.6257 -0.4391
-24.8775 5.6778 -0.4346
-11.6962 2.2310 -0.2025
-11.6963 1.7986 -0.2010
-11.6963 1.3709 -0.1998
-11.7014 0.9472 -0.1988
-11.7722 0.5285 -0.1993
-11.7723 0.1055 -0.1988
-11.7723 -0.3172 -0.1986
-11.6966 -0.7360 -0.1974
-11.6966 -1.1588 -0.1977
-11.7014 -1.5852 -0.1983
-11.6967 -2.0145 -0.1991
-11.6968 -2.4498 -0.2001
-11.6968 -2.8917 -0.2015
-11.6969 -3.3415 -0.2032
-11.6969 -3.8007 -0.2051
-11.6472 -4.2525 -0.2065
-11.6473 -4.7330 -0.2091
-11.6473 -5.2277 -0.2121
-11.6972 -5.7631 -0.2163
-11.6972 -6.2947 -0.2201
-11.6973 -6.8472 -0.2243
-17.7215 -11.2467 -0.3469
-16.5113 -11.3300 -0.3306
-15.3035 -11.3301 -0.3140
-14.2705 -11.3806 -0.3006
-13.2058 -11.3304 -0.2863
-12.2847 -11.3305 -0.2747
-12.0562 -11.9486 -0.2786
-12.0997 -12.8851 -0.2899
-12.0853 -13.8329 -0.3010
-12.0854 -14.8789 -0.3138
-12.0856 -16.0217 -0.3282
-12.0857 -17.2787 -0.3446
-12.0671 -18.6430 -0.3627
-12.0861 -20.2289 -0.3845
-6.6588 -12.1124 -0.2253
-11.5031 -22.8291 -0.4165
-10.4982 -22.8401 -0.4093
-14.8992 -35.7433 -0.6302
-21.1222 -56.2805 -0.9777
-11.9632 -35.7249 -0.6125
-16.8913 -57.1818 -0.9690
-14.6536 -57.0726 -0.9572
-12.1959 -55.7357 -0.9265
-10.7575 -59.2793 -0.9781
-6.0824 -56.2507 -0.9182
-4.1454 -57.6306 -0.9376
-2.0705 -57.6448 -0.9359
-0.0000 -56.5542 0.3561
2.0244 -56.3594 0.3550
4.0434 -56.2117 0.3547
6.2267 -57.5849 0.3644
8.2707 -57.1926 0.3634
2.2002 -12.1238 0.0774
12.2703 -56.0750 0.3604
8.7404 -34.0416 0.2205
9.9853 -33.8026 0.2209
9.6677 -28.8696 0.1906
1.9965 -5.3197 0.0355
2.1747 -5.2169 0.0353
2.3511 -5.1150 0.0351
2.5264 -5.0139 0.0349
2.7010 -4.9131 0.0348
39.0970 -65.4371 0.4724
38.8729 -60.0552 0.4425
41.6628 -59.5636 0.4486
13.9765 -18.5281 0.1429
14.3202 -17.6299 0.1395
15.0644 -17.2425 0.1403
24.1492 -25.7162 0.2156
28.9458 -28.6870 0.2483
39.5831 -36.5078 0.3272
32.2298 -27.6520 0.2573
33.1370 -26.4257 0.2560
55.5608 -41.1340 0.4162
56.0779 -38.4793 0.4081
34.7965 -22.0824 0.2465
55.1167 -32.2627 0.3806
34.2092 -18.4086 0.2307
55.9306 -27.5556 0.3690
56.3317 -25.2824 0.3640
56.6301 -23.0113 0.3591
55.1199 -20.1241 0.3434
55.3805 -17.9940 0.3394
55.7457 -15.9245 0.3366
56.1551 -13.8819 0.3345
56.5029 -11.8333 0.3325
56.8288 -9.7866 0.3308
55.2153 -7.4792 0.3183
55.5638 -5.5038 0.3176
55.9143 -3.5176 0.3174
56.1668 -1.5126 0.3169
11.7944 0.1059 0.0662
11.7278 0.5267 0.0657
63.3590 5.1298 0.3540
24.2787 2.8461 0.1355
34.1006 10.4071 0.1936
82.9531 31.9855 0.4786
77.2058 32.9997 0.4502
72.0577 33.9081 0.4253
67.4083 34.7285 0.4033
60.1786 33.7907 0.3656
54.9635 33.5125 0.3397
55.7322 36.7887 0.3511
55.6589 39.6804 0.3580
56.2287 43.2129 0.3701
56.9867 47.1438 0.3846
55.1590 49.0712 0.3826
55.8487 53.3971 0.3991
56.6563 58.2032 0.4181
55.2661 61.0115 0.4224
56.0957 66.5825 0.4454
57.0589 72.8825 0.4722
55.5756 76.4937 0.4810
37.0746 59.5962 0.3552
24.2413 46.0335 0.2621
28.7051 59.6072 0.3326
22.7900 72.3440 0.3787
11.7753 42.6670 0.2207
23.0878 97.1278 0.4972
19.6074 97.9986 0.4973
15.8761 97.4070 0.4907
10.2666 81.2690 0.4070
7.3171 81.3008 0.4054
4.3845 81.3340 0.4044
-12.9050 79.1772 0.3990
-9.3508 46.7357 0.2373
-6.9024 29.0375 0.1488
-11.8988 43.1143 0.2232
-13.4765 42.7794 0.2241
-14.9570 42.1371 0.2238
-15.4411 38.9998 0.2103
-14.3214 32.6916 0.1793
-14.3217 29.7395 0.1661
-12.2285 23.2215 0.1324
-16.5398 28.8469 0.1681
-14.4179 23.1764 0.1383
-19.4158 28.8472 0.1767
-19.6773 27.0836 0.1706
-21.2036 27.0838 0.1758
-24.2279 28.7572 0.1927
-26.0171 28.7217 0.1993
-28.6118 29.3929 0.2116
-28.6353 27.3783 0.2050
-6.5017 5.7841 0.0452
-6.5625 5.4290 0.0444
-35.1852 27.0406 0.2321
-37.9297 27.0409 0.2445
-43.2214 28.5304 0.2729
-43.8849 26.7576 0.2719
-50.7938 28.5210 0.3094
-51.9367 26.7575 0.3115
-61.9414 29.1476 0.3665
-72.5193 30.9965 0.4239
-24.8771 9.5922 0.1439
-24.8772 8.5799 0.1426
-24.8773 7.5923 0.1416
-24.8774 6.6261 0.1407
-24.8775 5.6782 0.1401
-11.6962 2.2312 0.0656
-11.6963 1.7988 0.0655
-11.6963 1.3711 0.0655
-11.7013 0.9474 0.0656
-11.7722 0.5287 0.0661
-11.7723 0.1057 0.0663
-11.7723 -0.3170 0.0666
-11.6966 -0.7358 0.0666
-11.6966 -1.1586 0.0670
-11.7014 -1.5850 0.0676
-11.6967 -2.0143 0.0683
-11.6968 -2.4496 0.0690
-11.6968 -2.8915 0.0698
-11.6969 -3.3414 0.0708
-11.6969 -3.8005 0.0719
-11.6472 -4.2523 0.0727
-11.7016 -4.7549 0.0744
-11.7016 -5.2518 0.0758
-11.6972 -5.7629 0.0773
-11.6972 -6.2945 0.0791
-11.6973 -6.8470 0.0810
-17.7220 -11.2467 0.1258
-16.5118 -11.3300 0.1204
-15.3039 -11.3301 0.1149
-14.2709 -11.3806 0.1104
-13.2061 -11.3304 0.1056
-12.2849 -11.3305 0.1017
-11.4563 -11.3539 0.0985
-12.1059 -12.8914 0.1082
-12.0853 -13.8327 0.1127
-10.2966 -12.6764 0.1005
-10.2967 -13.6500 0.1054
-10.2968 -14.7209 0.1110
-10.2970 -15.9079 0.1174
-10.2971 -17.2344 0.1246
-6.6582 -12.1111 0.0860
-10.2975 -20.4362 0.1425
-12.7782 -27.8000 0.1909
-14.8994 -35.7432 0.2418
-21.0049 -55.9671 0.3740
-11.9633 -35.7249 0.2360
-16.8874 -57.1678 0.3738
-14.4238 -56.1768 0.3640
-11.4043 -52.1176 0.3352
-6.5411 -36.0444 0.2303
-6.0824 -56.2506 0.3560
-4.1454 -57.6306 0.3637
-2.0701 -57.6308 0.3631
-0.0000 -56.7483 1.6357
2.0244 -56.3594 1.6255
4.0435 -56.2116 1.6243
6.2268 -57.5849 1.6692
8.1229 -56.1694 1.6354
2.2000 -12.1225 0.3550
6.1779 -28.2323 0.8325
6.2510 -24.3454 0.7239
6.0215 -20.3839 0.6120
6.1435 -18.3454 0.5569
1.9966 -5.3197 0.1635
2.1747 -5.2169 0.1626
2.3512 -5.1150 0.1619
2.5265 -5.0139 0.1614
2.7010 -4.9131 0.1611
6.1639 -10.3163 0.3452
38.6700 -59.7407 2.0433
41.2681 -58.9981 2.0663
27.2770 -36.1595 1.2993
28.6538 -35.2756 1.3030
11.7767 -13.4792 0.5129
24.1442 -25.7103 1.0101
30.8606 -30.5840 1.2436
39.2435 -36.1938 1.5270
35.0499 -30.0709 1.3202
55.1609 -43.9880 2.0155
55.6513 -41.2000 1.9767
55.5667 -38.1275 1.9225
34.7583 -22.0575 1.1736
55.1169 -32.2618 1.8194
34.2274 -18.4178 1.1065
55.5132 -27.3491 1.7603
56.3417 -25.2860 1.7553
39.4036 -16.0108 1.2080
39.3048 -14.3494 1.1875
39.2468 -12.7513 1.1702
55.8434 -15.9515 1.6455
56.1037 -13.8683 1.6361
39.4032 -8.2515 1.1388
39.2476 -6.7583 1.1256
55.2154 -7.4784 1.5735
39.4087 -3.9030 1.1174
39.2481 -2.4685 1.1087
56.1610 -1.5116 1.5825
11.8018 0.1062 0.3322
11.7113 0.5262 0.3297
39.2608 3.1793 1.1067
24.3663 2.8567 0.6887
76.8738 11.8237 2.1816
39.2493 7.4880 1.1198
75.9543 17.3375 2.1816
59.8479 15.9415 1.7329
34.1465 10.4217 0.9981
73.8315 25.4649 2.1816
72.9280 28.1212 2.1816
71.9285 30.7452 2.1816
39.5688 18.6205 1.2187
67.4067 34.7288 2.1115
59.2374 33.2632 1.8904
54.5459 33.2589 1.7763
55.7309 36.7890 1.8554
55.6591 39.6816 1.8979
55.3707 42.5546 1.9376
56.9773 47.1371 2.0504
39.2991 34.9626 1.4575
39.2976 37.5734 1.5056
39.2979 40.3718 1.5592
39.2982 43.3845 1.6191
39.2986 46.6462 1.6861
39.2990 50.1985 1.7614
39.2995 54.0924 1.8463
39.3064 58.4010 1.9430
37.0977 59.6344 1.9376
34.2085 59.6637 1.8965
5.9831 11.3619 0.3540
28.7231 59.6454 1.8241
5.9834 13.6586 0.4107
28.5203 72.0357 2.1334
25.9240 73.0348 2.1334
5.8722 18.6410 0.5379
5.8725 21.2791 0.6074
5.9261 24.9309 0.7049
5.8735 29.3564 0.8234
6.0000 36.8135 1.0257
5.9286 46.9309 1.3007
7.0312 78.1249 2.1566
2.3678 43.9230 1.2093
1.3668 76.1288 2.0932
-1.3668 76.1292 2.0933
-4.1029 76.1095 2.0955
-6.8499 76.1098 2.1011
-9.8296 77.8104 2.1566
-12.6146 77.3969 2.1566
-9.3508 46.7364 1.3110
-6.9016 29.0344 0.8210
-11.9604 43.3381 1.2371
-13.5146 42.9010 1.2380
-14.6180 41.1830 1.2032
-15.4408 38.9998 1.1552
-14.3214 32.6921 0.9833
-14.3217 29.7400 0.9097
-12.2267 23.2185 0.7235
-15.4962 27.0272 0.8594
-14.4179 23.1767 0.7532
-18.1907 27.0275 0.8995
-19.6364 27.0277 0.9228
-21.1595 27.0279 0.9487
-22.7707 27.0281 0.9773
-26.0166 28.7217 1.0723
-28.6118 29.3936 1.1357
-28.6353 27.3789 1.0975
-6.5016 5.7842 0.2412
-32.6477 27.0093 1.1753
-35.1441 27.0096 1.2303
-37.8853 27.0099 1.2924
-42.4179 28.0008 1.4128
-43.7902 26.7006 1.4267
-47.5512 26.7011 1.5181
-44.8506 23.1076 1.4056
-61.6642 29.0182 1.9001
-63.1367 26.9872 1.9159
-24.8771 9.5926 0.7446
-24.8772 8.5803 0.7355
-23.6844 7.2286 0.6926
-23.7043 6.3140 0.6867
-24.8775 5.6786 0.7149
-11.6962 2.2314 0.3339
-11.6963 1.7990 0.3321
-11.6963 1.3713 0.3308
-11.7013 0.9476 0.3300
-11.7722 0.5289 0.3316
-11.7723 0.1059 0.3315
-11.7723 -0.3169 0.3319
-11.6966 -0.7357 0.3306
-11.6966 -1.1584 0.3318
-11.7014 -1.5848 0.3336
-11.6967 -2.0142 0.3356
-11.6968 -2.4494 0.3382
-11.6968 -2.8914 0.3413
-11.6969 -3.3412 0.3448
-11.6969 -3.8003 0.3489
-11.6472 -4.2522 0.3521
-11.7075 -4.7571 0.3591
-11.7076 -5.2543 0.3649
-11.6972 -5.7627 0.3711
-11.6972 -6.2943 0.3783
-11.6973 -6.8468 0.3863
-17.8535 -11.3298 0.6031
-16.5122 -11.3300 0.5715
-15.3043 -11.3301 0.5438
-14.2081 -11.3303 0.5194
-13.2064 -11.3304 0.4976
-12.2852 -11.3305 0.4782
-11.4875 -11.3845 0.4631
-10.6911 -11.3846 0.4474
-12.0853 -13.8324 0.5265
-12.0854 -14.8783 0.5497
-12.0856 -16.0211 0.5758
-10.3507 -14.7977 0.5184
-12.0859 -18.6713 0.6388
-12.0861 -20.2282 0.6771
-6.6576 -12.1098 0.3973
-12.7769 -25.3562 0.8165
-12.7785 -27.8001 0.8801
-14.8996 -35.7430 1.1144
-21.1227 -56.2801 1.7303
-11.9635 -35.7249 1.0847
-16.1154 -54.5536 1.6382
-14.3557 -55.9108 1.6628
-12.1963 -55.7357 1.6438
-10.7578 -59.2793 1.7360
-10.6310 -73.5132 2.1406
-6.0825 -56.2506 1.6307
-4.0393 -56.1545 1.6227
-2.0171 -56.1566 1.6197
0.0000 -43.5291 2.2366
1.5626 -43.5018 2.2366
3.1233 -43.4189 2.2366
4.4641 -41.2827 2.1334
5.9435 -41.0985 2.1334
2.1998 -12.1212 0.6328
6.0623 -27.7037 1.4567
6.2511 -24.3454 1.2909
6.0214 -20.3832 1.0914
6.1436 -18.3454 0.9934
1.9966 -5.3197 0.2917
2.1747 -5.2169 0.2901
2.3512 -5.1150 0.2889
2.5265 -5.0138 0.2881
2.7011 -4.9131 0.2876
6.1813 -10.3454 0.6180
20.6738 -31.9380 1.9506
6.0193 -8.6052 0.5383
6.3244 -8.3837 0.5381
14.0411 -17.2857 1.1408
11.7681 -13.4690 0.9160
5.9809 -6.3688 0.4473
28.5500 -28.2935 2.0571
27.7084 -25.5545 1.9284
28.3343 -24.3087 1.9093
5.9811 -4.7695 0.3911
5.9812 -4.4279 0.3803
6.2907 -4.3163 0.3897
36.6504 -23.2576 2.2166
37.4769 -21.9359 2.2166
34.2456 -18.4270 1.9842
38.9865 -19.2064 2.2166
5.9814 -2.6843 0.3342
5.9814 -2.4303 0.3290
39.2460 -14.3273 2.1281
39.2462 -12.7505 2.1010
39.2464 -11.2100 2.0771
39.2466 -9.7008 2.0564
39.2468 -8.2182 2.0387
39.2470 -6.7576 2.0239
6.3354 -0.8580 0.3248
39.2473 -3.8864 2.0024
39.2475 -2.4679 1.9957
39.2477 -1.0558 1.9915
11.8093 0.1064 0.5988
11.6948 0.5256 0.5933
39.2482 3.1789 1.9945
24.6345 2.8885 1.2558
39.2485 6.0373 2.0095
6.3544 1.2124 0.3272
6.3534 1.4503 0.3295
6.2851 1.6742 0.3287
34.1926 10.4363 1.8058
39.2494 13.5380 2.0963
39.4412 15.2092 2.1334
44.7791 19.1412 2.4566
30.0148 14.1250 1.6727
6.0628 3.1238 0.3438
5.9821 3.3592 0.3457
6.0027 3.6602 0.3541
36.7475 24.2583 2.2166
24.4965 17.4650 1.5139
34.9393 26.8529 2.2166
6.1932 5.1237 0.4042
5.9824 5.3223 0.4025
25.4461 24.3301 1.7690
24.6736 25.3484 1.7769
28.9885 32.0034 2.1683
6.0445 7.1748 0.4709
26.5371 33.8977 2.1604
25.0272 34.4484 2.1362
6.1601 9.1528 0.5534
22.5168 36.1963 2.1375
21.1213 36.8387 2.1288
6.0218 11.4356 0.6478
18.4211 38.2532 2.1275
6.0226 13.7484 0.7520
16.2549 41.0567 2.2119
14.6598 41.3012 2.1949
5.8722 18.6412 0.9787
5.8725 21.2794 1.1053
5.9260 24.9309 1.2829
5.8735 29.3568 1.4987
5.8743 36.0422 1.8279
5.3424 42.2907 2.1335
3.8211 42.4571 2.1335
2.2947 42.5681 2.1335
0.8022 44.6831 2.2366
-0.8022 44.6829 2.2366
-2.4055 44.6244 2.2366
-4.0056 44.5075 2.2366
-5.6003 44.3323 2.2366
-6.8557 42.0638 2.1334
-8.3604 41.7868 2.1334
-6.8852 28.9660 1.4906
-11.4046 41.3250 2.1466
-12.8788 40.8833 2.1466
-13.8457 39.0076 2.0732
-15.4406 38.9998 2.1013
-14.3214 32.6926 1.7884
-14.3217 29.7405 1.6543
-12.2249 23.2156 1.3151
-15.4959 27.0272 1.5620
-14.4178 23.1771 1.3690
-18.1904 27.0275 1.6343
-19.6360 27.0277 1.6763
-21.1590 27.0279 1.7229
-22.7703 27.0281 1.7744
-24.4847 27.0312 1.8318
-28.6118 29.3942 2.0609
-28.6108 27.3561 1.9895
-6.5015 5.7842 0.4375
-32.6469 27.0093 2.1310
-33.6192 25.8384 2.1334
-34.5116 24.6053 2.1334
-35.3586 23.3415 2.1334
-37.2000 22.6830 2.1948
-38.6984 21.7307 2.2366
-39.4370 20.3191 2.2366
-40.1237 18.8822 2.2366
-40.7579 17.4222 2.2366
-24.8771 9.5930 1.3460
-24.8772 8.5807 1.3290
-23.4094 7.1451 1.2367
-23.4095 6.2359 1.2246
-24.8775 5.6790 1.2905
-11.6962 2.2316 0.6025
-11.6963 1.7991 0.5990
-11.6963 1.3714 0.5964
-11.7013 0.9477 0.5948
-11.7722 0.5291 0.5974
-11.7723 0.1061 0.5971
-11.7723 -0.3167 0.5975
-11.6966 -0.7355 0.5949
-11.6966 -1.1583 0.5969
-11.7014 -1.5847 0.6000
-11.6967 -2.0140 0.6033
-11.6968 -2.4493 0.6078
-11.6968 -2.8912 0.6131
-11.6969 -3.3410 0.6192
-11.6969 -3.8002 0.6263
-11.6472 -4.2520 0.6317
-11.7134 -4.7593 0.6445
-11.7136 -5.2568 0.6547
-11.6972 -5.7625 0.6652
-11.6972 -6.2941 0.6779
-11.6973 -6.8466 0.6920
-17.8540 -11.3298 1.0801
-16.5126 -11.3300 1.0233
-15.3047 -11.3301 0.9734
-14.2085 -11.3303 0.9293
-13.2067 -11.3304 0.8901
-12.2855 -11.3305 0.8552
-11.4877 -11.3845 0.8279
-10.6913 -11.3846 0.7997
-12.0853 -13.8321 0.9408
-12.0854 -14.8781 0.9821
-18.7004 -24.7895 1.5915
-10.2968 -14.7204 0.9209
-10.2970 -15.9073 0.9717
-10.2662 -17.1820 1.0266
-6.6569 -12.1085 0.7089
-10.2665 -20.3740 1.1707
-12.7788 -27.8003 1.5703
-14.2970 -34.2969 1.9074
-16.8131 -44.7967 2.4566
-11.9637 -35.7249 1.9346
-11.7688 -39.8389 2.1334
-10.3300 -40.2315 2.1334
-8.8780 -40.5708 2.1334
-7.7741 -42.8375 2.2366
-6.2309 -43.0858 2.2366
-4.6800 -43.2794 2.2366
-3.1232 -43.4179 2.2366
-1.5626 -43.5013 2.2366
0.0000 -30.2278 2.2366
1.0851 -30.2086 2.2366
2.0688 -28.7589 2.1334
3.0999 -28.6671 2.1334
4.1272 -28.5386 2.1334
2.1995 -12.1198 0.9113
6.0165 -27.4939 2.0820
6.0171 -23.4337 1.7896
6.0175 -20.3696 1.5709
6.1437 -18.3454 1.4308
1.9966 -5.3197 0.4202
2.1747 -5.2169 0.4179
2.3512 -5.1150 0.4162
2.5265 -5.0138 0.4150
2.7011 -4.9130 0.4144
6.1815 -10.3454 0.8905
6.1890 -9.5609 0.8414
6.0192 -8.6049 0.7757
6.3247 -8.3840 0.7756
14.0627 -17.3119 1.6469
11.7601 -13.4595 1.3194
6.0203 -6.4105 0.6491
19.9829 -19.8030 2.0759
21.1199 -19.4778 2.1195
22.0318 -18.9011 2.1409
6.0206 -4.8009 0.5678
6.0204 -4.4568 0.5522
23.7631 -16.3043 2.1238
22.3321 -14.1711 1.9486
22.0930 -12.9311 1.8855
22.2421 -11.9678 1.8598
22.9422 -11.3019 1.8826
6.0205 -2.7018 0.4856
6.0207 -2.4462 0.4781
27.1339 -9.9052 2.1244
27.5543 -8.9515 2.1301
28.3072 -8.0850 2.1637
28.6814 -7.0889 2.1708
28.9437 -6.0603 2.1721
29.2073 -5.0285 2.1762
5.9816 -0.8100 0.4431
5.9816 -0.5922 0.4411
5.9817 -0.3760 0.4397
27.4864 -0.7390 2.0164
11.8168 0.1066 0.8663
11.6784 0.5251 0.8567
28.6081 2.3175 2.1027
28.8678 3.3853 2.1287
28.3978 4.3686 2.1035
6.0043 1.1457 0.4474
5.9819 1.3656 0.4489
5.9819 1.5936 0.4528
28.4205 8.6750 2.1727
27.8001 9.5893 2.1496
27.2186 10.4964 2.1317
26.6617 11.3972 2.1182
26.2885 12.3718 2.1218
6.1191 3.1528 0.5026
6.0208 3.3810 0.5040
25.2642 15.4055 2.1591
24.6702 16.2861 2.1564
23.9817 17.0984 2.1479
23.5804 18.1233 2.1683
6.2282 5.1528 0.5892
6.0211 5.3570 0.5873
19.9997 19.1230 2.0159
19.3349 19.8640 2.0191
18.9182 20.8861 2.0521
6.0442 7.1746 0.6830
18.4607 23.5816 2.1799
17.5873 24.2082 2.1776
6.1600 9.1528 0.8028
10.3699 16.6701 1.4282
9.7226 16.9580 1.4218
6.0217 11.4356 0.9399
13.2255 27.4645 2.2166
6.0222 13.7476 1.0912
11.2240 28.3500 2.2166
10.2002 28.7377 2.2166
5.8722 18.6415 1.4205
5.8725 21.2797 1.6043
5.8729 24.7079 1.8455
5.7601 28.7907 2.1335
4.7232 28.9804 2.1335
3.6801 29.1326 2.1335
2.6321 29.2468 2.1335
1.6570 30.7399 2.2366
0.5526 30.7798 2.2366
-0.5526 30.7798 2.2366
-1.6570 30.7396 2.2366
-2.7593 30.6594 2.2366
-3.8578 30.5395 2.2366
-4.9513 30.3798 2.2366
-6.0382 30.1806 2.2366
-6.7886 28.5599 2.1334
-7.8086 28.2954 2.1334
-8.8184 27.9941 2.1334
-9.8165 27.6566 2.1334
-10.8687 27.4528 2.1466
-11.8455 27.0414 2.1466
-12.7276 26.4307 2.1334
-12.1710 23.1135 1.9000
-14.5865 25.4415 2.1334
-14.4178 23.1775 1.9862
-16.3684 24.3208 2.1334
-17.2275 23.7130 2.1334
-18.0639 23.0748 2.1334
-19.1191 22.6946 2.1608
-20.5496 22.6873 2.2294
-21.4149 22.0010 2.2366
-22.1856 21.2131 2.2366
-6.5015 5.7843 0.6343
-23.6385 19.5570 2.2366
-24.3190 18.6910 2.2366
-24.9675 17.8013 2.2366
-25.5834 16.8890 2.2366
-26.1658 15.9553 2.2366
-25.4828 14.3100 2.1335
-25.9724 13.3822 2.1335
-26.4282 12.4376 2.1335
-26.8495 11.4774 2.1335
-24.8771 9.5934 1.9487
-24.8772 8.5811 1.9240
-23.4094 7.1454 1.7900
-23.4095 6.2362 1.7723
-24.8775 5.6794 1.8674
-11.6962 2.2318 0.8717
-11.6963 1.7993 0.8666
-11.6963 1.3716 0.8626
-11.7013 0.9479 0.8602
-11.7722 0.5293 0.8638
-11.7723 0.1062 0.8632
-11.7723 -0.3165 0.8638
-11.6966 -0.7353 0.8599
-11.6966 -1.1581 0.8627
-11.7014 -1.5845 0.8669
-11.6967 -2.0138 0.8717
-11.6968 -2.4491 0.8780
-11.6968 -2.8910 0.8855
-11.6969 -3.3408 0.8943
-11.6969 -3.8000 0.9044
-11.6472 -4.2518 0.9121
-11.7194 -4.7615 0.9308
-11.7197 -5.2594 0.9455
-11.6972 -5.7623 0.9600
-11.6972 -6.2939 0.9782
-11.6973 -6.8464 0.9984
-14.3026 -9.0759 1.2482
-13.0765 -8.9721 1.1689
-15.3050 -11.3301 1.4039
-14.2088 -11.3303 1.3402
-13.0606 -11.2048 1.2694
-12.2857 -11.3305 1.2331
-11.4295 -11.3266 1.1875
-10.6397 -11.3294 1.1472
-10.2655 -11.7491 1.1519
-10.2656 -12.6375 1.2023
-10.2657 -13.6081 1.2590
-10.2659 -14.6759 1.3231
-10.2660 -15.8592 1.3959
-10.2662 -17.1817 1.4791
-6.6563 -12.1071 1.0212
-10.2665 -20.3737 1.6865
-10.3654 -22.5497 1.8349
-11.1991 -26.8651 2.1522
-10.1802 -27.1235 2.1425
-9.1600 -27.3524 2.1334
-8.1716 -27.6616 2.1334
-7.1729 -27.9353 2.1335
-6.1651 -28.1732 2.1335
-5.3983 -29.7458 2.2366
-4.3268 -29.9189 2.2366
-3.2499 -30.0538 2.2366
-2.1688 -30.1503 2.2366
-1.0851 -30.2084 2.2366
0.0000 -23.1348 2.2366
0.8305 -23.1201 2.2366
1.6600 -23.0757 2.2366
2.3727 -21.9416 2.1335
3.1590 -21.8431 2.1335
2.1993 -12.1185 1.1906
4.7185 -21.5621 2.1335
5.4899 -21.3802 2.1335
6.0174 -20.3688 2.0527
6.0177 -17.9689 1.8313
1.9966 -5.3197 0.5491
2.1748 -5.2168 0.5461
2.3512 -5.1150 0.5439
2.5266 -5.0138 0.5424
2.7012 -4.9130 0.5415
6.1816 -10.3454 1.1639
6.1891 -9.5609 1.0998
6.0191 -8.6047 1.0139
6.2121 -8.2346 0.9958
14.2835 -17.5834 2.1866
11.7541 -13.4524 1.7240
6.0200 -6.4101 0.8485
15.9419 -15.7980 2.1652
16.4024 -15.1267 2.1522
16.4185 -14.0852 2.0862
6.0204 -4.8006 0.7424
6.0204 -4.4567 0.7221
6.1821 -4.2416 0.7226
17.3882 -11.0336 1.9844
18.1036 -10.5957 2.0208
18.9848 -10.2148 2.0764
19.8080 -9.7576 2.1263
6.0204 -2.7017 0.6353
6.0207 -2.4461 0.6255
21.1483 -7.7198 2.1664
21.3988 -6.9514 2.1646
21.5587 -6.1572 2.1565
21.7956 -5.3867 2.1589
21.9650 -4.5987 2.1574
22.0343 -3.7932 2.1489
6.0336 -0.8169 0.5850
6.0202 -0.5960 0.5811
6.0298 -0.3790 0.5802
22.0985 -0.5938 2.1226
11.8243 0.1069 1.1351
11.6619 0.5245 1.1203
21.2815 1.7243 2.0485
20.6526 2.4222 1.9946
19.9323 3.0666 1.9339
6.0640 1.1572 0.5919
6.0206 1.3745 0.5919
6.0214 1.6042 0.5971
19.1829 5.8556 1.9215
21.5016 7.4171 2.1785
21.2622 8.1998 2.1821
20.9644 8.9621 2.1827
20.4899 9.6433 2.1675
6.1189 3.1528 0.6587
6.0208 3.3811 0.6606
19.2095 11.7138 2.1520
6.1934 4.0887 0.7097
6.2041 4.4235 0.7285
6.1950 4.7615 0.7469
6.2281 5.1528 0.7725
6.0211 5.3570 0.7701
16.0278 15.3255 2.1185
15.2061 15.6225 2.0824
14.5759 16.0925 2.0736
6.0440 7.1745 0.8958
12.3270 15.7467 1.9092
10.7688 14.8232 1.7489
6.1599 9.1528 1.0530
9.2963 14.9444 1.6796
6.1838 10.7858 1.1863
6.0216 11.4356 1.2331
8.3504 17.3410 1.8361
6.0217 13.7468 1.4315
8.4241 21.2783 2.1827
7.7474 21.8274 2.2089
5.8722 18.6418 1.8638
5.8725 21.2801 2.1050
5.1744 21.7692 2.1335
4.3899 21.9420 2.1335
3.5996 22.0864 2.1335
2.8046 22.2021 2.1335
2.0059 22.2890 2.1335
1.2628 23.4268 2.2366
0.4211 23.4572 2.2366
-0.4211 23.4571 2.2366
-1.2628 23.4266 2.2366
-2.1028 23.3657 2.2366
-2.9400 23.2745 2.2366
-3.7734 23.1530 2.2366
-4.6018 23.0015 2.2366
-5.4242 22.8202 2.2366
-6.2394 22.6093 2.2366
-7.0464 22.3692 2.2366
-7.8441 22.1000 2.2366
-8.6315 21.8022 2.2366
-9.4076 21.4762 2.2366
-10.1713 21.1224 2.2366
-10.9216 20.7413 2.2366
-11.6576 20.3334 2.2366
-12.3783 19.8992 2.2366
-13.0828 19.4394 2.2366
-13.7701 18.9544 2.2366
-14.4394 18.4451 2.2366
-15.0897 17.9120 2.2366
-15.7203 17.3559 2.2366
-16.3303 16.7776 2.2366
-16.9189 16.1776 2.2366
-6.5014 5.7844 0.8316
-17.1980 14.2289 2.1335
-17.6939 13.5995 2.1335
-18.1667 12.9528 2.1334
-18.6158 12.2896 2.1334
-19.0406 11.6108 2.1334
-19.4406 10.9173 2.1334
-19.9849 10.2975 2.1516
-20.3370 9.5713 2.1516
-20.6627 8.8331 2.1516
-20.9616 8.0838 2.1516
-21.2332 7.3245 2.1516
-21.4772 6.5560 2.1516
-21.6935 5.7794 2.1516
-10.9592 2.5021 1.0776
-11.6962 2.2319 1.1417
-11.6963 1.7995 1.1350
-11.6963 1.3718 1.1298
-11.7013 0.9481 1.1265
-11.7030 0.5263 1.1244
-11.7030 0.1058 1.1236
-11.7029 -0.3145 1.1242
-11.6966 -0.7351 1.1257
-11.6966 -1.1579 1.1293
-11.7003 -1.5842 1.1347
-11.7001 -2.0142 1.1412
-11.6997 -2.4495 1.1493
-11.6993 -2.8914 1.1590
-11.6969 -3.3406 1.1702
-11.6969 -3.7998 1.1834
-11.6472 -4.2516 1.1933
-11.7253 -4.7638 1.2183
-11.7249 -5.2615 1.2374
-11.6972 -5.7621 1.2558
-11.6972 -6.2937 1.2795
-11.6973 -6.8462 1.3059
-13.0651 -8.2904 1.4912
-9.3135 -6.3900 1.0887
-13.0814 -9.6838 1.5691
-14.2091 -11.3303 1.7525
-13.0606 -11.2045 1.6597
-12.2860 -11.3305 1.6122
-11.4298 -11.3267 1.5526
-10.6399 -11.3294 1.4998
-10.2655 -11.7488 1.5058
-10.2656 -12.6373 1.5717
-10.2657 -13.6079 1.6457
-10.2659 -14.6756 1.7294
-10.2660 -15.8589 1.8244
-10.2662 -17.1814 1.9331
-6.6557 -12.1058 1.3344
-9.9374 -19.7201 2.1334
-9.2221 -20.0620 2.1334
-8.4951 -20.3782 2.1334
-7.7574 -20.6681 2.1334
-7.0099 -20.9316 2.1334
-6.2535 -21.1682 2.1334
-5.7549 -22.4124 2.2366
-4.9463 -22.6033 2.2366
-4.1315 -22.7652 2.2366
-3.3115 -22.8980 2.2366
-2.4873 -23.0015 2.2366
-1.6599 -23.0755 2.2366
-0.8305 -23.1200 2.2366
0.0000 -18.7224 2.2366
0.6721 -18.7105 2.2366
1.3434 -18.6745 2.2366
1.9564 -18.0910 2.1737
2.5565 -17.6768 2.1335
2.1855 -12.0421 1.4619
3.8185 -17.4491 2.1335
4.4427 -17.3016 2.1335
5.0612 -17.1320 2.1335
5.6733 -16.9403 2.1335
1.9967 -5.3196 0.6785
2.1748 -5.2168 0.6749
2.3513 -5.1150 0.6721
2.5266 -5.0138 0.6703
2.7012 -4.9130 0.6693
6.1817 -10.3454 1.4385
6.1892 -9.5608 1.3593
6.0191 -8.6044 1.2531
6.2124 -8.2347 1.2308
6.2058 -7.6394 1.1742
11.7481 -13.4453 2.1299
6.0198 -6.4097 1.0488
13.0680 -12.9498 2.1940
13.5686 -12.5130 2.2008
14.0564 -12.0585 2.2079
6.0202 -4.8003 0.9178
6.0202 -4.4565 0.8927
6.1738 -4.2357 0.8922
15.6645 -9.9396 2.2103
16.0381 -9.3866 2.2136
16.3897 -8.8182 2.2166
16.6988 -8.2257 2.2166
6.0204 -2.7015 0.7856
6.0206 -2.4460 0.7735
17.4962 -6.3864 2.2166
17.7175 -5.7553 2.2166
17.9025 -5.1126 2.2149
18.0582 -4.4627 2.2125
18.1701 -3.8039 2.2076
18.2541 -3.1422 2.2022
6.0332 -0.8168 0.7237
6.0202 -0.5959 0.7190
6.0296 -0.3789 0.7179
18.4657 -0.4959 2.1945
11.8319 0.1071 1.4054
11.6454 0.5239 1.3843
18.5738 1.5052 2.2124
18.3162 2.1485 2.1890
17.9099 2.7557 2.1505
6.0639 1.1572 0.7325
6.0205 1.3746 0.7326
6.0212 1.6042 0.7391
16.9359 5.1700 2.0998
16.9435 5.8450 2.1250
17.1561 6.6165 2.1796
17.1538 7.3333 2.2109
16.9241 7.9653 2.2164
6.1187 3.1528 0.8155
6.0207 3.3812 0.8179
15.9701 9.7388 2.2152
6.1830 4.0820 0.8773
6.1889 4.4127 0.8999
6.1895 4.7574 0.9241
6.2279 5.1528 0.9566
6.0210 5.3571 0.9537
13.4973 12.9062 2.2095
12.9955 13.3517 2.2041
12.5841 13.8937 2.2172
6.0438 7.1744 1.1094
6.1785 7.8926 1.1853
10.2675 14.1334 2.0655
6.1598 9.1528 1.3043
8.7077 13.9985 1.9488
6.1164 10.6684 1.4535
6.0214 11.4354 1.5274
6.0215 12.5048 1.6402
6.0216 13.7467 1.7734
6.8653 17.3412 2.2037
6.2248 17.5381 2.1987
5.4258 17.2249 2.1335
4.8043 17.4095 2.1335
4.1766 17.5716 2.1335
3.5433 17.7109 2.1335
2.9054 17.8273 2.1335
2.2637 17.9206 2.1335
1.6973 18.8599 2.2366
1.0193 18.9089 2.2366
0.3399 18.9334 2.2366
-0.3399 18.9334 2.2366
-1.0192 18.9088 2.2366
-1.6973 18.8597 2.2366
-2.3731 18.7862 2.2366
-3.0457 18.6883 2.2366
-3.7144 18.5662 2.2366
-4.3782 18.4201 2.2366
-5.0363 18.2501 2.2366
-5.6878 18.0565 2.2366
-6.3318 17.8395 2.2366
-6.9675 17.5994 2.2366
-7.5941 17.3366 2.2366
-8.2108 17.0513 2.2366
-8.8167 16.7441 2.2366
-9.4110 16.4152 2.2366
-9.9931 16.0650 2.2366
-10.5621 15.6942 2.2366
-11.1173 15.3032 2.2366
-11.1206 14.2060 2.1335
-11.6217 13.7957 2.1335
-12.1077 13.3677 2.1335
-12.5778 12.9226 2.1334
-13.0315 12.4608 2.1334
-6.5013 5.7845 1.0298
-13.8873 11.4900 2.1334
-14.2883 10.9823 2.1334
-14.7963 10.5500 2.1516
-15.1629 10.0104 2.1516
-15.5097 9.4580 2.1516
-15.8364 8.8936 2.1516
-16.1425 8.3179 2.1516
-16.4276 7.7317 2.1516
-16.6914 7.1357 2.1516
-16.9336 6.5307 2.1516
-17.1538 5.9175 2.1516
-17.3518 5.2970 2.1516
-17.5273 4.6698 2.1516
-10.9584 2.5021 1.3336
-11.6962 2.2321 1.4130
-11.6963 1.7997 1.4046
-11.6963 1.3720 1.3980
-11.6964 0.9479 1.3934
-11.6964 0.5262 1.3905
-11.6965 0.1059 1.3894
-11.6965 -0.3141 1.3902
-11.6966 -0.7350 1.3927
-11.6966 -1.1577 1.3971
-11.6967 -1.5835 1.4032
-11.6967 -2.0134 1.4113
-11.6968 -2.4487 1.4213
-11.6968 -2.8906 1.4333
-11.6969 -3.3404 1.4473
-11.6969 -3.7996 1.4636
-11.6472 -4.2514 1.4758
-11.7166 -4.7600 1.5055
-11.7160 -5.2574 1.5290
-11.6972 -5.7619 1.5529
-11.6972 -6.2935 1.5822
-11.6973 -6.8460 1.6147
-13.0655 -8.2904 1.8438
-8.9588 -6.1465 1.2948
-13.0817 -9.6838 1.9400
-14.2095 -11.3303 2.1665
-13.0606 -11.2042 2.0517
-12.2863 -11.3305 1.9930
-11.4310 -11.3276 1.9193
-10.6401 -11.3294 1.8540
-10.2655 -11.7486 1.8613
-10.2656 -12.6370 1.9426
-10.2657 -13.6076 2.0340
-10.2659 -14.6753 2.1374
-9.7129 -15.0043 2.1334
-9.1671 -15.3417 2.1334
-6.6161 -12.0335 1.6394
-8.0411 -15.9568 2.1334
-7.4625 -16.2338 2.1334
-6.8743 -16.4899 2.1334
-6.2775 -16.7249 2.1334
-5.9472 -17.7581 2.2366
-5.3055 -17.9591 2.2366
-4.6572 -18.1371 2.2366
-4.0029 -18.2917 2.2366
-3.3435 -18.4230 2.2366
-2.6799 -18.5306 2.2366
-2.0129 -18.6144 2.2366
-1.3434 -18.6743 2.2366
-0.6721 -18.7104 2.2366
0.0000 -15.7099 2.2366
0.5640 -15.6999 2.2366
1.1273 -15.6697 2.2366
1.6891 -15.6194 2.2366
2.1470 -14.8451 2.1353
2.1834 -12.0302 1.7406
3.2041 -14.6412 2.1335
3.7278 -14.5173 2.1335
4.2468 -14.3748 2.1335
4.7603 -14.2139 2.1335
1.9967 -5.3196 0.8087
2.1748 -5.2168 0.8044
2.3513 -5.1149 0.8011
2.5266 -5.0137 0.7989
2.7012 -4.9130 0.7977
6.0187 -10.0725 1.6693
6.0189 -9.2976 1.5756
6.0190 -8.6041 1.4936
6.1549 -8.1584 1.4535
9.8278 -12.0978 2.2166
10.2569 -11.7385 2.2166
6.0195 -6.4093 1.2502
11.0754 -10.9749 2.2166
6.1789 -5.6981 1.1947
11.8373 -10.1546 2.2166
6.0199 -4.8000 1.0941
6.0200 -4.4562 1.0642
6.1739 -4.2357 1.0637
6.1843 -3.9240 1.0404
13.4698 -7.8832 2.2166
13.7462 -7.3957 2.2166
14.0050 -6.8985 2.2166
6.0204 -2.7014 0.9367
6.0204 -2.4458 0.9223
6.1789 -2.2553 0.9335
14.8576 -4.8261 2.2166
15.0238 -4.2903 2.2166
15.1706 -3.7489 2.2166
15.2980 -3.2024 2.2166
15.4057 -2.6516 2.2166
6.0327 -0.8166 0.8631
6.0201 -0.5958 0.8575
6.0295 -0.3788 0.8562
15.6373 -0.4197 2.2166
11.8395 0.1074 1.6774
11.6289 0.5234 1.6489
15.5998 1.2644 2.2166
15.5470 1.8239 2.2166
15.4533 2.3780 2.2136
6.0638 1.1573 0.8739
6.0205 1.3747 0.8740
6.0210 1.6043 0.8817
14.9325 4.5587 2.2090
14.7671 5.0944 2.2098
14.6129 5.6359 2.2152
14.4125 6.1617 2.2166
14.1843 6.6761 2.2166
6.1185 3.1528 0.9731
6.0207 3.3813 0.9760
13.3905 8.1659 2.2166
6.1830 4.0820 1.0469
6.1888 4.4128 1.0739
6.1895 4.7574 1.1028
6.2278 5.1528 1.1417
6.0210 5.3572 1.1382
6.1778 5.9074 1.2071
10.9494 11.2498 2.2166
10.5398 11.6369 2.2166
6.0437 7.1744 1.3242
9.5563 12.2079 2.1883
6.0666 8.3509 1.4568
6.0211 8.9469 1.5219
6.0212 9.6798 1.6086
6.0212 10.5026 1.7081
6.0213 11.4354 1.8234
6.0214 12.5049 1.9580
6.0215 13.7467 2.1170
5.5675 14.0634 2.1335
5.0595 14.2550 2.1335
4.5448 14.4282 2.1335
4.0242 14.5827 2.1335
3.4983 14.7184 2.1335
2.9679 14.8350 2.1335
2.4336 14.9324 2.1335
1.9445 15.3937 2.1880
1.4216 15.7972 2.2366
0.8537 15.8382 2.2366
0.2847 15.8587 2.2366
-0.2847 15.8587 2.2366
-0.8537 15.8382 2.2366
-1.4216 15.7971 2.2366
-1.9877 15.7355 2.2366
-2.5511 15.6536 2.2366
-3.1112 15.5515 2.2366
-3.6673 15.4292 2.2366
-4.2185 15.2869 2.2366
-4.7642 15.1249 2.2366
-5.3037 14.9433 2.2366
-5.8363 14.7424 2.2366
-6.3613 14.5224 2.2366
-6.8779 14.2837 2.2366
-7.3856 14.0265 2.2366
-7.8836 13.7512 2.2366
-8.3714 13.4581 2.2366
-8.4398 12.5410 2.1334
-8.8836 12.2287 2.1334
-6.9448 8.8718 1.5904
-9.7359 11.5573 2.1334
-10.1433 11.1991 2.1334
-10.5374 10.8265 2.1334
-10.9178 10.4399 2.1334
-6.5013 5.7845 1.2291
-11.7352 9.7096 2.1516
-12.0745 9.2809 2.1516
-12.3981 8.8403 2.1516
-12.7056 8.3883 2.1516
-12.9966 7.9257 2.1516
-13.2707 7.4530 2.1516
-13.5276 6.9708 2.1516
-13.7670 6.4797 2.1516
-13.9885 5.9804 2.1516
-14.1919 5.4735 2.1516
-14.3769 4.9598 2.1516
-14.5432 4.4398 2.1516
-14.6908 3.9143 2.1516
-10.9576 2.5021 1.5909
-11.6962 2.2323 1.6857
-6.7975 1.0460 0.9738
-11.6963 1.3722 1.6678
-11.6964 0.9481 1.6621
-11.6964 0.5264 1.6587
-11.6965 0.1061 1.6573
-11.6965 -0.3139 1.6582
-11.6966 -0.7348 1.6611
-11.6966 -1.1575 1.6663
-11.6967 -1.5833 1.6736
-11.6967 -2.0133 1.6831
-11.6968 -2.4485 1.6950
-11.6968 -2.8904 1.7092
-11.6969 -3.3403 1.7259
-11.6969 -3.7994 1.7452
-11.6510 -4.2526 1.7603
-11.7079 -4.7563 1.7939
-11.7072 -5.2532 1.8218
-11.6972 -5.7617 1.8515
-11.6972 -6.2933 1.8864
-11.6973 -6.8458 1.9251
-12.9373 -8.2088 2.1766
-8.9738 -6.1566 1.5462
-12.3115 -9.1134 2.1766
-11.9748 -9.5482 2.1766
-11.6228 -9.9706 2.1766
-11.2559 -10.3801 2.1766
-10.8747 -10.7761 2.1766
-10.4796 -11.1582 2.1766
-9.8710 -11.2969 2.1334
-9.4581 -11.6427 2.1334
-9.0331 -11.9735 2.1334
-8.5966 -12.2888 2.1334
-8.1491 -12.5883 2.1334
-7.6912 -12.8716 2.1334
-6.6089 -12.0202 1.9518
-6.7468 -13.3881 2.1334
-6.2613 -13.6207 2.1334
-6.0471 -14.5054 2.2366
-5.5221 -14.7122 2.2366
-4.9901 -14.9002 2.2366
-4.4518 -15.0690 2.2366
-3.9078 -15.2184 2.2366
-3.3588 -15.3483 2.2366
-2.8056 -15.4585 2.2366
-2.2487 -15.5489 2.2366
-1.6891 -15.6192 2.2366
-1.1272 -15.6696 2.2366
-0.5640 -15.6999 2.2366
0.0000 -13.5205 2.2366
0.4854 -13.5118 2.2366
0.9702 -13.4858 2.2366
1.4537 -13.4425 2.2366
1.9354 -13.3819 2.2366
2.1813 -12.0183 2.0204
2.7575 -12.6005 2.1335
3.2082 -12.4938 2.1335
3.6549 -12.3711 2.1335
4.0968 -12.2324 2.1335
1.9967 -5.3196 0.9397
2.1749 -5.2168 0.9347
2.3513 -5.1149 0.9309
2.5267 -5.0137 0.9283
2.7013 -4.9129 0.9270
6.0187 -10.0722 1.9398
6.0188 -9.2973 1.8309
6.0189 -8.6038 1.7356
6.0190 -7.9781 1.6518
6.0191 -7.4092 1.5776
6.0192 -6.8885 1.5117
6.0192 -6.4089 1.4528
6.2492 -6.1924 1.4535
9.8640 -9.0962 2.2166
10.1854 -8.7372 2.2166
6.0197 -4.7997 1.2715
6.0198 -4.4559 1.2368
6.1740 -4.2356 1.2363
6.1776 -3.9196 1.2079
6.1805 -3.6170 1.1821
11.8265 -6.3626 2.2166
12.0488 -5.9347 2.2166
6.0202 -2.7012 1.0888
6.0202 -2.4456 1.0721
6.1789 -2.2552 1.0851
12.7813 -4.1514 2.2166
12.9239 -3.6905 2.2166
13.0499 -3.2246 2.2166
13.1592 -2.7545 2.2166
13.2515 -2.2807 2.2166
6.0323 -0.8165 1.0033
6.0201 -0.5957 0.9969
6.0293 -0.3787 0.9954
13.4495 -0.3608 2.2166
11.8472 0.1076 1.9516
11.6122 0.5228 1.9145
13.4163 1.0877 2.2166
13.3706 1.5688 2.2166
13.3077 2.0480 2.2166
6.0637 1.1574 1.0161
6.0205 1.3748 1.0163
6.0208 1.6043 1.0253
12.8850 3.9338 2.2166
12.7373 4.3944 2.2166
12.5731 4.8494 2.2166
12.3927 5.2983 2.2166
12.1961 5.7405 2.2166
6.1183 3.1528 1.1317
6.0206 3.3813 1.1352
6.1772 3.7671 1.1893
6.1830 4.0821 1.2177
6.1888 4.4129 1.2491
6.1894 4.7575 1.2828
6.2276 5.1528 1.3280
6.0208 5.3572 1.3240
9.7529 9.3262 2.2166
6.1724 6.3418 1.4535
6.0444 6.6738 1.4787
6.0209 7.1474 1.5346
6.0209 7.6917 1.6039
6.0210 8.2883 1.6819
6.0210 8.9469 1.7704
6.0211 9.6799 1.8713
6.0211 10.5027 1.9871
6.0212 11.4355 2.1212
5.6398 11.7126 2.1335
5.2161 11.9082 2.1335
4.7856 12.0884 2.1335
4.3489 12.2530 2.1335
2.7950 8.8734 1.5265
3.4589 12.5345 2.1335
3.0069 12.6511 2.1335
2.5510 12.7512 2.1335
2.0917 12.8349 2.1335
1.7085 13.5254 2.2366
1.2219 13.5782 2.2366
0.7338 13.6134 2.2366
0.2447 13.6310 2.2366
-0.2447 13.6310 2.2366
-0.7338 13.6133 2.2366
-1.2219 13.5781 2.2366
-1.7084 13.5252 2.2366
-2.1927 13.4549 2.2366
-2.6742 13.3671 2.2366
-3.1521 13.2621 2.2366
-3.6260 13.1399 2.2366
-4.0951 13.0007 2.2366
-4.5588 12.8447 2.2366
-5.0166 12.6721 2.2366
-5.4679 12.4832 2.2366
-5.9121 12.2781 2.2366
-6.3485 12.0571 2.2366
-6.7767 11.8206 2.2366
-6.8644 11.0356 2.1335
-7.2554 10.7812 2.1335
-7.6369 10.5128 2.1335
-6.9361 8.8609 1.8478
-8.3697 9.9358 2.1334
-8.7200 9.6279 2.1334
-9.0590 9.3077 2.1334
-9.3861 8.9755 2.1334
-6.5012 5.7846 1.4297
-10.0035 8.2770 2.1334
-10.3809 7.9794 2.1516
-10.6594 7.6007 2.1516
-10.9240 7.2123 2.1516
-11.1744 6.8147 2.1516
-11.4103 6.4083 2.1516
-11.6315 5.9939 2.1516
-11.8375 5.5717 2.1516
-12.0282 5.1425 2.1516
-12.2034 4.7068 2.1516
-12.3627 4.2652 2.1516
-12.5061 3.8181 2.1516
-12.6332 3.3663 2.1516
-11.0111 2.5145 1.8590
-6.5605 1.2522 1.0995
-6.7404 1.0373 1.1228
-6.5687 0.7707 1.0891
-11.6964 0.9482 1.9326
-11.6964 0.5266 1.9285
-11.6965 0.1063 1.9270
-11.6965 -0.3138 1.9279
-11.6966 -0.7346 1.9313
-11.6966 -1.1574 1.9372
-11.6967 -1.5831 1.9456
-11.6967 -2.0131 1.9567
-11.6968 -2.4484 1.9704
-11.6968 -2.8903 1.9869
-11.6969 -3.3401 2.0063
-11.6969 -3.7992 2.0287
-11.6558 -4.2542 2.0471
-11.6991 -4.7525 2.0836
-11.6982 -5.2490 2.1159
-11.6972 -5.7615 2.1521
-11.6121 -6.2473 2.1766
-11.3789 -6.6593 2.1766
-11.1311 -7.0626 2.1766
-8.9887 -6.1667 1.8001
-10.5931 -7.8411 2.1766
-10.0988 -8.0521 2.1334
-9.8021 -8.4085 2.1334
-9.4929 -8.7540 2.1334
-9.1716 -9.0882 2.1334
-8.8385 -9.4106 2.1334
-8.4941 -9.7209 2.1334
-8.1389 -10.0186 2.1334
-7.7733 -10.3034 2.1334
-7.3977 -10.5749 2.1334
-7.0128 -10.8328 2.1334
-6.6188 -11.0767 2.1334
-6.2165 -11.3064 2.1334
-6.0872 -12.0791 2.2366
-5.6493 -12.2890 2.2366
-5.2042 -12.4832 2.2366
-4.7524 -12.6613 2.2366
-4.2946 -12.8232 2.2366
-3.8313 -12.9685 2.2366
-3.3632 -13.0972 2.2366
-2.8907 -13.2090 2.2366
-2.4146 -13.3039 2.2366
-1.9353 -13.3818 2.2366
-1.4537 -13.4424 2.2366
-0.9701 -13.4857 2.2366
-0.4854 -13.5118 2.2366
0.0000 -11.8558 2.2366
0.4257 -11.8482 2.2366
0.8507 -11.8254 2.2366
1.2747 -11.7874 2.2366
1.6971 -11.7342 2.2366
2.0198 -11.1283 2.1335
2.4180 -11.0489 2.1335
2.8132 -10.9553 2.1335
3.2048 -10.8477 2.1335
3.5924 -10.7261 2.1335
1.9968 -5.3196 1.0716
2.1749 -5.2168 1.0659
2.3514 -5.1149 1.0616
2.5267 -5.0137 1.0587
2.7013 -4.9129 1.0572
5.8043 -9.7134 2.1335
6.0187 -9.2970 2.0881
6.0188 -8.6036 1.9795
6.0189 -7.9778 1.8839
6.0190 -7.4090 1.7993
6.0191 -6.8883 1.7241
6.0192 -6.4087 1.6569
6.0193 -5.9644 1.5968
6.0193 -5.5506 1.5428
6.0260 -5.1691 1.4958
6.0194 -4.7994 1.4503
6.0195 -4.4556 1.4107
6.1741 -4.2356 1.4102
6.1842 -3.9237 1.3793
10.1597 -5.9455 2.2166
10.3677 -5.5776 2.2166
10.5625 -5.2025 2.2166
6.0200 -2.7010 1.2420
6.0200 -2.4454 1.2230
6.1788 -2.2551 1.2378
11.2039 -3.6389 2.2166
6.1787 -1.7642 1.2089
6.1803 -1.5270 1.1976
6.1818 -1.2939 1.1880
6.1899 -1.0652 1.1812
6.0318 -0.8163 1.1446
6.0200 -0.5956 1.1374
6.0292 -0.3786 1.1357
11.7880 -0.3160 2.2166
11.7933 0.1073 2.2166
11.5956 0.5222 2.1813
11.7583 0.9534 2.2166
11.7180 1.3751 2.2166
6.1999 0.9543 1.1784
6.0635 1.1575 1.1594
6.0204 1.3749 1.1597
6.0206 1.6044 1.1700
6.1976 1.8922 1.2166
11.1618 3.8510 2.2166
11.0177 4.2497 2.2166
10.8594 4.6430 2.2166
10.6870 5.0304 2.2166
6.1181 3.1528 1.2915
6.0206 3.3814 1.2955
10.0878 6.1522 2.2166
6.1829 4.0822 1.3897
6.1888 4.4130 1.4256
6.1450 4.7235 1.4535
6.0504 5.0063 1.4726
6.0207 5.3571 1.5110
6.0207 5.7574 1.5618
6.0207 6.1861 1.6182
6.0208 6.6477 1.6812
6.0208 7.1475 1.7516
6.0208 7.6917 1.8306
6.0209 8.2883 1.9198
6.0209 8.9470 2.0208
6.0210 9.6799 2.1360
5.6635 9.8790 2.1335
5.3056 10.0766 2.1335
4.9408 10.2611 2.1335
4.5696 10.4324 2.1335
4.1924 10.5902 2.1335
3.8098 10.7343 2.1335
2.7921 8.8643 1.7407
3.0301 10.9808 2.1335
2.6341 11.0828 2.1335
2.2347 11.1706 2.1335
1.9209 11.7871 2.2366
1.4967 11.8487 2.2366
1.0704 11.8949 2.2366
0.6428 11.9257 2.2366
0.2144 11.9412 2.2366
-0.2144 11.9412 2.2366
-0.6428 11.9257 2.2366
-1.0704 11.8948 2.2366
-1.4966 11.8485 2.2366
-1.9209 11.7870 2.2366
-2.3426 11.7101 2.2366
-2.7614 11.6181 2.2366
-3.1765 11.5112 2.2366
-3.5874 11.3893 2.2366
-3.9937 11.2527 2.2366
-4.3948 11.1016 2.2366
-4.7902 10.9361 2.2366
-5.1793 10.7565 2.2366
-5.5617 10.5631 2.2366
-5.9369 10.3560 2.2366
-6.3043 10.1355 2.2366
-6.3564 9.4456 2.1335
-6.6908 9.2106 2.1335
-6.9274 8.8499 2.1064
-7.3330 8.7053 2.1335
-7.6400 8.4357 2.1335
-7.9371 8.1552 2.1334
-8.2239 7.8643 2.1334
-6.5012 5.7847 1.6317
-8.7651 7.2525 2.1334
-9.0187 6.9325 2.1334
-9.2607 6.6036 2.1334
-9.4907 6.2662 2.1334
-9.7084 5.9208 2.1334
-9.9135 5.5679 2.1334
-10.1922 5.2523 2.1516
-10.3729 4.8825 2.1516
-10.5402 4.5065 2.1516
-10.6938 4.1248 2.1516
-10.8337 3.7378 2.1516
-10.9595 3.3461 2.1516
-11.0711 2.9502 2.1516
-11.0103 2.5145 2.1211
-6.5473 1.2498 1.2521
-6.5876 1.0139 1.2521
-6.5474 0.7683 1.2386
-11.5452 0.9361 2.1766
-11.5699 0.5210 2.1766
-11.5796 0.1054 2.1766
-11.5744 -0.3103 2.1766
-11.5543 -0.7255 2.1766
-11.5193 -1.1396 2.1766
-11.4695 -1.5522 2.1766
-11.4049 -1.9627 2.1766
-11.3256 -2.3705 2.1766
-11.2318 -2.7752 2.1766
-11.1235 -3.1762 2.1766
-11.0009 -3.5730 2.1766
-10.8642 -3.9651 2.1766
-10.7135 -4.3520 2.1766
-10.5492 -4.7332 2.1766
-10.3712 -5.1083 2.1766
-9.9776 -5.3678 2.1334
-9.7774 -5.7219 2.1334
-9.5646 -6.0685 2.1334
-9.0029 -6.1763 2.0564
-9.1026 -6.7377 2.1334
-8.8539 -7.0594 2.1334
-8.5939 -7.3719 2.1334
-8.3229 -7.6750 2.1334
-8.0413 -7.9680 2.1334
-7.7494 -8.2508 2.1334
-7.4475 -8.5230 2.1334
-7.1361 -8.7841 2.1334
-6.8157 -9.0339 2.1334
-6.4865 -9.2720 2.1334
-6.1490 -9.4983 2.1334
-6.0845 -10.1823 2.2366
-5.7147 -10.3935 2.2366
-5.3375 -10.5913 2.2366
-4.9536 -10.7755 2.2366
-4.5633 -10.9458 2.2366
-4.1672 -11.1021 2.2366
-3.7658 -11.2441 2.2366
-3.3596 -11.3716 2.2366
-2.9491 -11.4844 2.2366
-2.5348 -11.5826 2.2366
-2.1173 -11.6658 2.2366
-1.6971 -11.7341 2.2366
-1.2747 -11.7873 2.2366
-0.8507 -11.8253 2.2366
-0.4256 -11.8482 2.2366
0.0000 -10.5462 2.2366
0.3786 -10.5395 2.2366
0.7568 -10.5192 2.2366
1.1340 -10.4854 2.2366
1.5097 -10.4381 2.2366
1.8835 -10.3773 2.2366
2.1510 -9.8284 2.1335
2.5025 -9.7451 2.1335
2.8508 -9.6493 2.1335
3.1955 -9.5411 2.1335
1.9968 -5.3196 1.2047
2.1749 -5.2167 1.1983
2.3514 -5.1149 1.1935
2.5267 -5.0137 1.1902
2.7013 -4.9129 1.1885
5.1630 -8.6399 2.1335
5.4702 -8.4495 2.1335
5.7704 -8.2483 2.1335
6.0189 -7.9776 2.1179
6.0190 -7.4088 2.0228
6.0190 -6.8881 1.9383
6.0191 -6.4085 1.8628
6.0192 -5.9642 1.7953
6.0193 -5.5505 1.7345
6.0193 -5.1633 1.6799
6.0194 -4.7992 1.6306
6.0194 -4.4554 1.5861
6.0195 -4.1294 1.5458
6.0195 -3.8191 1.5095
6.0402 -3.5347 1.4817
6.0642 -3.2623 1.4578
6.1599 -3.0339 1.4535
6.0198 -2.7008 1.3965
6.0198 -2.4452 1.3751
6.1788 -2.2549 1.3918
9.9638 -3.2359 2.2166
10.0746 -2.8765 2.2166
10.1726 -2.5133 2.2166
10.2574 -2.1467 2.2166
10.3291 -1.7774 2.2166
6.0315 -0.8162 1.2871
6.0200 -0.5955 1.2791
6.0290 -0.3785 1.2771
10.4820 -0.2809 2.2166
10.4866 0.0956 2.2166
10.4776 0.4720 2.2166
10.4552 0.8479 2.2166
10.4192 1.2228 2.2166
10.3698 1.5962 2.2166
6.0634 1.1575 1.3040
6.0204 1.3750 1.3043
6.0204 1.6044 1.3158
10.0392 3.0653 2.2166
9.9239 3.4241 2.2166
9.7957 3.7785 2.2166
9.6548 4.1281 2.2166
6.2304 2.9328 1.4535
6.1179 3.1528 1.4526
6.0204 3.3814 1.4572
6.0320 3.6788 1.4909
6.0205 3.9751 1.5222
6.0205 4.2932 1.5600
6.0205 4.6279 1.6019
6.0206 4.9817 1.6483
6.0206 5.3572 1.6997
6.0206 5.7575 1.7568
6.0207 6.1862 1.8204
6.0207 6.6478 1.8912
6.0207 7.1475 1.9704
6.0208 7.6918 2.0594
5.9480 8.1881 2.1335
5.6506 8.3968 2.1335
5.3459 8.5948 2.1335
5.0343 8.7817 2.1335
4.7161 8.9572 2.1335
4.3918 9.1212 2.1335
4.0618 9.2734 2.1335
3.7266 9.4136 2.1335
3.3864 9.5417 2.1335
2.7892 8.8551 1.9563
2.6934 9.7607 2.1335
2.3414 9.8513 2.1335
1.9864 9.9293 2.1335
1.7074 10.4773 2.2366
1.3303 10.5320 2.2366
0.9515 10.5730 2.2366
0.5714 10.6005 2.2366
0.1905 10.6142 2.2366
-0.1905 10.6142 2.2366
-0.5714 10.6004 2.2366
-0.9514 10.5730 2.2366
-1.3303 10.5319 2.2366
-1.7074 10.4772 2.2366
-2.0823 10.4089 2.2366
-2.4545 10.3272 2.2366
-2.8235 10.2321 2.2366
-3.1888 10.1238 2.2366
-3.5499 10.0025 2.2366
-3.9065 9.8682 2.2366
-4.2580 9.7212 2.2366
-4.6039 9.5616 2.2366
-4.9438 9.3897 2.2366
-5.2774 9.2057 2.2366
-5.6040 9.0097 2.2366
-5.9234 8.8022 2.2366
-6.0954 8.3911 2.1865
-6.2373 7.9684 2.1335
-6.5187 7.7388 2.1335
-6.7917 7.4992 2.1335
-7.0559 7.2500 2.1335
-7.3109 6.9914 2.1335
-6.5011 5.7848 1.8355
-7.7922 6.4477 2.1334
-8.0178 6.1632 2.1334
-8.2330 5.8709 2.1334
-8.4376 5.5710 2.1334
-8.6312 5.2640 2.1334
-8.8137 4.9503 2.1334
-8.9847 4.6303 2.1334
-9.1441 4.3043 2.1334
-9.2917 3.9729 2.1334
-9.4272 3.6364 2.1334
-9.5506 3.2953 2.1334
-9.6616 2.9500 2.1334
-9.7601 2.6010 2.1334
-9.8461 2.2487 2.1334
-6.5473 1.2499 1.4082
-6.5621 1.0101 1.4028
-6.5474 0.7684 1.3930
-10.0618 0.8160 2.1334
-10.0834 0.4543 2.1334
-10.0920 0.0920 2.1334
-10.0876 -0.2703 2.1334
-10.0702 -0.6321 2.1334
-10.0399 -0.9931 2.1334
-9.9966 -1.3527 2.1334
-9.9404 -1.7105 2.1334
-9.8715 -2.0660 2.1334
-9.7898 -2.4187 2.1334
-9.6956 -2.7683 2.1334
-9.5889 -3.1142 2.1334
-9.4698 -3.4560 2.1334
-9.3387 -3.7933 2.1334
-9.1955 -4.1257 2.1334
-9.0405 -4.4527 2.1334
-8.8739 -4.7738 2.1334
-8.6959 -5.0888 2.1334
-8.5068 -5.3971 2.1334
-8.3067 -5.6985 2.1334
-8.0960 -5.9924 2.1334
-7.8749 -6.2786 2.1334
-7.6438 -6.5567 2.1334
-7.4028 -6.8263 2.1334
-7.1524 -7.0871 2.1334
-6.8928 -7.3387 2.1334
-6.6244 -7.5808 2.1334
-6.3475 -7.8131 2.1334
-6.1001 -8.0852 2.1466
-6.0489 -8.6465 2.2366
-5.7342 -8.8575 2.2366
-5.4122 -9.0571 2.2366
-5.0833 -9.2450 2.2366
-4.7479 -9.4210 2.2366
-4.4063 -9.5849 2.2366
-4.0592 -9.7365 2.2366
-3.7069 -9.8755 2.2366
-3.3498 -10.0019 2.2366
-2.9885 -10.1153 2.2366
-2.6233 -10.2158 2.2366
-2.2548 -10.3031 2.2366
-1.8834 -10.3772 2.2366
-1.5096 -10.4379 2.2366
-1.1339 -10.4853 2.2366
-0.7567 -10.5191 2.2366
-0.3786 -10.5395 2.2366
0.0000 -9.4882 2.2366
0.3407 -9.4821 2.2366
0.6809 -9.4638 2.2366
1.0202 -9.4333 2.2366
1.3582 -9.3908 2.2366
1.6945 -9.3361 2.2366
1.9603 -8.9572 2.1612
2.2514 -8.7673 2.1335
2.5648 -8.6811 2.1335
2.8749 -8.5837 2.1335
1.9968 -5.3196 1.3391
2.1749 -5.2167 1.3320
2.3514 -5.1149 1.3266
2.5268 -5.0137 1.3230
2.7014 -4.9129 1.3211
4.6448 -7.7727 2.1335
4.9212 -7.6014 2.1335
5.1912 -7.4203 2.1335
5.4546 -7.2296 2.1335
5.7110 -7.0296 2.1335
5.9601 -6.8205 2.1335
6.0191 -6.4083 2.0707
6.0191 -5.9640 1.9956
6.0192 -5.5503 1.9281
6.0193 -5.1631 1.8674
6.0193 -4.7990 1.8126
6.0194 -4.4553 1.7631
6.0194 -4.1293 1.7184
6.0195 -3.8190 1.6781
6.0195 -3.5225 1.6416
6.0196 -3.2382 1.6087
6.0196 -2.9647 1.5791
6.0197 -2.7007 1.5525
6.0197 -2.4451 1.5287
6.0197 -2.1968 1.5075
6.0306 -1.9585 1.4915
6.0438 -1.7255 1.4784
6.0553 -1.4959 1.4669
6.0651 -1.2692 1.4572
6.0921 -1.0482 1.4535
6.0313 -0.8160 1.4309
6.0200 -0.5954 1.4221
6.0291 -0.3784 1.4200
6.1820 -0.1656 1.4535
6.1847 0.0565 1.4535
6.1793 0.2785 1.4535
6.1660 0.5002 1.4535
6.1447 0.7213 1.4535
6.1155 0.9414 1.4535
6.0633 1.1576 1.4499
6.0202 1.3750 1.4503
6.0202 1.6044 1.4631
6.0397 1.8442 1.4828
6.0259 2.0793 1.4967
6.0203 2.3223 1.5148
6.0203 2.5742 1.5370
6.0203 2.8340 1.5618
6.0204 3.1027 1.5895
6.0204 3.3815 1.6204
6.0204 3.6719 1.6547
6.0204 3.9752 1.6927
6.0205 4.2932 1.7348
6.0205 4.6280 1.7814
6.0205 4.9818 1.8330
6.0205 5.3573 1.8902
6.0206 5.7576 1.9538
6.0206 6.1863 2.0244
6.0206 6.6479 2.1032
5.8618 6.9591 2.1335
5.6087 7.1654 2.1335
5.3482 7.3626 2.1335
5.0808 7.5503 2.1335
4.8068 7.7282 2.1335
4.5266 7.8962 2.1335
4.2405 8.0540 2.1335
3.9489 8.2014 2.1335
3.6522 8.3382 2.1335
3.3507 8.4642 2.1335
3.0448 8.5793 2.1335
2.7350 8.6834 2.1335
2.4217 8.7762 2.1335
2.1052 8.8577 2.1335
1.8723 9.3591 2.2366
1.5352 9.4205 2.2366
1.1961 9.4696 2.2366
0.8555 9.5066 2.2366
0.5137 9.5312 2.2366
0.1713 9.5435 2.2366
-0.1713 9.5435 2.2366
-0.5137 9.5312 2.2366
-0.8554 9.5065 2.2366
-1.1961 9.4696 2.2366
-1.5352 9.4204 2.2366
-1.8722 9.3590 2.2366
-2.2069 9.2856 2.2366
-2.5387 9.2001 2.2366
-2.8671 9.1028 2.2366
-3.1919 8.9937 2.2366
-3.5125 8.8730 2.2366
-3.8285 8.7409 2.2366
-4.1396 8.5974 2.2366
-4.4452 8.4429 2.2366
-4.7452 8.2775 2.2366
-5.0389 8.1013 2.2366
-5.3261 7.9148 2.2366
-5.6064 7.7181 2.2366
-5.8794 7.5114 2.2366
-6.0904 7.2304 2.2168
-6.1071 6.7434 2.1335
-6.3447 6.5194 2.1335
-6.5741 6.2869 2.1335
-6.5010 5.7848 2.0412
-7.0070 5.7981 2.1335
-7.2100 5.5424 2.1335
-7.4036 5.2796 2.1335
-7.5876 5.0100 2.1335
-7.7618 4.7339 2.1335
-7.9259 4.4519 2.1334
-8.0798 4.1641 2.1334
-8.2233 3.8710 2.1334
-8.3561 3.5730 2.1334
-8.4781 3.2704 2.1334
-8.5891 2.9637 2.1334
-8.6890 2.6532 2.1334
-8.7778 2.3394 2.1334
-8.8551 2.0226 2.1334
-6.5473 1.2500 1.5657
-6.5621 1.0102 1.5598
-6.5474 0.7685 1.5489
-9.0496 0.7341 2.1334
-9.0691 0.4087 2.1334
-9.0769 0.0829 2.1334
-9.0731 -0.2430 2.1334
-9.0576 -0.5684 2.1334
-9.0304 -0.8931 2.1334
-8.9915 -1.2166 2.1334
-8.9411 -1.5384 2.1334
-8.8792 -1.8582 2.1334
-8.8057 -2.1754 2.1334
-8.7210 -2.4899 2.1334
-8.6251 -2.8010 2.1334
-8.5181 -3.1086 2.1334
-8.4002 -3.4120 2.1334
-8.2715 -3.7110 2.1334
-8.1322 -4.0052 2.1334
-7.9824 -4.2941 2.1334
-7.8224 -4.5775 2.1334
-7.6523 -4.8549 2.1334
-7.4724 -5.1260 2.1334
-7.2830 -5.3905 2.1334
-7.0841 -5.6480 2.1334
-6.8762 -5.8982 2.1334
-6.6595 -6.1408 2.1334
-6.4343 -6.3754 2.1334
-6.2008 -6.6018 2.1334
-6.0912 -6.9705 2.1805
-5.9867 -7.3689 2.2366
-5.7179 -7.5786 2.2366
-5.4418 -7.7785 2.2366
-5.1588 -7.9684 2.2366
-4.8691 -8.1480 2.2366
-4.5732 -8.3171 2.2366
-4.2714 -8.4755 2.2366
-3.9642 -8.6230 2.2366
-3.6519 -8.7594 2.2366
-3.3350 -8.8846 2.2366
-3.0137 -8.9983 2.2366
-2.6887 -9.1004 2.2366
-2.3602 -9.1908 2.2366
-2.0286 -9.2694 2.2366
-1.6945 -9.3360 2.2366
-1.3582 -9.3907 2.2366
-1.0202 -9.4333 2.2366
-0.6808 -9.4637 2.2366
-0.3406 -9.4820 2.2366
0.0000 -8.6146 2.2366
0.3093 -8.6091 2.2366
0.6182 -8.5925 2.2366
0.9263 -8.5648 2.2366
1.2332 -8.5262 2.2366
1.5386 -8.4766 2.2366
1.8419 -8.4160 2.2366
2.0442 -7.9601 2.1335
2.3287 -7.8817 2.1335
2.6102 -7.7933 2.1335
1.9968 -5.3195 1.4749
2.1750 -5.2167 1.4671
2.3515 -5.1149 1.4612
2.5268 -5.0136 1.4572
2.7014 -4.9129 1.4551
4.2171 -7.0568 2.1335
4.4680 -6.9012 2.1335
4.7131 -6.7368 2.1335
4.9522 -6.5636 2.1335
5.1850 -6.3820 2.1335
5.4111 -6.1921 2.1335
5.6303 -5.9942 2.1335
5.8423 -5.7887 2.1335
6.0192 -5.5501 2.1238
6.0192 -5.1629 2.0569
6.0193 -4.7989 1.9965
6.0193 -4.4551 1.9421
6.0194 -4.1291 1.8929
6.0194 -3.8188 1.8484
6.0195 -3.5223 1.8082
6.0195 -3.2381 1.7720
6.0196 -2.9646 1.7394
6.0196 -2.7006 1.7101
6.0197 -2.4449 1.6839
6.0197 -2.1967 1.6607
6.0197 -1.9548 1.6401
6.0198 -1.7186 1.6221
6.0198 -1.4871 1.6065
6.0198 -1.2597 1.5932
6.0199 -1.0357 1.5822
6.0199 -0.8144 1.5734
6.0199 -0.5953 1.5666
6.0199 -0.3777 1.5620
6.0200 -0.1611 1.5593
6.0200 0.0551 1.5587
6.0200 0.2714 1.5600
6.0200 0.4884 1.5634
6.0201 0.7067 1.5689
6.0201 0.9269 1.5764
6.0201 1.1494 1.5860
6.0201 1.3751 1.5978
6.0202 1.6045 1.6120
6.0202 1.8384 1.6284
6.0202 2.0774 1.6474
6.0202 2.3224 1.6690
6.0203 2.5743 1.6934
6.0203 2.8341 1.7208
6.0203 3.1028 1.7514
6.0203 3.3816 1.7854
6.0204 3.6719 1.8232
6.0204 3.9753 1.8651
6.0204 4.2933 1.9115
6.0204 4.6281 1.9628
6.0205 4.9819 2.0197
6.0205 5.3574 2.0828
5.9667 5.7061 2.1335
5.7584 5.9170 2.1335
5.5427 6.1203 2.1335
5.3198 6.3157 2.1335
5.0900 6.5029 2.1335
4.8536 6.6818 2.1335
4.6109 6.8521 2.1335
4.3623 7.0136 2.1335
4.1079 7.1659 2.1335
3.8483 7.3091 2.1335
3.5836 7.4428 2.1335
3.3143 7.5670 2.1335
3.0407 7.6813 2.1335
2.7632 7.7858 2.1335
2.4820 7.8802 2.1335
2.1977 7.9644 2.1335
1.9458 8.1871 2.1730
1.6991 8.4933 2.2366
1.3932 8.5490 2.2366
1.0854 8.5936 2.2366
0.7763 8.6271 2.2366
0.4662 8.6495 2.2366
0.1555 8.6606 2.2366
-0.1554 8.6606 2.2366
-0.4662 8.6494 2.2366
-0.7763 8.6270 2.2366
-1.0854 8.5935 2.2366
-1.3931 8.5489 2.2366
-1.6990 8.4933 2.2366
-2.0027 8.4266 2.2366
-2.3038 8.3491 2.2366
-2.6019 8.2608 2.2366
-2.8966 8.1618 2.2366
-3.1875 8.0523 2.2366
-3.4743 7.9324 2.2366
-3.7566 7.8023 2.2366
-4.0341 7.6621 2.2366
-4.3063 7.5120 2.2366
-4.5729 7.3522 2.2366
-4.8335 7.1829 2.2366
-5.0879 7.0044 2.2366
-5.3357 6.8169 2.2366
-5.5766 6.6206 2.2366
-5.8103 6.4157 2.2366
-6.0364 6.2027 2.2366
-6.0893 5.8234 2.1775
-6.1669 5.4877 2.1335
