ply
format ascii 1.0
element vertex 2167
property float32 x
property float32 y
property float32 z
end_header
6.1780 3.7660 1.1951
6.0219 3.9742 1.1919
10.9990 7.8398 2.2317
10.4270 8.0118 2.1729
9.8989 8.1876 2.1230
9.2253 8.2057 2.0407
6.0365 5.7706 1.3804
6.0228 6.1862 1.4273
6.0378 6.6645 1.4868
6.0232 7.1482 1.5456
6.0235 7.6929 1.6157
6.0238 8.2899 1.6948
7.1338 10.5977 2.1130
6.9798 11.2183 2.1855
6.7402 11.7540 2.2414
6.2828 11.9294 2.2305
5.5939 11.6145 2.1328
5.1730 11.8072 2.1328
4.7456 11.9846 2.1328
4.3120 12.1467 2.1328
3.8730 12.2932 2.1328
3.4291 12.4239 2.1328
2.9808 12.5386 2.1328
2.5286 12.6373 2.1328
2.0733 12.7197 2.1328
1.6934 13.4037 2.2359
1.2111 13.4558 2.2359
0.7272 13.4906 2.2359
0.2424 13.5081 2.2359
-0.2427 13.5083 2.2359
-0.7275 13.4911 2.2359
-1.2114 13.4566 2.2359
-1.6938 13.4048 2.2359
-2.1740 13.3358 2.2359
-2.6514 13.2497 2.2359
-3.1256 13.1466 2.2359
-3.5957 13.0266 2.2359
-4.0613 12.8899 2.2359
-4.5217 12.7366 2.2359
-4.9764 12.5669 2.2359
-5.4247 12.3811 2.2359
-5.8662 12.1793 2.2359
-6.3001 11.9619 2.2359
-6.7261 11.7290 2.2359
-7.1435 11.4811 2.2359
-7.5518 11.2184 2.2359
-7.9505 10.9412 2.2359
-8.3391 10.6498 2.2359
-8.7170 10.3448 2.2359
-9.0838 10.0263 2.2359
-9.4391 9.6950 2.2359
-9.7822 9.3510 2.2359
-9.6467 8.5803 2.1328
-9.9497 8.2295 2.1328
-9.6229 7.3937 2.0042
-10.5173 7.4963 2.1328
-10.7810 7.1149 2.1327
-11.0310 6.7242 2.1327
-11.2668 6.3247 2.1327
-11.4882 5.9170 2.1327
-10.2293 4.8121 1.8654
-11.9884 5.1224 2.1509
-12.1664 4.6895 2.1509
-12.3289 4.2504 2.1509
-12.4755 3.8057 2.1509
-12.6061 3.3560 2.1509
-12.7206 2.9018 2.1509
-12.8186 2.4437 2.1509
-12.9002 1.9823 2.1509
-12.9652 1.5182 2.1509
-13.0135 1.0520 2.1509
-13.0450 0.5842 2.1509
-13.0597 0.1156 2.1509
-13.0576 -0.3533 2.1509
-13.0386 -0.8219 2.1509
-13.0029 -1.2896 2.1509
-12.9503 -1.7558 2.1509
-12.8810 -2.2199 2.1509
-12.7951 -2.6813 2.1509
-10.6824 -2.6421 1.8103
-11.6988 -3.3434 2.0012
-11.6991 -3.8027 2.0230
-11.6993 -4.2729 2.0480
-11.6996 -4.7556 2.0763
-11.6998 -5.2526 2.1081
-11.7001 -5.7659 2.1438
-11.6593 -6.2757 2.1759
-11.4281 -6.6911 2.1759
-6.5650 -4.1672 1.2775
-6.5652 -4.5058 1.3080
-10.6468 -7.8839 2.1759
-10.3582 -8.2620 2.1759
-9.8563 -8.4578 2.1327
-9.5474 -8.8072 2.1327
-9.2262 -9.1452 2.1327
-8.8930 -9.4715 2.1327
-8.5482 -9.7856 2.1327
-8.1922 -10.0871 2.1327
-7.8256 -10.3756 2.1327
-7.4488 -10.6507 2.1327
-7.0623 -10.9121 2.1327
-6.6666 -11.1594 2.1327
-6.2622 -11.3923 2.1327
-6.0967 -12.1007 2.2227
-5.6924 -12.3856 2.2359
-5.2445 -12.5827 2.2359
-4.7897 -12.7635 2.2359
-4.3287 -12.9277 2.2359
-3.8621 -13.0753 2.2359
-3.3904 -13.2059 2.2359
-2.9143 -13.3194 2.2359
-2.4344 -13.4157 2.2359
-1.9514 -13.4946 2.2359
-1.4658 -13.5561 2.2359
-0.9783 -13.6000 2.2359
-0.4895 -13.6263 2.2359
-0.0001 -11.9440 2.2359
0.4286 -11.9362 2.2359
0.8567 -11.9129 2.2359
1.2837 -11.8742 2.2359
1.7090 -11.8201 2.2359
2.0337 -11.2090 2.1328
2.3088 -10.5533 2.0226
2.8323 -11.0333 2.1328
3.2264 -10.9240 2.1328
3.6162 -10.8006 2.1328
4.0013 -10.6632 2.1328
4.3811 -10.5120 2.1328
4.7553 -10.3473 2.1328
5.1232 -10.1692 2.1328
5.4845 -9.9780 2.1328
5.8386 -9.7739 2.1328
6.0143 -9.2934 2.0739
6.0147 -8.6006 1.9665
6.0151 -7.9755 1.8719
6.0154 -7.4072 1.7882
6.0157 -6.8869 1.7139
6.0160 -6.4077 1.6475
6.0162 -5.9637 1.5880
6.0165 -5.5503 1.5347
6.0287 -5.1736 1.4896
6.0639 -4.8370 1.4546
6.2251 -4.6099 1.4528
6.0174 -4.1301 1.3690
6.0176 -3.8199 1.3371
6.1793 -3.6182 1.3435
10.3980 -5.5971 2.2159
10.5907 -5.2195 2.2159
10.7698 -4.8354 2.2159
10.9349 -4.4451 2.2159
6.0289 -2.2021 1.2051
6.0186 -1.9565 1.1884
6.0657 -1.7337 1.1848
6.1757 -1.5276 1.1950
6.1773 -1.2946 1.1857
6.1859 -1.0662 1.1794
6.2004 -0.8408 1.1758
6.1908 -0.6141 1.1692
11.7652 -0.7418 2.2159
6.0198 -0.1630 1.1321
6.0198 0.0532 1.1319
11.7717 0.5271 2.2159
11.7434 0.9491 2.2159
6.2010 0.7260 1.1744
6.1907 0.9512 1.1783
6.1813 1.1783 1.1840
6.1825 1.4103 1.1933
6.1837 1.6461 1.2044
6.0208 1.8366 1.1849
6.0209 2.0757 1.1990
6.1881 2.3851 1.2487
10.8208 4.6235 2.2159
10.6464 5.0083 2.2159
10.4585 5.3866 2.2159
10.2571 5.7578 2.2159
6.1782 3.7660 1.3632
6.0217 3.9739 1.3595
6.2779 4.4746 1.4528
6.1125 4.6966 1.4528
6.0451 4.9999 1.4787
6.0223 5.3566 1.5193
6.0225 5.7570 1.5707
6.0227 6.1860 1.6278
6.0229 6.6479 1.6915
6.0232 7.1480 1.7627
6.0234 7.6926 1.8426
6.0237 8.2897 1.9327
6.3960 9.5015 2.1605
5.9730 9.5999 2.1328
5.6241 9.8075 2.1328
5.2681 10.0025 2.1328
4.9053 10.1846 2.1328
4.5363 10.3536 2.1328
4.1614 10.5094 2.1328
3.7813 10.6515 2.1328
3.3963 10.7800 2.1328
3.0071 10.8947 2.1328
2.6139 10.9953 2.1328
2.2174 11.0818 2.1328
1.9060 11.6933 2.2359
1.4850 11.7540 2.2359
1.0620 11.7997 2.2359
0.6377 11.8302 2.2359
0.2126 11.8456 2.2359
-0.2128 11.8457 2.2359
-0.6380 11.8306 2.2359
-1.0623 11.8003 2.2359
-1.4853 11.7549 2.2359
-1.9064 11.6943 2.2359
-2.3251 11.6188 2.2359
-2.7409 11.5283 2.2359
-3.1531 11.4230 2.2359
-3.5614 11.3030 2.2359
-3.9651 11.1685 2.2359
-4.3637 11.0196 2.2359
-4.7568 10.8566 2.2359
-5.1439 10.6795 2.2359
-5.5244 10.4888 2.2359
-5.8979 10.2845 2.2359
-6.2638 10.0670 2.2359
-6.6217 9.8365 2.2359
-6.9712 9.5933 2.2359
-7.3119 9.3377 2.2359
-7.6431 9.0701 2.2359
-7.9646 8.7908 2.2359
-8.2760 8.5001 2.2359
-8.5767 8.1984 2.2359
-8.4573 7.5222 2.1327
-8.7229 7.2145 2.1327
-8.9773 6.8975 2.1327
-9.2202 6.5716 2.1327
-9.4513 6.2371 2.1327
-9.6703 5.8945 2.1327
-9.8770 5.5443 2.1327
-6.8706 3.5385 1.4549
-10.2293 4.8119 2.1279
-10.4200 4.4521 2.1327
-10.6651 4.1106 2.1509
-10.8073 3.7257 2.1509
-10.9356 3.3358 2.1509
-11.0499 2.9415 2.1509
-11.1499 2.5433 2.1509
-11.2357 2.1417 2.1509
-11.3070 1.7372 2.1509
-11.3637 1.3304 2.1509
-11.4058 0.9218 2.1509
-11.4332 0.5119 2.1509
-11.4459 0.1011 2.1509
-11.4438 -0.3098 2.1509
-11.4269 -0.7205 2.1509
-11.3954 -1.1304 2.1509
-11.3491 -1.5389 2.1509
-11.2881 -1.9456 2.1509
-11.2126 -2.3498 2.1509
-10.6939 -2.6452 2.0680
-11.1463 -3.1857 2.1759
-11.0263 -3.5842 2.1759
-10.8920 -3.9783 2.1759
-10.7436 -4.3672 2.1759
-10.5813 -4.7506 2.1759
-10.4053 -5.1280 2.1759
-10.0127 -5.3896 2.1327
-9.8140 -5.7462 2.1327
-6.5650 -4.1673 1.4580
-6.5635 -4.5048 1.4925
-9.1428 -6.7703 2.1327
-8.8949 -7.0949 2.1327
-8.6352 -7.4102 2.1327
-8.3645 -7.7162 2.1327
-8.0830 -8.0122 2.1327
-7.7909 -8.2979 2.1327
-7.4888 -8.5730 2.1327
-7.1768 -8.8370 2.1327
-6.8556 -9.0897 2.1327
-6.5254 -9.3306 2.1327
-6.1868 -9.5595 2.1327
-6.0957 -10.2038 2.2260
-5.7514 -10.4632 2.2359
-5.3725 -10.6635 2.2359
-4.9865 -10.8500 2.2359
-4.5941 -11.0226 2.2359
-4.1957 -11.1808 2.2359
-3.7919 -11.3246 2.2359
-3.3831 -11.4538 2.2359
-2.9699 -11.5682 2.2359
-2.5529 -11.6676 2.2359
-2.1325 -11.7520 2.2359
-1.7093 -11.8211 2.2359
-1.2840 -11.8749 2.2359
-0.8569 -11.9134 2.2359
-0.4288 -11.9364 2.2359
-0.0001 -10.6163 2.2359
0.3809 -10.6093 2.2359
0.7614 -10.5886 2.2359
1.1409 -10.5543 2.2359
1.5190 -10.5063 2.2359
1.8950 -10.4446 2.2359
2.1640 -9.8914 2.1328
2.5175 -9.8070 2.1328
2.8677 -9.7099 2.1328
3.2142 -9.6003 2.1328
3.5565 -9.4782 2.1328
3.8942 -9.3439 2.1328
4.2268 -9.1976 2.1328
4.5539 -9.0394 2.1328
4.8750 -8.8695 2.1328
5.1899 -8.6882 2.1328
5.4979 -8.4956 2.1328
5.7988 -8.2921 2.1328
6.0150 -7.9756 2.1058
6.0154 -7.4073 2.0117
6.0157 -6.8870 1.9280
6.0159 -6.4078 1.8533
6.0162 -5.9638 1.7864
6.0164 -5.5504 1.7263
6.0166 -5.1634 1.6723
6.0169 -4.7995 1.6236
6.0170 -4.4559 1.5796
6.0172 -4.1301 1.5399
6.0174 -3.8199 1.5040
6.0417 -3.5377 1.4775
6.0655 -3.2651 1.4539
6.1734 -3.0426 1.4528
9.5752 -4.2992 2.2159
9.7221 -3.9522 2.2159
6.0289 -2.2022 1.3554
6.0186 -1.9566 1.3366
6.0655 -1.7337 1.3325
10.1825 -2.5189 2.2159
6.1775 -1.2948 1.3335
10.3343 -1.7814 2.2159
10.3902 -1.4091 2.2159
6.1907 -0.6142 1.3149
10.4618 -0.6598 2.2159
6.0196 -0.1631 1.2731
6.0197 0.0531 1.2729
10.4680 0.4685 2.2159
10.4431 0.8439 2.2159
10.4047 1.2180 2.2159
10.3529 1.5905 2.2159
10.2879 1.9609 2.2159
10.2096 2.3287 2.2159
10.1181 2.6933 2.2159
6.0206 1.8364 1.3323
6.0207 2.0755 1.3481
6.1875 2.3848 1.4039
9.6238 4.1119 2.2159
6.2082 2.9203 1.4528
6.0986 3.1409 1.4528
6.0528 3.3976 1.4702
6.0277 3.6742 1.4953
6.0216 3.9737 1.5284
6.0217 4.2919 1.5667
6.0219 4.6268 1.6091
6.0221 4.9807 1.6561
6.0222 5.3564 1.7081
6.0224 5.7568 1.7658
6.0226 6.1858 1.8300
6.0229 6.6477 1.9016
6.0231 7.1477 1.9816
6.0234 7.6924 2.0714
5.8856 8.0995 2.1229
5.6168 8.3437 2.1328
5.3132 8.5394 2.1328
5.0030 8.7242 2.1328
4.6863 8.8977 2.1328
4.3636 9.0598 2.1328
4.0353 9.2101 2.1328
3.7019 9.3487 2.1328
3.3638 9.4752 2.1328
3.0213 9.5896 2.1328
2.6750 9.6916 2.1328
2.3253 9.7811 2.1328
1.9726 9.8581 2.1328
1.6956 10.4021 2.2359
1.3210 10.4561 2.2359
0.9448 10.4968 2.2359
0.5673 10.5239 2.2359
0.1891 10.5376 2.2359
-0.1893 10.5377 2.2359
-0.5675 10.5242 2.2359
-0.9450 10.4972 2.2359
-1.3213 10.4568 2.2359
-1.6959 10.4029 2.2359
-2.0684 10.3357 2.2359
-2.4382 10.2551 2.2359
-2.8049 10.1614 2.2359
-3.1681 10.0546 2.2359
-3.5272 9.9349 2.2359
-3.8818 9.8024 2.2359
-4.2315 9.6573 2.2359
-4.5757 9.4997 2.2359
-4.9142 9.3299 2.2359
-5.2463 9.1482 2.2359
-5.5718 8.9546 2.2359
-5.8901 8.7495 2.2359
-6.2010 8.5331 2.2359
-6.5039 8.3057 2.2359
-6.7985 8.0676 2.2359
-7.0844 7.8190 2.2359
-7.3612 7.5604 2.2359
-7.6286 7.2920 2.2359
-7.5223 6.6903 2.1327
-7.7585 6.4167 2.1327
-7.9847 6.1347 2.1327
-8.2007 5.8448 2.1327
-8.4062 5.5473 2.1327
-8.6010 5.2425 2.1327
-8.7846 4.9310 2.1327
-6.7752 3.4893 1.6132
-9.1179 4.2889 2.1327
-9.2671 3.9593 2.1327
-9.4043 3.6245 2.1327
-9.5296 3.2850 2.1327
-9.6425 2.9412 2.1327
-9.7431 2.5935 2.1327
-9.8312 2.2423 2.1327
-9.9066 1.8882 2.1327
-9.9693 1.5316 2.1327
-10.0192 1.1729 2.1327
-10.0561 0.8126 2.1327
-10.0801 0.4511 2.1327
-10.0911 0.0890 2.1327
-10.0891 -0.2733 2.1327
-10.0741 -0.6354 2.1327
-10.0462 -0.9967 2.1327
-10.0052 -1.3568 2.1327
-9.9513 -1.7153 2.1327
-9.8846 -2.0717 2.1327
-9.8051 -2.4255 2.1327
-9.7130 -2.7762 2.1327
-9.6083 -3.1234 2.1327
-9.4911 -3.4667 2.1327
-9.3617 -3.8056 2.1327
-9.2202 -4.1397 2.1327
-9.0667 -4.4685 2.1327
-8.9015 -4.7916 2.1327
-8.7248 -5.1086 2.1327
-6.5650 -4.1674 1.6401
-6.5652 -4.5061 1.6794
-8.1277 -6.0188 2.1327
-7.9072 -6.3073 2.1327
-7.6765 -6.5877 2.1328
-7.4358 -6.8596 2.1328
-7.1855 -7.1228 2.1328
-6.9254 -7.3763 2.1327
-6.6568 -7.6207 2.1327
-6.3794 -7.8553 2.1327
-6.1062 -8.0963 2.1370
-6.0811 -8.6955 2.2359
-5.7655 -8.9087 2.2359
-5.4424 -9.1104 2.2359
-5.1122 -9.3004 2.2359
-4.7753 -9.4784 2.2359
-4.4323 -9.6442 2.2359
-4.0835 -9.7975 2.2359
-3.7293 -9.9381 2.2359
-3.3704 -10.0659 2.2359
-3.0070 -10.1807 2.2359
-2.6398 -10.2823 2.2359
-2.2691 -10.3707 2.2359
-1.8954 -10.4456 2.2359
-1.5193 -10.5070 2.2359
-1.1412 -10.5548 2.2359
-0.7617 -10.5890 2.2359
-0.3811 -10.6095 2.2359
-0.0001 -9.5451 2.2359
0.3425 -9.5389 2.2359
0.6846 -9.5203 2.2359
1.0258 -9.4894 2.2359
1.3657 -9.4462 2.2359
1.7038 -9.3909 2.2359
1.9591 -8.9551 2.1476
2.2635 -8.8176 2.1328
2.5784 -8.7304 2.1328
2.8899 -8.6318 2.1328
3.1977 -8.5221 2.1328
3.5013 -8.4015 2.1328
3.8004 -8.2699 2.1328
4.0945 -8.1277 2.1328
4.3833 -7.9750 2.1328
4.6664 -7.8120 2.1328
4.9434 -7.6390 2.1328
5.2140 -7.4561 2.1328
5.4779 -7.2636 2.1328
5.7346 -7.0617 2.1328
6.0156 -6.8871 2.1441
6.0159 -6.4079 2.0610
6.0161 -5.9639 1.9866
6.0164 -5.5505 1.9198
6.0166 -5.1635 1.8597
6.0168 -4.7996 1.8055
6.0170 -4.4560 1.7566
6.0172 -4.1302 1.7124
6.0174 -3.8200 1.6725
6.0175 -3.5237 1.6365
6.0177 -3.2395 1.6040
6.0178 -2.9661 1.5748
6.0180 -2.7022 1.5486
6.0181 -2.4466 1.5253
6.0183 -2.1984 1.5045
6.0184 -1.9566 1.4862
6.0438 -1.7276 1.4763
6.0551 -1.4980 1.4652
6.0647 -1.2712 1.4557
6.0937 -1.0505 1.4528
6.1268 -0.8310 1.4528
6.1519 -0.6105 1.4528
6.1691 -0.3892 1.4528
6.0194 -0.1632 1.4154
6.0195 0.0530 1.4152
6.1730 0.2762 1.4528
6.1584 0.4975 1.4528
6.1358 0.7182 1.4528
6.1054 0.9379 1.4528
6.0686 1.1566 1.4532
6.0597 1.3820 1.4622
6.0492 1.6101 1.4728
6.0204 1.8363 1.4811
6.0206 2.0753 1.4986
6.0207 2.3204 1.5186
6.0208 2.5723 1.5411
6.0209 2.8321 1.5663
6.0211 3.1009 1.5945
6.0212 3.3798 1.6258
6.0214 3.6702 1.6605
6.0215 3.9736 1.6990
6.0217 4.2917 1.7416
6.0218 4.6266 1.7887
6.0220 4.9806 1.8409
6.0222 5.3562 1.8987
6.0224 5.7566 1.9628
6.0226 6.1856 2.0342
6.0228 6.6475 2.1137
5.8322 6.9210 2.1328
5.5795 7.1254 2.1328
5.3198 7.3207 2.1328
5.0532 7.5065 2.1328
4.7802 7.6826 2.1328
4.5011 7.8489 2.1328
4.2162 8.0050 2.1328
3.9259 8.1508 2.1328
3.6306 8.2862 2.1328
3.3306 8.4109 2.1328
3.0264 8.5247 2.1328
2.7183 8.6276 2.1328
2.4067 8.7194 2.1328
2.0921 8.8001 2.1328
1.8606 9.2980 2.2359
1.5255 9.3587 2.2359
1.1885 9.4074 2.2359
0.8500 9.4439 2.2359
0.5104 9.4684 2.2359
0.1701 9.4806 2.2359
-0.1704 9.4807 2.2359
-0.5106 9.4686 2.2359
-0.8503 9.4443 2.2359
-1.1888 9.4079 2.2359
-1.5259 9.3594 2.2359
-1.8610 9.2989 2.2359
-2.1937 9.2264 2.2359
-2.5236 9.1420 2.2359
-2.8503 9.0459 2.2359
-3.1734 8.9381 2.2359
-3.4924 8.8189 2.2359
-3.8070 8.6883 2.2359
-4.1167 8.5465 2.2359
-4.4211 8.3937 2.2359
-4.7199 8.2301 2.2359
-5.0127 8.0559 2.2359
-5.2991 7.8713 2.2359
-5.5787 7.6765 2.2359
-5.8511 7.4719 2.2359
-6.1161 7.2576 2.2359
-6.3732 7.0340 2.2359
-6.6222 6.8012 2.2359
-6.8627 6.5597 2.2359
-7.0695 6.2875 2.2280
-7.0107 5.7981 2.1423
-7.1831 5.5187 2.1328
-7.3773 5.2578 2.1328
-7.5621 4.9900 2.1328
-7.7371 4.7158 2.1328
-7.9022 4.4355 2.1328
-6.7609 3.4818 1.7896
-8.2018 3.8578 2.1327
-8.3359 3.5613 2.1327
-8.4593 3.2601 2.1327
-8.5718 2.9547 2.1327
-8.6734 2.6454 2.1327
-8.7637 2.3326 2.1327
-8.8428 2.0167 2.1327
-8.9106 1.6982 2.1327
-8.9668 1.3774 2.1327
-9.0116 1.0548 2.1327
-9.0447 0.7307 2.1327
-9.0662 0.4056 2.1327
-9.0760 0.0799 2.1327
-9.0741 -0.2460 2.1327
-9.0605 -0.5716 2.1327
-9.0352 -0.8966 2.1327
-8.9982 -1.2204 2.1327
-8.9497 -1.5428 2.1327
-8.8895 -1.8633 2.1327
-8.8180 -2.1814 2.1327
-8.7350 -2.4968 2.1327
-8.6407 -2.8091 2.1327
-8.5353 -3.1177 2.1327
-8.4188 -3.4225 2.1327
-8.2914 -3.7229 2.1327
-8.1533 -4.0185 2.1327
-8.0047 -4.3090 2.1327
-7.8456 -4.5940 2.1327
-6.5650 -4.1676 1.8240
-6.5652 -4.5062 1.8676
-7.3085 -5.4123 2.1328
-7.1102 -5.6717 2.1328
-6.9027 -5.9238 2.1328
-6.6862 -6.1682 2.1328
-6.4611 -6.4048 2.1328
-6.2275 -6.6331 2.1328
-6.0955 -6.9784 2.1719
-6.0137 -7.4052 2.2359
-5.7445 -7.6168 2.2359
-5.4677 -7.8185 2.2359
-5.1839 -8.0102 2.2359
-4.8933 -8.1915 2.2359
-4.5964 -8.3623 2.2359
-4.2935 -8.5223 2.2359
-3.9851 -8.6713 2.2359
-3.6714 -8.8091 2.2359
-3.3530 -8.9355 2.2359
-3.0303 -9.0504 2.2359
-2.7036 -9.1535 2.2359
-2.3734 -9.2449 2.2359
-2.0401 -9.3243 2.2359
-1.7042 -9.3917 2.2359
-1.3660 -9.4469 2.2359
-1.0261 -9.4898 2.2359
-0.6848 -9.5206 2.2359
-0.3427 -9.5390 2.2359
-0.0001 -8.6619 2.2359
0.3107 -8.6562 2.2359
0.6212 -8.6393 2.2359
0.9308 -8.6113 2.2359
1.2393 -8.5722 2.2359
1.5461 -8.5220 2.2359
1.8509 -8.4608 2.2359
2.0540 -8.0018 2.1328
2.3398 -7.9227 2.1328
2.6225 -7.8333 2.1328
2.9018 -7.7338 2.1328
3.1774 -7.6243 2.1328
3.4488 -7.5049 2.1328
3.7157 -7.3759 2.1328
3.9778 -7.2374 2.1328
4.2347 -7.0895 2.1328
4.4862 -6.9325 2.1328
4.7318 -6.7666 2.1328
4.9712 -6.5919 2.1328
5.2042 -6.4088 2.1328
5.4305 -6.2174 2.1328
5.6497 -6.0180 2.1328
5.8616 -5.8109 2.1328
6.0163 -5.5506 2.1154
6.0165 -5.1636 2.0491
6.0167 -4.7997 1.9894
6.0169 -4.4561 1.9355
6.0171 -4.1303 1.8868
6.0173 -3.8201 1.8428
6.0175 -3.5238 1.8031
6.0176 -3.2396 1.7673
6.0178 -2.9662 1.7351
6.0179 -2.7023 1.7063
6.0181 -2.4467 1.6805
6.0182 -2.1985 1.6576
6.0184 -1.9567 1.6374
6.0185 -1.7205 1.6197
6.0186 -1.4891 1.6045
6.0187 -1.2617 1.5916
6.0189 -1.0377 1.5809
6.0190 -0.8165 1.5724
6.0191 -0.5974 1.5660
6.0192 -0.3799 1.5616
6.0193 -0.1633 1.5593
6.0195 0.0529 1.5590
6.0196 0.2692 1.5607
6.0197 0.4862 1.5644
6.0198 0.7045 1.5702
6.0199 0.9246 1.5780
6.0200 1.1472 1.5880
6.0201 1.3729 1.6002
6.0203 1.6023 1.6146
6.0204 1.8362 1.6315
6.0205 2.0752 1.6508
6.0206 2.3203 1.6728
6.0208 2.5722 1.6975
6.0209 2.8320 1.7253
6.0210 3.1007 1.7563
6.0212 3.3796 1.7908
6.0213 3.6700 1.8290
6.0215 3.9734 1.8714
6.0216 4.2916 1.9183
6.0218 4.6265 1.9702
6.0219 4.9804 2.0276
6.0221 5.3560 2.0913
5.9413 5.6790 2.1328
5.7332 5.8882 2.1328
5.5177 6.0898 2.1328
5.2951 6.2836 2.1328
5.0658 6.4692 2.1328
4.8300 6.6466 2.1328
4.5880 6.8153 2.1328
4.3402 6.9753 2.1328
4.0867 7.1262 2.1328
3.8281 7.2680 2.1328
3.5645 7.4005 2.1328
3.2964 7.5234 2.1328
3.0241 7.6366 2.1328
2.7478 7.7400 2.1328
2.4681 7.8335 2.1328
2.1852 7.9169 2.1328
1.9478 8.1931 2.1870
1.6893 8.4422 2.2359
1.3851 8.4973 2.2359
1.0791 8.5415 2.2359
0.7718 8.5747 2.2359
0.4634 8.5969 2.2359
0.1545 8.6080 2.2359
-0.1547 8.6081 2.2359
-0.4637 8.5971 2.2359
-0.7720 8.5750 2.2359
-1.0794 8.5420 2.2359
-1.3854 8.4979 2.2359
-1.6897 8.4429 2.2359
-1.9918 8.3771 2.2359
-2.2914 8.3004 2.2359
-2.5880 8.2131 2.2359
-2.8813 8.1153 2.2359
-3.1709 8.0069 2.2359
-3.4565 7.8883 2.2359
-3.7377 7.7595 2.2359
-4.0141 7.6208 2.2359
-4.2854 7.4722 2.2359
-4.5512 7.3140 2.2359
-4.8111 7.1463 2.2359
-5.0649 6.9695 2.2359
-5.3123 6.7836 2.2359
-5.5528 6.5890 2.2359
-5.7862 6.3859 2.2359
-6.0122 6.1746 2.2359
-6.2305 5.9553 2.2359
-6.4409 5.7282 2.2359
-6.6123 5.4684 2.2256
-6.5213 5.0101 2.1328
-6.6976 4.7732 2.1328
-6.8652 4.5301 2.1328
-7.0241 4.2811 2.1328
-7.1739 4.0265 2.1328
-6.7465 3.4743 1.9672
-7.4458 3.5021 2.1328
-7.5674 3.2329 2.1328
-7.6794 2.9594 2.1328
-7.7815 2.6821 2.1328
-7.8736 2.4013 2.1327
-7.9555 2.1173 2.1327
-8.0273 1.8306 2.1327
-8.0887 1.5414 2.1327
-8.1397 1.2502 2.1327
-8.1802 0.9573 2.1327
-8.2102 0.6631 2.1327
-8.2296 0.3680 2.1327
-8.2384 0.0724 2.1327
-8.2366 -0.2234 2.1327
-8.2241 -0.5190 2.1327
-8.2011 -0.8139 2.1327
-8.1675 -1.1079 2.1327
-8.1233 -1.4005 2.1327
-8.0687 -1.6914 2.1327
-8.0036 -1.9801 2.1327
-7.9282 -2.2664 2.1327
-7.8426 -2.5497 2.1327
-7.7468 -2.8299 2.1328
-7.6410 -3.1064 2.1328
-7.5253 -3.3790 2.1328
-7.3999 -3.6473 2.1328
-7.2649 -3.9109 2.1328
-7.1205 -4.1696 2.1328
-6.9669 -4.4229 2.1328
-6.8043 -4.6705 2.1328
-6.6329 -4.9121 2.1328
-6.4529 -5.1474 2.1328
-6.2645 -5.3762 2.1328
-6.1018 -5.6292 2.1447
-6.0922 -6.0393 2.2160
-5.9247 -6.3107 2.2359
-5.6948 -6.5197 2.2359
-5.4574 -6.7203 2.2359
-5.2131 -6.9123 2.2359
-4.9619 -7.0953 2.2359
-4.7043 -7.2692 2.2359
-4.4406 -7.4338 2.2359
-4.1711 -7.5887 2.2359
-3.8963 -7.7339 2.2359
-3.6163 -7.8690 2.2359
-3.3317 -7.9941 2.2359
-3.0428 -8.1088 2.2359
-2.7499 -8.2130 2.2359
-2.4534 -8.3066 2.2359
-2.1537 -8.3895 2.2359
-1.8513 -8.4615 2.2359
-1.5464 -8.5226 2.2359
-1.2396 -8.5727 2.2359
-0.9311 -8.6117 2.2359
-0.6215 -8.6396 2.2359
-0.3110 -8.6563 2.2359
-0.0001 -7.9204 2.2359
0.2841 -7.9152 2.2359
0.5680 -7.8998 2.2359
0.8511 -7.8742 2.2359
1.1332 -7.8384 2.2359
1.4137 -7.7925 2.2359
1.6924 -7.7366 2.2359
1.9517 -7.6033 2.2163
2.1438 -7.2591 2.1371
2.3980 -7.1629 2.1328
2.6534 -7.0719 2.1328
2.9054 -6.9718 2.1328
3.1536 -6.8627 2.1328
3.3977 -6.7448 2.1328
3.6374 -6.6181 2.1328
3.8723 -6.4829 2.1328
4.1023 -6.3394 2.1328
4.3269 -6.1877 2.1328
4.5459 -6.0280 2.1328
4.7590 -5.8606 2.1328
4.9659 -5.6856 2.1328
5.1664 -5.5033 2.1328
5.3602 -5.3139 2.1328
5.5470 -5.1177 2.1328
5.7266 -4.9150 2.1328
5.8989 -4.7059 2.1328
6.0169 -4.4562 2.1164
6.0171 -4.1304 2.0632
6.0173 -3.8202 2.0151
6.0174 -3.5239 1.9716
6.0176 -3.2397 1.9325
6.0178 -2.9663 1.8973
6.0179 -2.7024 1.8657
6.0180 -2.4468 1.8375
6.0182 -2.1986 1.8124
6.0183 -1.9568 1.7903
6.0185 -1.7206 1.7710
6.0186 -1.4892 1.7544
6.0187 -1.2618 1.7402
6.0188 -1.0378 1.7286
6.0189 -0.8166 1.7192
6.0191 -0.5975 1.7122
6.0192 -0.3800 1.7074
6.0193 -0.1634 1.7049
6.0194 0.0528 1.7045
6.0195 0.2691 1.7063
6.0196 0.4861 1.7104
6.0198 0.7044 1.7167
6.0199 0.9245 1.7252
6.0200 1.1471 1.7361
6.0201 1.3728 1.7494
6.0202 1.6022 1.7652
6.0203 1.8360 1.7836
6.0205 2.0751 1.8047
6.0206 2.3201 1.8288
6.0207 2.5721 1.8558
6.0208 2.8319 1.8862
6.0210 3.1006 1.9200
6.0211 3.3795 1.9577
6.0213 3.6699 1.9995
6.0214 3.9733 2.0458
6.0216 4.2914 2.0970
5.9632 4.5813 2.1328
5.7945 4.7921 2.1328
5.6183 4.9967 2.1328
5.4349 5.1948 2.1328
5.2445 5.3863 2.1328
5.0475 5.5707 2.1328
4.8439 5.7480 2.1328
4.6341 5.9178 2.1328
4.4185 6.0801 2.1328
4.1971 6.2345 2.1328
3.9704 6.3808 2.1328
3.7385 6.5190 2.1328
3.5019 6.6487 2.1328
3.2608 6.7699 2.1328
3.0156 6.8824 2.1328
2.7664 6.9860 2.1328
2.5138 7.0806 2.1328
2.2579 7.1661 2.1328
1.9991 7.2424 2.1328
1.8217 7.6626 2.2359
1.5454 7.7230 2.2359
1.2671 7.7734 2.2359
0.9872 7.8139 2.2359
0.7060 7.8442 2.2359
0.4239 7.8645 2.2359
0.1413 7.8747 2.2359
-0.1415 7.8748 2.2359
-0.4242 7.8647 2.2359
-0.7063 7.8445 2.2359
-0.9875 7.8142 2.2359
-1.2674 7.7739 2.2359
-1.5458 7.7236 2.2359
-1.8221 7.6633 2.2359
-2.0962 7.5932 2.2359
-2.3675 7.5133 2.2359
-2.6358 7.4237 2.2359
-2.9008 7.3246 2.2359
-3.1620 7.2161 2.2359
-3.4193 7.0983 2.2359
-3.6721 6.9713 2.2359
-3.9202 6.8353 2.2359
-4.1633 6.6906 2.2359
-4.4011 6.5372 2.2359
-4.6333 6.3754 2.2359
-4.8595 6.2053 2.2359
-5.0795 6.0273 2.2359
-5.2930 5.8414 2.2359
-5.4997 5.6481 2.2359
-5.6994 5.4474 2.2359
-5.8917 5.2397 2.2359
-6.0765 5.0252 2.2359
-6.2536 4.8042 2.2359
-6.3119 4.4981 2.1974
-6.2798 4.1436 2.1328
-6.4250 3.9158 2.1328
-6.5620 3.6830 2.1328
-6.6906 3.4453 2.1328
-6.8106 3.2032 2.1328
-6.9219 2.9569 2.1328
-7.0242 2.7068 2.1328
-7.1175 2.4531 2.1328
-7.2017 2.1963 2.1328
-7.2766 1.9365 2.1328
-7.3421 1.6742 2.1328
-7.3982 1.4097 2.1328
-7.4448 1.1433 2.1328
-7.4818 0.8754 2.1328
-7.5092 0.6064 2.1328
-7.5269 0.3365 2.1328
-7.5348 0.0661 2.1328
-7.5331 -0.2045 2.1328
-7.5217 -0.4748 2.1328
-7.5005 -0.7445 2.1328
-7.4697 -1.0134 2.1328
-7.4293 -1.2810 2.1328
-7.3792 -1.5470 2.1328
-7.3197 -1.8110 2.1328
-7.2507 -2.0728 2.1328
-7.1723 -2.3319 2.1328
-7.0846 -2.5881 2.1328
-6.9878 -2.8410 2.1328
-6.8820 -3.0903 2.1328
-6.7672 -3.3356 2.1328
-6.6437 -3.5767 2.1328
-6.5117 -3.8131 2.1328
-6.3711 -4.0448 2.1328
-6.2224 -4.2712 2.1328
-6.1010 -4.5184 2.1453
-6.0916 -4.8594 2.2018
-6.0054 -5.1540 2.2359
-5.8170 -5.3666 2.2359
-5.6210 -5.5723 2.2359
-5.4177 -5.7708 2.2359
-5.2075 -5.9619 2.2359
-4.9904 -6.1453 2.2359
-4.7669 -6.3208 2.2359
-4.5372 -6.4882 2.2359
-4.3017 -6.6472 2.2359
-4.0605 -6.7976 2.2359
-3.8141 -6.9393 2.2359
-3.5628 -7.0720 2.2359
-3.3068 -7.1955 2.2359
-3.0465 -7.3098 2.2359
-2.7823 -7.4147 2.2359
-2.5145 -7.5100 2.2359
-2.2434 -7.5955 2.2359
-1.9694 -7.6713 2.2359
-1.6928 -7.7372 2.2359
-1.4141 -7.7931 2.2359
-1.1335 -7.8389 2.2359
-0.8514 -7.8745 2.2359
-0.5683 -7.9000 2.2359
-0.2844 -7.9153 2.2359
-0.0001 -7.2885 2.2359
0.2614 -7.2837 2.2359
0.5227 -7.2696 2.2359
0.7832 -7.2460 2.2359
1.0427 -7.2131 2.2359
1.3009 -7.1709 2.2359
1.5574 -7.1194 2.2359
1.8118 -7.0587 2.2359
1.9688 -6.6667 2.1328
2.2067 -6.5915 2.1328
2.4417 -6.5078 2.1328
2.6736 -6.4157 2.1328
2.9020 -6.3154 2.1328
3.1266 -6.2069 2.1328
3.3472 -6.0903 2.1328
3.5634 -5.9660 2.1328
3.7751 -5.8339 2.1328
3.9818 -5.6943 2.1328
4.1833 -5.5474 2.1328
4.3794 -5.3934 2.1328
4.5699 -5.2324 2.1328
4.7544 -5.0646 2.1328
4.9328 -4.8904 2.1328
5.1047 -4.7098 2.1328
5.2701 -4.5233 2.1328
5.4286 -4.3309 2.1328
5.5801 -4.1329 2.1328
5.7244 -3.9296 2.1328
5.8613 -3.7213 2.1328
6.0174 -3.5240 2.1424
6.0175 -3.2398 2.0998
6.0177 -2.9664 2.0615
6.0179 -2.7025 2.0272
6.0180 -2.4469 1.9965
6.0181 -2.1987 1.9693
6.0183 -1.9569 1.9453
6.0184 -1.7207 1.9243
6.0185 -1.4893 1.9062
6.0187 -1.2619 1.8908
6.0188 -1.0379 1.8781
6.0189 -0.8167 1.8679
6.0190 -0.5976 1.8603
6.0191 -0.3801 1.8551
6.0193 -0.1635 1.8523
6.0194 0.0527 1.8519
6.0195 0.2690 1.8539
6.0196 0.4860 1.8583
6.0197 0.7043 1.8651
6.0198 0.9244 1.8744
6.0199 1.1470 1.8862
6.0201 1.3727 1.9006
6.0202 1.6021 1.9178
6.0203 1.8359 1.9377
6.0204 2.0749 1.9607
6.0205 2.3200 1.9867
6.0207 2.5719 2.0161
6.0208 2.8317 2.0491
6.0209 3.1005 2.0859
6.0211 3.3793 2.1268
5.9121 3.6032 2.1328
5.7785 3.8129 2.1328
5.6375 4.0176 2.1328
5.4893 4.2171 2.1328
5.3339 4.4111 2.1328
5.1718 4.5995 2.1328
5.0030 4.7819 2.1328
4.8278 4.9581 2.1328
4.6464 5.1280 2.1328
4.4590 5.2912 2.1328
4.2660 5.4476 2.1328
4.0674 5.5969 2.1328
3.8637 5.7391 2.1328
3.6550 5.8738 2.1328
3.4416 6.0010 2.1328
3.2238 6.1205 2.1328
3.0018 6.2320 2.1328
2.7760 6.3356 2.1328
2.5467 6.4310 2.1328
2.3141 6.5181 2.1328
2.0785 6.5968 2.1328
1.9293 6.9893 2.2359
1.6770 7.0540 2.2359
1.4227 7.1095 2.2359
1.1665 7.1559 2.2359
0.9088 7.1932 2.2359
0.6499 7.2211 2.2359
0.3903 7.2398 2.2359
0.1301 7.2492 2.2359
-0.1303 7.2492 2.2359
-0.3905 7.2400 2.2359
-0.6502 7.2214 2.2359
-0.9091 7.1935 2.2359
-1.1668 7.1563 2.2359
-1.4230 7.1100 2.2359
-1.6774 7.0545 2.2359
-1.9297 6.9900 2.2359
-2.1795 6.9164 2.2359
-2.4265 6.8339 2.2359
-2.6704 6.7427 2.2359
-2.9109 6.6427 2.2359
-3.1476 6.5342 2.2359
-3.3804 6.4173 2.2359
-3.6088 6.2921 2.2359
-3.8326 6.1589 2.2359
-4.0514 6.0176 2.2359
-4.2651 5.8686 2.2359
-4.4734 5.7121 2.2359
-4.6758 5.5482 2.2359
-4.8724 5.3771 2.2359
-5.0626 5.1990 2.2359
-5.2464 5.0143 2.2359
-5.4234 4.8231 2.2359
-5.5935 4.6256 2.2359
-5.7564 4.4221 2.2359
-5.9119 4.2130 2.2359
-6.0598 3.9983 2.2359
-6.1590 3.7535 2.2211
-6.1360 3.4437 2.1666
-6.1585 3.1712 2.1328
-6.2690 2.9483 2.1328
-6.3713 2.7216 2.1328
-6.4655 2.4914 2.1328
-6.5513 2.2579 2.1328
-6.6288 2.0214 2.1328
-6.6977 1.7823 2.1328
-6.7580 1.5409 2.1328
-6.8095 1.2974 2.1328
-6.8524 1.0522 2.1328
-6.8864 0.8056 2.1328
-6.9115 0.5580 2.1328
-6.9277 0.3095 2.1328
-6.9350 0.0607 2.1328
-6.9334 -0.1883 2.1328
-6.9228 -0.4371 2.1328
-6.9033 -0.6854 2.1328
-6.8749 -0.9328 2.1328
-6.8376 -1.1791 2.1328
-6.7915 -1.4239 2.1328
-6.7366 -1.6669 2.1328
-6.6731 -1.9078 2.1328
-6.6009 -2.1463 2.1328
-6.5202 -2.3820 2.1328
-6.4310 -2.6148 2.1328
-6.3336 -2.8441 2.1328
-6.2279 -3.0699 2.1328
-6.1142 -3.2917 2.1328
-6.0944 -3.5689 2.1691
-6.0911 -3.8671 2.2157
-6.0031 -4.1208 2.2359
-5.8517 -4.3339 2.2359
-5.6928 -4.5414 2.2359
-5.5265 -4.7431 2.2359
-5.3531 -4.9388 2.2359
-5.1727 -5.1280 2.2359
-4.9856 -5.3107 2.2359
-4.7921 -5.4865 2.2359
-4.5924 -5.6553 2.2359
-4.3867 -5.8168 2.2359
-4.1753 -5.9707 2.2359
-3.9585 -6.1170 2.2359
-3.7366 -6.2555 2.2359
-3.5098 -6.3858 2.2359
-3.2785 -6.5079 2.2359
-3.0429 -6.6216 2.2359
-2.8034 -6.7267 2.2359
-2.5603 -6.8232 2.2359
-2.3138 -6.9109 2.2359
-2.0644 -6.9896 2.2359
-1.8122 -7.0593 2.2359
-1.5577 -7.1199 2.2359
-1.3012 -7.1713 2.2359
-1.0430 -7.2134 2.2359
-0.7835 -7.2463 2.2359
-0.5229 -7.2697 2.2359
-0.2617 -7.2838 2.2359
-0.0001 -6.7430 2.2359
0.2419 -6.7386 2.2359
0.4835 -6.7255 2.2359
0.7246 -6.7037 2.2359
0.9647 -6.6733 2.2359
1.2035 -6.6343 2.2359
1.4408 -6.5866 2.2359
1.6762 -6.5305 2.2359
1.9094 -6.4660 2.2359
2.0415 -6.0983 2.1328
2.2590 -6.0209 2.1328
2.4735 -5.9357 2.1328
2.6848 -5.8429 2.1328
2.8927 -5.7425 2.1328
3.0967 -5.6347 2.1328
3.2968 -5.5197 2.1328
3.4926 -5.3975 2.1328
3.6839 -5.2684 2.1328
3.8703 -5.1325 2.1328
4.0518 -4.9900 2.1328
4.2280 -4.8411 2.1328
4.3988 -4.6859 2.1328
4.5638 -4.5247 2.1328
4.7229 -4.3577 2.1328
4.8760 -4.1851 2.1328
5.0227 -4.0071 2.1328
5.1629 -3.8240 2.1328
5.2964 -3.6359 2.1328
5.4231 -3.4432 2.1328
5.5427 -3.2461 2.1328
5.6552 -3.0448 2.1328
5.7604 -2.8396 2.1328
5.8581 -2.6308 2.1328
5.9482 -2.4187 2.1328
6.0181 -2.1988 2.1283
6.0182 -1.9570 2.1024
6.0184 -1.7208 2.0797
6.0185 -1.4894 2.0601
6.0186 -1.2620 2.0435
6.0187 -1.0380 2.0297
6.0189 -0.8168 2.0187
6.0190 -0.5977 2.0105
6.0191 -0.3802 2.0048
6.0192 -0.1636 2.0018
6.0193 0.0526 2.0013
6.0194 0.2689 2.0035
6.0196 0.4859 2.0082
6.0197 0.7042 2.0155
6.0198 0.9243 2.0256
6.0199 1.1469 2.0383
6.0200 1.3725 2.0539
6.0201 1.6020 2.0724
6.0203 1.8358 2.0940
6.0204 2.0748 2.1188
6.0205 2.3199 2.1469
5.8939 2.5176 2.1328
5.7992 2.7274 2.1328
5.6971 2.9336 2.1328
5.5877 3.1360 2.1328
5.4711 3.3344 2.1328
5.3475 3.5284 2.1328
5.2170 3.7178 2.1328
5.0799 3.9025 2.1328
4.9362 4.0821 2.1328
4.7861 4.2564 2.1328
4.6299 4.4252 2.1328
4.4678 4.5883 2.1328
4.3000 4.7455 2.1328
4.1266 4.8966 2.1328
2.7331 3.4901 1.4765
2.6050 3.5845 1.4760
3.5756 5.3111 2.1328
3.3825 5.4359 2.1328
3.1850 5.5536 2.1328
2.9835 5.6641 2.1328
2.7781 5.7674 2.1328
2.5691 5.8632 2.1328
2.3569 5.9516 2.1328
2.1529 6.0639 2.1440
1.9468 6.1785 2.1585
1.7855 6.4683 2.2359
1.5521 6.5281 2.2359
1.3166 6.5796 2.2359
1.0795 6.6225 2.2359
0.8411 6.6570 2.2359
0.6015 6.6829 2.2359
0.3612 6.7002 2.2359
0.1204 6.7088 2.2359
-0.1206 6.7089 2.2359
-0.3614 6.7003 2.2359
-0.6018 6.6831 2.2359
-0.8413 6.6572 2.2359
-1.0798 6.6229 2.2359
-1.3170 6.5800 2.2359
-1.5524 6.5286 2.2359
-1.7859 6.4688 2.2359
-2.0170 6.4008 2.2359
-2.2456 6.3244 2.2359
-2.4713 6.2399 2.2359
-2.6939 6.1474 2.2359
-2.9130 6.0470 2.2359
-3.1284 5.9388 2.2359
-3.3397 5.8229 2.2359
-3.5468 5.6996 2.2359
-3.7494 5.5688 2.2359
-3.9471 5.4309 2.2359
-4.1398 5.2860 2.2359
-4.3272 5.1343 2.2359
-4.5090 4.9760 2.2359
-4.6850 4.8112 2.2359
-4.8551 4.6402 2.2359
-5.0189 4.4632 2.2359
-5.1763 4.2804 2.2359
-5.3270 4.0921 2.2359
-5.4709 3.8986 2.2359
-5.6077 3.6999 2.2359
-5.7374 3.4965 2.2359
-5.8597 3.2885 2.2359
-5.9744 3.0763 2.2359
-6.0815 2.8601 2.2359
-6.0938 2.6029 2.2044
-6.0985 2.3498 2.1740
-6.1094 2.1054 2.1494
-6.1340 1.8704 2.1328
-6.1977 1.6491 2.1328
-6.2534 1.4257 2.1328
-6.3018 1.2006 2.1330
-6.3407 0.9735 2.1328
-6.3721 0.7454 2.1328
-6.3954 0.5162 2.1328
-6.4103 0.2863 2.1328
-6.4170 0.0560 2.1328
-6.4155 -0.1744 2.1328
-6.4057 -0.4046 2.1328
-6.3876 -0.6343 2.1328
-6.3612 -0.8632 2.1328
-6.3267 -1.0911 2.1328
-6.2997 -1.3209 2.1381
-6.2332 -1.5424 2.1328
-6.1743 -1.7653 2.1328
-6.1075 -1.9860 2.1328
-6.0972 -2.2276 2.1556
-6.0903 -2.4764 2.1830
-6.0905 -2.7351 2.2167
-6.0408 -2.9778 2.2359
-5.9305 -3.1929 2.2359
-5.8125 -3.4039 2.2359
-5.6870 -3.6106 2.2359
-5.5541 -3.8127 2.2359
-5.4141 -4.0098 2.2359
-5.2670 -4.2018 2.2359
-5.1131 -4.3884 2.2359
-4.9526 -4.5694 2.2359
-4.7857 -4.7445 2.2359
-4.6126 -4.9135 2.2359
-4.4336 -5.0761 2.2359
-4.2487 -5.2323 2.2359
-4.0584 -5.3816 2.2359
-3.8629 -5.5241 2.2359
-3.6623 -5.6594 2.2359
-3.4570 -5.7874 2.2359
-3.2472 -5.9080 2.2359
-3.0331 -6.0209 2.2359
-2.8152 -6.1261 2.2359
-2.5936 -6.2234 2.2359
-2.3687 -6.3126 2.2359
-2.1406 -6.3937 2.2359
-1.9099 -6.4665 2.2359
-1.6766 -6.5310 2.2359
-1.4411 -6.5871 2.2359
-1.2038 -6.6346 2.2359
-0.9650 -6.6736 2.2359
-0.7248 -6.7040 2.2359
-0.4838 -6.7257 2.2359
-0.2421 -6.7387 2.2359
-0.0001 -6.2670 2.2359
0.2248 -6.2629 2.2359
0.4494 -6.2507 2.2359
0.6734 -6.2305 2.2359
0.8966 -6.2022 2.2359
1.1185 -6.1659 2.2359
1.3391 -6.1217 2.2359
1.5578 -6.0695 2.2359
1.7746 -6.0095 2.2359
1.9343 -5.7781 2.1743
2.0995 -5.5959 2.1328
2.2989 -5.5167 2.1328
2.4953 -5.4305 2.1328
2.6884 -5.3372 2.1328
2.8781 -5.2370 2.1328
3.0641 -5.1301 2.1328
3.2460 -5.0166 2.1328
3.4238 -4.8966 2.1328
3.5972 -4.7704 2.1328
3.7658 -4.6379 2.1328
3.9296 -4.4995 2.1328
4.0883 -4.3553 2.1328
4.2417 -4.2055 2.1328
4.3897 -4.0503 2.1328
4.5319 -3.8899 2.1328
4.6683 -3.7245 2.1328
4.7986 -3.5543 2.1328
4.9227 -3.3795 2.1328
5.0405 -3.2004 2.1328
5.1517 -3.0172 2.1328
5.2563 -2.8302 2.1328
5.3541 -2.6395 2.1328
5.4450 -2.4454 2.1328
5.5288 -2.2482 2.1328
5.6055 -2.0482 2.1328
5.6749 -1.8455 2.1328
5.7370 -1.6405 2.1328
5.7917 -1.4334 2.1328
5.8390 -1.2245 2.1328
5.8787 -1.0140 2.1328
5.9108 -0.8023 2.1328
5.9353 -0.5895 2.1328
5.9521 -0.3761 2.1328
5.9613 -0.1621 2.1328
5.9628 0.0520 2.1328
5.9566 0.2660 2.1328
5.9427 0.4796 2.1328
5.9212 0.6925 2.1328
5.8920 0.9046 2.1328
5.8553 1.1154 2.1328
5.8110 1.3248 2.1328
5.7592 1.5324 2.1328
5.7000 1.7380 2.1328
5.6335 1.9414 2.1328
5.5598 2.1422 2.1328
5.4789 2.3403 2.1328
5.3909 2.5353 2.1328
5.2961 2.7270 2.1328
5.1944 2.9151 2.1328
5.0860 3.0995 2.1328
4.9711 3.2799 2.1328
4.8499 3.4561 2.1328
4.7223 3.6277 2.1328
4.5888 3.7947 2.1328
4.4493 3.9568 2.1328
4.3041 4.1137 2.1328
4.1534 4.2654 2.1328
3.9974 4.4115 2.1328
3.8362 4.5520 2.1328
2.7295 3.4854 1.5862
2.6004 3.5781 1.5849
3.3241 4.9374 2.1328
3.1446 5.0533 2.1328
2.9610 5.1628 2.1328
2.7736 5.2656 2.1328
2.5827 5.3616 2.1328
0.8578 1.9576 0.7660
2.1911 5.5328 2.1328
1.9910 5.6078 2.1328
1.8748 5.9499 2.2359
1.6599 6.0133 2.2359
1.4429 6.0689 2.2359
1.2240 6.1167 2.2359
1.0036 6.1567 2.2359
0.7819 6.1887 2.2359
0.5592 6.2128 2.2359
0.3357 6.2288 2.2359
0.1119 6.2369 2.2359
-0.1121 6.2369 2.2359
-0.3360 6.2289 2.2359
-0.5594 6.2129 2.2359
-0.7822 6.1889 2.2359
-1.0039 6.1570 2.2359
-1.2243 6.1171 2.2359
-1.4432 6.0693 2.2359
-1.6603 6.0137 2.2359
-1.8752 5.9504 2.2359
-2.0877 5.8795 2.2359
-2.2975 5.8009 2.2359
-0.8579 1.9576 0.7659
-0.9276 1.9256 0.7659
-2.9083 5.5209 2.2359
-3.1048 5.4132 2.2359
-3.2973 5.2985 2.2359
-3.4856 5.1769 2.2359
-3.6694 5.0487 2.2359
-3.8485 4.9140 2.2359
-4.0227 4.7729 2.2359
-4.1917 4.6257 2.2359
-4.3553 4.4725 2.2359
-4.5134 4.3135 2.2359
-4.6657 4.1489 2.2359
-4.8119 3.9790 2.2359
-4.9520 3.8040 2.2359
-5.0857 3.6240 2.2359
-5.2129 3.4393 2.2359
-5.3335 3.2502 2.2359
-5.4471 3.0568 2.2359
-5.5538 2.8595 2.2359
-5.6533 2.6585 2.2359
-5.7455 2.4541 2.2359
-5.8304 2.2464 2.2359
-5.9077 2.0358 2.2359
-5.9775 1.8226 2.2359
-6.0396 1.6069 2.2359
-6.0891 1.3881 2.2341
-6.0884 1.1598 2.2170
-6.0885 0.9347 2.2032
-6.0886 0.7121 2.1924
-6.0888 0.4913 2.1845
-6.0897 0.2719 2.1797
-6.0903 0.0531 2.1777
-6.0903 -0.1656 2.1782
-6.0896 -0.3847 2.1813
-6.0893 -0.6048 2.1874
-6.0895 -0.8265 2.1965
-6.0896 -1.0503 2.2086
-6.0897 -1.2770 2.2237
-6.0737 -1.5031 2.2359
-6.0163 -1.7203 2.2359
-5.9511 -1.9353 2.2359
-5.8783 -2.1478 2.2359
-5.7979 -2.3575 2.2359
-5.7099 -2.5643 2.2359
-5.6146 -2.7678 2.2359
-5.5121 -2.9678 2.2359
-5.4024 -3.1639 2.2359
-5.2857 -3.3560 2.2359
-5.1622 -3.5438 2.2359
-5.0320 -3.7270 2.2359
-4.8953 -3.9054 2.2359
-4.7523 -4.0788 2.2359
-4.6031 -4.2470 2.2359
-4.4480 -4.4097 2.2359
-4.2871 -4.5668 2.2359
-4.1206 -4.7179 2.2359
-3.9488 -4.8630 2.2359
-3.7719 -5.0018 2.2359
-3.5902 -5.1342 2.2359
-3.4037 -5.2599 2.2359
-3.2129 -5.3789 2.2359
-3.0179 -5.4910 2.2359
-2.8190 -5.5959 2.2359
-2.6164 -5.6937 2.2359
-2.4105 -5.7841 2.2359
-2.2014 -5.8670 2.2359
-1.9895 -5.9423 2.2359
-1.7750 -6.0100 2.2359
-1.5582 -6.0699 2.2359
-1.3394 -6.1220 2.2359
-1.1188 -6.1662 2.2359
-0.8968 -6.2025 2.2359
-0.6737 -6.2307 2.2359
-0.4496 -6.2508 2.2359
-0.2250 -6.2629 2.2359
-0.0001 -5.8474 2.2359
0.2097 -5.8436 2.2359
0.4193 -5.8323 2.2359
0.6283 -5.8134 2.2359
0.8365 -5.7870 2.2359
1.0436 -5.7532 2.2359
1.2494 -5.7119 2.2359
1.4535 -5.6632 2.2359
1.6558 -5.6073 2.2359
1.8559 -5.5441 2.2359
1.9589 -5.2214 2.1328
2.1470 -5.1525 2.1349
2.3282 -5.0670 2.1328
2.5085 -4.9800 2.1328
2.6854 -4.8866 2.1328
2.8590 -4.7869 2.1328
3.0288 -4.6809 2.1328
3.1947 -4.5690 2.1328
3.3564 -4.4512 2.1328
3.5138 -4.3276 2.1328
3.6666 -4.1985 2.1328
3.8147 -4.0640 2.1328
3.9579 -3.9242 2.1328
4.0959 -3.7794 2.1328
4.2287 -3.6297 2.1328
4.3559 -3.4754 2.1328
4.4776 -3.3166 2.1328
4.5934 -3.1536 2.1328
4.7033 -2.9865 2.1328
4.8071 -2.8155 2.1328
4.9047 -2.6410 2.1328
4.9960 -2.4631 2.1328
5.0808 -2.2820 2.1328
5.1591 -2.0980 2.1328
5.2306 -1.9113 2.1328
5.2955 -1.7222 2.1328
5.3535 -1.5309 2.1328
5.4045 -1.3377 2.1328
5.4486 -1.1427 2.1328
5.4857 -0.9463 2.1328
5.5157 -0.7487 2.1328
5.5386 -0.5502 2.1328
5.5543 -0.3510 2.1328
5.5629 -0.1514 2.1328
5.5643 0.0484 2.1328
5.5586 0.2481 2.1328
5.5456 0.4474 2.1328
5.5256 0.6462 2.1328
5.4984 0.8440 2.1328
5.4641 1.0408 2.1328
5.4228 1.2362 2.1328
5.3745 1.4300 2.1328
5.3194 1.6219 2.1328
5.2573 1.8116 2.1328
5.1885 1.9991 2.1328
5.1130 2.1839 2.1328
5.0310 2.3659 2.1328
4.9425 2.5448 2.1328
4.8476 2.7204 2.1328
4.7465 2.8925 2.1328
4.6393 3.0609 2.1328
4.5261 3.2253 2.1328
4.4071 3.3855 2.1328
4.2825 3.5413 2.1328
4.1524 3.6926 2.1328
4.0169 3.8391 2.1328
3.8763 3.9806 2.1328
3.7307 4.1170 2.1328
3.5803 4.2481 2.1328
2.7259 3.4807 1.6973
2.5957 3.5715 1.6951
3.1023 4.6079 2.1328
2.9348 4.7161 2.1328
2.7634 4.8183 2.1328
2.5886 4.9142 2.1328
0.8655 1.7968 0.7659
0.8005 1.8268 0.7659
0.7344 1.8543 0.7659
0.6673 1.8795 0.7659
0.5994 1.9022 0.7659
0.5307 1.9225 0.7660
0.4613 1.9403 0.7660
0.3914 1.9557 0.7660
0.9367 5.7459 2.2359
0.7297 5.7758 2.2359
0.5219 5.7982 2.2359
0.3133 5.8133 2.2359
0.1044 5.8208 2.2359
-0.1047 5.8208 2.2359
-0.3136 5.8133 2.2359
-0.5221 5.7984 2.2359
-0.7300 5.7760 2.2359
-0.9369 5.7461 2.2359
-0.3914 1.9556 0.7659
-0.4614 1.9403 0.7659
-0.5308 1.9225 0.7659
-0.5995 1.9022 0.7659
-0.6674 1.8795 0.7659
-0.7344 1.8543 0.7658
-0.8006 1.8268 0.7658
-0.8656 1.7968 0.7658
-0.9296 1.7646 0.7658
-2.8976 5.0519 2.2359
-3.0773 4.9448 2.2359
-3.2530 4.8313 2.2359
-3.4245 4.7117 2.2359
-3.5917 4.5859 2.2359
-3.7542 4.4542 2.2359
-3.9119 4.3168 2.2359
-4.0646 4.1738 2.2359
-4.2121 4.0254 2.2359
-4.3542 3.8719 2.2359
-4.4907 3.7133 2.2359
-4.6214 3.5499 2.2359
-4.7462 3.3819 2.2359
-4.8649 3.2096 2.2359
-4.9773 3.0331 2.2359
-5.0834 2.8526 2.2359
-5.1829 2.6685 2.2359
-5.2757 2.4809 2.2359
-5.3618 2.2900 2.2359
-5.4410 2.0962 2.2359
-5.5131 1.8997 2.2359
-5.5782 1.7007 2.2359
-5.6361 1.4995 2.2359
-5.6867 1.2963 2.2359
-5.7300 1.0914 2.2359
-5.7660 0.8851 2.2359
-5.7945 0.6776 2.2359
-5.8155 0.4692 2.2359
-5.8291 0.2601 2.2359
-5.8351 0.0507 2.2359
-5.8337 -0.1588 2.2359
-5.8247 -0.3681 2.2359
-5.8082 -0.5770 2.2359
-5.7842 -0.7851 2.2359
-5.7527 -0.9923 2.2359
-5.7138 -1.1983 2.2359
-5.6675 -1.4027 2.2359
-5.6140 -1.6053 2.2359
-5.5531 -1.8059 2.2359
-5.4851 -2.0042 2.2359
-5.4101 -2.2000 2.2359
-5.3280 -2.3929 2.2359
-5.2390 -2.5828 2.2359
-5.1433 -2.7693 2.2359
-5.0409 -2.9523 2.2359
-4.9320 -3.1315 2.2359
-4.8168 -3.3068 2.2359
-4.6953 -3.4777 2.2359
-4.5677 -3.6442 2.2359
-4.4342 -3.8060 2.2359
-4.2950 -3.9629 2.2359
-4.1503 -4.1147 2.2359
-4.0001 -4.2612 2.2359
-3.8448 -4.4023 2.2359
-3.6845 -4.5376 2.2359
-3.5195 -4.6671 2.2359
-3.3498 -4.7906 2.2359
-3.1759 -4.9079 2.2359
-2.9978 -5.0189 2.2359
-2.8159 -5.1235 2.2359
-2.6303 -5.2214 2.2359
-2.4413 -5.3126 2.2359
-2.2491 -5.3969 2.2359
-2.0540 -5.4743 2.2359
-1.8563 -5.5446 2.2359
-1.6562 -5.6077 2.2359
-1.4539 -5.6636 2.2359
-1.2497 -5.7122 2.2359
-1.0439 -5.7534 2.2359
-0.8368 -5.7873 2.2359
-0.6286 -5.8136 2.2359
-0.4195 -5.8324 2.2359
-0.2100 -5.8437 2.2359
-0.0001 -5.4746 2.2359
0.1963 -5.4710 2.2359
0.3925 -5.4604 2.2359
0.5882 -5.4427 2.2359
0.7831 -5.4180 2.2359
0.9771 -5.3863 2.2359
1.1697 -5.3477 2.2359
1.3608 -5.3022 2.2359
1.5502 -5.2498 2.2359
1.7375 -5.1906 2.2359
1.9226 -5.1248 2.2359
2.0082 -4.8194 2.1328
2.1797 -4.7440 2.1328
2.3485 -4.6626 2.1328
2.5142 -4.5751 2.1328
2.6767 -4.4817 2.1328
2.8357 -4.3826 2.1328
2.9910 -4.2778 2.1328
3.1424 -4.1675 2.1328
3.2898 -4.0518 2.1328
3.4329 -3.9310 2.1328
3.5716 -3.8050 2.1328
3.7056 -3.6742 2.1328
3.8349 -3.5386 2.1328
3.9592 -3.3985 2.1328
4.0783 -3.2540 2.1328
4.1922 -3.1054 2.1328
4.3007 -2.9527 2.1328
4.4036 -2.7963 2.1328
4.5008 -2.6362 2.1328
4.5922 -2.4728 2.1328
4.6777 -2.3062 2.1328
4.7571 -2.1367 2.1328
4.8304 -1.9644 2.1328
4.8975 -1.7897 2.1328
4.9582 -1.6126 2.1328
5.0125 -1.4335 2.1328
5.0603 -1.2526 2.1328
5.1017 -1.0700 2.1328
5.1364 -0.8862 2.1328
5.1645 -0.7012 2.1328
5.1860 -0.5153 2.1328
5.2007 -0.3288 2.1328
5.2088 -0.1419 2.1328
5.2101 0.0452 2.1328
5.2047 0.2322 2.1328
5.1927 0.4188 2.1328
5.1739 0.6049 2.1328
5.1485 0.7902 2.1328
5.1164 0.9745 2.1328
5.0778 1.1574 2.1328
5.0326 1.3389 2.1328
4.9809 1.5186 2.1328
4.9228 1.6963 2.1328
4.8584 1.8718 2.1328
4.7878 2.0449 2.1328
4.7110 2.2153 2.1328
4.6281 2.3829 2.1328
4.5393 2.5473 2.1328
4.4446 2.7085 2.1328
4.3442 2.8661 2.1328
4.2383 3.0201 2.1328
4.1269 3.1701 2.1328
4.0102 3.3160 2.1328
3.8883 3.4577 2.1328
3.7615 3.5949 2.1328
3.6298 3.7274 2.1328
3.4935 3.8552 2.1328
3.3526 3.9779 2.1328
2.7222 3.4759 1.8101
2.5909 3.5649 1.8069
2.9051 4.3149 2.1328
2.7482 4.4162 2.1328
2.5878 4.5119 2.1328
0.8703 1.6522 0.7658
0.8104 1.6824 0.7658
0.7495 1.7104 0.7658
0.6876 1.7362 0.7658
0.6248 1.7598 0.7658
0.5612 1.7811 0.7659
0.4969 1.8001 0.7659
0.4319 1.8168 0.7659
0.3664 1.8311 0.7659
0.3004 1.8431 0.7659
0.2341 1.8527 0.7659
0.1674 1.8599 0.7659
0.1005 1.8647 0.7659
0.0335 1.8671 0.7659
-0.0336 1.8671 0.7659
-0.1006 1.8647 0.7659
-0.1675 1.8599 0.7659
-0.2342 1.8527 0.7659
-0.3005 1.8431 0.7659
-0.3665 1.8311 0.7658
-0.4320 1.8168 0.7658
-0.4970 1.8001 0.7658
-0.5613 1.7811 0.7658
-0.6249 1.7598 0.7658
-0.6877 1.7362 0.7658
-0.7496 1.7104 0.7657
-0.8105 1.6824 0.7657
-0.8704 1.6522 0.7657
-0.9292 1.6199 0.7657
-2.8817 4.6303 2.2359
-3.0462 4.5241 2.2359
-3.2068 4.4120 2.2359
-3.3633 4.2942 2.2359
-3.5155 4.1709 2.2359
-3.6632 4.0422 2.2359
-3.8062 3.9083 2.2359
-3.9443 3.7694 2.2359
-4.0773 3.6255 2.2359
-4.2051 3.4770 2.2359
-4.3275 3.3240 2.2359
-4.4443 3.1667 2.2359
-4.5554 3.0053 2.2359
-4.6607 2.8400 2.2359
-4.7600 2.6710 2.2359
-4.8531 2.4986 2.2359
-4.9401 2.3229 2.2359
-5.0206 2.1442 2.2359
-5.0947 1.9627 2.2359
-5.1623 1.7787 2.2359
-5.2232 1.5924 2.2359
-5.2774 1.4039 2.2359
-5.3248 1.2137 2.2359
-5.3653 1.0218 2.2359
-5.3989 0.8286 2.2359
-5.4256 0.6343 2.2359
-5.4453 0.4392 2.2359
-5.4580 0.2435 2.2359
-5.4636 0.0474 2.2359
-5.4622 -0.1488 2.2359
-5.4537 -0.3448 2.2359
-5.4383 -0.5403 2.2359
-5.4158 -0.7352 2.2359
-5.3863 -0.9292 2.2359
-5.3499 -1.1221 2.2359
-5.3065 -1.3134 2.2359
-5.2563 -1.5032 2.2359
-5.1994 -1.6910 2.2359
-5.1357 -1.8766 2.2359
-5.0654 -2.0599 2.2359
-4.9885 -2.2405 2.2359
-4.9052 -2.4183 2.2359
-4.8155 -2.5929 2.2359
-4.7197 -2.7643 2.2359
-4.6177 -2.9321 2.2359
-4.5098 -3.0961 2.2359
-4.3960 -3.2561 2.2359
-4.2766 -3.4120 2.2359
-4.1516 -3.5635 2.2359
-4.0212 -3.7104 2.2359
-3.8857 -3.8525 2.2359
-3.7451 -3.9896 2.2359
-3.5997 -4.1217 2.2359
-3.4496 -4.2484 2.2359
-3.2951 -4.3696 2.2359
-3.1362 -4.4852 2.2359
-2.9734 -4.5951 2.2359
-2.8067 -4.6990 2.2359
-2.6363 -4.7968 2.2359
-2.4625 -4.8885 2.2359
-2.2856 -4.9739 2.2359
-2.1057 -5.0528 2.2359
-1.9230 -5.1252 2.2359
-1.7379 -5.1910 2.2359
-1.5505 -5.2502 2.2359
-1.3612 -5.3025 2.2359
-1.1700 -5.3480 2.2359
-0.9773 -5.3866 2.2359
-0.7834 -5.4182 2.2359
-0.5885 -5.4429 2.2359
-0.3928 -5.4605 2.2359
-0.1966 -5.4711 2.2359
-0.0001 -5.1407 2.2359
0.1844 -5.1374 2.2359
0.3686 -5.1274 2.2359
0.5523 -5.1108 2.2359
0.7354 -5.0876 2.2359
0.9175 -5.0579 2.2359
1.0983 -5.0216 2.2359
1.2778 -4.9788 2.2359
1.4556 -4.9297 2.2359
1.6315 -4.8741 2.2359
1.8053 -4.8123 2.2359
1.9349 -4.6436 2.1885
2.0468 -4.4548 2.1328
2.2053 -4.3783 2.1328
2.3609 -4.2962 2.1328
2.5134 -4.2085 2.1328
2.6627 -4.1154 2.1328
2.8086 -4.0170 2.1328
2.9508 -3.9135 2.1328
3.0892 -3.8049 2.1328
3.2236 -3.6914 2.1328
3.3538 -3.5731 2.1328
3.4797 -3.4503 2.1328
3.6011 -3.3230 2.1328
3.7178 -3.1914 2.1328
3.8297 -3.0557 2.1328
3.9367 -2.9162 2.1328
4.0385 -2.7728 2.1328
4.1352 -2.6259 2.1328
4.2265 -2.4756 2.1328
4.3124 -2.3222 2.1328
4.3926 -2.1658 2.1328
4.4672 -2.0066 2.1328
4.5361 -1.8448 2.1328
4.5990 -1.6807 2.1328
4.6561 -1.5145 2.1328
4.7071 -1.3463 2.1328
4.7521 -1.1764 2.1328
4.7909 -1.0050 2.1328
4.8235 -0.8323 2.1328
4.8499 -0.6586 2.1328
4.8701 -0.4840 2.1328
4.8840 -0.3088 2.1328
4.8916 -0.1333 2.1328
4.8929 0.0424 2.1328
4.8878 0.2179 2.1328
4.8765 0.3932 2.1328
4.8589 0.5680 2.1328
4.8350 0.7420 2.1328
4.8049 0.9150 2.1328
4.7687 1.0869 2.1328
4.7262 1.2573 2.1328
4.6777 1.4260 2.1328
4.6232 1.5930 2.1328
4.5627 1.7578 2.1328
4.4964 1.9203 2.1328
4.4243 2.0804 2.1328
4.3465 2.2377 2.1328
4.2631 2.3922 2.1328
4.1742 2.5436 2.1328
4.0799 2.6916 2.1328
3.9804 2.8362 2.1328
3.8758 2.9772 2.1328
3.7662 3.1142 2.1328
3.6518 3.2473 2.1328
3.5327 3.3761 2.1328
3.4090 3.5006 2.1328
3.2810 3.6206 2.1328
3.1487 3.7359 2.1328
2.7184 3.4710 1.9247
2.5861 3.5582 1.9203
2.7284 4.0524 2.1328
2.5811 4.1476 2.1328
0.8725 1.5212 0.7657
0.8173 1.5516 0.7657
0.7611 1.5799 0.7657
0.7039 1.6062 0.7657
0.6457 1.6305 0.7657
0.5868 1.6526 0.7658
0.5270 1.6726 0.7658
0.4666 1.6904 0.7658
0.4056 1.7061 0.7658
0.3441 1.7195 0.7658
0.2822 1.7308 0.7658
0.2198 1.7398 0.7658
0.1572 1.7466 0.7658
0.0944 1.7511 0.7658
0.0315 1.7534 0.7658
-0.0315 1.7534 0.7658
-0.0945 1.7511 0.7658
-0.1573 1.7466 0.7658
-0.2199 1.7398 0.7658
-0.2822 1.7308 0.7658
-0.3442 1.7196 0.7658
-0.4057 1.7061 0.7657
-0.4667 1.6904 0.7657
-0.5271 1.6726 0.7657
-0.5868 1.6526 0.7657
-0.6458 1.6305 0.7657
-0.7039 1.6062 0.7657
-0.7612 1.5799 0.7656
-0.8174 1.5516 0.7656
-0.8726 1.5212 0.7656
-0.9267 1.4889 0.7656
-0.9795 1.4547 0.7655
-3.0118 4.1436 2.2359
-3.1588 4.0329 2.2359
-3.3017 3.9171 2.2359
-3.4404 3.7962 2.2359
-3.5747 3.6705 2.2359
-3.7043 3.5399 2.2359
-3.8293 3.4049 2.2359
-3.9493 3.2654 2.2359
-4.0642 3.1217 2.2359
-4.1739 2.9739 2.2359
-4.2783 2.8223 2.2359
-4.3771 2.6671 2.2359
-4.4703 2.5084 2.2359
-4.5578 2.3464 2.2359
-4.6394 2.1814 2.2359
-4.7150 2.0136 2.2359
-4.7846 1.8432 2.2359
-4.8480 1.6703 2.2359
-4.9052 1.4953 2.2359
-4.9561 1.3184 2.2359
-5.0006 1.1397 2.2359
-5.0386 0.9595 2.2359
-5.0702 0.7781 2.2359
-5.0952 0.5956 2.2359
-5.1137 0.4123 2.2359
-5.1256 0.2285 2.2359
-5.1308 0.0444 2.2359
-5.1295 -0.1398 2.2359
-5.1215 -0.3239 2.2359
-5.1070 -0.5075 2.2359
-5.0858 -0.6906 2.2359
-5.0581 -0.8727 2.2359
-5.0239 -1.0538 2.2359
-4.9832 -1.2335 2.2359
-4.9360 -1.4117 2.2359
-4.8825 -1.5880 2.2359
-4.8227 -1.7624 2.2359
-4.7566 -1.9344 2.2359
-4.6845 -2.1041 2.2359
-4.6062 -2.2710 2.2359
-4.5220 -2.4350 2.2359
-4.4320 -2.5959 2.2359
-4.3362 -2.7534 2.2359
-4.2348 -2.9074 2.2359
-4.1280 -3.0577 2.2359
-4.0158 -3.2041 2.2359
-3.8984 -3.3463 2.2359
-3.7760 -3.4842 2.2359
-3.6487 -3.6177 2.2359
-3.5167 -3.7465 2.2359
-3.3802 -3.8704 2.2359
-3.2392 -3.9894 2.2359
-3.0941 -4.1032 2.2359
-2.9450 -4.2118 2.2359
-2.7920 -4.3149 2.2359
-2.6355 -4.4125 2.2359
-2.4755 -4.5044 2.2359
-2.3123 -4.5904 2.2359
-2.1462 -4.6706 2.2359
-1.9772 -4.7447 2.2359
-1.8057 -4.8127 2.2359
-1.6319 -4.8745 2.2359
-1.4560 -4.9300 2.2359
-1.2781 -4.9791 2.2359
-1.0986 -5.0219 2.2359
-0.9177 -5.0581 2.2359
-0.7356 -5.0878 2.2359
-0.5526 -5.1109 2.2359
-0.3688 -5.1275 2.2359
-0.1846 -5.1374 2.2359
-0.0001 -4.8397 2.2359
0.1735 -4.8366 2.2359
0.3470 -4.8272 2.2359
0.5200 -4.8116 2.2359
0.6923 -4.7897 2.2359
0.8637 -4.7617 2.2359
1.0340 -4.7276 2.2359
1.2030 -4.6873 2.2359
1.3704 -4.6410 2.2359
1.5360 -4.5888 2.2359
1.6996 -4.5306 2.2359
1.8610 -4.4665 2.2359
1.9391 -4.2205 2.1463
2.0761 -4.1220 2.1328
2.2226 -4.0447 2.1328
2.3662 -3.9622 2.1328
2.5068 -3.8746 2.1328
2.6441 -3.7819 2.1328
2.7780 -3.6844 2.1328
2.9083 -3.5822 2.1328
3.0348 -3.4754 2.1328
3.1575 -3.3640 2.1328
3.2760 -3.2484 2.1328
3.3903 -3.1286 2.1328
3.5002 -3.0047 2.1328
3.6056 -2.8770 2.1328
3.7063 -2.7456 2.1328
3.8022 -2.6106 2.1328
3.8932 -2.4723 2.1328
3.9792 -2.3309 2.1328
4.0600 -2.1864 2.1328
4.1356 -2.0392 2.1328
4.2059 -1.8893 2.1328
4.2707 -1.7370 2.1328
4.3300 -1.5825 2.1328
4.3837 -1.4260 2.1328
4.4318 -1.2676 2.1328
4.4741 -1.1076 2.1328
4.5107 -0.9463 2.1328
4.5414 -0.7837 2.1328
4.5663 -0.6201 2.1328
4.5853 -0.4558 2.1328
4.5984 -0.2909 2.1328
4.6055 -0.1256 2.1328
4.6068 0.0398 2.1328
4.6020 0.2051 2.1328
4.5914 0.3702 2.1328
4.5748 0.5347 2.1328
4.5524 0.6986 2.1328
4.5241 0.8615 2.1328
4.4899 1.0233 2.1328
4.4500 1.1837 2.1328
4.4044 1.3426 2.1328
4.3530 1.4998 2.1328
4.2961 1.6550 2.1328
4.2337 1.8080 2.1328
4.1658 1.9587 2.1328
4.0925 2.1069 2.1328
4.0140 2.2524 2.1328
3.9303 2.3949 2.1328
3.8416 2.5343 2.1328
3.7479 2.6705 2.1328
3.6494 2.8032 2.1328
3.5462 2.9322 2.1328
3.4385 3.0575 2.1328
3.3263 3.1789 2.1328
3.2099 3.2961 2.1328
3.0894 3.4091 2.1328
2.9648 3.5176 2.1328
2.7146 3.4661 2.0412
2.5812 3.5514 2.0356
2.5691 3.8156 2.1328
0.8724 1.4018 0.7656
0.8215 1.4323 0.7656
0.7695 1.4608 0.7656
0.7166 1.4875 0.7656
0.6627 1.5123 0.7657
0.6080 1.5351 0.7657
0.5524 1.5559 0.7657
0.4962 1.5747 0.7657
0.4394 1.5915 0.7657
0.3819 1.6063 0.7657
0.3240 1.6190 0.7657
0.2656 1.6295 0.7657
0.2070 1.6380 0.7657
0.1480 1.6444 0.7657
0.0889 1.6487 0.7657
0.0296 1.6508 0.7657
-0.0297 1.6508 0.7657
-0.0889 1.6487 0.7657
-0.1481 1.6444 0.7657
-0.2070 1.6380 0.7657
-0.2657 1.6296 0.7657
-0.3241 1.6190 0.7657
-0.3820 1.6063 0.7657
-0.4394 1.5915 0.7657
-0.4963 1.5747 0.7656
-0.5525 1.5559 0.7656
-0.6080 1.5351 0.7656
-0.6628 1.5123 0.7656
-0.7167 1.4875 0.7656
-0.7696 1.4608 0.7655
-0.8216 1.4323 0.7655
-0.8725 1.4018 0.7655
-0.9223 1.3696 0.7655
-0.9708 1.3356 0.7654
-2.9743 3.7973 2.2359
-3.1088 3.6882 2.2359
-3.2394 3.5744 2.2359
-3.3658 3.4560 2.2359
-3.4879 3.3330 2.2359
-3.6056 3.2058 2.2359
-3.7185 3.0745 2.2359
-3.8267 2.9392 2.2359
-3.9300 2.8001 2.2359
-4.0283 2.6573 2.2359
-4.1213 2.5111 2.2359
-4.2091 2.3617 2.2359
-4.2914 2.2092 2.2359
-4.3683 2.0538 2.2359
-4.4395 1.8958 2.2359
-4.5050 1.7353 2.2359
-4.5647 1.5726 2.2359
-4.6185 1.4078 2.2359
-4.6664 1.2412 2.2359
-4.7082 1.0730 2.2359
