ply
format ascii 1.0
element vertex 2004
property float32 x
property float32 y
property float32 z
end_header
-13.1662 -8.3654 -2.3558
-13.1683 -9.0459 -2.4107
-11.7466 -8.7058 -2.2044
-11.7230 -9.3582 -2.2598
-11.7251 -10.0696 -2.3266
-13.2040 -12.1896 -2.7031
-13.2988 -13.1918 -2.8156
-13.3017 -14.1772 -2.9200
-13.3050 -15.2416 -3.0368
-16.2481 -20.0199 -3.8676
-15.0923 -20.0234 -3.7588
-14.0321 -20.0769 -3.6696
-12.9551 -20.0298 -3.5717
-12.1430 -20.3391 -3.5449
-12.0781 -21.9860 -3.7520
-12.0625 -23.9564 -4.0098
-12.1615 -26.4772 -4.3539
-12.1697 -29.2155 -4.7272
5.3618 -24.5150 -3.1655
6.2524 -24.3632 -3.1736
7.1484 -24.2110 -3.1861
7.9361 -23.7108 -3.1568
9.0510 -24.1289 -3.2548
8.6019 -20.6468 -2.8261
9.0358 -19.6688 -2.7361
10.3350 -20.5221 -2.9060
11.1596 -20.3108 -2.9324
12.3505 -20.6834 -3.0500
12.0606 -18.6438 -2.8130
13.0789 -18.7100 -2.8938
8.9795 -11.9115 -1.8922
9.4854 -11.6855 -1.9105
10.0011 -11.4550 -1.9318
10.3381 -11.0168 -1.9207
9.8379 -9.7571 -1.7629
13.3318 -12.3055 -2.3103
20.5461 -17.6418 -3.4514
21.0338 -16.7878 -3.4329
21.5605 -15.9761 -3.4262
12.5510 -8.6202 -1.9459
15.2702 -9.7002 -2.3142
14.0514 -8.2336 -2.0854
13.9213 -7.4996 -2.0268
13.7264 -6.7707 -1.9638
13.9404 -6.2647 -1.9630
15.1741 -6.1746 -2.1064
23.0481 -8.4278 -3.1587
27.6576 -9.0018 -3.7478
28.0337 -8.0237 -3.7614
21.4440 -5.3129 -2.8530
21.1068 -4.4318 -2.7883
25.3175 -4.3737 -3.3254
25.1610 -3.4217 -3.2903
23.2065 -2.3111 -3.0254
24.4485 -1.5512 -3.1816
27.1486 -0.7457 -3.5313
27.5915 0.2329 -3.5918
27.6007 1.2248 -3.6005
2.6927 0.2166 -0.3525
29.2187 3.4093 -3.8424
23.3090 3.5720 -3.0837
21.2776 4.0473 -2.8355
15.2514 3.4727 -2.0501
9.7021 2.5787 -1.3172
10.2785 3.1311 -1.4114
10.1366 3.4902 -1.4097
9.9951 3.8482 -1.4099
9.8538 4.2059 -1.4118
9.7122 4.5644 -1.4156
13.7420 7.0714 -2.0408
13.5690 7.6106 -2.0565
13.8522 8.4371 -2.1460
20.3225 13.4016 -3.2241
24.3331 17.3312 -3.9603
24.0214 18.4443 -4.0185
24.8396 20.5315 -4.2799
22.7008 20.1786 -4.0372
21.3456 20.3923 -3.9273
16.4397 16.8755 -3.1368
15.3529 16.9363 -3.0459
13.3543 15.8394 -2.7627
12.1677 15.5311 -2.6328
11.3586 15.6231 -2.5794
10.7913 16.0224 -2.5813
10.4716 16.8217 -2.6494
8.9144 15.5374 -2.3966
9.0516 17.1778 -2.5992
11.4383 23.7370 -3.5290
8.9780 20.4814 -2.9966
7.9461 20.0574 -2.8922
7.6980 21.6737 -3.0846
7.5176 23.8492 -3.3549
8.4717 30.6780 -4.2714
7.2266 30.3831 -4.1927
6.0714 30.3265 -4.1532
5.3254 32.6534 -4.4438
5.7483 45.4739 -6.1575
-12.1884 34.3187 -4.8864
-13.5530 34.2121 -4.9355
-14.8576 33.8965 -4.9618
-14.8673 30.8545 -4.5897
-14.2417 27.0286 -4.0921
-14.2483 24.8353 -3.8331
-14.2542 22.8989 -3.6089
-14.2594 21.1725 -3.4134
-14.6510 20.1523 -3.3296
-15.8388 20.2176 -3.4300
-12.2311 14.5075 -2.5324
-18.1946 20.0717 -3.6129
-19.7063 20.2293 -3.7634
-21.1142 20.1718 -3.8884
-22.6979 20.1766 -4.0406
-28.5421 23.5925 -4.9228
-28.5472 21.9199 -4.7806
-28.5520 20.3366 -4.6518
-30.6016 20.1805 -4.8600
-32.8556 20.0122 -5.0957
-26.0750 14.6253 -3.9562
-59.3692 30.5511 -8.8269
-60.7099 28.5323 -8.8592
-60.4104 25.7857 -8.6658
-60.1449 23.1564 -8.4941
-59.9106 20.6286 -8.3421
-40.9477 7.7890 -5.4638
-24.8702 2.0002 -3.2595
-6.8265 0.3029 -0.8917
-24.8756 0.2100 -3.2425
-24.8783 -0.6834 -3.2402
-24.8810 -1.5787 -3.2421
-24.8837 -2.4783 -3.2482
-24.8865 -3.3845 -3.2586
-24.8892 -4.2998 -3.2734
-24.8920 -5.2267 -3.2925
-24.8948 -6.1680 -3.3163
-24.8977 -7.1263 -3.3449
-19.0704 -6.2071 -2.5874
-16.9917 -6.2133 -2.3316
-15.2817 -6.2185 -2.1239
-6.5018 -2.9219 -0.9167
-13.1606 -6.4918 -1.8851
-11.7138 -6.3106 -1.7074
-13.1643 -7.7140 -1.9559
-13.1662 -8.3639 -1.9976
-13.1683 -9.0444 -2.0438
-13.2356 -9.8078 -2.1055
-13.2379 -10.5659 -2.1628
-13.2014 -11.3357 -2.2199
-13.2040 -12.1878 -2.2904
-13.1804 -13.0726 -2.3642
-11.7324 -12.5030 -2.1818
-11.7353 -13.4417 -2.2687
-11.7384 -14.4615 -2.3664
-15.0941 -20.0234 -3.1834
-14.0338 -20.0769 -3.1076
-12.9566 -20.0298 -3.0243
-12.1430 -20.3368 -3.0009
-12.0781 -21.9836 -3.1760
-12.0625 -23.9537 -3.3939
-12.1615 -26.4744 -3.6849
-12.1346 -29.1280 -3.9890
-13.0895 -34.8975 -4.7096
7.2870 -24.6785 -2.6605
7.8942 -23.5837 -2.5724
9.2266 -24.5948 -2.7183
10.0954 -24.2293 -2.7175
9.5003 -20.6779 -2.3573
10.2953 -20.4411 -2.3723
11.1008 -20.2017 -2.3908
14.1063 -23.6213 -2.8555
13.4338 -20.7645 -2.5687
14.1027 -20.1724 -2.5584
8.9866 -11.9195 -1.5529
9.4929 -11.6934 -1.5682
10.0091 -11.4628 -1.5859
10.3023 -10.9772 -1.5703
9.8067 -9.7249 -1.4420
20.2673 -18.7044 -2.8825
21.7774 -18.6965 -3.0029
25.1942 -20.1053 -3.3760
21.8654 -16.1995 -2.8533
15.1509 -10.4041 -1.9293
15.2733 -9.7005 -1.9015
14.1966 -8.3171 -1.7312
14.0621 -7.5740 -1.6826
13.8607 -6.8356 -1.6301
14.5163 -6.5220 -1.6807
21.6501 -8.8076 -2.4716
23.6213 -8.6350 -2.6630
27.5586 -8.9669 -3.0726
24.1592 -6.9124 -2.6677
21.7015 -5.3745 -2.3767
22.3494 -4.6906 -2.4309
23.1823 -4.0026 -2.5077
25.1653 -3.4200 -2.7109
25.1628 -2.5036 -2.7029
26.4586 -1.6762 -2.8377
29.1786 -0.7988 -3.1287
27.4461 0.2343 -2.9460
28.8659 1.2836 -3.1056
2.6920 0.2168 -0.2907
30.9361 3.6126 -3.3569
24.0817 3.6927 -2.6294
22.0288 4.1923 -2.4234
16.5226 3.7637 -1.8339
9.7734 2.5986 -1.0959
10.2700 3.1295 -1.1650
15.3504 5.2869 -1.7640
23.5685 9.0763 -2.7476
14.1529 6.0424 -1.6763
11.6994 5.4996 -1.4100
13.8503 7.1286 -1.7010
13.6766 7.6724 -1.7145
19.2516 11.7280 -2.4676
25.0411 16.5160 -3.2874
24.2726 17.2910 -3.2697
23.9609 18.4007 -3.3183
25.0025 20.6692 -3.5669
26.0872 23.1921 -3.8420
21.1530 20.2111 -3.2235
20.7399 21.2926 -3.2782
17.0268 18.7852 -2.7988
13.5234 16.0419 -2.3183
12.8772 16.4387 -2.3093
12.2354 16.8310 -2.3031
11.4466 16.9974 -2.2699
10.5474 16.9454 -2.2126
9.1991 16.0355 -2.0507
9.0047 17.0907 -2.1443
11.5235 23.9164 -2.9488
9.0557 20.6610 -2.5071
8.3210 21.0059 -2.5124
7.6676 21.5904 -2.5490
9.4682 30.0404 -3.5058
8.3960 30.4071 -3.5125
7.4664 31.3945 -3.5945
6.0668 30.3071 -3.4439
7.1823 44.0442 -4.9737
5.7032 45.1224 -5.0701
-9.1872 45.8989 -5.2172
-10.4855 44.0925 -5.0502
-10.6841 38.6964 -4.4718
-11.9675 37.9724 -4.4334
-12.1878 34.3202 -4.0539
-13.5981 34.3292 -4.1082
-14.8576 33.8997 -4.1161
-14.8673 30.8576 -3.8071
-14.2417 27.0313 -3.3940
-14.2483 24.8378 -3.1788
-14.2542 22.9013 -2.9926
-14.2594 21.1748 -2.8301
-14.6494 20.1523 -2.7600
-15.7885 20.1558 -2.8341
-12.2289 14.5066 -2.0985
-18.2754 20.1633 -3.0072
-19.5752 20.0973 -3.0974
-21.1114 20.1718 -3.2207
-22.6948 20.1766 -3.3463
-28.5421 23.5959 -4.0767
-28.5974 21.9617 -3.9652
-28.5519 20.3398 -3.8510
-30.4900 20.1103 -4.0079
-33.1385 20.1881 -4.2532
-26.0743 14.6276 -3.2731
-42.3576 21.8013 -5.2094
-42.3633 19.9141 -5.1126
-57.4701 24.5364 -6.8166
-57.2700 22.0553 -6.6862
-59.7632 20.5838 -6.8777
-24.8702 2.0025 -2.6897
-6.8260 0.3036 -0.7355
-24.8756 0.2124 -2.6743
-24.8783 -0.6810 -2.6718
-24.8810 -1.5763 -2.6727
-24.8837 -2.4759 -2.6771
-24.8864 -3.3821 -2.6850
-24.8892 -4.2975 -2.6965
-24.8920 -5.2244 -2.7117
-24.8948 -6.1656 -2.7306
-24.8977 -7.1238 -2.7535
-19.0762 -6.2071 -2.1301
-16.9963 -6.2133 -1.9190
-15.2855 -6.2185 -1.7476
-6.5013 -2.9211 -0.7538
-12.6538 -6.2405 -1.4903
-11.7135 -6.3091 -1.4036
-11.7151 -6.8635 -1.4306
-11.7169 -7.4419 -1.4607
-11.7368 -8.0598 -1.4965
-13.2356 -9.8062 -1.7294
-13.2379 -10.5643 -1.7761
-13.2014 -11.3341 -1.8226
-13.2040 -12.1861 -1.8801
-13.1804 -13.0708 -1.9403
-11.7324 -12.5014 -1.7903
-13.1865 -15.1021 -2.0915
-16.2521 -20.0199 -2.6876
-11.7729 -15.6157 -2.0364
-14.0003 -20.0267 -2.5423
-12.9581 -20.0298 -2.4800
-12.1430 -20.3345 -2.4602
-12.1483 -22.1090 -2.6185
-12.1544 -24.1336 -2.8028
-12.1615 -26.4715 -3.0198
-12.1359 -29.1280 -3.2690
-12.7875 -34.0887 -3.7697
7.2527 -24.5599 -2.0661
7.8530 -23.4584 -1.9969
9.8527 -26.2611 -2.2654
10.0025 -24.0040 -2.1017
9.5544 -20.7937 -1.8507
11.4103 -22.6528 -2.0529
14.0454 -25.5579 -2.3623
19.8699 -33.2693 -3.1417
13.2870 -20.5353 -1.9848
14.0786 -20.1356 -1.9958
16.8611 -22.3615 -2.2773
9.5004 -11.7012 -1.2269
10.0171 -11.4706 -1.2411
10.2669 -10.9382 -1.2240
23.1533 -22.9572 -2.6636
21.1251 -19.4935 -2.3513
22.0302 -18.9109 -2.3780
27.7339 -22.1288 -2.9101
26.8654 -19.9009 -2.7460
24.9193 -17.1092 -2.4863
15.2764 -9.7008 -1.4907
28.1911 -16.5128 -2.6954
14.2051 -7.6496 -1.3331
13.9971 -6.9014 -1.2915
21.6430 -9.7218 -1.9666
24.5388 -9.9803 -2.1994
24.2652 -8.8680 -2.1485
27.5759 -8.9699 -2.4155
27.9507 -7.9945 -2.4257
24.4634 -6.0562 -2.1064
27.4276 -5.7538 -2.3464
26.4094 -4.5573 -2.2477
25.2542 -3.4297 -2.1412
25.9394 -2.5785 -2.1939
29.3100 -1.8542 -2.4761
30.1474 -0.8225 -2.5471
29.3310 0.2531 -2.4816
30.0610 1.3396 -2.5503
2.6916 0.2170 -0.2293
33.6242 3.9296 -2.8791
32.4542 4.9796 -2.7973
21.9853 4.1861 -1.9100
21.9560 5.0035 -1.9251
21.6768 5.7657 -1.9207
36.8067 11.2194 -3.3005
28.8744 9.9476 -2.6239
27.3650 10.5411 -2.5236
14.2797 6.0980 -1.3384
11.7052 5.5035 -1.1166
13.9597 7.1864 -1.3576
30.3568 17.0330 -3.0143
31.9809 19.4860 -3.2478
26.2392 17.3092 -2.7301
24.2127 17.2511 -2.5858
23.9009 18.3575 -2.6248
27.1367 22.4368 -3.0709
21.6416 19.2426 -2.5290
21.3447 20.3971 -2.5815
20.5808 21.1320 -2.5824
19.8503 21.9031 -2.5909
16.9857 20.1515 -2.3126
13.0407 16.6494 -1.8578
12.3901 17.0459 -1.8531
11.7806 17.4954 -1.8566
11.1111 17.8530 -1.8527
12.7072 22.1531 -2.2521
12.2092 23.1751 -2.3119
14.5341 30.1681 -2.9578
9.1345 20.8429 -2.0115
8.2889 20.9271 -1.9910
10.6669 30.0392 -2.8214
9.6956 30.7652 -2.8566
8.5412 30.9361 -2.8436
7.4784 31.4482 -2.8654
7.0375 35.1599 -3.1797
7.3424 45.0305 -4.0472
5.6173 44.4469 -3.9752
-10.7821 45.3435 -4.1332
-10.8009 39.1226 -3.5979
-11.9705 37.9854 -3.5290
-12.1438 34.1997 -3.2142
-13.4983 34.0804 -3.2446
-14.8576 33.9030 -3.2744
-14.8673 30.8606 -3.0282
-14.2417 27.0340 -2.6992
-14.2483 24.8404 -2.5277
-14.2541 22.9037 -2.3793
-14.2594 21.1771 -2.2497
-14.6477 20.1523 -2.1933
-15.7867 20.1558 -2.2517
-12.2271 14.5063 -1.6668
-18.2731 20.1633 -2.3882
-19.6410 20.1674 -2.4678
-21.1086 20.1718 -2.5565
-22.6917 20.1766 -2.6555
-28.5421 23.5992 -3.2348
-28.5973 21.9650 -3.1454
-28.5519 20.3430 -3.0540
-30.4849 20.1103 -3.1770
-33.1326 20.1881 -3.3704
-26.0735 14.6300 -2.5934
-42.4078 21.8316 -4.1312
-42.3633 19.9184 -4.0484
-46.6438 19.9189 -4.3795
-51.7493 19.9343 -4.7810
-59.7462 20.5837 -5.4393
-24.8702 2.0048 -2.1225
-6.8254 0.3042 -0.5802
-24.8756 0.2147 -2.1089
-24.8783 -0.6787 -2.1061
-24.8810 -1.5740 -2.1061
-24.8837 -2.4736 -2.1088
-24.8864 -3.3798 -2.1142
-24.8892 -4.2951 -2.1225
-24.8920 -5.2220 -2.1336
-24.8948 -6.1632 -2.1478
-24.8977 -7.1214 -2.1650
-19.0819 -6.2070 -1.6747
-17.0009 -6.2133 -1.5081
-15.2893 -6.2185 -1.3729
-6.5011 -2.9203 -0.5918
-6.4189 -3.1650 -0.5933
-11.7135 -6.3079 -1.1012
-11.7151 -6.8622 -1.1221
-11.7169 -7.4406 -1.1453
-11.7187 -8.0461 -1.1712
-11.7206 -8.6824 -1.2000
-11.7227 -9.3537 -1.2320
-11.7248 -10.0649 -1.2676
-11.7271 -10.8216 -1.3072
-11.7295 -11.6305 -1.3514
-11.7321 -12.4994 -1.4007
-11.7350 -13.4380 -1.4559
-16.2541 -20.0199 -2.1019
-11.7735 -15.6146 -1.5922
-14.0020 -20.0267 -1.9873
-12.9596 -20.0298 -1.9382
-12.1430 -20.3322 -1.9221
-12.1483 -22.1065 -2.0453
-12.1544 -24.1310 -2.1889
-12.1615 -26.4686 -2.3579
-12.1697 -29.2062 -2.5592
-12.8754 -34.3194 -2.9627
-12.5740 -37.5629 -3.1996
0.0003 -65.1611 -3.7732
2.3657 -65.8683 -3.8166
4.6669 -64.8908 -3.7676
7.1723 -66.3434 -3.8650
9.5930 -66.3507 -3.8841
11.7815 -64.9354 -3.8249
14.4226 -65.9262 -3.9130
16.5531 -64.4849 -3.8623
19.4417 -65.8305 -3.9846
22.0421 -65.8384 -4.0333
9.8628 -26.2857 -1.6322
10.0661 -24.1544 -1.5227
34.5545 -75.1957 -4.8201
11.4048 -22.6396 -1.4781
37.9876 -69.1178 -4.6038
20.0241 -33.5240 -2.2822
14.0544 -21.7190 -1.5139
16.5313 -23.6410 -1.6904
24.0648 -31.9116 -2.3454
24.8293 -30.5775 -2.3149
28.5201 -32.6544 -2.5521
29.5398 -31.4672 -2.5447
23.3596 -23.1587 -1.9427
24.1387 -22.2714 -1.9432
31.6853 -27.1952 -2.4750
33.9581 -27.0913 -2.5797
33.4576 -24.7804 -2.4773
33.4086 -22.9343 -2.4159
25.1812 -15.9878 -1.7819
38.3765 -22.4749 -2.6623
30.2495 -16.2864 -2.0610
30.6681 -15.1180 -2.0556
32.9091 -14.7791 -2.1736
24.5194 -9.9700 -1.5984
25.0232 -9.1426 -1.6124
33.0265 -10.7396 -2.1067
35.2619 -10.0823 -2.2299
24.4091 -6.0405 -1.5324
29.5157 -6.1891 -1.8422
28.1913 -4.8622 -1.7517
25.5934 -3.4734 -1.5852
25.8433 -2.5665 -1.5978
32.4830 -2.0519 -2.0072
32.2331 -0.8764 -1.9932
29.2538 0.2551 -1.8127
30.0009 1.3397 -1.8652
2.6912 0.2172 -0.1681
32.3929 4.9732 -2.0500
25.1343 4.7881 -1.6042
25.3891 5.7883 -1.6364
24.0979 6.4120 -1.5706
17.8685 5.4484 -1.1793
37.7687 13.0155 -2.5275
27.4091 10.5609 -1.8625
25.4132 10.8550 -1.7561
11.7110 5.5074 -0.8241
24.3012 12.5127 -1.7443
30.8234 17.2982 -2.2603
33.4193 20.3661 -2.5077
29.1847 19.2556 -2.2448
27.4164 19.5368 -2.1655
27.6928 21.2732 -2.2505
32.4596 26.8419 -2.7194
22.0301 19.5909 -1.9067
21.3443 20.3994 -1.9128
24.5830 25.2448 -2.2867
20.8642 23.0248 -2.0196
19.4022 23.0212 -1.9599
17.1948 21.9557 -1.8180
12.4332 17.1072 -1.3806
11.7600 17.4669 -1.3765
13.5455 21.7669 -1.6780
12.7946 22.3079 -1.6852
12.0986 22.9677 -1.7031
16.1511 33.5282 -2.4441
15.2996 34.9141 -2.5059
11.9613 30.2019 -2.1374
10.6142 29.8939 -2.0890
9.8708 31.3243 -2.1644
8.6356 31.2815 -2.1401
8.5963 36.1531 -2.4521
8.8374 44.1569 -2.9731
7.4193 45.5072 -3.0454
-10.7821 45.3475 -3.0775
-10.8008 39.1261 -2.6786
-11.9705 37.9887 -2.6269
-12.1427 34.1997 -2.3919
-13.5460 34.2041 -2.4229
-14.8576 33.9062 -2.4360
-14.8673 30.8636 -2.2523
-14.2417 27.0367 -2.0072
-14.2483 24.8429 -1.8791
-14.2541 22.9061 -1.7682
-14.2593 21.1794 -1.6714
-14.6461 20.1523 -1.6288
-14.3765 18.3574 -1.5225
-12.2252 14.5057 -1.2370
-17.5669 19.3863 -1.7034
-18.2793 18.7716 -1.7034
-18.9714 18.1318 -1.7034
-20.3680 18.1130 -1.7663
-28.5421 23.6026 -2.3960
-28.5471 21.9297 -2.3247
-28.5519 20.3462 -2.2600
-30.5862 20.1804 -2.3577
-33.1268 20.1881 -2.4913
-26.0728 14.6323 -1.9163
-42.2745 21.7673 -3.0415
-42.3633 19.9227 -2.9883
-46.6328 19.9189 -3.2302
-51.4849 19.8375 -3.5072
-59.7752 20.5995 -4.0102
-74.8150 22.8126 -4.9502
-24.8702 2.0071 -1.5576
-6.8249 0.3048 -0.4255
-24.8756 0.2170 -1.5456
-24.8783 -0.6764 -1.5426
-24.8810 -1.5717 -1.5416
-24.8837 -2.4713 -1.5426
-24.8864 -3.3775 -1.5456
-24.8892 -4.2927 -1.5506
-24.8920 -5.2196 -1.5578
-24.8948 -6.1608 -1.5671
-24.8977 -7.1190 -1.5787
-19.0876 -6.2070 -1.2208
-17.0055 -6.2133 -1.0986
-15.2930 -6.2185 -0.9995
-6.5009 -2.9195 -0.4305
-6.4191 -3.1644 -0.4313
-11.7135 -6.3066 -0.8000
-11.7151 -6.8610 -0.8147
-11.7169 -7.4393 -0.8311
-11.7187 -8.0447 -0.8494
-11.7206 -8.6810 -0.8698
-11.7226 -9.3523 -0.8925
-11.7248 -10.0634 -0.9178
-11.7271 -10.8201 -0.9460
-11.7295 -11.6289 -0.9775
-11.7321 -12.4978 -1.0126
-11.7350 -13.4363 -1.0521
-11.7380 -14.4558 -1.0964
-11.7414 -15.5702 -1.1463
-14.0036 -20.0267 -1.4343
-12.9610 -20.0298 -1.3983
-12.0246 -20.1318 -1.3725
-12.1483 -22.1041 -1.4743
-11.7388 -23.3033 -1.5234
-10.9074 -23.7367 -1.5234
-10.0981 -24.2319 -1.5293
-12.8756 -34.3164 -2.1330
-22.5731 -67.4267 -4.1344
-19.1274 -64.7686 -3.9236
-16.8899 -65.7996 -3.9439
-14.3959 -65.8072 -3.9083
-11.7012 -64.4969 -3.8010
-7.0068 -64.8187 -3.7774
-4.7673 -66.2975 -3.8500
-2.3807 -66.3047 -3.8423
0.0002 -65.0882 -2.2999
2.3614 -65.7449 -2.3246
4.6733 -64.9754 -2.3022
7.1819 -66.4268 -2.3619
9.5863 -66.2988 -2.3691
11.7732 -64.8843 -2.3335
14.4227 -65.9206 -2.3896
16.5548 -64.4858 -2.3597
19.4282 -65.7787 -2.4334
22.0441 -65.8384 -2.4662
24.1524 -64.3638 -2.4451
31.4023 -75.3453 -2.9074
34.5578 -75.1957 -2.9523
11.3993 -22.6264 -0.9054
37.9858 -69.1075 -2.8233
40.9282 -68.5140 -2.8629
17.8070 -27.5153 -1.1782
24.0736 -34.4236 -1.5134
49.8313 -66.0722 -2.9884
52.4420 -64.5753 -3.0113
28.5138 -32.6433 -1.5730
57.0717 -60.7879 -3.0341
58.6259 -58.1145 -3.0121
25.2067 -23.2536 -1.2549
36.3317 -31.1788 -1.7571
34.0843 -27.1880 -1.6050
55.0403 -40.7595 -2.5291
55.5604 -38.1348 -2.4964
37.6842 -23.9220 -1.6589
56.4700 -33.0653 -2.4402
32.7528 -17.6308 -1.3918
33.6701 -16.5944 -1.4094
32.9084 -14.7755 -1.3591
56.1619 -22.8307 -2.2923
25.0034 -9.1329 -1.0101
56.9456 -18.5121 -2.2805
55.2102 -15.7808 -2.1949
24.3552 -6.0248 -0.9626
56.0291 -11.7433 -2.2045
29.1724 -5.0287 -1.1442
56.6630 -7.6847 -2.2185
57.0335 -5.6588 -2.2320
63.3853 -3.9980 -2.4827
32.5845 -0.8829 -1.2790
32.2502 0.2843 -1.2702
34.0423 1.5233 -1.3471
2.6908 0.2174 -0.1071
78.2438 23.8655 -3.3168
72.3179 24.9288 -3.1123
37.7935 14.5657 -1.6536
32.6356 13.9432 -1.4538
11.7168 5.5114 -0.5322
55.2677 28.4631 -2.5633
34.0002 19.0846 -1.6128
56.4213 34.3901 -2.7416
57.0253 37.6307 -2.8434
27.9112 19.8926 -1.4307
38.2780 29.4091 -2.0207
26.9207 22.2649 -1.4665
26.9083 23.9322 -1.5158
21.3439 20.4018 -1.2461
56.3635 57.8884 -3.4183
38.8668 42.8973 -2.4550
28.6288 33.9731 -1.8886
27.3884 34.9760 -1.8927
26.7316 36.7851 -1.9415
32.5579 48.3630 -2.4943
21.6924 34.8626 -1.7601
21.1033 36.7986 -1.8217
16.4240 34.0982 -1.6307
13.9655 35.2661 -1.6390
11.1728 31.4703 -1.4448
15.3997 48.8749 -2.2195
13.6649 49.5044 -2.2267
10.3970 43.7306 -1.9507
9.2015 45.9807 -2.0366
8.2845 50.8189 -2.2378
11.8711 93.9510 -4.1180
6.7378 74.8482 -3.2694
5.1976 96.3951 -4.2010
-14.8187 74.0522 -3.2825
-10.6655 44.8612 -2.0029
-10.6841 38.7066 -1.7428
-11.9642 37.9724 -1.7264
-12.1416 34.1997 -1.5721
-13.5447 34.2041 -1.5919
-14.8576 33.9095 -1.6000
-14.8673 30.8667 -1.4786
-14.2417 27.0394 -1.3170
-14.2483 24.8455 -1.2323
-14.2541 22.9085 -1.1589
-14.2593 21.1817 -1.0948
-14.6445 20.1523 -1.0661
-14.3749 18.3574 -0.9958
-12.2228 14.5046 -0.8084
-18.2036 20.0914 -1.1529
-19.6963 20.2293 -1.1978
-21.1031 20.1718 -1.2355
-22.6854 20.1766 -1.2817
-28.5421 23.6060 -1.5596
-23.9308 18.3862 -1.2673
-28.5519 20.3494 -1.4683
-28.5317 18.8280 -1.4274
-29.7300 18.1212 -1.4496
-26.0718 14.6345 -1.2411
-42.3576 21.8144 -1.9716
-42.3633 19.9269 -1.9312
-46.6219 19.9188 -2.0846
-51.7227 19.9342 -2.2717
-59.7122 20.5836 -2.5798
-24.8702 2.0094 -0.9942
-6.8244 0.3054 -0.2712
-24.8756 0.2193 -0.9839
-24.8783 -0.6741 -0.9807
-24.8810 -1.5694 -0.9787
-24.8837 -2.4690 -0.9780
-24.8864 -3.3751 -0.9785
-24.8892 -4.2904 -0.9804
-24.8920 -5.2173 -0.9836
-24.8948 -6.1584 -0.9881
-24.8977 -7.1166 -0.9940
-19.0933 -6.2070 -0.7678
-17.0101 -6.2133 -0.6900
-15.2968 -6.2184 -0.6269
-6.5006 -2.9187 -0.2696
-6.4192 -3.1637 -0.2698
-11.7135 -6.3054 -0.4997
-11.7151 -6.8597 -0.5082
-11.7169 -7.4380 -0.5178
-11.7263 -8.0486 -0.5288
-11.7277 -8.6849 -0.5408
-11.7226 -9.3509 -0.5540
-11.7248 -10.0620 -0.5690
-11.7303 -10.8215 -0.5860
-11.7318 -11.6296 -0.6047
-11.7321 -12.4962 -0.6257
-11.7350 -13.4346 -0.6493
-11.7380 -14.4540 -0.6760
-11.7414 -15.5683 -0.7061
-14.0403 -20.0769 -0.8850
-12.9625 -20.0298 -0.8598
-12.0246 -20.1295 -0.8431
-12.1076 -22.0276 -0.9019
-12.0823 -23.9826 -0.9617
-12.1614 -26.4630 -1.0410
-12.1397 -29.1280 -1.1260
-11.4093 -30.4053 -1.1570
-10.1892 -30.4322 -1.1417
-13.0786 -44.2819 -1.6404
-16.9130 -65.8830 -2.4136
-14.3974 -65.8072 -2.3879
-11.7023 -64.4963 -2.3215
-7.0196 -64.9303 -2.3098
-4.7679 -66.2975 -2.3498
-2.3840 -66.3881 -2.3477
0.0001 -65.1037 -0.8334
2.3624 -65.7712 -0.8425
4.6743 -64.9860 -0.8343
7.1810 -66.4137 -0.8561
9.6027 -66.4071 -0.8609
11.7761 -64.8949 -0.8476
14.4335 -65.9645 -0.8696
16.5601 -64.5008 -0.8596
19.4619 -65.8870 -0.8893
22.0461 -65.8384 -0.9016
24.1592 -64.3760 -0.8961
31.3859 -75.2986 -1.0673
34.5612 -75.1957 -1.0874
11.3937 -22.6132 -0.3343
37.9841 -69.0974 -1.0461
40.9320 -68.5133 -1.0644
44.0004 -67.9818 -1.0861
24.0682 -34.4120 -0.5666
49.8571 -66.0990 -1.1240
52.4461 -64.5729 -1.1367
55.0879 -63.0583 -1.1518
57.1578 -60.8720 -1.1567
58.7143 -58.1947 -1.1535
34.1552 -31.5047 -0.6532
55.7203 -47.8108 -1.0400
34.1053 -27.2008 -0.6228
55.0532 -40.7627 -0.9858
55.5296 -38.1076 -0.9771
55.8998 -35.4793 -0.9686
56.4388 -33.0410 -0.9648
56.8750 -30.6099 -0.9611
55.3387 -27.2683 -0.9259
55.7418 -25.0219 -0.9251
56.0433 -22.7770 -0.9240
56.5277 -20.6422 -0.9274
56.9128 -18.4960 -0.9304
55.2736 -15.7936 -0.9018
24.3017 -6.0093 -0.3963
55.9046 -11.7120 -0.9123
56.3651 -9.7109 -0.9217
56.7281 -7.6882 -0.9308
57.1025 -5.6603 -0.9414
63.3843 -3.9921 -1.0512
62.9874 -1.7009 -1.0522
66.9486 0.5963 -1.1278
34.0958 1.5289 -0.5799
2.6904 0.2176 -0.0463
62.1022 7.2753 -1.0808
78.2281 23.8683 -1.4727
72.3044 24.9313 -1.3879
67.0961 25.8658 -1.3149
62.4699 26.6960 -1.2516
11.7226 5.5153 -0.2404
55.3410 28.5067 -1.1636
55.8524 31.3566 -1.2056
56.1863 34.2530 -1.2470
56.9732 37.6027 -1.3022
55.9511 39.8834 -1.3192
55.7411 42.8326 -1.3580
56.1992 46.4865 -1.4175
57.1825 50.8653 -1.4961
55.4851 53.0434 -1.5090
56.3541 57.8864 -1.5968
39.0443 43.0986 -1.1554
55.5029 65.8719 -1.7199
56.6706 72.3791 -1.8442
56.0408 77.1262 -1.9213
32.2375 90.8123 -1.9966
28.6051 90.7950 -1.9771
24.5032 88.7780 -1.9169
21.5792 90.7730 -1.9457
17.7532 88.7235 -1.8899
14.7947 90.7637 -1.9235
9.2512 73.2247 -1.5456
6.5943 73.2626 -1.5417
3.9512 73.2881 -1.5393
-12.9472 79.4304 -1.6855
-9.2154 46.0554 -0.9826
-9.2371 38.8564 -0.8344
-10.4793 37.9679 -0.8215
-11.9632 37.9724 -0.8289
-12.1831 34.3198 -0.7566
-13.5931 34.3294 -0.7653
-14.8576 33.9127 -0.7654
-14.8672 30.8697 -0.7063
-14.2417 27.0421 -0.6281
-14.2483 24.8480 -0.5867
-14.2541 22.9109 -0.5507
-14.2593 21.1839 -0.5192
-14.6429 20.1523 -0.5045
-14.3732 18.3574 -0.4702
-12.2204 14.5034 -0.3807
-18.2013 20.0914 -0.5417
-19.6938 20.2293 -0.5613
-21.1003 20.1718 -0.5774
-22.6823 20.1766 -0.5972
-28.5421 23.6093 -0.7247
-23.9272 18.3862 -0.5869
-25.7415 18.3493 -0.6112
-30.5237 20.1459 -0.7028
-32.9383 20.0803 -0.7365
-26.0688 14.6355 -0.5671
-39.2648 20.2257 -0.8321
-9.8552 4.6367 -0.2038
-42.3827 18.1119 -0.8562
-51.4592 19.8378 -1.0170
-53.2345 18.3558 -1.0307
-62.3873 19.0351 -1.1849
-24.8702 2.0118 -0.4318
-6.8238 0.3060 -0.1172
-24.8756 0.2216 -0.4232
-24.8783 -0.6718 -0.4197
-24.8810 -1.5671 -0.4168
-24.8837 -2.4667 -0.4144
-24.8864 -3.3728 -0.4125
-24.8892 -4.2881 -0.4112
-24.8920 -5.2149 -0.4103
-24.8948 -6.1560 -0.4101
-24.8977 -7.1142 -0.4104
-19.0989 -6.2070 -0.3154
-17.0147 -6.2133 -0.2820
-15.3005 -6.2184 -0.2548
-6.5004 -2.9180 -0.1090
-6.4193 -3.1631 -0.1085
-11.7135 -6.3042 -0.1999
-11.7151 -6.8584 -0.2022
-11.7169 -7.4367 -0.2050
-11.7947 -8.0942 -0.2095
-11.7966 -8.7346 -0.2132
-11.7226 -9.3495 -0.2160
-11.7248 -10.0605 -0.2208
-11.7271 -10.8171 -0.2262
-11.7295 -11.6258 -0.2324
-11.7321 -12.4945 -0.2394
-11.7350 -13.4329 -0.2473
-11.7380 -14.4522 -0.2564
-11.7414 -15.5665 -0.2667
-14.0419 -20.0769 -0.3329
-12.9640 -20.0298 -0.3222
-12.0246 -20.1273 -0.3147
-12.1075 -22.0252 -0.3355
-12.0823 -23.9800 -0.3565
-12.1614 -26.4602 -0.3847
-12.1410 -29.1280 -0.4149
-11.8187 -31.4930 -0.4404
-10.5503 -31.5076 -0.4333
-19.1682 -64.8933 -0.8791
-16.9114 -65.8699 -0.8807
-14.3989 -65.8072 -0.8699
-11.7055 -64.5070 -0.8445
-7.0215 -64.9408 -0.8383
-4.7685 -66.2975 -0.8520
-2.3839 -66.3750 -0.8506
-0.0000 -65.1038 0.6328
2.3625 -65.7714 0.6398
4.6747 -64.9860 0.6330
7.1800 -66.3998 0.6482
2.0278 -14.0217 0.1373
2.4959 -13.7532 0.1352
14.4335 -65.9591 0.6511
16.5617 -64.5016 0.6401
19.4636 -65.8870 0.6579
9.6245 -28.7398 0.2890
24.1616 -64.3764 0.6525
31.3888 -75.2986 0.7699
34.5645 -75.1957 0.7764
11.3882 -22.6000 0.2359
14.4585 -26.2990 0.2777
15.6640 -26.2161 0.2805
17.8723 -27.6102 0.2987
24.0627 -34.4004 0.3791
49.8391 -66.0677 0.7403
38.8866 -47.8726 0.5463
55.0923 -63.0558 0.7339
57.0772 -60.7786 0.7228
58.6314 -58.1051 0.7073
34.1572 -31.5023 0.3933
35.2333 -30.2278 0.3879
34.1262 -27.2135 0.3599
39.4043 -29.1715 0.3986
55.5306 -38.1022 0.5396
55.9438 -35.5012 0.5229
56.3473 -32.9815 0.5072
39.3451 -21.1713 0.3414
39.5267 -19.4728 0.3310
55.6481 -24.9742 0.4502
56.0888 -22.7900 0.4388
56.5286 -20.6370 0.4279
56.9138 -18.4909 0.4173
55.1771 -15.7608 0.3921
55.5417 -13.7291 0.3829
55.9517 -11.7166 0.3744
56.2667 -9.6887 0.3658
56.6290 -7.6695 0.3578
57.1037 -5.6552 0.3510
63.3833 -3.9862 0.3792
62.9864 -1.6950 0.3669
71.1165 0.6401 0.4037
34.1494 1.5344 0.1890
2.6900 0.2178 0.0145
62.1292 7.2842 0.3279
78.2125 23.8711 0.3693
72.2908 24.9337 0.3346
67.0843 25.8680 0.3046
55.0328 23.5234 0.2453
11.7284 5.5192 0.0514
55.3422 28.5131 0.2385
55.7401 31.2994 0.2366
56.3362 34.3505 0.2357
56.9875 37.6185 0.2353
55.9439 39.8846 0.2284
52.0546 40.0060 0.2103
56.3398 46.6097 0.2258
57.1840 50.8739 0.2276
24.1021 23.0445 0.0955
56.2902 57.8284 0.2225
57.3225 63.2828 0.2267
55.3750 65.7282 0.2196
39.7228 50.7396 0.1586
56.0488 77.1464 0.2260
36.8390 54.7349 0.1499
34.0540 54.7414 0.1419
31.9247 89.9404 0.1721
27.1964 86.3325 0.1588
24.5393 88.9177 0.1577
20.5526 86.4636 0.1484
10.9424 54.6916 0.0912
14.5963 89.5563 0.1458
6.4417 50.9927 0.0814
6.5301 72.5566 0.1139
3.9133 72.5939 0.1127
-12.1713 96.3467 0.1517
-12.2356 75.0709 0.1202
-9.2154 46.0593 0.0753
-9.2371 38.8597 0.0652
-10.4784 37.9679 0.0656
-11.9705 37.9990 0.0679
-12.1823 34.3207 0.0636
-13.5920 34.3300 0.0663
-14.8576 33.9159 0.0685
-14.8672 30.8727 0.0654
-14.2416 27.0448 0.0603
-14.2483 24.8506 0.0585
-14.2541 22.9133 0.0570
-14.2593 21.1862 0.0559
-14.3298 19.7237 0.0554
-14.3716 18.3574 0.0550
-12.2179 14.5022 0.0464
-18.1991 20.0914 0.0689
-17.9092 18.3985 0.0678
-19.2687 18.4232 0.0731
-22.6792 20.1766 0.0865
-22.2553 18.4117 0.0855
-23.9236 18.3862 0.0927
-25.8139 18.4037 0.1011
-30.5237 20.1492 0.1210
-32.9325 20.0803 0.1323
-26.0658 14.6366 0.1063
-42.3575 21.8231 0.1755
-9.8355 4.6284 0.0415
-9.6546 4.1268 0.0414
-51.6962 19.9342 0.2261
-59.7752 20.6169 0.2667
-73.6586 22.4811 0.3355
-67.5536 5.4706 0.3536
-6.8233 0.3066 0.0366
-24.8756 0.2239 0.1371
-24.8783 -0.6695 0.1408
-24.8810 -1.5648 0.1447
-24.8837 -2.4644 0.1488
-24.8864 -3.3705 0.1531
-24.8892 -4.2857 0.1576
-24.8920 -5.2125 0.1624
-24.8948 -6.1536 0.1675
-24.8977 -7.1118 0.1728
-19.1046 -6.2070 0.1369
-17.0192 -6.2132 0.1260
-15.3043 -6.2184 0.1172
-6.5002 -2.9172 0.0515
-6.4195 -3.1626 0.0527
-11.7135 -6.3029 0.0997
-11.7151 -6.8572 0.1035
-11.7169 -7.4354 0.1076
-11.7947 -8.0929 0.1127
-11.7966 -8.7332 0.1174
-11.7226 -9.3481 0.1217
-11.7248 -10.0591 0.1271
-11.7271 -10.8156 0.1331
-11.7295 -11.6242 0.1395
-11.7321 -12.4929 0.1466
-11.7412 -13.4383 0.1545
-11.7380 -14.4505 0.1629
-11.7414 -15.5646 0.1725
-13.9504 -19.9437 0.2174
-12.9654 -20.0298 0.2152
-11.9834 -20.0561 0.2126
-11.0279 -20.0589 0.2100
-10.3550 -20.5497 0.2127
-12.1614 -26.4573 0.2711
-12.1697 -29.1938 0.2965
-10.4016 -27.7140 0.2791
-22.6402 -67.6063 0.6760
-19.1695 -64.8914 0.6448
-16.9095 -65.8560 0.6508
-14.4001 -65.8058 0.6472
-11.7066 -64.5064 0.6320
-7.0223 -64.9408 0.6328
-4.6690 -64.9072 0.6315
-2.3837 -66.3610 0.6451
-0.0002 -65.1040 2.0997
2.3626 -65.7716 2.1226
4.6651 -64.8491 2.0966
6.9610 -64.3695 2.0872
2.0279 -14.0216 0.4565
2.4961 -13.7531 0.4501
5.9409 -27.1468 0.8941
5.9531 -23.1829 0.7694
6.2391 -21.1182 0.7070
21.1465 -63.1402 2.1352
10.7658 -28.6819 0.9809
14.7071 -35.2775 1.2218
6.0098 -13.0731 0.4592
11.3827 -22.5869 0.8056
6.0871 -11.0709 0.4016
35.7994 -59.9099 2.2134
5.9561 -9.2004 0.3468
24.0573 -34.3889 1.3245
28.2541 -37.4500 1.4766
30.1184 -37.0738 1.4993
35.5448 -40.6779 1.6906
33.7196 -35.9019 1.5367
39.1331 -38.7768 1.7133
33.9741 -31.3293 1.4324
35.2354 -30.2253 1.4339
34.1472 -27.2263 1.3440
39.1725 -28.9954 1.4943
39.2879 -26.9530 1.4552
55.4298 -35.1691 1.9970
56.5317 -33.0835 1.9845
39.4071 -21.2006 1.3501
39.1922 -19.3040 1.3125
39.1974 -17.5874 1.2850
55.7164 -22.6332 1.7907
29.9645 -10.9363 0.9455
56.9147 -18.4857 1.7654
39.2546 -11.2089 1.1987
39.3852 -9.7317 1.1855
55.9007 -11.7007 1.6607
56.3670 -9.7007 1.6549
39.2346 -5.3101 1.1399
57.1048 -5.6500 1.6437
61.9799 -3.8923 1.7698
61.4887 -1.6491 1.7439
39.2518 0.3569 1.1071
34.2031 1.5400 0.9606
2.6896 0.2181 0.0753
56.1384 6.5871 1.5693
67.8398 10.4408 1.8957
68.4569 13.0669 1.9146
77.8864 17.7862 2.1833
77.6046 20.6789 2.1833
39.4119 12.0326 1.1144
72.2773 24.9361 2.0569
63.1903 24.3727 1.8126
54.9739 23.5037 1.5919
11.7342 5.5232 0.3436
39.3566 20.2812 1.1670
39.3690 22.1109 1.1842
39.4781 24.0757 1.2068
39.4949 26.0757 1.2292
39.4036 28.0970 1.2510
39.3867 30.2749 1.2782
55.4455 45.8766 1.8432
57.1856 50.8825 1.9519
24.1278 23.0723 0.8476
39.4175 40.4999 1.4289
39.4510 43.5586 1.4798
39.4366 46.8156 1.5353
39.4538 50.4021 1.5993
36.9241 50.8287 1.5641
34.2053 50.8275 1.5199
31.6294 50.8497 1.4807
29.1378 50.8253 1.4440
26.7608 50.8243 1.4116
5.8738 12.1986 0.3318
6.1988 14.1518 0.3776
32.5808 82.2999 2.1583
5.8866 16.5859 0.4282
26.7067 84.7869 2.1583
6.1196 22.1764 0.5575
6.2243 26.1881 0.6513
6.0370 30.1767 0.7435
6.0940 37.3939 0.9143
6.0853 48.1766 1.1707
6.5293 72.5567 1.7549
3.9128 72.5939 1.7503
1.2918 71.9701 1.7324
-1.6100 89.6738 2.1583
-3.8804 71.9857 1.7350
-6.4790 71.9935 1.7402
-11.2294 88.8973 2.1583
-12.2356 75.0769 1.8336
-9.2154 46.0630 1.1334
-9.2371 38.8630 0.9650
-10.4774 37.9679 0.9528
-11.9704 38.0024 0.9653
-12.1386 34.2006 0.8809
-13.5407 34.2036 0.8947
-14.8576 33.9192 0.9026
-14.8672 30.8757 0.8373
-14.2416 27.0475 0.7488
-14.2483 24.8531 0.7038
-14.2541 22.9157 0.6649
-14.2593 21.1885 0.6312
-14.3282 19.7236 0.6045
-14.3699 18.3574 0.5801
-12.2155 14.5010 0.4735
-18.2620 20.1632 0.6820
-17.9076 18.3992 0.6462
-19.2687 18.4256 0.6737
-22.6761 20.1766 0.7702
-22.2218 18.3866 0.7350
-23.9200 18.3862 0.7723
-25.8139 18.4066 0.8152
-30.5237 20.1525 0.9449
-30.1972 18.4156 0.9180
-26.0628 14.6376 0.7796
-35.7206 18.4073 1.0532
-9.8359 4.6296 0.2863
-9.6550 4.1279 0.2780
-46.9282 18.1002 1.3383
-52.5211 18.1200 1.4859
-47.1767 14.4032 1.3260
-75.8545 20.2124 2.1214
-76.6210 17.4971 2.1350
-76.7947 14.6582 2.1350
-80.5830 12.4018 2.2383
-80.5498 9.4513 2.2383
-67.4642 5.4696 1.8779
-6.8228 0.3072 0.1905
-24.8756 0.2261 0.6975
-24.8783 -0.6672 0.7014
-23.7545 -1.4918 0.6743
-23.7403 -2.3489 0.6794
-24.8864 -3.3682 0.7189
-24.8892 -4.2834 0.7266
-24.8920 -5.2102 0.7353
-24.8948 -6.1513 0.7452
-24.8977 -7.1094 0.7561
-19.1103 -6.2070 0.5896
-17.0238 -6.2132 0.5343
-15.3080 -6.2184 0.4894
-6.4999 -2.9164 0.2120
-12.6414 -6.2265 0.4212
-11.7134 -6.3017 0.3993
-11.7151 -6.8559 0.4093
-11.7169 -7.4341 0.4202
-11.7947 -8.0915 0.4349
-11.7966 -8.7318 0.4480
-11.7226 -9.3467 0.4594
-11.7248 -10.0576 0.4752
-11.7271 -10.8140 0.4925
-11.7295 -11.6227 0.5116
-11.7321 -12.4913 0.5327
-11.7495 -13.4462 0.5569
-11.7380 -14.4487 0.5823
-11.7414 -15.5627 0.6117
-14.0101 -20.0267 0.7690
-12.9669 -20.0298 0.7528
-12.0242 -20.1222 0.7414
-12.1075 -22.0203 0.7967
-10.3801 -20.5973 0.7329
-12.1614 -26.4545 0.9271
-12.1697 -29.1907 1.0090
-10.3764 -27.6441 0.9437
-21.1818 -63.2446 2.1352
-10.4005 -35.2033 1.1768
-16.2458 -63.2644 2.0968
-14.0621 -64.2547 2.1140
-11.7077 -64.5059 2.1091
-9.5239 -65.8488 2.1422
-7.0054 -64.7771 2.0992
-4.5872 -63.7620 2.0607
-2.3113 -64.3344 2.0759
-0.0002 -40.8330 2.2383
1.4659 -40.8064 2.2383
2.7951 -38.8523 2.1350
4.1891 -38.7340 2.1350
2.0281 -14.0215 0.7762
2.4963 -13.7530 0.7655
5.9402 -27.1411 1.5208
5.9524 -23.1781 1.3092
6.1239 -20.7266 1.1816
6.1351 -18.3168 1.0553
10.8138 -28.8070 1.6795
14.9512 -35.8595 2.1187
6.0251 -13.1052 0.7857
11.3772 -22.5737 1.3755
6.1037 -11.1000 0.6885
6.1709 -10.3258 0.6529
5.9949 -9.2593 0.5979
20.6367 -29.4960 1.9483
22.0839 -29.2683 1.9813
6.0003 -7.3851 0.5134
6.2051 -7.1003 0.5079
24.8693 -26.4755 1.9528
27.0340 -26.7845 2.0421
5.9672 -5.5020 0.4347
5.9684 -5.1191 0.4203
30.0868 -23.9853 2.0523
31.8268 -23.5545 2.1073
32.5968 -22.3590 2.0991
33.4868 -21.2430 2.1011
5.9733 -3.4951 0.3658
5.9742 -3.2134 0.3577
6.2368 -3.0713 0.3657
38.5740 -17.3039 2.2183
39.2707 -15.9487 2.2183
29.9043 -10.9114 1.6616
39.2116 -12.7320 2.1463
39.2163 -11.1943 2.1175
6.3271 -1.5628 0.3375
6.3396 -1.3264 0.3344
6.3241 -1.0878 0.3304
39.2341 -5.3064 2.0329
39.2384 -3.8787 2.0188
39.2427 -2.4608 2.0075
39.2469 -1.0489 1.9987
39.2512 0.3605 1.9925
34.2571 1.5456 1.7356
2.6892 0.2183 0.1362
39.2640 4.6107 1.9893
42.0574 6.4767 2.1350
41.9195 8.0054 2.1350
41.7258 9.5325 2.1350
39.3270 10.4831 2.0244
17.9256 5.4745 0.9296
39.3363 13.5751 2.0580
6.3451 2.4479 0.3354
6.3321 2.7079 0.3387
6.2505 2.9427 0.3388
39.3566 20.2853 2.1656
39.3621 22.1112 2.2023
38.9256 23.7431 2.2183
38.1471 25.1902 2.2183
37.3134 26.6108 2.2183
6.2991 4.8426 0.3836
5.9988 4.9643 0.3750
34.2576 30.4860 2.2035
24.1520 23.0985 1.6022
31.6617 32.5354 2.1716
28.6921 31.6836 2.0403
27.5591 32.7198 2.0377
26.9666 34.4539 2.0799
25.8959 35.6517 2.0907
24.4781 36.3776 2.0766
6.1386 9.8699 0.5495
22.0077 38.3923 2.0887
20.6821 39.2838 2.0922
5.9092 12.2734 0.6410
17.6442 40.2857 2.0667
17.3958 43.9469 2.2183
6.0521 17.0538 0.8483
14.2302 45.1818 2.2183
6.0880 22.0642 1.0708
6.2234 26.1870 1.2582
6.0364 30.1767 1.4375
5.9828 36.7155 1.7365
5.7339 45.3995 2.1350
4.1027 45.5959 2.1351
2.4644 45.7285 2.1352
0.8615 48.0068 2.2383
-0.8620 48.0100 2.2383
-2.5844 47.9458 2.2383
-4.3027 47.8145 2.2383
-5.9522 47.1244 2.2152
-7.3604 45.1668 2.1350
-8.9722 44.8512 2.1350
-9.2371 38.8663 1.8659
-10.4765 37.9679 1.8409
-11.9599 37.9723 1.8623
-12.1357 34.1957 1.6990
-13.5366 34.1965 1.7239
-14.1903 32.3991 1.6598
-14.4009 29.9101 1.5597
-14.2416 27.0502 1.4383
-14.2483 24.8556 1.3499
-14.2541 22.9181 1.2736
-14.2593 21.1908 1.2073
-14.2596 19.6313 1.1488
-14.3483 18.3319 1.1042
-12.2131 14.4999 0.9010
-16.6075 18.3387 1.1781
-17.8501 18.3424 1.2213
-19.1834 18.3465 1.2694
-20.6214 18.3508 1.3230
-22.1811 18.3555 1.3830
-23.8833 18.3606 1.4505
-25.8139 18.4094 1.5303
-28.5547 18.8556 1.6557
-30.0997 18.3594 1.7103
-26.0599 14.6386 1.4537
-35.6530 18.3762 1.9558
-9.8363 4.6308 0.5316
-9.6554 4.1290 0.5148
-40.5187 15.6321 2.1350
-40.9395 14.1283 2.1350
-43.3012 13.2241 2.2383
-43.6238 11.6283 2.2383
-43.8871 10.0262 2.2383
-44.0916 8.4201 2.2383
-44.2371 6.8123 2.2383
-42.2827 4.9651 2.1352
-42.3104 3.4342 2.1352
-6.8222 0.3078 0.3445
-24.8756 0.2284 1.2586
-24.8783 -0.6649 1.2628
-23.4127 -1.4681 1.1938
-23.4152 -2.3146 1.2008
-24.8864 -3.3658 1.2853
-24.8892 -4.2810 1.2963
-24.8920 -5.2078 1.3090
-24.8948 -6.1489 1.3236
-21.9594 -6.2683 1.1820
-19.1160 -6.2069 1.0431
-17.0284 -6.2132 0.9433
-15.3118 -6.2184 0.8623
-6.4997 -2.9156 0.3727
-12.6440 -6.2265 0.7392
-11.7134 -6.3004 0.6994
-11.7151 -6.8546 0.7155
-11.7169 -7.4328 0.7332
-11.7947 -8.0902 0.7575
-11.7966 -8.7304 0.7791
-11.7226 -9.3452 0.7976
-11.7248 -10.0562 0.8236
-11.7271 -10.8126 0.8523
-11.7295 -11.6211 0.8841
-11.7321 -12.4897 0.9193
-11.7579 -13.4541 0.9604
-11.7380 -14.4469 1.0023
-11.7414 -15.5609 1.0514
-13.1138 -18.7433 1.2359
-12.9684 -20.0298 1.2912
-11.9689 -20.0274 1.2644
-11.0162 -20.0333 1.2407
-10.3239 -20.4834 1.2464
-10.3298 -22.4679 1.3454
-10.3369 -24.7918 1.4630
-10.3452 -27.5581 1.6050
-10.4175 -31.1015 1.7901
-10.5875 -35.8326 2.0410
-9.7151 -37.8289 2.1351
-8.3452 -38.1285 2.1351
-6.9671 -38.3823 2.1352
-5.8513 -40.4524 2.2383
-4.3934 -40.6206 2.2383
-2.9313 -40.7399 2.2383
-1.4664 -40.8109 2.2383
-0.0002 -28.9052 2.2383
1.0377 -28.8864 2.2383
1.9789 -27.5044 2.1352
2.2474 -20.7790 1.6181
2.0282 -14.0214 1.0966
2.4965 -13.7529 1.0817
5.9400 -27.1380 2.1490
5.9521 -23.1749 1.8502
5.9612 -20.1740 1.6259
6.0103 -17.9425 1.4617
10.0780 -26.8444 2.2137
11.0273 -26.4457 2.2106
6.0255 -13.1048 1.1120
12.7788 -25.3521 2.1870
6.1043 -11.1000 0.9750
6.1644 -10.3138 0.9240
5.9948 -9.2583 0.8473
15.9545 -22.8013 2.1356
16.0539 -21.2741 2.0430
6.0002 -7.3842 0.7285
6.2058 -7.1003 0.7212
18.1800 -19.3517 2.0280
19.3232 -19.1423 2.0747
6.0065 -5.5375 0.6223
6.0077 -5.1521 0.6020
22.0160 -17.5487 2.1384
22.8521 -16.9100 2.1559
11.8297 -8.1130 1.0861
24.0548 -15.2571 2.1534
6.0126 -3.5174 0.5257
6.0132 -3.2338 0.5144
25.7895 -12.6973 2.1621
26.0510 -11.6835 2.1437
26.2563 -10.6606 2.1239
26.4828 -9.6604 2.1089
26.7360 -8.6786 2.0990
27.0695 -7.7244 2.0981
5.9794 -1.4763 0.4582
5.9801 -1.2506 0.4536
28.3039 -4.8658 2.1282
28.0580 -3.7922 2.0940
27.9730 -2.7625 2.0748
28.4569 -1.7818 2.1004
29.7226 -0.7916 2.1859
29.5213 0.2739 2.1660
29.0169 1.3119 2.1268
2.6888 0.2185 0.1971
5.9860 0.7035 0.4395
29.6922 4.5753 2.1865
29.6656 5.6681 2.1937
29.1333 6.6585 2.1663
28.7415 7.6641 2.1519
17.8738 5.4604 1.3494
28.3341 9.7810 2.1600
6.1451 2.3714 0.4737
6.0259 2.5776 0.4705
6.0318 2.8404 0.4777
26.7464 13.7886 2.1520
25.3169 14.2242 2.0729
23.9014 14.5815 1.9950
23.4352 15.4779 1.9976
23.1065 16.4816 2.0153
22.2419 17.1017 1.9888
6.0383 4.9977 0.5547
20.0203 17.8187 1.8936
20.1078 19.2334 1.9629
20.1681 20.7274 2.0370
19.8886 21.9650 2.0840
20.0075 23.7571 2.1814
19.0580 24.3524 2.1689
17.8072 24.5188 2.1226
16.7478 24.8922 2.0989
6.1379 9.8699 0.8121
15.3492 26.7797 2.1544
14.7659 28.0496 2.2102
5.9092 12.2747 0.9489
6.0231 13.7535 1.0449
11.7411 29.6645 2.2183
6.0513 17.0533 1.2572
9.5975 30.4759 2.2183
5.9370 21.5193 1.5488
5.9476 25.0290 1.7839
5.9620 29.8081 2.1068
4.9563 30.4194 2.1352
3.8629 30.5883 2.1352
2.7634 30.7155 2.1352
1.7399 32.2881 2.2383
0.5801 32.3336 2.2383
-0.5806 32.3350 2.2383
-1.7405 32.2923 2.2383
-2.8979 32.2054 2.2383
-4.0510 32.0748 2.2383
-5.1981 31.9004 2.2383
-6.0450 30.2211 2.1350
-7.1227 29.9723 2.1350
-8.1897 29.6830 2.1350
-9.2444 29.3535 2.1350
-10.3491 29.1643 2.1483
-11.3811 28.7538 2.1483
-12.3959 28.3048 2.1483
-13.3924 27.8182 2.1483
-14.2416 27.0529 2.1292
-14.2482 24.8582 1.9975
-14.2541 22.9205 1.8836
-14.2593 21.1931 1.7846
-14.2607 19.6350 1.6974
-14.3467 18.3319 1.6303
-12.2107 14.4987 1.3292
-16.6054 18.3387 1.7372
-17.8479 18.3424 1.7996
-19.1809 18.3465 1.8691
-20.6186 18.3508 1.9467
-22.1779 18.3555 2.0335
-23.8797 18.3606 2.1312
-24.5274 17.4947 2.1350
-25.0970 16.5751 2.1350
-25.6313 15.6366 2.1350
-25.9562 14.5832 2.1209
-27.2036 14.0240 2.1842
-9.8368 4.6320 0.7773
-9.6558 4.1302 0.7522
-29.0980 11.2288 2.2383
-29.4258 10.1577 2.2383
-29.7139 9.0774 2.2383
-29.9618 7.9894 2.2383
-30.1697 6.8952 2.2383
-28.9402 5.5294 2.1352
-29.0618 4.4781 2.1352
-29.1453 3.4252 2.1352
-29.1907 2.3720 2.1352
-6.8217 0.3084 0.4989
-24.8756 0.2307 1.8210
-24.8782 -0.6626 1.8254
-23.4127 -1.4660 1.7241
-23.4152 -2.3124 1.7328
-24.8864 -3.3635 1.8531
-24.8892 -4.2787 1.8672
-24.8919 -5.2055 1.8839
-24.8948 -6.1465 1.9034
-21.9667 -6.2682 1.6989
-19.1217 -6.2069 1.4980
-17.0330 -6.2132 1.3535
-15.3155 -6.2184 1.2363
-6.4995 -2.9149 0.5337
-12.6467 -6.2264 1.0581
-10.9471 -5.8870 0.9347
-11.7151 -6.8533 1.0224
-11.7169 -7.4315 1.0469
-11.7947 -8.0889 1.0809
-11.7285 -8.6787 1.1045
-11.7226 -9.3438 1.1366
-11.7248 -10.0547 1.1729
-11.7271 -10.8111 1.2130
-11.7295 -11.6195 1.2574
-11.7321 -12.4881 1.3067
-11.7589 -13.4536 1.3645
-11.7380 -14.4452 1.4232
-11.7414 -15.5590 1.4922
-13.1138 -18.7411 1.7531
-12.9698 -20.0298 1.8309
-9.0006 -15.0590 1.3475
-11.0174 -20.0333 1.7578
-10.3238 -20.4812 1.7651
-10.3298 -22.4655 1.9045
-10.3368 -24.7892 2.0704
-9.7276 -25.9103 2.1350
-8.7851 -26.2251 2.1350
-7.8330 -26.5074 2.1350
-6.8724 -26.7569 2.1350
-6.1727 -28.1994 2.2321
-5.1684 -28.4702 2.2383
-4.1413 -28.6275 2.2383
-3.1099 -28.7498 2.2383
-2.0751 -28.8368 2.2383
-1.0382 -28.8887 2.2383
-0.0002 -22.3528 2.2383
0.8025 -22.3383 2.2383
1.6043 -22.2962 2.2383
2.2454 -20.7589 2.0905
2.0284 -14.0213 1.4182
2.4967 -13.7528 1.3989
4.5633 -20.8462 2.1352
5.3106 -20.6754 2.1352
5.9611 -20.1718 2.1032
5.9682 -17.8154 1.8779
5.9741 -15.9114 1.6979
5.9788 -14.3372 1.5510
6.0259 -13.1044 1.4393
10.0123 -19.8617 2.2183
6.1050 -11.1000 1.2626
6.1516 -10.2914 1.1941
5.9947 -9.2570 1.0975
12.7905 -18.2775 2.2183
13.4500 -17.8216 2.2183
6.0002 -7.3833 0.9444
6.2066 -7.1003 0.9352
15.3317 -16.3178 2.2183
15.9240 -15.7729 2.2183
6.0063 -5.5365 0.8076
6.0075 -5.1511 0.7815
17.5857 -14.0153 2.2183
18.0600 -13.3619 2.2135
11.8173 -8.1032 1.4101
18.8001 -11.9222 2.1881
6.0126 -3.5168 0.6838
6.0132 -3.2332 0.6693
19.8784 -9.7850 2.1692
20.0901 -9.0081 2.1527
20.2981 -8.2395 2.1389
20.3335 -7.4153 2.1102
20.1754 -6.5470 2.0651
19.2624 -5.4947 1.9474
6.0186 -1.4854 0.6018
6.0191 -1.2582 0.5961
19.2115 -3.3009 1.8867
19.7666 -2.6697 1.9276
22.0231 -2.1728 2.1355
22.6550 -1.4164 2.1870
22.7261 -0.6032 2.1870
22.7627 0.2133 2.1865
22.7775 1.0319 2.1867
2.6884 0.2187 0.2583
6.0248 0.7086 0.5800
21.6841 3.3434 2.0944
21.6686 4.1422 2.1027
21.7278 4.9680 2.1212
21.9738 5.8616 2.1610
17.8618 5.4585 1.7721
21.6555 7.4777 2.1705
6.1435 2.3714 0.6230
6.0305 2.5801 0.6196
6.0318 2.8410 0.6289
19.1385 9.8685 2.0282
6.2040 3.4863 0.6694
18.5909 11.3438 2.0456
18.5956 12.2837 2.0905
19.2450 13.7294 2.2146
18.7014 14.3816 2.2072
6.0382 4.9983 0.7324
17.3966 15.4857 2.1736
16.7815 16.0539 2.1648
16.1843 16.6353 2.1609
15.7845 17.4347 2.1873
15.2670 18.1304 2.2020
14.7295 18.8238 2.2183
14.0584 19.3594 2.2183
13.3673 19.8701 2.2183
6.1372 9.8699 1.0756
11.9285 20.8139 2.2183
6.0162 11.4298 1.1934
5.9092 12.2760 1.2578
6.0226 13.7538 1.3852
5.9345 14.9954 1.4869
5.9225 16.6921 1.6320
5.9289 18.8286 1.8180
5.9370 21.5216 2.0551
5.3645 22.5775 2.1352
4.5526 22.7641 2.1352
3.7340 22.9201 2.1352
2.9100 23.0454 2.1352
2.0816 23.1397 2.1352
1.3105 24.3232 2.2383
0.4369 24.3568 2.2383
-0.4373 24.3575 2.2383
-1.3110 24.3256 2.2383
-2.1829 24.2608 2.2383
-3.0516 24.1635 2.2383
-3.9159 24.0337 2.2383
-4.7745 23.8716 2.2383
-5.6263 23.6775 2.2383
-6.1714 22.3699 2.1350
-6.9672 22.1247 2.1350
-7.7529 21.8499 2.1350
-8.5274 21.5462 2.1350
-9.2896 21.2138 2.1350
-10.0384 20.8535 2.1350
-10.8396 20.5925 2.1483
-11.5629 20.1753 2.1483
-12.2697 19.7317 2.1483
-12.9590 19.2625 2.1483
-13.6297 18.7684 2.1483
-14.2811 18.2501 2.1483
-12.1415 14.4183 1.7491
-15.4264 17.0387 2.1350
-16.0108 16.4566 2.1350
-16.5727 15.8538 2.1350
-17.1113 15.2314 2.1350
-17.6260 14.5902 2.1350
-18.2240 14.0142 2.1477
-19.4798 13.8966 2.2383
-19.9402 13.1716 2.2383
-20.3733 12.4311 2.2383
-20.7783 11.6762 2.2383
-21.1549 10.9080 2.2383
-9.8372 4.6332 1.0240
-9.6562 4.1313 0.9905
-22.1104 8.5345 2.2383
-22.3697 7.7242 2.2383
-22.5991 6.9061 2.2383
-21.7483 5.8013 2.1352
-21.9091 5.0094 2.1352
-22.0410 4.2133 2.1351
-22.1438 3.4142 2.1351
-22.2176 2.6131 2.1351
-22.4527 1.8266 2.1533
-6.8212 0.3090 0.6537
-22.4564 0.2104 2.1533
-22.4149 -0.5949 2.1533
-22.3446 -1.3970 2.1533
-22.2458 -2.1948 2.1533
-22.1188 -2.9874 2.1533
-21.9639 -3.7738 2.1533
-21.7813 -4.5529 2.1533
-21.5714 -5.3239 2.1533
-21.3347 -6.0858 2.1533
-19.1274 -6.2069 1.9546
-17.0376 -6.2132 1.7653
-15.3193 -6.2184 1.6117
-6.4992 -2.9141 0.6953
-12.6493 -6.2264 1.3782
-10.9639 -5.8950 1.2185
-11.7151 -6.8521 1.3303
-11.7169 -7.4302 1.3617
-11.7187 -8.0354 1.3963
-11.7206 -8.6714 1.4345
-11.7226 -9.3424 1.4767
-11.7248 -10.0532 1.5233
-11.7270 -10.8095 1.5748
-11.7295 -11.6180 1.6320
-11.7321 -12.4864 1.6955
-6.7618 -7.7353 1.0177
-11.7380 -14.4434 1.8455
-11.7414 -15.5572 1.9344
-12.5724 -17.9653 2.1783
-11.9090 -18.3893 2.1783
-9.0228 -15.0943 1.7499
-10.5417 -19.1663 2.1783
-9.6443 -19.1309 2.1350
-8.9451 -19.4518 2.1350
-8.2356 -19.7481 2.1350
-7.5169 -20.0196 2.1350
-6.7896 -20.2660 2.1350
-6.1542 -20.8243 2.1702
-5.5696 -21.6826 2.2383
-4.7856 -21.8605 2.2383
-3.9963 -22.0112 2.2383
-3.2024 -22.1346 2.2383
-2.4049 -22.2305 2.2383
-1.6048 -22.2989 2.2383
-0.8029 -22.3397 2.2383
-0.0002 -18.2069 2.2383
0.6537 -18.1951 2.2383
1.3068 -18.1607 2.2383
1.9066 -17.6251 2.1791
2.4875 -17.1937 2.1352
3.1039 -17.0962 2.1352
3.7167 -16.9773 2.1352
4.3251 -16.8372 2.1352
4.9285 -16.6760 2.1352
5.5261 -16.4939 2.1352
5.9739 -15.9096 2.0852
5.9788 -14.3356 1.9050
5.9828 -13.0093 1.7554
5.9863 -11.8739 1.6293
5.9893 -10.8885 1.5218
6.1007 -10.2052 1.4552
5.9944 -9.2555 1.3488
10.4057 -14.8680 2.2183
10.9405 -14.4948 2.2183
6.0001 -7.3823 1.1612
6.2073 -7.1003 1.1503
12.4646 -13.2647 2.2183
12.9437 -12.8192 2.2183
6.0061 -5.5355 0.9937
6.0073 -5.1502 0.9618
14.2857 -11.3836 2.2183
14.6993 -10.8737 2.2183
11.8068 -8.0946 1.7350
15.4727 -9.8104 2.2183
6.0124 -3.5160 0.8424
6.0132 -3.2325 0.8249
16.4903 -8.1155 2.2183
16.7897 -7.5266 2.2183
17.0683 -6.9267 2.2183
17.0930 -6.2318 2.1885
16.9946 -5.5132 2.1466
16.9488 -4.8331 2.1151
6.0185 -1.4848 0.7430
6.0190 -1.2576 0.7361
17.1936 -2.9525 2.0860
17.5547 -2.3693 2.1155
18.1078 -1.7849 2.1704
18.4107 -1.1493 2.1976
18.5218 -0.4899 2.2045
18.4930 0.1750 2.1977
18.4941 0.8396 2.1972
2.6880 0.2189 0.3197
6.0248 0.7092 0.7182
18.1479 2.7999 2.1712
18.1010 3.4619 2.1763
18.0407 4.1267 2.1828
17.9567 4.7918 2.1893
17.8355 5.4522 2.1943
17.6471 6.0953 2.1940
6.1419 2.3714 0.7728
6.0304 2.5807 0.7690
6.0316 2.8415 0.7807
15.4202 7.9528 2.0293
6.1991 3.4843 0.8308
14.6841 8.9616 2.0075
11.8979 7.8607 1.6623
10.4010 7.4213 1.4879
6.2244 4.7873 0.9134
6.0380 4.9989 0.9109
9.6252 8.5692 1.4961
13.8195 13.2222 2.2183
13.3485 13.7224 2.2183
12.8591 14.2053 2.2183
12.3518 14.6702 2.2183
11.8272 15.1166 2.2183
11.2862 15.5436 2.2183
10.7293 15.9507 2.2183
6.1365 9.8699 1.3401
9.5712 16.7026 2.2183
5.9412 11.2885 1.4690
5.9092 12.2773 1.5681
5.9129 13.5047 1.6957
5.9172 14.9533 1.8488
5.9225 16.6939 2.0354
5.5830 17.7319 2.1352
4.9451 17.9278 2.1352
4.3002 18.1000 2.1352
3.6491 18.2481 2.1352
2.9928 18.3720 2.1352
2.3322 18.4715 2.1352
1.7487 19.4418 2.2383
1.0502 19.4944 2.2383
0.3501 19.5209 2.2383
-0.3505 19.5214 2.2383
-1.0507 19.4959 2.2383
-1.7494 19.4443 2.2383
-2.4456 19.3668 2.2383
-3.1384 19.2636 2.2383
-3.8268 19.1346 2.2383
-4.5097 18.9802 2.2383
-5.1863 18.8006 2.2383
-5.8555 18.5961 2.2383
-6.4254 18.1103 2.2070
-6.8375 17.2779 2.1350
-7.4495 17.0134 2.1350
-8.0510 16.7265 2.1350
-8.6411 16.4177 2.1350
-9.2191 16.0874 2.1350
-9.7842 15.7362 2.1350
-10.3355 15.3646 2.1350
-10.8723 14.9731 2.1350
-11.3940 14.5623 2.1350
-11.8998 14.1329 2.1350
-12.6694 13.9952 2.1834
-13.4830 13.8601 2.2383
-13.9592 13.3554 2.2383
-14.4161 12.8340 2.2383
-14.8531 12.2966 2.2383
-15.2698 11.7442 2.2383
-15.6655 11.1773 2.2383
-16.0398 10.5969 2.2383
-16.3923 10.0038 2.2383
-16.7226 9.3989 2.2383
-17.0302 8.7829 2.2383
-9.8376 4.6344 1.2717
-9.6566 4.1324 1.2297
-17.8140 6.8779 2.2383
-17.1977 5.9400 2.1352
-17.3788 5.3125 2.1352
-17.5369 4.6796 2.1351
-17.6717 4.0422 2.1351
-17.7832 3.4011 2.1351
-17.8715 2.7571 2.1351
-17.9364 2.1112 2.1350
-18.1317 1.4767 2.1533
-6.8206 0.3096 0.8092
-18.1454 0.1717 2.1533
-18.1171 -0.4792 2.1533
-18.0656 -1.1278 2.1533
-17.9910 -1.7734 2.1533
-17.8934 -2.4150 2.1533
-17.7732 -3.0521 2.1533
-17.6305 -3.6836 2.1533
-17.4656 -4.3089 2.1533
-17.2787 -4.9272 2.1533
-17.0703 -5.5377 2.1533
-16.8406 -6.1397 2.1533
-15.3231 -6.2184 1.9889
-6.4990 -2.9133 0.8575
-12.6520 -6.2264 1.6998
-10.9661 -5.8950 1.5024
-11.7151 -6.8508 1.6395
-11.7168 -7.4288 1.6778
-11.7187 -8.0341 1.7201
-11.7206 -8.6700 1.7667
-11.7226 -9.3410 1.8183
-11.7248 -10.0518 1.8752
-11.7270 -10.8080 1.9383
-11.7295 -11.6164 2.0082
-6.9996 -7.4487 1.2445
-6.7247 -7.6919 1.2450
-11.2658 -13.8607 2.1783
-10.7525 -14.2453 2.1783
-10.0235 -14.3214 2.1350
-9.4961 -14.6618 2.1350
-8.9575 -14.9834 2.1350
-8.4083 -15.2858 2.1350
-7.8493 -15.5687 2.1350
-7.2812 -15.8318 2.1350
-6.7045 -16.0749 2.1350
-6.1474 -16.3705 2.1446
-5.7957 -17.2977 2.2383
-5.1688 -17.4879 2.2383
-4.5358 -17.6561 2.2383
-3.8976 -17.8022 2.2383
-3.2549 -17.9260 2.2383
-2.6084 -18.0273 2.2383
-1.9590 -18.1062 2.2383
-1.3073 -18.1624 2.2383
-0.6541 -18.1961 2.2383
-0.0002 -15.3450 2.2383
0.5510 -15.3351 2.2383
1.1014 -15.3059 2.2383
1.6506 -15.2576 2.2383
2.1053 -14.5508 2.1441
2.6160 -14.4079 2.1352
3.1324 -14.3073 2.1352
3.6451 -14.1886 2.1352
4.1534 -14.0521 2.1352
4.6567 -13.8979 2.1352
5.1546 -13.7261 2.1352
5.6462 -13.5370 2.1352
5.9827 -13.0078 2.0835
5.9862 -11.8726 1.9340
5.9892 -10.8873 1.8066
5.9918 -10.0220 1.6968
5.9942 -9.2542 1.6014
5.9963 -8.5667 1.5179
6.0462 -8.0095 1.4558
6.0000 -7.3813 1.3791
6.2081 -7.1003 1.3665
10.4921 -11.1641 2.2183
10.8939 -10.7877 2.2183
6.0058 -5.5345 1.1808
6.0070 -5.1493 1.1431
12.0183 -9.5754 2.2183
12.3644 -9.1451 2.2183
11.7975 -8.0870 2.0614
13.0109 -8.2481 2.2183
6.0121 -3.5152 1.0020
6.0130 -3.2318 0.9812
13.8597 -6.8194 2.2183
14.1088 -6.3233 2.2183
14.3404 -5.8182 2.2183
14.5541 -5.3047 2.2183
6.1886 -2.0070 0.9307
14.8826 -4.2425 2.2117
6.0184 -1.4842 0.8850
6.0190 -1.2570 0.8770
15.2895 -2.6241 2.2103
15.4452 -2.0832 2.2183
15.5262 -1.5289 2.2183
15.5875 -0.9716 2.2183
15.6287 -0.4119 2.2183
15.6500 0.1496 2.2183
15.6511 0.7120 2.2183
2.6876 0.2192 0.3814
6.0248 0.7097 0.8571
15.4859 2.3907 2.2116
15.3820 2.9434 2.2081
15.2595 3.4920 2.2048
15.0919 4.0288 2.1978
14.9096 4.5593 2.1914
14.7365 5.0915 2.1892
6.1403 2.3714 0.9233
6.0304 2.5813 0.9192
6.0314 2.8421 0.9334
13.4134 6.9193 2.1108
