ply
format ascii 1.0
element vertex 2177
property float32 x
property float32 y
property float32 z
end_header
5.1165 7.0742 2.1318
4.8657 7.2641 2.1318
4.6081 7.4454 2.1318
4.3440 7.6180 2.1318
4.0737 7.7815 2.1318
3.7974 7.9358 2.1318
3.5155 8.0806 2.1318
3.2282 8.2157 2.1318
2.9359 8.3409 2.1318
2.6389 8.4559 2.1318
2.4506 8.9747 2.2348
2.1304 9.0736 2.2348
1.8064 9.1614 2.2348
1.4789 9.2378 2.2348
1.1483 9.3027 2.2348
0.8150 9.3561 2.2348
0.4793 9.3977 2.2348
0.1418 9.4274 2.2348
-0.1972 9.4451 2.2348
-0.5372 9.4508 2.2348
-0.8779 9.4444 2.2348
-1.2188 9.4257 2.2348
-1.5595 9.3948 2.2348
-1.8995 9.3517 2.2348
-2.2384 9.2963 2.2348
-2.5757 9.2285 2.2348
-2.9109 9.1485 2.2348
-3.2437 9.0563 2.2348
-3.5736 8.9519 2.2348
-3.9001 8.8354 2.2348
-4.2227 8.7069 2.2348
-4.5410 8.5664 2.2348
-4.8545 8.4142 2.2348
-5.1628 8.2503 2.2348
-5.4654 8.0750 2.2348
-5.7619 7.8883 2.2348
-6.0519 7.6906 2.2348
-6.3348 7.4820 2.2348
-6.3754 7.0047 2.1554
-6.5606 6.7086 2.1318
-6.8080 6.4798 2.1317
-7.0470 6.2417 2.1317
-7.2774 5.9946 2.1317
-6.6223 5.0679 1.8826
-7.4237 5.2706 2.0524
-7.1186 4.6797 1.9177
-7.3400 4.4572 1.9305
-8.2868 4.6343 2.1317
-8.4579 4.3399 2.1317
-8.6180 4.0390 2.1317
-8.7668 3.7320 2.1316
-8.9041 3.4192 2.1316
-9.0297 3.1013 2.1316
-9.1433 2.7785 2.1316
-9.2448 2.4515 2.1316
-9.3339 2.1206 2.1316
-9.4105 1.7864 2.1316
-9.4744 1.4493 2.1316
-9.5256 1.1098 2.1316
-9.5640 0.7685 2.1316
-9.5894 0.4258 2.1316
-9.6018 0.0823 2.1316
-9.6011 -0.2615 2.1316
-9.5875 -0.6051 2.1316
-9.5608 -0.9480 2.1316
-9.5212 -1.2897 2.1316
-9.4686 -1.6296 2.1316
-9.4032 -1.9672 2.1316
-9.3250 -2.3021 2.1316
-9.2342 -2.6338 2.1317
-9.1310 -2.9616 2.1317
-9.0154 -3.2852 2.1317
-8.8878 -3.6041 2.1317
-8.7482 -3.9178 2.1317
-8.5969 -4.2258 2.1317
-8.4342 -4.5277 2.1317
-8.2604 -4.8230 2.1317
-8.0756 -5.1113 2.1317
-7.8803 -5.3923 2.1317
-7.6747 -5.6655 2.1317
-7.4592 -5.9305 2.1317
-7.2335 -6.1865 2.1316
-6.9991 -6.4340 2.1316
-6.9099 -6.8245 2.1802
-6.8193 -7.2354 2.2348
-6.5469 -7.4649 2.2348
-6.2666 -7.6839 2.2348
-5.9786 -7.8919 2.2348
-5.6835 -8.0888 2.2348
-5.3817 -8.2744 2.2348
-5.0736 -8.4484 2.2348
-4.7598 -8.6105 2.2348
-4.4407 -8.7608 2.2348
-4.1168 -8.8989 2.2348
-3.7885 -9.0248 2.2348
-3.4564 -9.1383 2.2348
-3.1209 -9.2394 2.2348
-2.7825 -9.3280 2.2348
-2.4416 -9.4040 2.2348
-2.0989 -9.4673 2.2348
-1.7546 -9.5181 2.2348
-1.4094 -9.5562 2.2348
-1.0636 -9.5816 2.2348
-0.7178 -9.5946 2.2348
-0.3724 -9.5949 2.2348
-0.0279 -8.6930 2.2348
0.2835 -8.6724 2.2348
0.5934 -8.6406 2.2348
0.9014 -8.5978 2.2348
1.1515 -8.1499 2.1318
1.4407 -8.0884 2.1318
1.7269 -8.0166 2.1318
2.0100 -7.9349 2.1318
2.2894 -7.8433 2.1318
2.5650 -7.7420 2.1318
2.8363 -7.6311 2.1318
3.1030 -7.5109 2.1318
3.3649 -7.3816 2.1318
3.6217 -7.2433 2.1318
3.8729 -7.0963 2.1318
4.1185 -6.9408 2.1318
4.3581 -6.7770 2.1318
4.5913 -6.6052 2.1318
4.8181 -6.4256 2.1318
5.0381 -6.2384 2.1318
5.2511 -6.0440 2.1318
5.4749 -5.8618 2.1388
5.6739 -5.6529 2.1388
5.8653 -5.4374 2.1388
5.9094 -5.0956 2.0895
5.9903 -4.8007 2.0584
6.0706 -4.5161 2.0314
6.0504 -4.1716 1.9755
6.1911 -3.9477 1.9761
6.3049 -3.7081 1.9708
6.6870 -3.6154 2.0504
5.7717 -2.8570 1.7389
5.0160 -2.2619 1.4871
5.2924 -2.1608 1.5464
6.0201 -2.2086 1.7362
6.0422 -1.9730 1.7223
6.1010 -1.7518 1.7213
6.1556 -1.5298 1.7212
6.2025 -1.3063 1.7211
6.2417 -1.0814 1.7210
5.1797 -0.7064 1.4210
5.1996 -0.5192 1.4210
6.3134 -0.4014 1.7210
6.3221 -0.1738 1.7211
6.3229 0.0540 1.7212
6.3159 0.2816 1.7213
6.3012 0.5089 1.7214
6.2850 0.7362 1.7232
5.3576 0.8242 1.4761
5.3105 1.0139 1.4721
6.3114 1.4424 1.7626
7.2888 1.9445 2.0535
7.0479 2.1549 2.0057
6.8025 2.3509 1.9580
6.7060 2.5915 1.9551
6.7362 2.8861 1.9921
6.7360 3.1778 2.0236
6.7348 3.4791 2.0584
6.8674 3.8669 2.1388
6.7283 4.1145 2.1388
6.5807 4.3573 2.1388
6.4247 4.5951 2.1388
6.2399 4.8117 2.1318
6.0682 5.0378 2.1318
5.8887 5.2581 2.1318
5.7014 5.4722 2.1318
5.5067 5.6800 2.1318
5.3047 5.8811 2.1318
5.0957 6.0754 2.1318
4.8798 6.2625 2.1318
4.6572 6.4422 2.1318
4.4283 6.6143 2.1318
4.1932 6.7786 2.1318
3.9523 6.9348 2.1318
3.7057 7.0827 2.1318
3.4537 7.2221 2.1318
3.1967 7.3528 2.1318
2.9348 7.4747 2.1318
2.6685 7.5875 2.1318
2.4878 7.9793 2.2117
2.2262 8.1616 2.2348
1.9347 8.2503 2.2348
1.6398 8.3287 2.2348
1.3418 8.3968 2.2348
1.0411 8.4545 2.2348
0.7380 8.5015 2.2348
0.4330 8.5379 2.2348
0.1263 8.5634 2.2348
-0.1816 8.5781 2.2348
-0.4904 8.5817 2.2348
-0.7996 8.5744 2.2348
-1.1090 8.5559 2.2348
-1.4180 8.5264 2.2348
-1.7262 8.4857 2.2348
-2.0334 8.4339 2.2348
-2.3390 8.3710 2.2348
-2.6427 8.2970 2.2348
-2.9440 8.2119 2.2348
-3.2425 8.1158 2.2348
-3.5379 8.0087 2.2348
-3.8297 7.8909 2.2348
-4.1175 7.7622 2.2348
-4.4008 7.6230 2.2348
-4.6794 7.4733 2.2348
-4.9527 7.3132 2.2348
-5.2204 7.1430 2.2348
-5.4821 6.9628 2.2348
-5.7373 6.7728 2.2348
-5.9858 6.5733 2.2348
-6.1564 6.2922 2.2095
-6.1628 5.8630 2.1318
-6.3782 5.6467 2.1318
-6.5857 5.4224 2.1317
-6.6147 5.0599 2.0782
-6.9758 4.9504 2.1317
-7.1290 4.6845 2.1231
-7.3306 4.4496 2.1317
-7.4941 4.1892 2.1317
-7.6479 3.9226 2.1317
-7.7917 3.6502 2.1317
-7.9254 3.3724 2.1317
-8.0488 3.0894 2.1317
-8.1615 2.8019 2.1317
-8.2635 2.5100 2.1317
-8.3545 2.2144 2.1317
-8.4344 1.9153 2.1317
-8.5031 1.6133 2.1317
-8.5603 1.3087 2.1317
-8.6061 1.0020 2.1317
-8.6403 0.6937 2.1317
-8.6629 0.3842 2.1317
-8.6739 0.0740 2.1317
-8.6731 -0.2365 2.1317
-8.6606 -0.5468 2.1317
-8.6364 -0.8564 2.1317
-8.6006 -1.1650 2.1317
-8.5531 -1.4720 2.1317
-8.4941 -1.7769 2.1317
-8.4237 -2.0794 2.1317
-8.3419 -2.3789 2.1317
-8.2489 -2.6751 2.1317
-8.1449 -2.9674 2.1317
-8.0299 -3.2556 2.1317
-7.9043 -3.5390 2.1317
-7.7681 -3.8175 2.1317
-7.6216 -4.0904 2.1317
-7.4651 -4.3575 2.1317
-7.2987 -4.6184 2.1317
-7.1229 -4.8726 2.1317
-6.9377 -5.1199 2.1318
-6.7890 -5.3960 2.1461
-6.8189 -5.8300 2.2224
-6.6357 -6.0978 2.2348
-6.4059 -6.3244 2.2348
-6.1680 -6.5420 2.2348
-5.9225 -6.7503 2.2348
-5.6697 -6.9492 2.2348
-5.4101 -7.1383 2.2348
-5.1438 -7.3174 2.2348
-4.8715 -7.4863 2.2348
-4.5935 -7.6448 2.2348
-4.3102 -7.7927 2.2348
-4.0220 -7.9298 2.2348
-3.7294 -8.0561 2.2348
-3.4327 -8.1714 2.2348
-3.1325 -8.2755 2.2348
-2.8292 -8.3684 2.2348
-2.5231 -8.4500 2.2348
-2.2147 -8.5203 2.2348
-1.9045 -8.5792 2.2348
-1.5928 -8.6266 2.2348
-1.2801 -8.6627 2.2348
-0.9669 -8.6873 2.2348
-0.6535 -8.7005 2.2348
-0.3404 -8.7024 2.2348
-0.0279 -7.9465 2.2348
0.2568 -7.9288 2.2348
0.5402 -7.9009 2.2348
0.8220 -7.8630 2.2348
1.0883 -7.7195 2.2075
1.3156 -7.3993 2.1318
1.5777 -7.3347 2.1318
1.8369 -7.2610 2.1318
2.0929 -7.1782 2.1318
2.3455 -7.0865 2.1318
2.5942 -6.9860 2.1318
2.8388 -6.8770 2.1318
3.0790 -6.7595 2.1318
3.3145 -6.6338 2.1318
3.5452 -6.5001 2.1318
3.7706 -6.3585 2.1318
3.9905 -6.2092 2.1318
4.2048 -6.0526 2.1318
4.4132 -5.8888 2.1318
4.6153 -5.7179 2.1318
4.8111 -5.5404 2.1318
5.0004 -5.3563 2.1318
5.1828 -5.1660 2.1318
5.3759 -4.9861 2.1388
5.5447 -4.7834 2.1388
5.7062 -4.5752 2.1388
5.8602 -4.3616 2.1388
6.0065 -4.1432 2.1388
6.1450 -3.9200 2.1388
6.2755 -3.6924 2.1388
5.1200 -2.7693 1.7116
5.7687 -2.8567 1.8946
5.0587 -2.2822 1.6349
5.2888 -2.1603 1.6844
5.9025 -2.1664 1.8553
5.9722 -1.9510 1.8553
6.0343 -1.7334 1.8553
6.0855 -1.5131 1.8542
6.1067 -1.2868 1.8464
6.1278 -1.0623 1.8410
5.1964 -0.7091 1.5532
5.2135 -0.5209 1.5524
6.1880 -0.3938 1.8377
6.2071 -0.1709 1.8410
6.2263 0.0530 1.8465
6.2457 0.2784 1.8543
6.2341 0.5034 1.8553
6.2116 0.7276 1.8553
5.5162 0.8486 1.6557
5.3550 1.0225 1.6172
6.3108 1.4425 1.9201
5.6342 1.5033 1.7293
6.8985 2.1096 2.1388
6.8023 2.3513 2.1332
6.7058 2.5920 2.1301
6.6023 2.8294 2.1274
6.5339 3.0832 2.1388
6.4220 3.3183 2.1388
6.3019 3.5495 2.1388
6.1537 3.7642 2.1318
6.0183 3.9861 2.1318
5.8752 4.2034 2.1318
5.7246 4.4157 2.1318
5.5666 4.6229 2.1318
5.4014 4.8247 2.1318
5.2292 5.0208 2.1318
5.0501 5.2110 2.1318
4.8644 5.3950 2.1318
4.6721 5.5727 2.1318
4.4737 5.7438 2.1318
4.2691 5.9081 2.1318
4.0588 6.0653 2.1318
3.8428 6.2153 2.1318
3.6214 6.3578 2.1318
3.3950 6.4927 2.1318
3.1636 6.6198 2.1318
2.9276 6.7388 2.1318
2.6873 6.8496 2.1318
2.4429 6.9521 2.1318
2.3009 7.3869 2.2348
2.0370 7.4763 2.2348
1.7697 7.5565 2.2348
1.4994 7.6273 2.2348
1.2263 7.6886 2.2348
0.9508 7.7404 2.2348
0.6733 7.7823 2.2348
0.3940 7.8145 2.2348
0.1132 7.8367 2.2348
-0.1685 7.8490 2.2348
-0.4510 7.8512 2.2348
-0.7339 7.8433 2.2348
-1.0167 7.8253 2.2348
-1.2991 7.7971 2.2348
-1.5808 7.7588 2.2348
-1.8614 7.7103 2.2348
-2.1405 7.6516 2.2348
-2.4177 7.5828 2.2348
-2.6927 7.5039 2.2348
-2.9651 7.4150 2.2348
-3.2345 7.3161 2.2348
-3.5005 7.2074 2.2348
-3.7629 7.0889 2.2348
-4.0211 6.9607 2.2348
-4.2748 6.8230 2.2348
-4.5238 6.6759 2.2348
-4.7675 6.5196 2.2348
-5.0057 6.3543 2.2348
-5.2379 6.1801 2.2348
-5.4640 5.9972 2.2348
-5.6834 5.8060 2.2348
-5.8959 5.6065 2.2348
-5.9396 5.2560 2.1757
-6.0083 4.9447 2.1318
-6.1894 4.7324 2.1318
-6.3627 4.5133 2.1317
-6.5279 4.2877 2.1317
-6.6848 4.0559 2.1317
-6.8332 3.8181 2.1317
-6.9727 3.5748 2.1317
-7.1032 3.3262 2.1317
-7.2244 3.0727 2.1317
-7.3362 2.8147 2.1317
-7.4384 2.5525 2.1317
-7.5308 2.2864 2.1317
-7.6132 2.0170 2.1317
-7.6855 1.7444 2.1317
-7.7476 1.4692 2.1317
-7.7994 1.1917 2.1317
-7.8408 0.9123 2.1317
-7.8717 0.6315 2.1317
-7.8920 0.3496 2.1317
-7.9017 0.0671 2.1317
-7.9009 -0.2157 2.1317
-7.8894 -0.4983 2.1317
-7.8673 -0.7803 2.1317
-7.8346 -1.0612 2.1317
-7.7914 -1.3408 2.1317
-7.7378 -1.6185 2.1317
-7.6737 -1.8940 2.1317
-7.5994 -2.1668 2.1317
-7.5149 -2.4366 2.1317
-7.4204 -2.7029 2.1317
-7.3160 -2.9655 2.1317
-7.2018 -3.2238 2.1317
-7.0781 -3.4776 2.1317
-6.9451 -3.7264 2.1318
-6.8029 -3.9699 2.1318
-6.6850 -4.2289 2.1424
-6.7071 -4.5869 2.2024
-6.6295 -4.8910 2.2348
-6.4446 -5.1206 2.2348
-6.2513 -5.3430 2.2348
-6.0501 -5.5578 2.2348
-5.8413 -5.7648 2.2348
-5.6250 -5.9638 2.2348
-5.4018 -6.1543 2.2348
-5.1719 -6.3363 2.2348
-4.9356 -6.5094 2.2348
-4.6934 -6.6735 2.2348
-4.4456 -6.8283 2.2348
-4.1925 -6.9737 2.2348
-3.9346 -7.1095 2.2348
-3.6721 -7.2356 2.2348
-3.4056 -7.3518 2.2348
-3.1353 -7.4579 2.2348
-2.8617 -7.5540 2.2348
-2.5852 -7.6398 2.2348
-2.3061 -7.7154 2.2348
-2.0248 -7.7807 2.2348
-1.7417 -7.8356 2.2348
-1.4573 -7.8800 2.2348
-1.1719 -7.9141 2.2348
-0.8858 -7.9378 2.2348
-0.5996 -7.9510 2.2348
-0.3135 -7.9539 2.2348
-0.0279 -7.3107 2.2348
0.2341 -7.2953 2.2348
0.4949 -7.2706 2.2348
0.7543 -7.2366 2.2348
1.0119 -7.1933 2.2348
1.2090 -6.8116 2.1318
1.4504 -6.7530 2.1318
1.6893 -6.6860 2.1318
1.9253 -6.6105 2.1318
2.1581 -6.5269 2.1318
2.3874 -6.4352 2.1318
2.6130 -6.3355 2.1318
2.8347 -6.2280 2.1318
3.0520 -6.1129 2.1318
3.2649 -5.9903 2.1318
3.4730 -5.8605 2.1318
3.6762 -5.7236 2.1318
3.8741 -5.5798 2.1318
4.0666 -5.4294 2.1318
4.2535 -5.2724 2.1318
4.4345 -5.1093 2.1318
4.6094 -4.9400 2.1318
4.7781 -4.7650 2.1318
4.9404 -4.5843 2.1318
5.0961 -4.3984 2.1318
5.2451 -4.2072 2.1318
5.3871 -4.0113 2.1318
5.5403 -3.8233 2.1388
5.6685 -3.6176 2.1388
5.7894 -3.4078 2.1388
5.1099 -2.7651 1.8515
5.1300 -2.5415 1.8260
5.0647 -2.2859 1.7738
5.2853 -2.1598 1.8241
5.8442 -2.1460 1.9905
5.8658 -1.9171 1.9744
5.8869 -1.6919 1.9610
5.9078 -1.4697 1.9502
5.9285 -1.2499 1.9420
5.9490 -1.0319 1.9362
5.2023 -0.7103 1.6845
5.2194 -0.5219 1.6835
6.0074 -0.3827 1.9326
6.0260 -0.1662 1.9359
6.0446 0.0512 1.9417
6.0634 0.2701 1.9499
6.0823 0.4910 1.9607
6.1015 0.7147 1.9740
5.5153 0.8485 1.7931
5.3613 1.0238 1.7538
5.4710 1.2507 1.8030
5.4903 1.4651 1.8253
6.3685 1.9478 2.1388
6.2959 2.1767 2.1388
6.2154 2.4029 2.1388
6.1271 2.6263 2.1388
6.0114 2.8373 2.1318
5.9081 3.0536 2.1318
5.7974 3.2662 2.1318
5.6794 3.4750 2.1318
5.5541 3.6797 2.1318
5.4217 3.8801 2.1318
5.2824 4.0759 2.1318
5.1362 4.2669 2.1318
4.9834 4.4529 2.1318
4.8241 4.6336 2.1318
4.6585 4.8088 2.1318
4.4868 4.9783 2.1318
4.3091 5.1418 2.1318
4.1256 5.2993 2.1318
3.9365 5.4504 2.1318
3.7421 5.5949 2.1318
3.5426 5.7328 2.1318
3.3381 5.8637 2.1318
3.1289 5.9875 2.1318
2.9152 6.1041 2.1318
2.6974 6.2132 2.1318
2.4755 6.3148 2.1318
2.3588 6.7185 2.2348
2.1187 6.8086 2.2348
1.8752 6.8902 2.2348
1.6287 6.9634 2.2348
1.3794 7.0278 2.2348
1.1277 7.0835 2.2348
0.8738 7.1303 2.2348
0.6180 7.1681 2.2348
0.3607 7.1968 2.2348
0.1021 7.2164 2.2348
-0.1574 7.2268 2.2348
-0.4174 7.2280 2.2348
-0.6777 7.2198 2.2348
-0.9380 7.2023 2.2348
-1.1978 7.1755 2.2348
-1.4568 7.1393 2.2348
-1.7148 7.0937 2.2348
-1.9713 7.0389 2.2348
-2.2261 6.9747 2.2348
-2.4788 6.9013 2.2348
-2.7289 6.8186 2.2348
-2.9763 6.7269 2.2348
-3.2206 6.6261 2.2348
-3.4613 6.5163 2.2348
-3.6983 6.3977 2.2348
-3.9310 6.2704 2.2348
-4.1593 6.1345 2.2348
-4.3828 5.9902 2.2348
-4.6011 5.8376 2.2348
-4.8139 5.6769 2.2348
-5.0210 5.5083 2.2348
-5.2220 5.3320 2.2348
-5.4166 5.1482 2.2348
-5.6045 4.9572 2.2348
-5.7855 4.7592 2.2348
-5.9220 4.5259 2.2209
-5.9352 4.2082 2.1654
-5.9941 3.9353 2.1318
-6.1376 3.7222 2.1318
-6.2732 3.5037 2.1318
-6.4007 3.2802 2.1317
-6.5200 3.0518 2.1317
-6.6308 2.8190 2.1317
-6.7329 2.5821 2.1317
-6.8262 2.3414 2.1317
-6.9106 2.0972 2.1317
-6.9858 1.8499 2.1317
-7.0518 1.5998 2.1317
-7.1084 1.3472 2.1317
-7.1556 1.0927 2.1317
-7.1933 0.8364 2.1317
-7.2214 0.5788 2.1317
-7.2398 0.3203 2.1317
-7.2486 0.0612 2.1317
-7.2477 -0.1981 2.1317
-7.2371 -0.4572 2.1317
-7.2168 -0.7158 2.1317
-7.1868 -0.9735 2.1317
-7.1472 -1.2298 2.1317
-7.0980 -1.4845 2.1317
-7.0394 -1.7372 2.1317
-6.9713 -1.9874 2.1317
-6.8940 -2.2348 2.1317
-6.8075 -2.4792 2.1318
-6.7119 -2.7200 2.1318
-6.6075 -2.9571 2.1318
-6.5905 -3.2372 2.1633
-6.6137 -3.5477 2.2124
-6.5442 -3.8180 2.2348
-6.3993 -4.0469 2.2348
-6.2459 -4.2702 2.2348
-6.0845 -4.4875 2.2348
-5.9152 -4.6985 2.2348
-5.7383 -4.9029 2.2348
-5.5541 -5.1004 2.2348
-5.3629 -5.2908 2.2348
-5.1649 -5.4738 2.2348
-4.9604 -5.6492 2.2348
-4.7498 -5.8167 2.2348
-4.5334 -5.9762 2.2348
-4.3114 -6.1274 2.2348
-4.0843 -6.2702 2.2348
-3.8523 -6.4044 2.2348
-3.6158 -6.5298 2.2348
-3.3752 -6.6463 2.2348
-3.1307 -6.7537 2.2348
-2.8827 -6.8520 2.2348
-2.6317 -6.9411 2.2348
-2.3778 -7.0208 2.2348
-2.1216 -7.0911 2.2348
-1.8633 -7.1519 2.2348
-1.6033 -7.2032 2.2348
-1.3421 -7.2450 2.2348
-1.0798 -7.2772 2.2348
-0.8169 -7.2999 2.2348
-0.5537 -7.3130 2.2348
-0.2905 -7.3166 2.2348
-0.0278 -6.7621 2.2348
0.2144 -6.7487 2.2348
0.4558 -6.7265 2.2348
0.6958 -6.6958 2.2348
0.9343 -6.6565 2.2348
1.1702 -6.6048 2.2335
1.3405 -6.2504 2.1318
1.5617 -6.1890 2.1318
1.7803 -6.1199 2.1318
1.9960 -6.0431 2.1318
2.2086 -5.9587 2.1318
2.4178 -5.8670 2.1318
2.6233 -5.7681 2.1318
2.8249 -5.6621 2.1318
3.0224 -5.5491 2.1318
3.2155 -5.4294 2.1318
3.4040 -5.3031 2.1318
3.5877 -5.1704 2.1318
3.7664 -5.0314 2.1318
3.9399 -4.8865 2.1318
4.1080 -4.7356 2.1318
4.2705 -4.5792 2.1318
4.4273 -4.4173 2.1318
4.5781 -4.2502 2.1318
4.7228 -4.0781 2.1318
4.8613 -3.9012 2.1318
4.9934 -3.7198 2.1318
5.1189 -3.5340 2.1318
5.2378 -3.3442 2.1318
5.3499 -3.1505 2.1318
5.1098 -2.7662 1.9968
5.1299 -2.5426 1.9693
5.0708 -2.2896 1.9152
5.2821 -2.1595 1.9658
5.6635 -2.0806 2.0799
5.6844 -1.8587 2.0630
5.7049 -1.6403 2.0489
5.7251 -1.4249 2.0376
5.7452 -1.2118 2.0289
5.7650 -1.0005 2.0228
5.2083 -0.7116 1.8180
5.2254 -0.5229 1.8169
5.8216 -0.3712 2.0188
5.8396 -0.1614 2.0223
5.8577 0.0494 2.0283
5.8759 0.2615 2.0368
5.8943 0.4757 2.0480
5.9129 0.6926 2.0620
5.5144 0.8484 1.9324
5.3678 1.0251 1.8927
5.4710 1.2508 1.9435
5.4903 1.4654 1.9676
5.8886 1.8014 2.1318
5.8213 2.0130 2.1318
5.7468 2.2222 2.1318
5.6650 2.4288 2.1318
5.5760 2.6325 2.1318
5.4801 2.8330 2.1318
5.3772 3.0302 2.1318
5.2674 3.2239 2.1318
5.1510 3.4136 2.1318
5.0279 3.5994 2.1318
4.8984 3.7809 2.1318
4.7626 3.9578 2.1318
4.6206 4.1301 2.1318
4.4726 4.2975 2.1318
4.3187 4.4597 2.1318
4.1591 4.6166 2.1318
3.9941 4.7680 2.1318
3.8236 4.9136 2.1318
3.6481 5.0533 2.1318
3.4675 5.1870 2.1318
3.2822 5.3144 2.1318
3.0924 5.4353 2.1318
2.8983 5.5496 2.1318
2.7000 5.6572 2.1318
2.5017 5.7666 2.1350
2.3048 5.8840 2.1436
2.1835 6.2249 2.2348
1.9609 6.3078 2.2348
1.7352 6.3828 2.2348
1.5066 6.4500 2.2348
1.2756 6.5090 2.2348
1.0423 6.5599 2.2348
0.8071 6.6026 2.2348
0.5702 6.6369 2.2348
0.3318 6.6628 2.2348
0.0924 6.6803 2.2348
-0.1477 6.6892 2.2348
-0.3884 6.6895 2.2348
-0.6293 6.6812 2.2348
-0.8700 6.6643 2.2348
-1.1103 6.6388 2.2348
-1.3499 6.6045 2.2348
-1.5883 6.5617 2.2348
-1.8255 6.5102 2.2348
-2.0609 6.4502 2.2348
-2.2943 6.3815 2.2348
-2.5254 6.3045 2.2348
-2.7538 6.2189 2.2348
-2.9793 6.1251 2.2348
-3.2015 6.0230 2.2348
-3.4202 5.9127 2.2348
-3.6349 5.7945 2.2348
-3.8455 5.6683 2.2348
-4.0516 5.5344 2.2348
-4.2529 5.3928 2.2348
-4.4491 5.2439 2.2348
-4.6400 5.0877 2.2348
-4.8252 4.9244 2.2348
-5.0045 4.7542 2.2348
-5.1776 4.5774 2.2348
-5.3442 4.3942 2.2348
-5.5042 4.2047 2.2348
-5.6572 4.0093 2.2348
-5.8030 3.8082 2.2348
-5.9415 3.6017 2.2348
-5.9980 3.3486 2.2075
-6.0257 3.0866 2.1737
-6.0565 2.8336 2.1450
-6.1211 2.6012 2.1318
-6.2150 2.3824 2.1318
-6.3119 2.1640 2.1355
-6.3783 1.9347 2.1318
-6.4474 1.7065 2.1318
-6.5080 1.4756 2.1318
-6.5600 1.2426 2.1317
-6.6033 1.0077 2.1317
-6.6378 0.7713 2.1317
-6.6636 0.5337 2.1317
-6.6804 0.2952 2.1317
-6.6884 0.0562 2.1317
-6.6874 -0.1830 2.1317
-6.6776 -0.4220 2.1318
-6.6588 -0.6606 2.1318
-6.6311 -0.8982 2.1318
-6.6083 -1.1370 2.1362
-6.5493 -1.3696 2.1318
-6.4953 -1.6027 2.1318
-6.4701 -1.8442 2.1442
-6.4858 -2.1021 2.1735
-6.5077 -2.3695 2.2085
-6.4932 -2.6308 2.2348
-6.3924 -2.8601 2.2348
-6.2831 -3.0855 2.2348
-6.1656 -3.3065 2.2348
-6.0400 -3.5228 2.2348
-5.9065 -3.7343 2.2348
-5.7653 -3.9405 2.2348
-5.6167 -4.1412 2.2348
-5.4608 -4.3361 2.2348
-5.2979 -4.5250 2.2348
-5.1282 -4.7076 2.2348
-4.9521 -4.8837 2.2348
-4.7696 -5.0529 2.2348
-4.5812 -5.2152 2.2348
-4.3872 -5.3703 2.2348
-4.1877 -5.5180 2.2348
-3.9831 -5.6581 2.2348
-3.7737 -5.7904 2.2348
-3.5598 -5.9148 2.2348
-3.3417 -6.0312 2.2348
-3.1197 -6.1393 2.2348
-2.8941 -6.2392 2.2348
-2.6653 -6.3306 2.2348
-2.4336 -6.4135 2.2348
-2.1993 -6.4878 2.2348
-1.9627 -6.5534 2.2348
-1.7242 -6.6103 2.2348
-1.4841 -6.6584 2.2348
-1.2427 -6.6978 2.2348
-1.0004 -6.7283 2.2348
-0.7574 -6.7499 2.2348
-0.5141 -6.7628 2.2348
-0.2708 -6.7668 2.2348
-0.0278 -6.2836 2.2348
0.1973 -6.2717 2.2348
0.4216 -6.2517 2.2348
0.6448 -6.2237 2.2348
0.8665 -6.1878 2.2348
1.0865 -6.1440 2.2348
1.2483 -5.8297 2.1385
1.4549 -5.7734 2.1386
1.6537 -5.6911 2.1318
1.8544 -5.6202 2.1318
2.0523 -5.5423 2.1318
2.2470 -5.4575 2.1318
2.4384 -5.3660 2.1318
2.6262 -5.2678 2.1318
2.8102 -5.1632 2.1318
2.9901 -5.0522 2.1318
3.1658 -4.9351 2.1318
3.3370 -4.8120 2.1318
3.5036 -4.6831 2.1318
3.6654 -4.5485 2.1318
3.8222 -4.4085 2.1318
3.9737 -4.2631 2.1318
4.1200 -4.1127 2.1318
4.2607 -3.9575 2.1318
4.3957 -3.7975 2.1318
4.5250 -3.6330 2.1318
4.6483 -3.4643 2.1318
4.7655 -3.2915 2.1318
4.8765 -3.1149 2.1318
4.9811 -2.9346 2.1318
5.0793 -2.7510 2.1318
5.1298 -2.5437 2.1148
5.0770 -2.2935 2.0591
5.2791 -2.1592 2.1096
5.4060 -1.9869 2.1318
5.4706 -1.7896 2.1318
5.5284 -1.5903 2.1318
5.5791 -1.3893 2.1318
5.6229 -1.1867 2.1318
5.6595 -0.9828 2.1318
5.2144 -0.7129 1.9539
5.2315 -0.5239 1.9526
5.7266 -0.3655 2.1318
5.7346 -0.1588 2.1318
5.7354 0.0481 2.1318
5.7291 0.2548 2.1318
5.7156 0.4612 2.1318
5.6950 0.6670 2.1318
5.5143 0.8484 2.0742
5.3743 1.0265 2.0341
5.4710 1.2510 2.0862
5.4903 1.4656 2.1121
5.4856 1.6784 2.1318
5.4229 1.8756 2.1318
5.3533 2.0705 2.1318
5.2770 2.2630 2.1318
5.1940 2.4527 2.1318
5.1044 2.6395 2.1318
5.0084 2.8232 2.1318
4.9060 3.0035 2.1318
4.7973 3.1802 2.1318
4.6824 3.3531 2.1318
4.5616 3.5220 2.1318
4.4348 3.6867 2.1318
4.3024 3.8470 2.1318
4.1643 4.0027 2.1318
4.0207 4.1536 2.1318
3.8719 4.2995 2.1318
3.7179 4.4402 2.1318
3.5590 4.5756 2.1318
3.3952 4.7054 2.1318
3.2269 4.8295 2.1318
3.0542 4.9478 2.1318
2.8772 5.0600 2.1318
2.6963 5.1661 2.1318
2.5115 5.2658 2.1318
0.8483 1.9569 0.7784
2.2345 5.7091 2.2348
2.0302 5.7929 2.2348
1.8228 5.8696 2.2348
1.6126 5.9389 2.2348
1.3999 6.0008 2.2348
1.1848 6.0552 2.2348
0.9677 6.1021 2.2348
0.7488 6.1412 2.2348
0.5284 6.1726 2.2348
0.3067 6.1961 2.2348
0.0840 6.2117 2.2348
-0.1393 6.2194 2.2348
-0.3631 6.2192 2.2348
-0.5870 6.2109 2.2348
-0.8107 6.1946 2.2348
-1.0340 6.1702 2.2348
-1.2565 6.1378 2.2348
-1.4780 6.0974 2.2348
-1.6982 6.0490 2.2348
-1.9167 5.9926 2.2348
-2.1334 5.9283 2.2348
-2.3479 5.8561 2.2348
-0.8673 1.9569 0.7571
-0.9370 1.9249 0.7562
-2.9752 5.5931 2.2348
-3.1779 5.4902 2.2348
-3.3770 5.3799 2.2348
-3.5723 5.2623 2.2348
-3.7633 5.1375 2.2348
-3.9498 5.0057 2.2348
-4.1316 4.8670 2.2348
-4.3084 4.7216 2.2348
-4.4799 4.5697 2.2348
-4.6459 4.4114 2.2348
-4.8062 4.2470 2.2348
-4.9605 4.0767 2.2348
-5.1085 3.9007 2.2348
-5.2501 3.7191 2.2348
-5.3850 3.5323 2.2348
-5.5131 3.3405 2.2348
-5.6341 3.1440 2.2348
-5.7479 2.9430 2.2348
-5.8542 2.7377 2.2348
-5.9529 2.5286 2.2348
-6.0439 2.3158 2.2348
-6.1065 2.0926 2.2274
-6.1276 1.8578 2.2080
-6.1484 1.6265 2.1919
-6.1696 1.3982 2.1790
-6.1923 1.1723 2.1698
-6.2142 0.9478 2.1632
-6.2353 0.7240 2.1594
-6.2557 0.5006 2.1581
-6.2755 0.2769 2.1595
-6.2946 0.0526 2.1636
-6.3132 -0.1730 2.1703
-6.3312 -0.4003 2.1797
-6.3513 -0.6301 2.1928
-6.3723 -0.8632 2.2092
-6.3936 -1.1000 2.2289
-6.3667 -1.3313 2.2348
-6.3142 -1.5578 2.2348
-6.2534 -1.7821 2.2348
-6.1843 -2.0040 2.2348
-6.1070 -2.2231 2.2348
-6.0216 -2.4392 2.2348
-5.9283 -2.6519 2.2348
-5.8272 -2.8608 2.2348
-5.7184 -3.0658 2.2348
-5.6021 -3.2665 2.2348
-5.4786 -3.4627 2.2348
-5.3479 -3.6541 2.2348
-5.2103 -3.8404 2.2348
-5.0660 -4.0214 2.2348
-4.9152 -4.1968 2.2348
-4.7581 -4.3663 2.2348
-4.5950 -4.5299 2.2348
-4.4261 -4.6872 2.2348
-4.2517 -4.8380 2.2348
-4.0719 -4.9822 2.2348
-3.8871 -5.1195 2.2348
-3.6976 -5.2499 2.2348
-3.5035 -5.3731 2.2348
-3.3053 -5.4890 2.2348
-3.1031 -5.5974 2.2348
-2.8974 -5.6982 2.2348
-2.6883 -5.7913 2.2348
-2.4761 -5.8767 2.2348
-2.2612 -5.9542 2.2348
-2.0439 -6.0237 2.2348
-1.8244 -6.0851 2.2348
-1.6031 -6.1385 2.2348
-1.3802 -6.1838 2.2348
-1.1562 -6.2208 2.2348
-0.9311 -6.2498 2.2348
-0.7055 -6.2705 2.2348
-0.4795 -6.2830 2.2348
-0.2535 -6.2874 2.2348
-0.0278 -5.8620 2.2348
0.1822 -5.8514 2.2348
0.3915 -5.8333 2.2348
0.5998 -5.8076 2.2348
0.8068 -5.7746 2.2348
1.0122 -5.7342 2.2348
1.2158 -5.6866 2.2348
1.3519 -5.3719 2.1318
1.5419 -5.3128 2.1318
1.7295 -5.2471 2.1318
1.9144 -5.1748 2.1318
2.0964 -5.0960 2.1318
2.2752 -5.0109 2.1318
2.4508 -4.9197 2.1318
2.6228 -4.8223 2.1318
2.7910 -4.7191 2.1318
2.9553 -4.6100 2.1318
3.1155 -4.4954 2.1318
3.2714 -4.3752 2.1318
3.4228 -4.2498 2.1318
3.5695 -4.1193 2.1318
3.7114 -3.9838 2.1318
3.8483 -3.8435 2.1318
3.9800 -3.6986 2.1318
4.1065 -3.5493 2.1318
4.2275 -3.3958 2.1318
4.3430 -3.2383 2.1318
4.4528 -3.0770 2.1318
4.5568 -2.9120 2.1318
4.6548 -2.7436 2.1318
4.7469 -2.5721 2.1318
4.8328 -2.3975 2.1318
4.9126 -2.2202 2.1318
4.9860 -2.0403 2.1318
5.0531 -1.8580 2.1318
5.1138 -1.6737 2.1318
5.1679 -1.4874 2.1318
5.2156 -1.2994 2.1318
5.2566 -1.1100 2.1318
5.2910 -0.9193 2.1318
5.2206 -0.7142 2.0924
5.2377 -0.5249 2.0910
5.3540 -0.3421 2.1318
5.3616 -0.1487 2.1318
5.3625 0.0447 2.1318
5.3566 0.2381 2.1318
5.3440 0.4311 2.1318
5.3247 0.6236 2.1318
5.2987 0.8153 2.1318
5.2661 1.0059 2.1318
5.2269 1.1953 2.1318
5.1811 1.3833 2.1318
5.1288 1.5695 2.1318
5.0700 1.7539 2.1318
5.0048 1.9362 2.1318
4.9334 2.1161 2.1318
4.8556 2.2935 2.1318
4.7717 2.4681 2.1318
4.6818 2.6398 2.1318
4.5859 2.8083 2.1318
4.4841 2.9735 2.1318
4.3766 3.1351 2.1318
4.2634 3.2929 2.1318
4.1447 3.4468 2.1318
4.0207 3.5965 2.1318
3.8914 3.7419 2.1318
3.7570 3.8827 2.1318
3.6177 4.0189 2.1318
3.4736 4.1502 2.1318
3.3248 4.2765 2.1318
3.1716 4.3976 2.1318
3.0141 4.5134 2.1318
2.8525 4.6236 2.1318
2.6870 4.7282 2.1318
2.5177 4.8270 2.1318
0.8560 1.7961 0.7782
0.7910 1.8260 0.7775
0.7249 1.8536 0.7767
0.6578 1.8787 0.7759
0.5899 1.9015 0.7751
0.5212 1.9218 0.7743
0.4518 1.9396 0.7735
0.3819 1.9549 0.7726
0.9018 5.6979 2.2348
0.6973 5.7340 2.2348
0.4915 5.7628 2.2348
0.2845 5.7843 2.2348
0.0766 5.7984 2.2348
-0.1319 5.8051 2.2348
-0.3407 5.8044 2.2348
-0.5496 5.7962 2.2348
-0.7584 5.7805 2.2348
-0.9666 5.7573 2.2348
-0.4009 1.9549 0.7629
-0.4708 1.9396 0.7620
-0.5402 1.9218 0.7611
-0.6089 1.9015 0.7603
-0.6768 1.8788 0.7594
-0.7438 1.8536 0.7585
-0.8099 1.8260 0.7576
-0.8750 1.7961 0.7568
-0.9390 1.7639 0.7559
-2.9648 5.1185 2.2348
-3.1502 5.0153 2.2348
-3.3319 4.9052 2.2348
-3.5097 4.7885 2.2348
-3.6833 4.6653 2.2348
-3.8525 4.5357 2.2348
-4.0169 4.3999 2.2348
-4.1765 4.2580 2.2348
-4.3309 4.1102 2.2348
-4.4799 3.9568 2.2348
-4.6233 3.7978 2.2348
-4.7610 3.6336 2.2348
-4.8926 3.4643 2.2348
-5.0180 3.2901 2.2348
-5.1370 3.1112 2.2348
-5.2494 2.9280 2.2348
-5.3551 2.7406 2.2348
-5.4538 2.5494 2.2348
-5.5455 2.3545 2.2348
-5.6300 2.1562 2.2348
-5.7071 1.9548 2.2348
-5.7768 1.7506 2.2348
-5.8389 1.5439 2.2348
-5.8933 1.3349 2.2348
-5.9400 1.1240 2.2348
-5.9789 0.9113 2.2348
-6.0098 0.6974 2.2348
-6.0328 0.4823 2.2348
-6.0479 0.2665 2.2348
-6.0549 0.0503 2.2348
-6.0539 -0.1661 2.2348
-6.0448 -0.3823 2.2348
-6.0278 -0.5981 2.2348
-6.0027 -0.8131 2.2348
-5.9697 -1.0270 2.2348
-5.9288 -1.2396 2.2348
-5.8800 -1.4504 2.2348
-5.8234 -1.6593 2.2348
-5.7592 -1.8659 2.2348
-5.6873 -2.0699 2.2348
-5.6079 -2.2711 2.2348
-5.5212 -2.4692 2.2348
-5.4272 -2.6638 2.2348
-5.3261 -2.8547 2.2348
-5.2180 -3.0417 2.2348
-5.1032 -3.2245 2.2348
-4.9817 -3.4028 2.2348
-4.8538 -3.5764 2.2348
-4.7196 -3.7451 2.2348
-4.5794 -3.9086 2.2348
-4.4333 -4.0668 2.2348
-4.2816 -4.2193 2.2348
-4.1245 -4.3660 2.2348
-3.9622 -4.5068 2.2348
-3.7950 -4.6414 2.2348
-3.6231 -4.7696 2.2348
-3.4467 -4.8913 2.2348
-3.2662 -5.0064 2.2348
-3.0817 -5.1147 2.2348
-2.8935 -5.2161 2.2348
-2.7020 -5.3105 2.2348
-2.5073 -5.3977 2.2348
-2.3097 -5.4776 2.2348
-2.1096 -5.5502 2.2348
-1.9071 -5.6154 2.2348
-1.7027 -5.6732 2.2348
-1.4965 -5.7234 2.2348
-1.2888 -5.7660 2.2348
-1.0800 -5.8011 2.2348
-0.8702 -5.8285 2.2348
-0.6598 -5.8483 2.2348
-0.4491 -5.8605 2.2348
-0.2384 -5.8651 2.2348
-0.0278 -5.4875 2.2348
0.1688 -5.4780 2.2348
0.3648 -5.4614 2.2348
0.5598 -5.4378 2.2348
0.7536 -5.4073 2.2348
0.9460 -5.3699 2.2348
1.1368 -5.3256 2.2348
1.2992 -5.1696 2.1904
1.4425 -4.9764 2.1318
1.6183 -4.9152 2.1318
1.7916 -4.8478 2.1318
1.9623 -4.7743 2.1318
2.1300 -4.6950 2.1318
2.2946 -4.6098 2.1318
2.4560 -4.5189 2.1318
2.6138 -4.4224 2.1318
2.7679 -4.3205 2.1318
2.9182 -4.2133 2.1318
3.0645 -4.1010 2.1318
3.2066 -3.9837 2.1318
3.3443 -3.8616 2.1318
3.4775 -3.7348 2.1318
3.6061 -3.6035 2.1318
3.7298 -3.4678 2.1318
3.8486 -3.3281 2.1318
3.9623 -3.1843 2.1318
4.0707 -3.0368 2.1318
4.1739 -2.8856 2.1318
4.2716 -2.7311 2.1318
4.3638 -2.5733 2.1318
4.4503 -2.4125 2.1318
4.5311 -2.2489 2.1318
4.6061 -2.0826 2.1318
4.6751 -1.9140 2.1318
4.7382 -1.7431 2.1318
4.7953 -1.5702 2.1318
4.8462 -1.3955 2.1318
4.8910 -1.2192 2.1318
4.9296 -1.0415 2.1318
4.9620 -0.8627 2.1318
4.9881 -0.6828 2.1318
5.0079 -0.5023 2.1318
5.0214 -0.3212 2.1318
5.0286 -0.1398 2.1318
5.0295 0.0418 2.1318
5.0240 0.2232 2.1318
5.0122 0.4043 2.1318
4.9941 0.5848 2.1318
4.9698 0.7647 2.1318
4.9391 0.9435 2.1318
4.9023 1.1212 2.1318
4.8593 1.2976 2.1318
4.8102 1.4723 2.1318
4.7550 1.6453 2.1318
4.6938 1.8162 2.1318
4.6266 1.9850 2.1318
4.5536 2.1514 2.1318
4.4748 2.3152 2.1318
4.3903 2.4762 2.1318
4.3002 2.6342 2.1318
4.2047 2.7890 2.1318
4.1037 2.9405 2.1318
3.9974 3.0884 2.1318
3.8859 3.2326 2.1318
3.7694 3.3729 2.1318
3.6480 3.5092 2.1318
3.5218 3.6411 2.1318
3.3910 3.7687 2.1318
3.2557 3.8917 2.1318
3.1160 4.0099 2.1318
2.9722 4.1232 2.1318
2.8244 4.2315 2.1318
2.6727 4.3347 2.1318
2.5174 4.4325 2.1318
0.8608 1.6515 0.7780
0.8009 1.6817 0.7774
0.7400 1.7097 0.7766
0.6781 1.7355 0.7759
0.6153 1.7590 0.7752
0.5518 1.7803 0.7744
0.4874 1.7993 0.7737
0.4225 1.8160 0.7729
0.3570 1.8304 0.7721
0.2910 1.8423 0.7713
0.2246 1.8519 0.7705
0.1580 1.8591 0.7697
0.0911 1.8640 0.7689
0.0241 1.8664 0.7680
-0.0430 1.8664 0.7672
-0.1100 1.8640 0.7664
-0.1769 1.8591 0.7655
-0.2436 1.8519 0.7647
-0.3099 1.8423 0.7639
-0.3759 1.8304 0.7630
-0.4414 1.8160 0.7622
-0.5064 1.7994 0.7614
-0.5707 1.7804 0.7605
-0.6343 1.7591 0.7597
-0.6971 1.7355 0.7589
-0.7590 1.7097 0.7581
-0.8199 1.6817 0.7573
-0.8798 1.6515 0.7565
-0.9386 1.6192 0.7557
-2.9489 4.6917 2.2348
-3.1187 4.5884 2.2348
-3.2848 4.4789 2.2348
-3.4469 4.3634 2.2348
-3.6049 4.2419 2.2348
-3.7585 4.1146 2.2348
-3.9075 3.9817 2.2348
-4.0516 3.8432 2.2348
-4.1907 3.6995 2.2348
-4.3246 3.5507 2.2348
-4.4530 3.3969 2.2348
-4.5758 3.2384 2.2348
-4.6928 3.0754 2.2348
-4.8038 2.9081 2.2348
-4.9087 2.7367 2.2348
-5.0072 2.5614 2.2348
-5.0993 2.3825 2.2348
-5.1847 2.2003 2.2348
-5.2635 2.0149 2.2348
-5.3354 1.8266 2.2348
-5.4003 1.6357 2.2348
-5.4582 1.4425 2.2348
-5.5089 1.2472 2.2348
-5.5524 1.0500 2.2348
-5.5886 0.8513 2.2348
-5.6174 0.6514 2.2348
-5.6388 0.4504 2.2348
-5.6527 0.2488 2.2348
-5.6592 0.0468 2.2348
-5.6582 -0.1554 2.2348
-5.6497 -0.3575 2.2348
-5.6337 -0.5591 2.2348
-5.6103 -0.7600 2.2348
-5.5795 -0.9598 2.2348
-5.5413 -1.1584 2.2348
-5.4957 -1.3554 2.2348
-5.4429 -1.5506 2.2348
-5.3829 -1.7437 2.2348
-5.3159 -1.9343 2.2348
-5.2418 -2.1224 2.2348
-5.1608 -2.3075 2.2348
-5.0731 -2.4894 2.2348
-4.9788 -2.6679 2.2348
-4.8780 -2.8427 2.2348
-4.7708 -3.0136 2.2348
-4.6574 -3.1803 2.2348
-4.5380 -3.3427 2.2348
-4.4128 -3.5005 2.2348
-4.2820 -3.6535 2.2348
-4.1456 -3.8014 2.2348
-4.0040 -3.9442 2.2348
-3.8573 -4.0815 2.2348
-3.7058 -4.2133 2.2348
-3.5497 -4.3394 2.2348
-3.3892 -4.4595 2.2348
-3.2244 -4.5736 2.2348
-3.0558 -4.6815 2.2348
-2.8835 -4.7830 2.2348
-2.7077 -4.8781 2.2348
-2.5287 -4.9667 2.2348
-2.3468 -5.0485 2.2348
-2.1621 -5.1236 2.2348
-1.9751 -5.1919 2.2348
-1.7859 -5.2533 2.2348
-1.5947 -5.3076 2.2348
-1.4019 -5.3550 2.2348
-1.2077 -5.3953 2.2348
-1.0123 -5.4285 2.2348
-0.8161 -5.4545 2.2348
-0.6193 -5.4735 2.2348
-0.4221 -5.4853 2.2348
-0.2249 -5.4899 2.2348
-0.0278 -5.1522 2.2348
0.1568 -5.1436 2.2348
0.3408 -5.1284 2.2348
0.5240 -5.1066 2.2348
0.7061 -5.0783 2.2348
0.8868 -5.0435 2.2348
1.0660 -5.0023 2.2348
1.2435 -4.9547 2.2348
1.3548 -4.6795 2.1339
1.5187 -4.6176 2.1318
1.6816 -4.5546 2.1318
1.8420 -4.4859 2.1318
1.9997 -4.4116 2.1318
2.1546 -4.3318 2.1318
2.3063 -4.2467 2.1318
2.4548 -4.1563 2.1318
2.5998 -4.0608 2.1318
2.7412 -3.9603 2.1318
2.8789 -3.8549 2.1318
3.0126 -3.7449 2.1318
3.1422 -3.6303 2.1318
3.2676 -3.5113 2.1318
3.3886 -3.3880 2.1318
3.5052 -3.2606 2.1318
3.6170 -3.1294 2.1318
3.7241 -2.9944 2.1318
3.8262 -2.8558 2.1318
3.9234 -2.7138 2.1318
4.0155 -2.5685 2.1318
4.1023 -2.4203 2.1318
4.1839 -2.2691 2.1318
4.2600 -2.1153 2.1318
4.3307 -1.9590 2.1318
4.3958 -1.8004 2.1318
4.4552 -1.6398 2.1318
4.5090 -1.4772 2.1318
4.5571 -1.3129 2.1318
4.5993 -1.1471 2.1318
4.6358 -0.9800 2.1318
4.6663 -0.8117 2.1318
4.6909 -0.6426 2.1318
4.7097 -0.4727 2.1318
4.7224 -0.3024 2.1318
4.7292 -0.1317 2.1318
4.7301 0.0391 2.1318
4.7250 0.2097 2.1318
4.7139 0.3801 2.1318
4.6969 0.5500 2.1318
4.6740 0.7192 2.1318
4.6452 0.8875 2.1318
4.6105 1.0546 2.1318
4.5700 1.2205 2.1318
4.5237 1.3849 2.1318
4.4718 1.5476 2.1318
4.4141 1.7084 2.1318
4.3509 1.8672 2.1318
4.2821 2.0237 2.1318
4.2079 2.1777 2.1318
4.1283 2.3291 2.1318
4.0435 2.4777 2.1318
3.9535 2.6232 2.1318
3.8584 2.7657 2.1318
3.7583 2.9047 2.1318
3.6533 3.0403 2.1318
3.5436 3.1721 2.1318
3.4293 3.3001 2.1318
3.3105 3.4241 2.1318
3.1874 3.5439 2.1318
3.0600 3.6594 2.1318
2.9285 3.7704 2.1318
2.7932 3.8768 2.1318
2.6540 3.9785 2.1318
2.5113 4.0752 2.1318
0.8630 1.5205 0.7779
0.8078 1.5508 0.7772
0.7516 1.5792 0.7766
0.6944 1.6055 0.7759
0.6362 1.6297 0.7752
0.5773 1.6518 0.7745
0.5176 1.6718 0.7738
0.4572 1.6897 0.7731
0.3962 1.7053 0.7724
0.3346 1.7188 0.7716
0.2727 1.7300 0.7709
0.2104 1.7391 0.7701
0.1478 1.7458 0.7694
0.0849 1.7504 0.7686
0.0220 1.7526 0.7678
-0.0410 1.7526 0.7670
-0.1039 1.7504 0.7663
-0.1667 1.7458 0.7655
-0.2293 1.7391 0.7647
-0.2916 1.7301 0.7639
-0.3536 1.7188 0.7631
-0.4151 1.7054 0.7623
-0.4761 1.6897 0.7615
-0.5365 1.6719 0.7608
-0.5962 1.6519 0.7600
-0.6552 1.6297 0.7592
-0.7133 1.6055 0.7585
-0.7705 1.5792 0.7577
-0.8268 1.5509 0.7570
-0.8820 1.5205 0.7562
-0.9360 1.4882 0.7555
-0.9889 1.4540 0.7548
-3.0837 4.2022 2.2348
-3.2356 4.0935 2.2348
-3.3837 3.9793 2.2348
-3.5275 3.8596 2.2348
-3.6671 3.7347 2.2348
-3.8021 3.6047 2.2348
-3.9324 3.4697 2.2348
-4.0577 3.3299 2.2348
-4.1780 3.1856 2.2348
-4.2929 3.0368 2.2348
-4.4024 2.8837 2.2348
-4.5063 2.7267 2.2348
-4.6044 2.5659 2.2348
-4.6966 2.4014 2.2348
-4.7828 2.2336 2.2348
-4.8627 2.0627 2.2348
-4.9364 1.8888 2.2348
-5.0036 1.7122 2.2348
-5.0644 1.5332 2.2348
-5.1185 1.3520 2.2348
-5.1659 1.1689 2.2348
-5.2065 0.9840 2.2348
-5.2403 0.7978 2.2348
-5.2672 0.6103 2.2348
-5.2872 0.4220 2.2348
-5.3002 0.2330 2.2348
-5.3062 0.0436 2.2348
-5.3052 -0.1459 2.2348
-5.2972 -0.3353 2.2348
-5.2822 -0.5243 2.2348
-5.2603 -0.7125 2.2348
-5.2314 -0.8999 2.2348
-5.1956 -1.0860 2.2348
-5.1529 -1.2707 2.2348
-5.1035 -1.4537 2.2348
-5.0473 -1.6346 2.2348
-4.9845 -1.8134 2.2348
-4.9152 -1.9896 2.2348
-4.8394 -2.1632 2.2348
-4.7573 -2.3338 2.2348
-4.6689 -2.5011 2.2348
-4.5745 -2.6651 2.2348
-4.4742 -2.8254 2.2348
-4.3680 -2.9818 2.2348
-4.2563 -3.1341 2.2348
-4.1390 -3.2822 2.2348
-4.0164 -3.4257 2.2348
-3.8888 -3.5646 2.2348
-3.7561 -3.6986 2.2348
-3.6188 -3.8275 2.2348
-3.4769 -3.9513 2.2348
-3.3306 -4.0697 2.2348
-3.1802 -4.1825 2.2348
-3.0259 -4.2897 2.2348
-2.8679 -4.3911 2.2348
-2.7064 -4.4866 2.2348
-2.5416 -4.5761 2.2348
-2.3739 -4.6594 2.2348
-2.2033 -4.7365 2.2348
-2.0302 -4.8072 2.2348
-1.8549 -4.8716 2.2348
-1.6774 -4.9294 2.2348
-1.4981 -4.9808 2.2348
-1.3173 -5.0255 2.2348
-1.1351 -5.0637 2.2348
-0.9518 -5.0951 2.2348
-0.7677 -5.1199 2.2348
-0.5830 -5.1380 2.2348
-0.3980 -5.1495 2.2348
-0.2128 -5.1542 2.2348
-0.0278 -4.8500 2.2348
0.1460 -4.8423 2.2348
0.3192 -4.8282 2.2348
0.4917 -4.8080 2.2348
0.6632 -4.7816 2.2348
0.8334 -4.7491 2.2348
1.0022 -4.7106 2.2348
1.1694 -4.6661 2.2348
1.3347 -4.6157 2.2348
1.4288 -4.3492 2.1318
1.5873 -4.3034 2.1384
1.7335 -4.2256 2.1318
1.8822 -4.1559 2.1318
2.0281 -4.0809 2.1318
2.1712 -4.0009 2.1318
2.3112 -3.9160 2.1318
2.4480 -3.8262 2.1318
2.5814 -3.7317 2.1318
2.7112 -3.6326 2.1318
2.8373 -3.5291 2.1318
2.9597 -3.4213 2.1318
3.0780 -3.3093 2.1318
3.1922 -3.1933 2.1318
3.3021 -3.0734 2.1318
3.4077 -2.9498 2.1318
3.5088 -2.8227 2.1318
3.6052 -2.6921 2.1318
3.6970 -2.5584 2.1318
3.7839 -2.4216 2.1318
3.8659 -2.2819 2.1318
3.9429 -2.1395 2.1318
4.0148 -1.9945 2.1318
4.0816 -1.8472 2.1318
4.1431 -1.6978 2.1318
4.1993 -1.5463 2.1318
4.2501 -1.3931 2.1318
4.2955 -1.2382 2.1318
4.3355 -1.0819 2.1318
4.3699 -0.9243 2.1318
4.3988 -0.7657 2.1318
4.4221 -0.6062 2.1318
4.4398 -0.4460 2.1318
4.4519 -0.2854 2.1318
4.4584 -0.1244 2.1318
4.4592 0.0366 2.1318
4.4544 0.1976 2.1318
4.4440 0.3583 2.1318
4.4280 0.5185 2.1318
4.4063 0.6780 2.1318
4.3792 0.8367 2.1318
4.3465 0.9944 2.1318
4.3082 1.1508 2.1318
4.2646 1.3058 2.1318
4.2155 1.4592 2.1318
4.1611 1.6109 2.1318
4.1014 1.7606 2.1318
4.0365 1.9081 2.1318
3.9665 2.0533 2.1318
3.8914 2.1960 2.1318
3.8112 2.3361 2.1318
3.7263 2.4733 2.1318
3.6365 2.6075 2.1318
3.5420 2.7385 2.1318
3.4430 2.8662 2.1318
3.3394 2.9905 2.1318
3.2316 3.1110 2.1318
3.1195 3.2278 2.1318
3.0032 3.3406 2.1318
2.8830 3.4494 2.1318
2.7590 3.5539 2.1318
2.6313 3.6541 2.1318
2.5001 3.7497 2.1318
0.8629 1.4011 0.7776
0.8120 1.4315 0.7771
0.7600 1.4601 0.7765
0.7071 1.4867 0.7759
0.6532 1.5115 0.7752
0.5985 1.5343 0.7746
0.5430 1.5552 0.7739
0.4867 1.5740 0.7733
0.4299 1.5908 0.7726
0.3724 1.6055 0.7719
0.3145 1.6182 0.7712
0.2562 1.6288 0.7705
0.1975 1.6373 0.7698
0.1386 1.6437 0.7691
0.0794 1.6479 0.7684
0.0202 1.6501 0.7676
-0.0391 1.6501 0.7669
-0.0984 1.6479 0.7662
-0.1575 1.6437 0.7654
-0.2165 1.6373 0.7647
-0.2751 1.6288 0.7639
-0.3335 1.6182 0.7632
-0.3914 1.6056 0.7624
-0.4488 1.5908 0.7617
-0.5057 1.5740 0.7610
-0.5619 1.5552 0.7602
-0.6174 1.5344 0.7595
-0.6722 1.5115 0.7588
-0.7260 1.4868 0.7581
-0.7790 1.4601 0.7574
-0.8309 1.4315 0.7567
-0.8818 1.4011 0.7560
-0.9316 1.3689 0.7553
-0.9802 1.3349 0.7547
-3.0454 3.8506 2.2348
-3.1845 3.7430 2.2348
-3.3197 3.6302 2.2348
-3.4508 3.5125 2.2348
-3.5776 3.3901 2.2348
-3.6999 3.2629 2.2348
-3.8177 3.1313 2.2348
-3.9306 2.9954 2.2348
-4.0385 2.8554 2.2348
-4.1413 2.7114 2.2348
-4.2388 2.5636 2.2348
-4.3309 2.4123 2.2348
-4.4174 2.2576 2.2348
-4.4983 2.0997 2.2348
-4.5733 1.9390 2.2348
-4.6424 1.7754 2.2348
-4.7055 1.6094 2.2348
-4.7624 1.4411 2.2348
-4.8132 1.2707 2.2348
-4.8576 1.0985 2.2348
-4.8957 0.9248 2.2348
-4.9274 0.7496 2.2348
-4.9526 0.5735 2.2348
-4.9713 0.3964 2.2348
-4.9834 0.2187 2.2348
-4.9890 0.0407 2.2348
-4.9881 -0.1374 2.2348
-4.9805 -0.3154 2.2348
-4.9664 -0.4930 2.2348
-4.9458 -0.6699 2.2348
-4.9186 -0.8460 2.2348
-4.8850 -1.0210 2.2348
-4.8449 -1.1946 2.2348
-4.7985 -1.3665 2.2348
-4.7457 -1.5367 2.2348
-4.6868 -1.7047 2.2348
-4.6217 -1.8704 2.2348
-4.5505 -2.0335 2.2348
-4.4734 -2.1939 2.2348
-4.3905 -2.3513 2.2348
-4.3018 -2.5055 2.2348
-4.2076 -2.6562 2.2348
-4.1079 -2.8033 2.2348
-4.0030 -2.9466 2.2348
-3.8929 -3.0859 2.2348
-3.7778 -3.2210 2.2348
-3.6579 -3.3516 2.2348
-3.5333 -3.4777 2.2348
-3.4043 -3.5991 2.2348
-3.2710 -3.7156 2.2348
-3.1336 -3.8271 2.2348
-2.9923 -3.9334 2.2348
-2.8473 -4.0344 2.2348
-2.6988 -4.1300 2.2348
-2.5470 -4.2200 2.2348
-2.3922 -4.3043 2.2348
-2.2345 -4.3829 2.2348
-2.0742 -4.4556 2.2348
-1.9115 -4.5224 2.2348
-1.7466 -4.5832 2.2348
-1.5798 -4.6379 2.2348
-1.4112 -4.6865 2.2348
-1.2411 -4.7288 2.2348
-1.0697 -4.7650 2.2348
-0.8973 -4.7949 2.2348
-0.7241 -4.8185 2.2348
-0.5503 -4.8358 2.2348
-0.3762 -4.8469 2.2348
-0.2020 -4.8516 2.2348
-0.0278 -4.5760 2.2348
0.1362 -4.5689 2.2348
0.2997 -4.5559 2.2348
0.4624 -4.5371 2.2348
0.6242 -4.5124 2.2348
0.7849 -4.4820 2.2348
0.9443 -4.4459 2.2348
1.1021 -4.4042 2.2348
1.2582 -4.3568 2.2348
1.3847 -4.2197 2.1910
1.4922 -4.0499 2.1318
1.6350 -3.9893 2.1318
1.7754 -3.9236 2.1318
1.9133 -3.8531 2.1318
2.0485 -3.7777 2.1318
2.1808 -3.6977 2.1318
2.3100 -3.6131 2.1318
2.4361 -3.5241 2.1318
2.5589 -3.4307 2.1318
2.6781 -3.3331 2.1318
2.7937 -3.2314 2.1318
2.9056 -3.1258 2.1318
3.0136 -3.0163 2.1318
3.1176 -2.9032 2.1318
3.2174 -2.7866 2.1318
3.3130 -2.6666 2.1318
3.4043 -2.5434 2.1318
3.4911 -2.4171 2.1318
3.5733 -2.2879 2.1318
3.6509 -2.1560 2.1318
3.7238 -2.0216 2.1318
3.7918 -1.8847 2.1318
3.8550 -1.7456 2.1318
3.9132 -1.6044 2.1318
3.9664 -1.4613 2.1318
4.0146 -1.3165 2.1318
4.0576 -1.1702 2.1318
4.0954 -1.0225 2.1318
4.1280 -0.8736 2.1318
4.1554 -0.7237 2.1318
4.1775 -0.5730 2.1318
4.1942 -0.4217 2.1318
4.2057 -0.2699 2.1318
4.2119 -0.1178 2.1318
4.2127 0.0344 2.1318
4.2082 0.1865 2.1318
4.1984 0.3384 2.1318
4.1832 0.4898 2.1318
4.1628 0.6406 2.1318
4.1371 0.7905 2.1318
4.1062 0.9395 2.1318
4.0700 1.0874 2.1318
4.0287 1.2339 2.1318
3.9823 1.3788 2.1318
3.9309 1.5221 2.1318
3.8744 1.6635 2.1318
3.8130 1.8029 2.1318
3.7468 1.9401 2.1318
3.6757 2.0750 2.1318
3.6000 2.2073 2.1318
3.5196 2.3369 2.1318
3.4347 2.4636 2.1318
3.3453 2.5874 2.1318
3.2516 2.7080 2.1318
3.1537 2.8253 2.1318
3.0517 2.9391 2.1318
2.9457 3.0493 2.1318
2.8358 3.1558 2.1318
2.7222 3.2584 2.1318
2.6049 3.3571 2.1318
0.9066 1.2596 0.7779
0.8607 1.2917 0.7774
0.8137 1.3221 0.7769
0.7657 1.3508 0.7764
0.7167 1.3777 0.7758
0.6667 1.4029 0.7752
0.6159 1.4263 0.7746
0.5642 1.4478 0.7740
0.5119 1.4675 0.7734
0.4588 1.4852 0.7728
0.4051 1.5011 0.7721
0.3509 1.5150 0.7715
0.2963 1.5270 0.7708
0.2412 1.5370 0.7702
0.1858 1.5450 0.7695
0.1302 1.5510 0.7688
0.0744 1.5550 0.7681
0.0185 1.5570 0.7674
-0.0375 1.5570 0.7668
-0.0934 1.5550 0.7661
-0.1492 1.5510 0.7654
-0.2048 1.5450 0.7647
-0.2602 1.5370 0.7640
-0.3152 1.5270 0.7633
-0.3699 1.5150 0.7626
-0.4241 1.5011 0.7619
-0.4777 1.4853 0.7612
-0.5308 1.4675 0.7605
-0.5832 1.4478 0.7598
-0.6348 1.4263 0.7591
-0.6857 1.4029 0.7585
-0.7356 1.3778 0.7578
-0.7846 1.3508 0.7571
-0.8327 1.3221 0.7565
-0.8797 1.2917 0.7559
-0.9255 1.2596 0.7552
-0.9702 1.2259 0.7546
-3.0042 3.5289 2.2348
-3.1315 3.4225 2.2348
-3.2550 3.3114 2.2348
-3.3744 3.1958 2.2348
-3.4896 3.0758 2.2348
-3.6004 2.9516 2.2348
-3.7066 2.8234 2.2348
-3.8082 2.6912 2.2348
-3.9050 2.5554 2.2348
-3.9967 2.4160 2.2348
-4.0834 2.2733 2.2348
-4.1648 2.1275 2.2348
-4.2409 1.9786 2.2348
-4.3114 1.8270 2.2348
-4.3764 1.6729 2.2348
-4.4358 1.5164 2.2348
-4.4893 1.3577 2.2348
-4.5370 1.1972 2.2348
-4.5788 1.0349 2.2348
-4.6146 0.8711 2.2348
-4.6444 0.7061 2.2348
-4.6681 0.5401 2.2348
-4.6856 0.3733 2.2348
-4.6970 0.2059 2.2348
-4.7023 0.0382 2.2348
-4.7013 -0.1297 2.2348
-4.6942 -0.2974 2.2348
-4.6809 -0.4647 2.2348
-4.6614 -0.6314 2.2348
-4.6358 -0.7973 2.2348
-4.6042 -0.9622 2.2348
-4.5664 -1.1257 2.2348
-4.5227 -1.2878 2.2348
-4.4731 -1.4481 2.2348
-4.4176 -1.6064 2.2348
-4.3563 -1.7625 2.2348
-4.2893 -1.9163 2.2348
-4.2167 -2.0675 2.2348
-4.1386 -2.2158 2.2348
-4.0552 -2.3611 2.2348
-3.9665 -2.5032 2.2348
-3.8727 -2.6419 2.2348
-3.7739 -2.7770 2.2348
-3.6702 -2.9083 2.2348
-3.5619 -3.0357 2.2348
-3.4490 -3.1590 2.2348
-3.3317 -3.2779 2.2348
-3.2102 -3.3925 2.2348
-3.0846 -3.5024 2.2348
-2.9553 -3.6076 2.2348
-2.8222 -3.7080 2.2348
-2.6856 -3.8033 2.2348
-2.5458 -3.8936 2.2348
-2.4028 -3.9786 2.2348
-2.2569 -4.0583 2.2348
-2.1084 -4.1326 2.2348
-1.9573 -4.2013 2.2348
-1.8040 -4.2645 2.2348
-1.6486 -4.3220 2.2348
-1.4913 -4.3738 2.2348
-1.3324 -4.4198 2.2348
-1.1720 -4.4600 2.2348
-1.0105 -4.4943 2.2348
-0.8479 -4.5228 2.2348
-0.6846 -4.5453 2.2348
-0.5207 -4.5619 2.2348
-0.3565 -4.5725 2.2348
-0.1921 -4.5772 2.2348
-0.0278 -4.3262 2.2348
0.1272 -4.3197 2.2348
0.2818 -4.3076 2.2348
0.4357 -4.2900 2.2348
0.5888 -4.2669 2.2348
0.7407 -4.2384 2.2348
0.8915 -4.2044 2.2348
1.0407 -4.1652 2.2348
1.1884 -4.1206 2.2348
1.3343 -4.0708 2.2348
1.4200 -3.8581 2.1470
0.8893 -2.1720 1.2270
1.6780 -3.7116 2.1318
1.8085 -3.6450 2.1318
1.9364 -3.5740 2.1318
2.0617 -3.4984 2.1318
2.1841 -3.4185 2.1318
2.3035 -3.3344 2.1318
2.4197 -3.2462 2.1318
2.5326 -3.1540 2.1318
2.6421 -3.0579 2.1318
2.7481 -2.9580 2.1318
2.8504 -2.8546 2.1318
2.9489 -2.7477 2.1318
3.0435 -2.6374 2.1318
3.1341 -2.5239 2.1318
3.2206 -2.4074 2.1318
3.3028 -2.2880 2.1318
3.3808 -2.1658 2.1318
3.4543 -2.0410 2.1318
3.5234 -1.9138 2.1318
3.5880 -1.7842 2.1318
3.6478 -1.6526 2.1318
3.7031 -1.5190 2.1318
3.7535 -1.3836 2.1318
3.7991 -1.2465 2.1318
3.8399 -1.1080 2.1318
3.8758 -0.9682 2.1318
3.9067 -0.8273 2.1318
3.9327 -0.6854 2.1318
3.9537 -0.5427 2.1318
3.9696 -0.3994 2.1318
3.9805 -0.2557 2.1318
3.9864 -0.1117 2.1318
3.9872 0.0324 2.1318
3.9829 0.1764 2.1318
3.9737 0.3202 2.1318
3.9593 0.4636 2.1318
3.9400 0.6063 2.1318
3.9157 0.7483 2.1318
3.8864 0.8894 2.1318
3.8521 1.0293 2.1318
3.8130 1.1680 2.1318
3.7690 1.3053 2.1318
3.7203 1.4409 2.1318
3.6668 1.5748 2.1318
3.6086 1.7068 2.1318
3.5458 1.8366 2.1318
3.4785 1.9642 2.1318
3.4067 2.0894 2.1318
3.3306 2.2121 2.1318
3.2501 2.3321 2.1318
3.1654 2.4492 2.1318
3.0767 2.5633 2.1318
2.9839 2.6742 2.1318
2.8873 2.7819 2.1318
2.7868 2.8861 2.1318
2.6827 2.9869 2.1318
2.5751 3.0839 2.1318
0.8989 1.1590 0.7777
0.8567 1.1909 0.7772
0.8133 1.2212 0.7767
0.7689 1.2500 0.7762
0.7235 1.2771 0.7757
0.6771 1.3026 0.7752
0.6299 1.3264 0.7746
0.5818 1.3485 0.7741
0.5330 1.3689 0.7735
0.4834 1.3875 0.7729
0.4333 1.4043 0.7723
0.3825 1.4193 0.7717
0.3313 1.4324 0.7711
0.2796 1.4437 0.7705
0.2276 1.4532 0.7699
0.1752 1.4607 0.7692
0.1226 1.4664 0.7686
0.0698 1.4702 0.7679
0.0170 1.4721 0.7673
-0.0359 1.4721 0.7666
-0.0888 1.4702 0.7660
-0.1416 1.4664 0.7653
-0.1942 1.4608 0.7646
-0.2465 1.4532 0.7640
-0.2986 1.4437 0.7633
-0.3503 1.4324 0.7627
-0.4015 1.4193 0.7620
-0.4522 1.4043 0.7614
-0.5024 1.3875 0.7607
-0.5519 1.3689 0.7601
-0.6008 1.3485 0.7594
-0.6488 1.3264 0.7588
-0.6961 1.3026 0.7582
-0.7424 1.2772 0.7575
-0.7878 1.2500 0.7569
-0.8323 1.2213 0.7563
-0.8756 1.1909 0.7557
-0.9178 1.1591 0.7552
-0.9589 1.1257 0.7546
-2.9601 3.2333 2.2348
-3.0766 3.1282 2.2348
-3.1893 3.0188 2.2348
-3.2980 2.9054 2.2348
-3.4025 2.7879 2.2348
-3.5028 2.6667 2.2348
-3.5986 2.5418 2.2348
-3.6899 2.4134 2.2348
-3.7765 2.2817 2.2348
-3.8582 2.1469 2.2348
-3.9349 2.0090 2.2348
-4.0066 1.8684 2.2348
-4.0732 1.7252 2.2348
-4.1345 1.5796 2.2348
-4.1904 1.4318 2.2348
-4.2409 1.2819 2.2348
-4.2858 1.1303 2.2348
-4.3252 0.9770 2.2348
-4.3589 0.8224 2.2348
-4.3870 0.6665 2.2348
-4.4093 0.5098 2.2348
-4.4258 0.3522 2.2348
-4.4365 0.1942 2.2348
-4.4414 0.0358 2.2348
-4.4405 -0.1226 2.2348
-4.4337 -0.2810 2.2348
-4.4212 -0.4390 2.2348
-4.4028 -0.5964 2.2348
-4.3787 -0.7530 2.2348
-4.3488 -0.9087 2.2348
-4.3132 -1.0631 2.2348
-4.2719 -1.2161 2.2348
-4.2251 -1.3675 2.2348
-4.1727 -1.5170 2.2348
-4.1149 -1.6645 2.2348
-4.0517 -1.8097 2.2348
-3.9832 -1.9524 2.2348
-3.9096 -2.0925 2.2348
-3.8308 -2.2298 2.2348
-3.7472 -2.3640 2.2348
-3.6586 -2.4951 2.2348
-3.5654 -2.6227 2.2348
-3.4676 -2.7468 2.2348
-3.3654 -2.8672 2.2348
-3.2588 -2.9836 2.2348
-3.1482 -3.0961 2.2348
-3.0335 -3.2044 2.2348
-2.9151 -3.3083 2.2348
-2.7929 -3.4078 2.2348
-2.6673 -3.5027 2.2348
-2.5384 -3.5929 2.2348
-2.4064 -3.6783 2.2348
-2.2715 -3.7588 2.2348
-2.1337 -3.8342 2.2348
-1.9935 -3.9046 2.2348
-1.8508 -3.9697 2.2348
-0.9197 -2.1722 1.2047
-1.5593 -4.0841 2.2348
-1.4107 -4.1332 2.2348
-1.2606 -4.1769 2.2348
-1.1092 -4.2151 2.2348
-0.9565 -4.2477 2.2348
-0.8029 -4.2748 2.2348
-0.6486 -4.2963 2.2348
-0.4937 -4.3122 2.2348
-0.3385 -4.3224 2.2348
-0.1831 -4.3271 2.2348
-0.0278 -4.0972 2.2348
0.1190 -4.0912 2.2348
0.2654 -4.0800 2.2348
0.4112 -4.0635 2.2348
0.5562 -4.0418 2.2348
0.3826 -2.1936 1.2210
0.4609 -2.1776 1.2218
0.5385 -2.1586 1.2225
0.6154 -2.1368 1.2232
0.6915 -2.1122 1.2239
0.7665 -2.0848 1.2245
0.8405 -2.0548 1.2250
1.5886 -3.5171 2.1318
1.7123 -3.4542 2.1318
1.8336 -3.3869 2.1318
1.9524 -3.3155 2.1318
2.0685 -3.2399 2.1318
2.1817 -3.1603 2.1318
2.2919 -3.0768 2.1318
2.3991 -2.9896 2.1318
0.9088 -1.0525 0.7740
2.6035 -2.8041 2.1318
2.7006 -2.7061 2.1318
2.7940 -2.6048 2.1318
2.8838 -2.5004 2.1318
2.9698 -2.3929 2.1318
3.0519 -2.2825 2.1318
3.1299 -2.1693 2.1318
3.2039 -2.0535 2.1318
3.2738 -1.9353 2.1318
3.3394 -1.8147 2.1318
3.4006 -1.6920 2.1318
3.4575 -1.5672 2.1318
3.5099 -1.4405 2.1318
3.5578 -1.3121 2.1318
3.6012 -1.1822 2.1318
3.6399 -1.0509 2.1318
3.6740 -0.9183 2.1318
3.7034 -0.7847 2.1318
3.7281 -0.6502 2.1318
3.7480 -0.5149 2.1318
3.7632 -0.3790 2.1318
3.7736 -0.2427 2.1318
3.7791 -0.1061 2.1318
3.7799 0.0305 2.1318
3.7759 0.1671 2.1318
3.7671 0.3035 2.1318
3.7535 0.4394 2.1318
3.7352 0.5748 2.1318
3.7121 0.7095 2.1318
3.6843 0.8433 2.1318
3.6518 0.9760 2.1318
3.6147 1.1075 2.1318
3.5730 1.2377 2.1318
3.5267 1.3663 2.1318
3.4760 1.4932 2.1318
3.4207 1.6184 2.1318
3.3611 1.7415 2.1318
3.2973 1.8625 2.1318
3.2291 1.9812 2.1318
3.1569 2.0975 2.1318
3.0805 2.2112 2.1318
3.0002 2.3221 2.1318
2.9159 2.4303 2.1318
2.8279 2.5354 2.1318
2.7362 2.6375 2.1318
2.6409 2.7362 2.1318
2.5421 2.8316 2.1318
0.8898 1.0662 0.7774
0.8509 1.0978 0.7770
0.8109 1.1279 0.7765
0.7699 1.1567 0.7761
0.7278 1.1839 0.7756
0.6848 1.2096 0.7751
0.6409 1.2337 0.7746
0.5961 1.2563 0.7741
0.5506 1.2772 0.7736
0.5043 1.2965 0.7730
0.4574 1.3141 0.7725
0.4099 1.3300 0.7719
0.3618 1.3442 0.7713
0.3133 1.3567 0.7708
0.2644 1.3674 0.7702
0.2151 1.3764 0.7696
0.1655 1.3835 0.7690
0.1156 1.3889 0.7684
0.0657 1.3925 0.7678
0.0156 1.3943 0.7671
-0.0345 1.3943 0.7665
-0.0846 1.3925 0.7659
-0.1346 1.3889 0.7653
-0.1844 1.3835 0.7646
-0.2340 1.3764 0.7640
-0.2833 1.3674 0.7634
-0.3323 1.3567 0.7628
-0.3808 1.3443 0.7621
-0.4288 1.3301 0.7615
-0.4764 1.3141 0.7609
-0.5233 1.2965 0.7603
-0.5695 1.2773 0.7597
-0.6151 1.2563 0.7591
-0.6598 1.2338 0.7585
-0.7037 1.2096 0.7579
-0.7467 1.1839 0.7573
-0.7888 1.1567 0.7568
-0.8299 1.1280 0.7562
-0.8699 1.0978 0.7557
-0.9088 1.0662 0.7551
-0.9465 1.0332 0.7546
-0.9830 0.9989 0.7541
-3.0199 2.8569 2.2348
-3.1227 2.7494 2.2348
-3.2215 2.6382 2.2348
-3.3163 2.5234 2.2348
-3.4069 2.4051 2.2348
-3.4931 2.2836 2.2348
-3.5749 2.1589 2.2348
-3.6521 2.0312 2.2348
-3.7247 1.9007 2.2348
-3.7924 1.7676 2.2348
-3.8553 1.6321 2.2348
-3.9132 1.4943 2.2348
-3.9660 1.3544 2.2348
-4.0137 1.2126 2.2348
-4.0561 1.0691 2.2348
-4.0933 0.9241 2.2348
-4.1252 0.7778 2.2348
-4.1516 0.6304 2.2348
-4.1727 0.4820 2.2348
-4.1882 0.3330 2.2348
-4.1983 0.1835 2.2348
-4.2030 0.0337 2.2348
-4.2020 -0.1162 2.2348
-4.1956 -0.2660 2.2348
-4.1838 -0.4155 2.2348
-4.1664 -0.5644 2.2348
-4.1435 -0.7126 2.2348
-4.1152 -0.8598 2.2348
-4.0816 -1.0059 2.2348
-4.0426 -1.1506 2.2348
-3.9983 -1.2938 2.2348
-3.9488 -1.4353 2.2348
-3.8941 -1.5748 2.2348
-3.8344 -1.7122 2.2348
-3.7697 -1.8472 2.2348
-3.7001 -1.9798 2.2348
-3.6257 -2.1097 2.2348
