ply
format ascii 1.0
element vertex 2175
property float32 x
property float32 y
property float32 z
end_header
-7.8962 -6.2974 2.1329
-7.6653 -6.5769 2.1329
-7.4244 -6.8479 2.1329
-7.1739 -7.1102 2.1329
-6.9142 -7.3632 2.1329
-6.6456 -7.6068 2.1329
-6.3684 -7.8406 2.1329
-6.3339 -8.3969 2.2209
-6.0699 -8.6782 2.2362
-5.7545 -8.8906 2.2362
-5.4318 -9.0915 2.2362
-5.1020 -9.2807 2.2362
-4.7656 -9.4579 2.2362
-4.4231 -9.6229 2.2362
-4.0748 -9.7755 2.2362
-3.7213 -9.9155 2.2362
-3.3630 -10.0427 2.2362
-3.0004 -10.1570 2.2362
-2.6339 -10.2581 2.2362
-2.2639 -10.3460 2.2362
-1.8911 -10.4206 2.2362
-1.5159 -10.4817 2.2362
-1.1386 -10.5292 2.2362
-0.7599 -10.5633 2.2362
-0.3803 -10.5836 2.2362
-0.0002 -9.5240 2.2362
0.3417 -9.5178 2.2362
0.6831 -9.4992 2.2362
1.0236 -9.4685 2.2362
1.3628 -9.4255 2.2362
1.7002 -9.3703 2.2362
1.9416 -8.8742 2.1331
2.2350 -8.7059 2.1106
1.8974 -6.4239 1.5729
2.1952 -6.5559 1.6235
1.9150 -5.1031 1.2800
3.4945 -8.3841 2.1331
3.7931 -8.2530 2.1331
4.0868 -8.1114 2.1331
4.3752 -7.9592 2.1331
4.6580 -7.7969 2.1331
4.9347 -7.6244 2.1331
5.1442 -7.3552 2.1081
5.4047 -7.1655 2.1081
5.1019 -6.2816 1.9008
5.4875 -6.2815 1.9592
5.8426 -6.2223 2.0050
5.8425 -5.7908 1.9324
5.8423 -5.3890 1.8672
5.8422 -5.0129 1.8085
5.0818 -4.0530 1.5271
5.4737 -4.0529 1.6002
5.9056 -4.0527 1.6828
6.3851 -4.0526 1.7769
6.6871 -3.9148 1.8207
6.6870 -3.5989 1.7844
6.6869 -3.2949 1.7517
6.6868 -3.0016 1.7224
6.9780 -2.8359 1.7701
7.7656 -2.8357 1.9429
8.3049 -2.6989 2.0523
8.7553 -2.5017 2.1401
8.8392 -2.1857 2.1401
8.9116 -1.8669 2.1401
8.9725 -1.5458 2.1401
9.0219 -1.2227 2.1401
9.0597 -0.8980 2.1401
9.0857 -0.5721 2.1401
8.3040 -0.2241 1.9529
8.3040 0.0741 1.9523
6.6857 0.2999 1.5734
6.6856 0.5409 1.5770
6.6855 0.7833 1.5827
6.6855 1.0278 1.5904
6.6854 1.2750 1.6003
7.7413 1.7665 1.8671
6.7445 1.7960 1.6412
6.6201 2.0200 1.6276
6.3747 2.1982 1.5857
6.0157 2.3193 1.5162
5.9453 2.5409 1.5206
5.8399 2.7477 1.5179
5.8701 3.0240 1.5530
5.8437 3.2810 1.5762
5.8700 3.5787 1.6170
5.9028 3.8962 1.6636
7.2192 5.1463 2.0854
7.0811 5.4416 2.1006
6.5787 5.4421 2.0083
5.5723 4.9569 1.7543
5.5934 5.3475 1.8203
5.2056 5.3474 1.7555
4.9313 5.4436 1.7279
4.6669 5.5391 1.7039
5.2491 6.7045 2.0031
5.0560 6.9587 2.0235
4.6828 6.9572 1.9729
4.7896 7.6988 2.1331
4.5101 7.8657 2.1331
4.2248 8.0225 2.1331
3.9340 8.1689 2.1331
3.6382 8.3048 2.1331
3.3377 8.4300 2.1331
3.0329 8.5444 2.1331
2.7243 8.6478 2.1331
2.4121 8.7400 2.1331
2.0968 8.8210 2.1331
1.7788 8.8906 2.1331
1.5290 9.3812 2.2362
1.1912 9.4301 2.2362
0.8519 9.4669 2.2362
0.5115 9.4914 2.2362
0.1705 9.5038 2.2362
-0.1708 9.5039 2.2362
-0.5119 9.4917 2.2362
-0.8523 9.4674 2.2362
-1.1916 9.4308 2.2362
-1.5294 9.3821 2.2362
-1.8652 9.3213 2.2362
-2.1987 9.2485 2.2362
-2.5293 9.1638 2.2362
-2.8567 9.0673 2.2362
-3.1804 8.9591 2.2362
-3.5001 8.8393 2.2362
-3.8152 8.7082 2.2362
-4.1255 8.5658 2.2362
-4.4304 8.4124 2.2362
-4.7297 8.2482 2.2362
-5.0229 8.0733 2.2362
-5.3096 7.8880 2.2362
-5.5895 7.6925 2.2362
-5.8622 7.4872 2.2362
-6.1274 7.2721 2.2362
-6.3390 6.9973 2.2202
-6.3497 6.5224 2.1404
-6.5569 6.2684 2.1329
-6.7779 6.0292 2.1329
-6.9902 5.7822 2.1329
-7.1935 5.5278 2.1329
-7.3876 5.2661 2.1329
-7.5721 4.9977 2.1329
-7.7469 4.7229 2.1329
-7.9117 4.4419 2.1329
-8.0664 4.1552 2.1329
-8.2106 3.8631 2.1329
-8.3443 3.5660 2.1329
-8.4673 3.2643 2.1329
-8.5793 2.9584 2.1329
-8.6803 2.6486 2.1329
-8.7701 2.3354 2.1329
-8.8486 2.0191 2.1329
-8.9157 1.7003 2.1329
-8.9713 1.3792 2.1329
-9.0154 1.0563 2.1329
-9.0478 0.7320 2.1329
-9.0686 0.4068 2.1329
-9.0776 0.0810 2.1329
-6.6981 -0.1808 1.5743
-9.0607 -0.5705 2.1329
-9.0347 -0.8954 2.1329
-8.9970 -1.2192 2.1329
-8.9478 -1.5414 2.1329
-8.8870 -1.8616 2.1329
-8.8147 -2.1795 2.1329
-8.7310 -2.4946 2.1329
-8.6361 -2.8065 2.1329
-8.5301 -3.1147 2.1329
-8.4130 -3.4190 2.1329
-8.2851 -3.7189 2.1329
-8.1465 -4.0140 2.1329
-7.9974 -4.3040 2.1329
-7.8379 -4.5884 2.1329
-7.6684 -4.8669 2.1329
-7.4889 -5.1391 2.1329
-7.2998 -5.4047 2.1329
-7.1012 -5.6634 2.1329
-6.8935 -5.9148 2.1329
-6.6769 -6.1585 2.1329
-6.4516 -6.3943 2.1329
-6.3368 -6.7483 2.1736
-6.2658 -7.1721 2.2362
-6.0044 -7.3925 2.2362
-5.7352 -7.6033 2.2362
-5.4587 -7.8044 2.2362
-5.1751 -7.9954 2.2362
-4.8848 -8.1761 2.2362
-4.5882 -8.3462 2.2362
-4.2857 -8.5056 2.2362
-3.9777 -8.6540 2.2362
-3.6645 -8.7912 2.2362
-3.3466 -8.9171 2.2362
-3.0244 -9.0315 2.2362
-2.6983 -9.1342 2.2362
-2.3687 -9.2252 2.2362
-2.0360 -9.3043 2.2362
-1.7007 -9.3713 2.2362
-1.3632 -9.4263 2.2362
-1.0240 -9.4691 2.2362
-0.6834 -9.4996 2.2362
-0.3420 -9.5180 2.2362
-0.0002 -8.6444 2.2362
0.3101 -8.6387 2.2362
0.6200 -8.6219 2.2362
0.9291 -8.5940 2.2362
1.2369 -8.5550 2.2362
1.5432 -8.5049 2.2362
1.7623 -8.0547 2.1331
2.0502 -7.9861 2.1331
1.8974 -6.4239 1.7329
1.9062 -5.6929 1.5532
2.2047 -5.8750 1.6235
1.9033 -4.5664 1.2800
3.4428 -7.4909 2.1331
3.7094 -7.3624 2.1331
3.9712 -7.2243 2.1331
4.2278 -7.0769 2.1331
4.4790 -6.9204 2.1331
4.7244 -6.7550 2.1331
4.9637 -6.5809 2.1331
5.1018 -6.2816 2.0942
5.3619 -6.1378 2.1091
5.5805 -5.9432 2.1099
5.7919 -5.7408 2.1105
5.8423 -5.3890 2.0571
5.8422 -5.0130 1.9924
5.0817 -4.0530 1.6824
5.4737 -4.0529 1.7629
5.9055 -4.0527 1.8539
6.3850 -4.0526 1.9576
6.6871 -3.9149 2.0059
6.6870 -3.5989 1.9658
6.6869 -3.2950 1.9298
6.6868 -3.0016 1.8975
6.9779 -2.8359 1.9501
7.7645 -2.8354 2.1401
7.8609 -2.5547 2.1401
7.9473 -2.2708 2.1401
8.0234 -1.9841 2.1401
8.0892 -1.6947 2.1401
8.1446 -1.4032 2.1401
8.1894 -1.1099 2.1401
8.2237 -0.8152 2.1401
8.2474 -0.5194 2.1401
8.2604 -0.2230 2.1401
8.2628 0.0737 2.1401
6.6857 0.2999 1.7333
6.6856 0.5409 1.7373
6.6855 0.7833 1.7435
6.6855 1.0278 1.7520
6.6854 1.2749 1.7629
7.7415 1.7665 2.0569
6.7445 1.7960 1.8080
6.6201 2.0200 1.7930
6.3282 2.1822 1.7341
6.0158 2.3192 1.6703
5.9454 2.5409 1.6751
5.8399 2.7477 1.6721
5.8437 3.0103 1.7031
5.8434 3.2807 1.7363
5.8700 3.5787 1.7813
5.9028 3.8961 1.8326
6.3195 4.5050 2.0109
6.5489 5.0325 2.1401
6.3639 5.2643 2.1401
5.5723 4.9569 1.9326
5.1847 4.9568 1.8587
4.8252 4.9567 1.7926
4.7991 5.2978 1.8524
4.6749 5.5486 1.8802
5.0742 6.4811 2.1331
4.8382 6.6590 2.1331
4.5960 6.8283 2.1331
4.3479 6.9888 2.1331
4.0942 7.1404 2.1331
3.8352 7.2827 2.1331
3.5713 7.4156 2.1331
3.3027 7.5390 2.1331
3.0300 7.6527 2.1331
2.7533 7.7565 2.1331
2.4731 7.8504 2.1331
2.1896 7.9341 2.1331
1.9034 8.0076 2.1331
1.6928 8.4608 2.2362
1.3880 8.5162 2.2362
1.0814 8.5606 2.2362
0.7734 8.5939 2.2362
0.4644 8.6162 2.2362
0.1548 8.6274 2.2362
-0.1551 8.6275 2.2362
-0.4647 8.6164 2.2362
-0.7737 8.5943 2.2362
-1.0817 8.5611 2.2362
-1.3884 8.5169 2.2362
-1.6933 8.4617 2.2362
-1.9960 8.3956 2.2362
-2.2961 8.3187 2.2362
-2.5933 8.2310 2.2362
-2.8872 8.1328 2.2362
-3.1773 8.0241 2.2362
-3.4634 7.9050 2.2362
-3.7450 7.7758 2.2362
-4.0218 7.6365 2.2362
-4.2935 7.4874 2.2362
-4.5596 7.3286 2.2362
-4.8199 7.1604 2.2362
-5.0739 6.9830 2.2362
-5.3215 6.7965 2.2362
-5.5622 6.6013 2.2362
-5.7957 6.3975 2.2362
-6.0218 6.1855 2.2362
-6.2402 5.9656 2.2362
-6.3385 5.6383 2.1974
-6.3507 5.2532 2.1347
-6.5501 5.0333 2.1395
-6.7060 4.7803 2.1329
-6.8735 4.5366 2.1329
-7.0321 4.2871 2.1329
-7.1817 4.0320 2.1329
-7.3221 3.7717 2.1329
-7.4530 3.5066 2.1329
-7.5743 3.2369 2.1329
-7.6859 2.9630 2.1329
-7.7876 2.6853 2.1329
-7.8792 2.4041 2.1329
-7.9607 2.1198 2.1329
-8.0319 1.8327 2.1329
-8.0928 1.5433 2.1329
-8.1433 1.2518 2.1329
-8.1832 0.9588 2.1329
-8.2126 0.6644 2.1329
-8.2315 0.3692 2.1329
-8.2397 0.0735 2.1329
-6.6982 -0.1808 1.7344
-8.2243 -0.5179 2.1329
-8.2006 -0.8128 2.1329
-8.1664 -1.1067 2.1329
-8.1217 -1.3991 2.1329
-8.0665 -1.6898 2.1329
-8.0008 -1.9783 2.1329
-7.9249 -2.2643 2.1329
-7.8387 -2.5474 2.1329
-7.7425 -2.8272 2.1329
-7.6362 -3.1034 2.1329
-7.5201 -3.3755 2.1329
-7.3943 -3.6434 2.1329
-7.2589 -3.9066 2.1329
-7.1141 -4.1647 2.1329
-6.9602 -4.4175 2.1329
-6.7973 -4.6646 2.1329
-6.6257 -4.9056 2.1329
-6.4454 -5.1404 2.1329
-6.3404 -5.4402 2.1614
-6.3347 -5.8429 2.2295
-6.1393 -6.0847 2.2362
-5.9170 -6.3013 2.2362
-5.6871 -6.5097 2.2362
-5.4498 -6.7097 2.2362
-5.2055 -6.9011 2.2362
-4.9545 -7.0836 2.2362
-4.6971 -7.2569 2.2362
-4.4336 -7.4209 2.2362
-4.1645 -7.5753 2.2362
-3.8899 -7.7200 2.2362
-3.6103 -7.8547 2.2362
-3.3260 -7.9792 2.2362
-3.0375 -8.0935 2.2362
-2.7450 -8.1973 2.2362
-2.4490 -8.2906 2.2362
-2.1499 -8.3731 2.2362
-1.8479 -8.4449 2.2362
-1.5436 -8.5057 2.2362
-1.2373 -8.5556 2.2362
-0.9294 -8.5945 2.2362
-0.6203 -8.6222 2.2362
-0.3104 -8.6389 2.2362
-0.0001 -7.9056 2.2362
0.2836 -7.9005 2.2362
0.5670 -7.8851 2.2362
0.8497 -7.8596 2.2362
1.1312 -7.8239 2.2362
1.4113 -7.7782 2.2362
1.6896 -7.7224 2.2362
1.8750 -7.3037 2.1331
1.8974 -6.4239 1.8948
1.9693 -5.8814 1.7546
2.0163 -5.3730 1.6235
1.8910 -4.5371 1.3906
1.8894 -4.1110 1.2800
3.3924 -6.7333 2.1331
3.6319 -6.6071 2.1331
3.8666 -6.4723 2.1331
4.0963 -6.3292 2.1331
4.3208 -6.1779 2.1331
4.5396 -6.0187 2.1331
4.7526 -5.8517 2.1331
4.9595 -5.6772 2.1331
5.1000 -5.4315 2.1083
5.2931 -5.2464 2.1089
5.4794 -5.0543 2.1095
5.6587 -4.8556 2.1101
5.0817 -4.0530 1.8395
5.4736 -4.0529 1.9275
5.9054 -4.0527 2.0271
6.3850 -4.0526 2.1404
6.5252 -3.8202 2.1401
6.6579 -3.5834 2.1401
6.6869 -3.2950 2.1101
6.6868 -3.0017 2.0747
6.9778 -2.8359 2.1321
7.1013 -2.5933 2.1401
7.1896 -2.3366 2.1401
7.2686 -2.0770 2.1401
7.3383 -1.8147 2.1401
7.3985 -1.5500 2.1401
7.4491 -1.2834 2.1401
7.4901 -1.0152 2.1401
7.5215 -0.7456 2.1401
7.5432 -0.4751 2.1401
7.5552 -0.2040 2.1401
7.5574 0.0673 2.1401
6.6857 0.2998 1.8951
6.6856 0.5409 1.8994
6.6855 0.7833 1.9062
6.6855 1.0277 1.9156
6.6854 1.2749 1.9275
7.3670 1.6810 2.1401
6.7445 1.7960 1.9768
6.6201 2.0200 1.9604
6.3747 2.1982 1.9099
6.0158 2.3192 1.8262
5.9454 2.5408 1.8314
5.8399 2.7477 1.8282
5.8701 3.0239 1.8705
5.8437 3.2809 1.8984
5.8700 3.5787 1.9475
5.9028 3.8961 2.0036
6.1515 4.3851 2.1401
5.9900 4.6030 2.1401
5.8208 4.8150 2.1401
5.5723 4.9569 2.1129
5.1848 4.9568 2.0322
4.8253 4.9567 1.9598
4.7991 5.2977 2.0252
4.6831 5.5583 2.0592
4.6412 5.9280 2.1331
4.4254 6.0907 2.1331
4.2038 6.2456 2.1331
3.9769 6.3925 2.1331
3.7448 6.5310 2.1331
3.5079 6.6612 2.1331
3.2665 6.7828 2.1331
3.0209 6.8957 2.1331
2.7714 6.9997 2.1331
2.5183 7.0946 2.1331
2.2620 7.1805 2.1331
2.0028 7.2570 2.1331
1.7410 7.3243 2.1331
1.5483 7.7388 2.2362
1.2695 7.7895 2.2362
0.9891 7.8301 2.2362
0.7073 7.8606 2.2362
0.4247 7.8809 2.2362
0.1415 7.8912 2.2362
-0.1418 7.8912 2.2362
-0.4250 7.8811 2.2362
-0.7077 7.8609 2.2362
-0.9894 7.8305 2.2362
-1.2699 7.7901 2.2362
-1.5488 7.7396 2.2362
-1.8256 7.6791 2.2362
-2.1002 7.6087 2.2362
-2.3720 7.5286 2.2362
-2.6408 7.4387 2.2362
-2.9061 7.3392 2.2362
-3.1678 7.2303 2.2362
-3.4254 7.1121 2.2362
-3.6786 6.9847 2.2362
-3.9270 6.8483 2.2362
-4.1704 6.7031 2.2362
-4.4085 6.5492 2.2362
-4.6409 6.3869 2.2362
-4.8673 6.2163 2.2362
-5.0874 6.0378 2.2362
-5.3010 5.8514 2.2362
-5.5078 5.6575 2.2362
-5.7075 5.4563 2.2362
-5.8998 5.2480 2.2362
-6.0846 5.0330 2.2362
-6.2615 4.8115 2.2362
-6.3382 4.5180 2.2041
-6.3457 4.1882 2.1529
-6.4318 3.9210 2.1329
-6.5685 3.6877 2.1329
-6.6969 3.4496 2.1329
-6.8166 3.2071 2.1329
-6.9276 2.9605 2.1329
-7.0296 2.7100 2.1329
-7.1226 2.4560 2.1329
-7.2064 2.1988 2.1329
-7.2809 1.9387 2.1329
-7.3460 1.6762 2.1329
-7.4017 1.4114 2.1329
-7.4478 1.1449 2.1329
-7.4843 0.8768 2.1329
-7.5112 0.6076 2.1329
-7.5284 0.3376 2.1329
-7.5359 0.0672 2.1329
-6.6983 -0.1808 1.8964
-7.5218 -0.4737 2.1329
-7.5001 -0.7434 2.1329
-7.4688 -1.0122 2.1329
-7.4279 -1.2796 2.1329
-7.3774 -1.5455 2.1329
-7.3173 -1.8094 2.1329
-7.2479 -2.0709 2.1329
-7.1690 -2.3298 2.1329
-7.0810 -2.5857 2.1329
-6.9838 -2.8382 2.1329
-6.8776 -3.0872 2.1329
-6.7625 -3.3321 2.1329
-6.6387 -3.5728 2.1329
-6.5063 -3.8089 2.1329
-6.3655 -4.0400 2.1329
-6.3374 -4.3490 2.1744
-6.3351 -4.6905 2.2299
-6.1800 -4.9287 2.2362
-5.9992 -5.1475 2.2362
-5.8107 -5.3596 2.2362
-5.6146 -5.5648 2.2362
-5.4113 -5.7628 2.2362
-5.2011 -5.9534 2.2362
-4.9841 -6.1364 2.2362
-4.7607 -6.3114 2.2362
-4.5311 -6.4783 2.2362
-4.2957 -6.6368 2.2362
-4.0547 -6.7867 2.2362
-3.8086 -6.9280 2.2362
-3.5574 -7.0602 2.2362
-3.3018 -7.1834 2.2362
-3.0418 -7.2973 2.2362
-2.7779 -7.4018 2.2362
-2.5104 -7.4968 2.2362
-2.2397 -7.5820 2.2362
-1.9661 -7.6575 2.2362
-1.6900 -7.7232 2.2362
-1.4117 -7.7788 2.2362
-1.1316 -7.8245 2.2362
-0.8500 -7.8600 2.2362
-0.5673 -7.8854 2.2362
-0.2839 -7.9006 2.2362
-0.0002 -7.2759 2.2362
0.2610 -7.2711 2.2362
0.5218 -7.2570 2.2362
0.7820 -7.2335 2.2362
1.0411 -7.2007 2.2362
1.2989 -7.1586 2.2362
1.5550 -7.1073 2.2362
1.7256 -6.7219 2.1331
1.8973 -6.4239 2.0588
2.1618 -6.4566 2.0929
1.9732 -5.2584 1.7264
1.8910 -4.5371 1.5109
2.2056 -4.7990 1.6235
1.8891 -3.7496 1.2907
3.3426 -6.0809 2.1331
3.5586 -5.9568 2.1331
3.7701 -5.8251 2.1331
3.9766 -5.6859 2.1331
4.1781 -5.5394 2.1331
4.3741 -5.3857 2.1331
4.5645 -5.2251 2.1331
4.7490 -5.0578 2.1331
4.9273 -4.8839 2.1331
5.0522 -4.6602 2.1133
5.2044 -4.4658 2.1086
5.0816 -4.0530 1.9987
5.4735 -4.0529 2.0943
5.7194 -3.9251 2.1331
5.8757 -3.7295 2.1401
6.0056 -3.5161 2.1401
6.1278 -3.2981 2.1401
6.2421 -3.0760 2.1401
6.3483 -2.8498 2.1401
6.4463 -2.6200 2.1401
6.5360 -2.3869 2.1401
6.6173 -2.1507 2.1401
6.6900 -1.9117 2.1401
6.7541 -1.6702 2.1401
6.8095 -1.4267 2.1401
6.8561 -1.1813 2.1401
6.8939 -0.9344 2.1401
6.9228 -0.6863 2.1401
6.9428 -0.4374 2.1401
6.9538 -0.1878 2.1401
6.9559 0.0619 2.1401
6.6857 0.2998 2.0590
6.6856 0.5408 2.0637
6.6855 0.7832 2.0711
6.6855 1.0277 2.0812
6.6854 1.2749 2.0941
6.7808 1.5472 2.1401
6.7207 1.7895 2.1401
6.4229 1.9598 2.0664
6.1979 2.1372 2.0175
6.0158 2.3192 1.9841
5.9454 2.5408 1.9897
5.8399 2.7477 1.9862
5.8053 2.9905 2.0097
5.6981 3.1991 2.0111
5.7249 3.4902 2.0635
5.8034 3.8304 2.1401
5.6435 4.0230 2.1331
5.4953 4.2229 2.1331
5.3401 4.4174 2.1331
5.1780 4.6062 2.1331
5.0092 4.7890 2.1331
4.8253 4.9567 2.1292
4.6526 5.1359 2.1331
4.4652 5.2996 2.1331
4.2720 5.4564 2.1331
4.0733 5.6062 2.1331
3.8694 5.7487 2.1331
3.6605 5.8839 2.1331
3.4469 6.0115 2.1331
3.2289 6.1313 2.1331
3.0067 6.2432 2.1331
2.2079 5.0398 1.6937
2.0163 5.0925 1.6860
2.3180 6.5302 2.1331
2.0821 6.6092 2.1331
1.8435 6.6797 2.1331
1.6799 7.0674 2.2362
1.4252 7.1232 2.2362
1.1685 7.1698 2.2362
0.9104 7.2071 2.2362
0.6511 7.2352 2.2362
0.3909 7.2540 2.2362
0.1303 7.2634 2.2362
-0.1306 7.2634 2.2362
-0.3912 7.2541 2.2362
-0.6514 7.2355 2.2362
-0.9107 7.2075 2.2362
-1.1689 7.1703 2.2362
-1.4256 7.1238 2.2362
-1.6804 7.0681 2.2362
-1.9331 7.0034 2.2362
-2.1833 6.9296 2.2362
-2.4307 6.8468 2.2362
-2.6749 6.7553 2.2362
-2.9158 6.6550 2.2362
-3.1529 6.5462 2.2362
-3.3859 6.4289 2.2362
-3.6146 6.3034 2.2362
-3.8386 6.1697 2.2362
-4.0577 6.0280 2.2362
-4.2716 5.8786 2.2362
-4.4800 5.7216 2.2362
-4.6826 5.5573 2.2362
-4.8792 5.3857 2.2362
-5.0695 5.2072 2.2362
-5.2533 5.0220 2.2362
-5.4303 4.8303 2.2362
-5.6004 4.6324 2.2362
-5.7632 4.4285 2.2362
-5.9186 4.2189 2.2362
-6.0664 4.0038 2.2362
-6.2064 3.7836 2.2362
-6.3378 3.5581 2.2360
-6.3377 3.2646 2.1931
-6.3443 2.9849 2.1568
-6.3761 2.7248 2.1329
-6.4700 2.4942 2.1329
-6.5556 2.2604 2.1329
-6.6327 2.0237 2.1329
-6.7013 1.7844 2.1329
-6.7612 1.5427 2.1329
-6.8124 1.2990 2.1329
-6.8548 1.0537 2.1329
-6.8885 0.8070 2.1329
-6.9132 0.5592 2.1329
-6.9290 0.3107 2.1329
-6.9359 0.0618 2.1329
-6.6984 -0.1809 2.0605
-6.9228 -0.4360 2.1329
-6.9029 -0.6842 2.1329
-6.8741 -0.9316 2.1329
-6.8364 -1.1778 2.1329
-6.7899 -1.4225 2.1329
-6.7346 -1.6653 2.1329
-6.6707 -1.9060 2.1329
-6.5981 -2.1443 2.1329
-6.5170 -2.3798 2.1329
-6.4276 -2.6122 2.1329
-6.3470 -2.8491 2.1387
-6.3384 -3.1232 2.1722
-6.3355 -3.4097 2.2117
-6.2779 -3.6752 2.2362
-6.1421 -3.8983 2.2362
-5.9983 -4.1163 2.2362
-5.8468 -4.3290 2.2362
-5.6877 -4.5362 2.2362
-5.5213 -4.7375 2.2362
-5.3478 -4.9327 2.2362
-5.1674 -5.1215 2.2362
-4.9803 -5.3038 2.2362
-4.7868 -5.4792 2.2362
-4.5871 -5.6476 2.2362
-4.3814 -5.8086 2.2362
-4.1702 -5.9622 2.2362
-3.9535 -6.1081 2.2362
-3.7317 -6.2461 2.2362
-3.5052 -6.3761 2.2362
-3.2741 -6.4978 2.2362
-3.0387 -6.6112 2.2362
-2.7995 -6.7160 2.2362
-2.5566 -6.8122 2.2362
-2.3105 -6.8996 2.2362
-2.0613 -6.9780 2.2362
-1.8095 -7.0475 2.2362
-1.5554 -7.1079 2.2362
-1.2993 -7.1592 2.2362
-1.0415 -7.2012 2.2362
-0.7823 -7.2339 2.2362
-0.5221 -7.2572 2.2362
-0.2613 -7.2712 2.2362
-0.0001 -6.7321 2.2362
0.2415 -6.7277 2.2362
0.4828 -6.7147 2.2362
0.7235 -6.6930 2.2362
0.9633 -6.6626 2.2362
1.2018 -6.6236 2.2362
1.4387 -6.5762 2.2362
1.6738 -6.5202 2.2362
1.8188 -6.1582 2.1331
1.9075 -5.6969 1.9958
2.0592 -5.4876 1.9471
1.8910 -4.5371 1.6329
1.8965 -4.1265 1.5087
2.1988 -4.3642 1.6235
1.8890 -3.4366 1.3029
3.2927 -5.5117 2.1331
3.4883 -5.3899 2.1331
3.6795 -5.2611 2.1331
3.8659 -5.1255 2.1331
4.0473 -4.9833 2.1331
4.2234 -4.8347 2.1331
4.3942 -4.6799 2.1331
4.5592 -4.5191 2.1331
4.7184 -4.3524 2.1331
4.8714 -4.1801 2.1331
5.0182 -4.0025 2.1331
5.1585 -3.8197 2.1331
5.2921 -3.6319 2.1331
5.4190 -3.4395 2.1331
5.5388 -3.2427 2.1331
5.6515 -3.0417 2.1331
5.7758 -2.8462 2.1401
5.8741 -2.6370 2.1401
5.9648 -2.4243 2.1401
6.0478 -2.2086 2.1401
6.1230 -1.9900 2.1401
6.1903 -1.7689 2.1401
6.2497 -1.5456 2.1401
6.3009 -1.3202 2.1401
6.3441 -1.0931 2.1401
6.3791 -0.8646 2.1401
6.4058 -0.6351 2.1401
6.4243 -0.4047 2.1401
6.4345 -0.1738 2.1401
6.4364 0.0573 2.1401
6.4301 0.2883 2.1401
6.4154 0.5189 2.1401
6.3925 0.7488 2.1401
6.3613 0.9778 2.1401
6.3220 1.2055 2.1401
6.2745 1.4316 2.1401
6.2189 1.6559 2.1401
6.1553 1.8780 2.1401
6.0838 2.0977 2.1401
6.0044 2.3147 2.1401
5.9173 2.5287 2.1401
5.8226 2.7395 2.1401
5.7017 2.9371 2.1331
5.5924 3.1398 2.1331
5.4760 3.3385 2.1331
5.3525 3.5328 2.1331
5.2222 3.7226 2.1331
5.0851 3.9076 2.1331
4.9415 4.0876 2.1331
4.7915 4.2623 2.1331
4.6353 4.4315 2.1331
4.4732 4.5950 2.1331
4.3053 4.7525 2.1331
4.1319 4.9040 2.1331
3.9531 5.0491 2.1331
3.7693 5.1877 2.1331
3.5806 5.3196 2.1331
3.3873 5.4447 2.1331
3.1896 5.5627 2.1331
2.9879 5.6736 2.1331
2.2573 4.6872 1.7306
2.2079 5.0398 1.8304
1.8667 4.7147 1.6869
2.1450 6.0428 2.1331
1.9267 6.1159 2.1331
1.7159 6.2174 2.1456
1.5545 6.5399 2.2362
1.3188 6.5915 2.2362
1.0813 6.6346 2.2362
0.8424 6.6692 2.2362
0.6025 6.6952 2.2362
0.3617 6.7125 2.2362
0.1205 6.7212 2.2362
-0.1208 6.7213 2.2362
-0.3620 6.7126 2.2362
-0.6028 6.6954 2.2362
-0.8428 6.6695 2.2362
-1.0817 6.6350 2.2362
-1.3192 6.5920 2.2362
-1.5550 6.5405 2.2362
-1.7888 6.4805 2.2362
-2.0203 6.4122 2.2362
-2.2493 6.3357 2.2362
-2.4753 6.2510 2.2362
-2.6981 6.1582 2.2362
-2.9175 6.0575 2.2362
-3.1331 5.9489 2.2362
-3.3448 5.8328 2.2362
-3.5521 5.7090 2.2362
-3.7548 5.5780 2.2362
-3.9527 5.4397 2.2362
-4.1455 5.2944 2.2362
-4.3330 5.1423 2.2362
-4.5149 4.9836 2.2362
-4.6910 4.8184 2.2362
-4.8611 4.6470 2.2362
-5.0249 4.4696 2.2362
-5.1822 4.2865 2.2362
-5.3329 4.0978 2.2362
-5.4767 3.9038 2.2362
-5.6134 3.7048 2.2362
-5.7430 3.5010 2.2362
-5.8651 3.2927 2.2362
-5.9797 3.0801 2.2362
-6.0865 2.8635 2.2362
-6.1856 2.6433 2.2362
-6.2766 2.4196 2.2362
-6.3374 2.1851 2.2283
-6.3373 1.9335 2.2024
-6.3379 1.6876 2.1801
-6.3424 1.4471 2.1623
-6.3462 1.2101 2.1473
-6.3492 0.9759 2.1351
-6.3739 0.7467 2.1329
-6.3968 0.5174 2.1329
-6.4114 0.2875 2.1329
-6.4178 0.0571 2.1329
-6.4158 -0.1733 2.1329
-6.4056 -0.4035 2.1329
-6.3872 -0.6332 2.1329
-6.3605 -0.8620 2.1329
-6.3472 -1.0936 2.1402
-6.3437 -1.3290 2.1537
-6.3395 -1.5676 2.1699
-6.3361 -1.8104 2.1895
-6.3360 -2.0591 2.2136
-6.3220 -2.3086 2.2362
-6.2352 -2.5341 2.2362
-6.1404 -2.7563 2.2362
-6.0376 -2.9750 2.2362
-5.9270 -3.1899 2.2362
-5.8088 -3.4006 2.2362
-5.6831 -3.6070 2.2362
-5.5501 -3.8087 2.2362
-5.4099 -4.0056 2.2362
-5.2627 -4.1972 2.2362
-5.1087 -4.3835 2.2362
-4.9482 -4.5641 2.2362
-4.7812 -4.7388 2.2362
-4.6081 -4.9074 2.2362
-4.4290 -5.0697 2.2362
-4.2442 -5.2255 2.2362
-4.0540 -5.3745 2.2362
-3.8585 -5.5166 2.2362
-3.6580 -5.6516 2.2362
-3.4528 -5.7793 2.2362
-3.2432 -5.8996 2.2362
-3.0294 -6.0122 2.2362
-2.8116 -6.1171 2.2362
-2.5903 -6.2141 2.2362
-2.3655 -6.3031 2.2362
-2.1378 -6.3839 2.2362
-1.9073 -6.4566 2.2362
-1.6743 -6.5208 2.2362
-1.4392 -6.5767 2.2362
-1.2022 -6.6241 2.2362
-0.9636 -6.6630 2.2362
-0.7239 -6.6932 2.2362
-0.4831 -6.7149 2.2362
-0.2418 -6.7278 2.2362
-0.0001 -6.2574 2.2362
0.2244 -6.2534 2.2362
0.4488 -6.2412 2.2362
0.6725 -6.2210 2.2362
0.8953 -6.1928 2.2362
1.1170 -6.1566 2.2362
1.3373 -6.1125 2.2362
1.5558 -6.0605 2.2362
1.7155 -5.8083 2.1645
1.9022 -5.6812 2.1412
2.0592 -5.4876 2.0948
1.8910 -4.5371 1.7568
1.9687 -4.2838 1.6850
2.0438 -4.0565 1.6235
2.1880 -3.9805 1.6235
1.8889 -3.1620 1.3165
3.2424 -5.0099 2.1331
3.4201 -4.8902 2.1331
3.5933 -4.7642 2.1331
3.7619 -4.6321 2.1331
3.9257 -4.4939 2.1331
4.0844 -4.3500 2.1331
4.2378 -4.2005 2.1331
4.3857 -4.0456 2.1331
4.5280 -3.8855 2.1331
4.6645 -3.7204 2.1331
4.7949 -3.5504 2.1331
4.9191 -3.3760 2.1331
5.0370 -3.1971 2.1331
5.1484 -3.0142 2.1331
5.2531 -2.8274 2.1331
5.3511 -2.6369 2.1331
5.4422 -2.4431 2.1331
5.5262 -2.2461 2.1331
5.6031 -2.0462 2.1331
5.6728 -1.8437 2.1331
5.7541 -1.6443 2.1401
5.8092 -1.4367 2.1401
5.8569 -1.2272 2.1401
5.8970 -1.0161 2.1401
5.9295 -0.8038 2.1401
5.9544 -0.5904 2.1401
5.9716 -0.3762 2.1401
5.9811 -0.1616 2.1401
5.9829 0.0532 2.1401
5.9770 0.2679 2.1401
5.9634 0.4823 2.1401
5.9421 0.6960 2.1401
5.9132 0.9089 2.1401
5.8766 1.1205 2.1401
5.8324 1.3307 2.1401
5.7808 1.5392 2.1401
5.7029 1.7400 2.1331
5.6366 1.9436 2.1331
5.5631 2.1446 2.1331
5.4824 2.3429 2.1331
5.3947 2.5382 2.1331
5.3000 2.7301 2.1331
5.1985 2.9186 2.1331
5.0903 3.1033 2.1331
4.9755 3.2839 2.1331
4.8543 3.4604 2.1331
4.7269 3.6324 2.1331
4.5934 3.7997 2.1331
4.4540 3.9620 2.1331
4.3088 4.1193 2.1331
4.1581 4.2713 2.1331
4.0020 4.4178 2.1331
3.8408 4.5585 2.1331
3.6747 4.6934 2.1331
3.5038 4.8223 2.1331
3.3284 4.9449 2.1331
3.1487 5.0612 2.1331
2.9650 5.1709 2.1331
2.1555 4.0930 1.6554
1.9618 4.0735 1.6180
0.8578 1.9580 0.7650
1.8667 4.7147 1.8147
1.9939 5.6172 2.1331
1.7910 5.6851 2.1331
1.6624 6.0235 2.2362
1.4451 6.0793 2.2362
1.2259 6.1272 2.2362
1.0051 6.1673 2.2362
0.7831 6.1994 2.2362
0.5600 6.2236 2.2362
0.3362 6.2397 2.2362
0.1120 6.2478 2.2362
-0.1123 6.2478 2.2362
-0.3365 6.2398 2.2362
-0.5603 6.2238 2.2362
-0.7834 6.1997 2.2362
-1.0055 6.1677 2.2362
-1.2263 6.1277 2.2362
-1.4455 6.0798 2.2362
-1.6628 6.0241 2.2362
-1.8780 5.9606 2.2362
-2.0908 5.8894 2.2362
-2.3009 5.8106 2.2362
-0.8579 1.9580 0.7649
-0.9276 1.9260 0.7649
-2.9124 5.5299 2.2362
-3.1091 5.4218 2.2362
-3.3018 5.3068 2.2362
-3.4903 5.1850 2.2362
-3.6742 5.0565 2.2362
-3.8535 4.9214 2.2362
-4.0277 4.7800 2.2362
-4.1968 4.6324 2.2362
-4.3605 4.4789 2.2362
-4.5186 4.3196 2.2362
-4.6709 4.1547 2.2362
-4.8171 3.9844 2.2362
-4.9571 3.8090 2.2362
-5.0908 3.6287 2.2362
-5.2179 3.4437 2.2362
-5.3383 3.2543 2.2362
-5.4518 3.0606 2.2362
-5.5583 2.8630 2.2362
-5.6576 2.6617 2.2362
-5.7497 2.4570 2.2362
-5.8343 2.2491 2.2362
-5.9115 2.0382 2.2362
-5.9810 1.8248 2.2362
-6.0428 1.6089 2.2362
-6.0968 1.3910 2.2362
-6.1429 1.1713 2.2362
-6.1812 0.9501 2.2362
-6.2115 0.7276 2.2362
-6.2338 0.5042 2.2362
-6.2480 0.2801 2.2362
-6.2542 0.0557 2.2362
-6.2523 -0.1689 2.2362
-6.2423 -0.3932 2.2362
-6.2244 -0.6170 2.2362
-6.1984 -0.8401 2.2362
-6.1644 -1.0621 2.2362
-6.1224 -1.2827 2.2362
-6.0725 -1.5016 2.2362
-6.0149 -1.7187 2.2362
-5.9494 -1.9335 2.2362
-5.8763 -2.1459 2.2362
-5.7956 -2.3555 2.2362
-5.7074 -2.5620 2.2362
-5.6119 -2.7653 2.2362
-5.5091 -2.9650 2.2362
-5.3993 -3.1609 2.2362
-5.2824 -3.3527 2.2362
-5.1587 -3.5402 2.2362
-5.0284 -3.7232 2.2362
-4.8916 -3.9013 2.2362
-4.7485 -4.0744 2.2362
-4.5993 -4.2423 2.2362
-4.4441 -4.4047 2.2362
-4.2832 -4.5614 2.2362
-4.1167 -4.7123 2.2362
-3.9450 -4.8571 2.2362
-3.7681 -4.9956 2.2362
-3.5864 -5.1277 2.2362
-3.4001 -5.2531 2.2362
-3.2094 -5.3718 2.2362
-3.0145 -5.4836 2.2362
-2.8157 -5.5883 2.2362
-2.6134 -5.6858 2.2362
-2.4076 -5.7759 2.2362
-2.1988 -5.8586 2.2362
-1.9871 -5.9338 2.2362
-1.7728 -6.0013 2.2362
-1.5562 -6.0610 2.2362
-1.3377 -6.1130 2.2362
-1.1174 -6.1570 2.2362
-0.8957 -6.1932 2.2362
-0.6728 -6.2213 2.2362
-0.4491 -6.2414 2.2362
-0.2248 -6.2535 2.2362
-0.0001 -5.8390 2.2362
0.2094 -5.8352 2.2362
0.4187 -5.8239 2.2362
0.6275 -5.8051 2.2362
0.8355 -5.7788 2.2362
1.0423 -5.7450 2.2362
1.2478 -5.7038 2.2362
1.4517 -5.6553 2.2362
1.6538 -5.5994 2.2362
1.7682 -5.2812 2.1331
1.9566 -5.2142 2.1331
1.8910 -4.5371 1.8827
2.0675 -4.4987 1.8963
1.8964 -3.7641 1.6144
2.0417 -3.7144 1.6235
2.1737 -3.6386 1.6235
2.3028 -3.5582 1.6235
1.9151 -2.7383 1.2800
3.3531 -4.4457 2.1331
3.5104 -4.3224 2.1331
3.6632 -4.1935 2.1331
3.8113 -4.0593 2.1331
3.9545 -3.9198 2.1331
4.0925 -3.7752 2.1331
4.2253 -3.6258 2.1331
4.3527 -3.4717 2.1331
4.4744 -3.3132 2.1331
4.5903 -3.1503 2.1331
4.7003 -2.9835 2.1331
4.8043 -2.8128 2.1331
4.9020 -2.6384 2.1331
4.9934 -2.4607 2.1331
5.0784 -2.2798 2.1331
5.1569 -2.0960 2.1331
5.2287 -1.9095 2.1331
5.2937 -1.7205 2.1331
5.3519 -1.5294 2.1331
5.4032 -1.3362 2.1331
5.4476 -1.1414 2.1331
5.4849 -0.9451 2.1331
5.5152 -0.7476 2.1331
5.5383 -0.5491 2.1331
5.5543 -0.3499 2.1331
5.5632 -0.1503 2.1331
5.5648 0.0495 2.1331
5.5594 0.2492 2.1331
5.5467 0.4486 2.1331
5.5269 0.6474 2.1331
5.5000 0.8454 2.1331
5.4660 1.0422 2.1331
5.4249 1.2378 2.1331
5.3769 1.4317 2.1331
5.3219 1.6237 2.1331
5.2601 1.8137 2.1331
5.1915 2.0013 2.1331
5.1162 2.1863 2.1331
5.0343 2.3686 2.1331
4.9460 2.5477 2.1331
4.8512 2.7236 2.1331
4.7502 2.8959 2.1331
4.6431 3.0645 2.1331
4.5301 3.2292 2.1331
4.4112 3.3897 2.1331
4.2866 3.5458 2.1331
4.1564 3.6974 2.1331
4.0210 3.8441 2.1331
3.8804 3.9860 2.1331
3.7347 4.1226 2.1331
3.5843 4.2540 2.1331
3.4292 4.3799 2.1331
3.2698 4.5002 2.1331
3.1061 4.6146 2.1331
2.9384 4.7231 2.1331
2.7669 4.8255 2.1331
2.1513 4.0851 1.7705
0.8655 1.7973 0.7650
0.8005 1.8272 0.7650
0.7343 1.8547 0.7650
0.6673 1.8799 0.7650
0.5994 1.9026 0.7650
0.5307 1.9229 0.7650
0.4613 1.9407 0.7650
0.3913 1.9560 0.7650
0.9380 5.7554 2.2362
0.7308 5.7853 2.2362
0.5226 5.8079 2.2362
0.3138 5.8229 2.2362
0.1045 5.8305 2.2362
-0.1048 5.8305 2.2362
-0.3141 5.8230 2.2362
-0.5229 5.8080 2.2362
-0.7311 5.7856 2.2362
-0.9383 5.7557 2.2362
-0.3915 1.9560 0.7649
-0.4614 1.9407 0.7649
-0.5308 1.9229 0.7649
-0.5995 1.9026 0.7649
-0.6674 1.8799 0.7649
-0.7344 1.8547 0.7649
-0.8006 1.8272 0.7649
-0.8656 1.7973 0.7648
-0.9296 1.7650 0.7648
-2.9014 5.0596 2.2362
-3.0813 4.9523 2.2362
-3.2571 4.8386 2.2362
-3.4288 4.7186 2.2362
-3.5960 4.5926 2.2362
-3.7587 4.4606 2.2362
-3.9165 4.3229 2.2362
-4.0692 4.1796 2.2362
-4.2167 4.0309 2.2362
-4.3588 3.8771 2.2362
-4.4952 3.7182 2.2362
-4.6259 3.5545 2.2362
-4.7507 3.3862 2.2362
-4.8693 3.2136 2.2362
-4.9816 3.0368 2.2362
-5.0875 2.8561 2.2362
-5.1869 2.6717 2.2362
-5.2796 2.4838 2.2362
-5.3655 2.2928 2.2362
-5.4444 2.0987 2.2362
-5.5164 1.9020 2.2362
-5.5813 1.7028 2.2362
-5.6389 1.5014 2.2362
-5.6893 1.2980 2.2362
-5.7324 1.0930 2.2362
-5.7681 0.8865 2.2362
-5.7963 0.6789 2.2362
-5.8171 0.4704 2.2362
-5.8304 0.2613 2.2362
-5.8361 0.0519 2.2362
-5.8344 -0.1576 2.2362
-5.8251 -0.3670 2.2362
-5.8083 -0.5758 2.2362
-5.7840 -0.7840 2.2362
-5.7523 -0.9911 2.2362
-5.7131 -1.1970 2.2362
-5.6666 -1.4013 2.2362
-5.6128 -1.6038 2.2362
-5.5517 -1.8043 2.2362
-5.4835 -2.0024 2.2362
-5.4082 -2.1980 2.2362
-5.3259 -2.3908 2.2362
-5.2367 -2.5804 2.2362
-5.1408 -2.7668 2.2362
-5.0383 -2.9496 2.2362
-4.9292 -3.1286 2.2362
-4.8138 -3.3035 2.2362
-4.6922 -3.4743 2.2362
-4.5646 -3.6405 2.2362
-4.4310 -3.8020 2.2362
-4.2918 -3.9587 2.2362
-4.1469 -4.1102 2.2362
-3.9968 -4.2565 2.2362
-3.8415 -4.3972 2.2362
-3.6812 -4.5323 2.2362
-3.5162 -4.6616 2.2362
-3.3466 -4.7848 2.2362
-3.1727 -4.9019 2.2362
-2.9948 -5.0126 2.2362
-2.8129 -5.1169 2.2362
-2.6275 -5.2146 2.2362
-2.4386 -5.3056 2.2362
-2.2466 -5.3897 2.2362
-2.0517 -5.4669 2.2362
-1.8542 -5.5370 2.2362
-1.6543 -5.6000 2.2362
-1.4522 -5.6558 2.2362
-1.2482 -5.7042 2.2362
-1.0427 -5.7453 2.2362
-0.8358 -5.7790 2.2362
-0.6278 -5.8053 2.2362
-0.4190 -5.8241 2.2362
-0.2097 -5.8353 2.2362
-0.0002 -5.4671 2.2362
0.1961 -5.4636 2.2362
0.3921 -5.4530 2.2362
0.5875 -5.4353 2.2362
0.7822 -5.4107 2.2362
0.9759 -5.3791 2.2362
1.1684 -5.3405 2.2362
1.3593 -5.2951 2.2362
1.5484 -5.2428 2.2362
1.7110 -5.1102 2.2044
1.8320 -4.8821 2.1331
1.8909 -4.5371 2.0107
2.0675 -4.4987 2.0253
1.9730 -3.9163 1.7939
1.9685 -3.5813 1.6718
2.0352 -3.4069 1.6235
2.1562 -3.3316 1.6235
1.8961 -2.7113 1.3535
1.8887 -2.5042 1.2833
3.2869 -4.0472 2.1331
3.4299 -3.9265 2.1331
3.5686 -3.8008 2.1331
3.7026 -3.6702 2.1331
3.8319 -3.5348 2.1331
3.9243 -3.3676 2.1159
4.0426 -3.2245 2.1159
4.1556 -3.0772 2.1159
4.2633 -2.9260 2.1159
4.4010 -2.7935 2.1331
4.4983 -2.6337 2.1331
4.5899 -2.4705 2.1331
4.6755 -2.3041 2.1331
4.7551 -2.1347 2.1331
4.8285 -1.9626 2.1331
4.8958 -1.7880 2.1331
4.9566 -1.6110 2.1331
5.0112 -1.4320 2.1331
5.0592 -1.2512 2.1331
5.1008 -1.0688 2.1331
5.1357 -0.8849 2.1331
5.1641 -0.7000 2.1331
5.1857 -0.5142 2.1331
5.2007 -0.3277 2.1331
5.2090 -0.1408 2.1331
5.2106 0.0463 2.1331
5.2055 0.2333 2.1331
5.1936 0.4200 2.1331
5.1751 0.6062 2.1331
5.1499 0.7915 2.1331
5.1181 0.9759 2.1331
5.0796 1.1590 2.1331
5.0346 1.3405 2.1331
4.9832 1.5204 2.1331
4.9253 1.6982 2.1331
4.8611 1.8739 2.1331
4.7906 2.0472 2.1331
4.7139 2.2178 2.1331
4.6312 2.3855 2.1331
4.5425 2.5502 2.1331
4.4479 2.7116 2.1331
4.3476 2.8695 2.1331
4.2418 3.0237 2.1331
4.1304 3.1739 2.1331
4.0138 3.3201 2.1331
3.8920 3.4620 2.1331
3.7651 3.5995 2.1331
3.6334 3.7323 2.1331
3.4971 3.8603 2.1331
3.3562 3.9833 2.1331
3.2110 4.1012 2.1331
3.0617 4.2138 2.1331
2.9084 4.3209 2.1331
2.7514 4.4225 2.1331
2.5908 4.5184 2.1331
0.8703 1.6526 0.7649
0.8104 1.6828 0.7649
0.7495 1.7108 0.7649
0.6876 1.7366 0.7649
0.6248 1.7602 0.7649
0.5612 1.7815 0.7649
0.4969 1.8005 0.7649
0.4319 1.8172 0.7649
0.3664 1.8315 0.7649
0.3004 1.8435 0.7649
0.2341 1.8531 0.7649
0.1674 1.8603 0.7649
0.1005 1.8651 0.7649
0.0335 1.8675 0.7649
-0.0336 1.8675 0.7649
-0.1006 1.8651 0.7649
-0.1675 1.8603 0.7649
-0.2342 1.8531 0.7649
-0.3005 1.8435 0.7649
-0.3665 1.8315 0.7649
-0.4320 1.8172 0.7649
-0.4970 1.8005 0.7649
-0.5613 1.7815 0.7649
-0.6249 1.7602 0.7649
-0.6877 1.7366 0.7648
-0.7496 1.7108 0.7648
-0.8105 1.6828 0.7648
-0.8704 1.6526 0.7648
-0.9292 1.6203 0.7648
-2.8852 4.6371 2.2362
-3.0498 4.5306 2.2362
-3.2106 4.4183 2.2362
-3.3672 4.3003 2.2362
-3.5194 4.1767 2.2362
-3.6672 4.0477 2.2362
-3.8102 3.9136 2.2362
-3.9483 3.7743 2.2362
-4.0813 3.6303 2.2362
-4.2091 3.4815 2.2362
-4.3315 3.3282 2.2362
-4.4483 3.1706 2.2362
-4.5593 3.0090 2.2362
-4.6645 2.8434 2.2362
-4.7637 2.6742 2.2362
-4.8567 2.5016 2.2362
-4.9435 2.3257 2.2362
-5.0239 2.1468 2.2362
-5.0978 1.9651 2.2362
-5.1652 1.7809 2.2362
-5.2259 1.5943 2.2362
-5.2799 1.4058 2.2362
-5.3271 1.2154 2.2362
-5.3674 1.0234 2.2362
-5.4008 0.8301 2.2362
-5.4273 0.6357 2.2362
-5.4467 0.4405 2.2362
-5.4591 0.2447 2.2362
-5.4645 0.0486 2.2362
-5.4629 -0.1476 2.2362
-5.4542 -0.3436 2.2362
-5.4384 -0.5392 2.2362
-5.4157 -0.7341 2.2362
-5.3860 -0.9280 2.2362
-5.3493 -1.1208 2.2362
-5.3057 -1.3121 2.2362
-5.2553 -1.5017 2.2362
-5.1981 -1.6894 2.2362
-5.1342 -1.8749 2.2362
-5.0637 -2.0581 2.2362
-4.9867 -2.2385 2.2362
-4.9032 -2.4161 2.2362
-4.8134 -2.5906 2.2362
-4.7174 -2.7618 2.2362
-4.6153 -2.9293 2.2362
-4.5072 -3.0932 2.2362
-4.3934 -3.2530 2.2362
-4.2738 -3.4086 2.2362
-4.1488 -3.5599 2.2362
-4.0184 -3.7066 2.2362
-3.8828 -3.8484 2.2362
-3.7422 -3.9854 2.2362
-3.5968 -4.1172 2.2362
-3.4467 -4.2437 2.2362
-3.2922 -4.3647 2.2362
-3.1335 -4.4801 2.2362
-2.9706 -4.5897 2.2362
-2.8040 -4.6934 2.2362
-2.6338 -4.7910 2.2362
-2.4601 -4.8825 2.2362
-2.2833 -4.9676 2.2362
-2.1035 -5.0464 2.2362
-1.9210 -5.1187 2.2362
-1.7361 -5.1843 2.2362
-1.5489 -5.2433 2.2362
-1.3597 -5.2955 2.2362
-1.1687 -5.3409 2.2362
-0.9763 -5.3794 2.2362
-0.7826 -5.4109 2.2362
-0.5878 -5.4355 2.2362
-0.3924 -5.4531 2.2362
-0.1964 -5.4636 2.2362
-0.0001 -5.1340 2.2362
0.1841 -5.1307 2.2362
0.3681 -5.1207 2.2362
0.5517 -5.1042 2.2362
0.7346 -5.0810 2.2362
0.9164 -5.0514 2.2362
1.0972 -5.0152 2.2362
1.2764 -4.9725 2.2362
1.4541 -4.9234 2.2362
1.6298 -4.8680 2.2362
1.7219 -4.5889 2.1350
1.8995 -4.5576 2.1509
1.9131 -4.1629 1.9958
2.2031 -4.3730 2.1331
1.9685 -3.5813 1.7803
1.9717 -3.3006 1.6749
2.1212 -3.2776 1.7008
2.2921 -3.2775 1.7424
2.9483 -3.9091 2.1331
1.8887 -2.3256 1.3052
2.4538 -2.8091 1.6250
3.3512 -3.5693 2.1331
3.4771 -3.4466 2.1331
3.5985 -3.3195 2.1331
3.6853 -3.1625 2.1159
3.7963 -3.0281 2.1159
3.9025 -2.8898 2.1159
4.0036 -2.7478 2.1159
4.1329 -2.6234 2.1331
4.2243 -2.4733 2.1331
4.3103 -2.3200 2.1331
4.3907 -2.1638 2.1331
4.4655 -2.0047 2.1331
4.5344 -1.8431 2.1331
4.5976 -1.6791 2.1331
4.6548 -1.5129 2.1331
4.7060 -1.3449 2.1331
4.7511 -1.1750 2.1331
4.7901 -1.0037 2.1331
4.8230 -0.8311 2.1331
4.8496 -0.6574 2.1331
4.8699 -0.4829 2.1331
4.8840 -0.3078 2.1331
4.8918 -0.1322 2.1331
4.8933 0.0435 2.1331
4.8885 0.2191 2.1331
4.8774 0.3944 2.1331
4.8600 0.5692 2.1331
4.8363 0.7433 2.1331
4.8064 0.9164 2.1331
4.7703 1.0884 2.1331
4.7281 1.2589 2.1331
4.6798 1.4278 2.1331
4.6254 1.5948 2.1331
4.5651 1.7598 2.1331
4.4989 1.9225 2.1331
4.4269 2.0827 2.1331
4.3492 2.2403 2.1331
4.2659 2.3949 2.1331
4.1771 2.5465 2.1331
4.0830 2.6948 2.1331
3.9835 2.8396 2.1331
3.8790 2.9807 2.1331
3.7694 3.1180 2.1331
3.6550 3.2513 2.1331
3.5359 3.3803 2.1331
3.4122 3.5051 2.1331
3.2842 3.6253 2.1331
3.1519 3.7408 2.1331
3.0155 3.8515 2.1331
2.8753 3.9573 2.1331
2.7314 4.0579 2.1331
2.5839 4.1533 2.1331
0.8725 1.5216 0.7649
0.8173 1.5520 0.7649
0.7611 1.5803 0.7649
0.7038 1.6066 0.7649
0.6457 1.6308 0.7649
0.5868 1.6530 0.7649
0.5270 1.6730 0.7649
0.4666 1.6908 0.7649
0.4056 1.7065 0.7649
0.3441 1.7199 0.7649
0.2821 1.7312 0.7649
0.2198 1.7402 0.7649
0.1572 1.7470 0.7649
0.0944 1.7515 0.7649
0.0314 1.7538 0.7649
-0.0315 1.7538 0.7649
-0.0945 1.7515 0.7649
-0.1573 1.7470 0.7649
-0.2199 1.7402 0.7649
-0.2822 1.7312 0.7649
-0.3442 1.7199 0.7649
-0.4057 1.7065 0.7649
-0.4667 1.6908 0.7648
-0.5271 1.6730 0.7648
-0.5869 1.6530 0.7648
-0.6458 1.6308 0.7648
-0.7040 1.6066 0.7648
-0.7612 1.5803 0.7648
-0.8174 1.5520 0.7648
-0.8726 1.5216 0.7648
-0.9267 1.4893 0.7648
-0.9795 1.4551 0.7648
-3.0151 4.1493 2.2362
-3.1622 4.0384 2.2362
-3.3052 3.9224 2.2362
-3.4439 3.8013 2.2362
-3.5782 3.6753 2.2362
-3.7079 3.5445 2.2362
-3.8329 3.4092 2.2362
-3.9528 3.2695 2.2362
-4.0678 3.1255 2.2362
-4.1774 2.9775 2.2362
-4.2817 2.8257 2.2362
-4.3805 2.6703 2.2362
-4.4736 2.5114 2.2362
-4.5610 2.3492 2.2362
-4.6425 2.1840 2.2362
-4.7180 2.0160 2.2362
-4.7874 1.8454 2.2362
-4.8507 1.6724 2.2362
-4.9077 1.4972 2.2362
-4.9584 1.3201 2.2362
-5.0027 1.1413 2.2362
-5.0405 0.9610 2.2362
-5.0719 0.7795 2.2362
-5.0967 0.5969 2.2362
-5.1150 0.4136 2.2362
-5.1266 0.2297 2.2362
-5.1317 0.0456 2.2362
-5.1301 -0.1387 2.2362
-5.1219 -0.3227 2.2362
-5.1072 -0.5064 2.2362
-5.0858 -0.6894 2.2362
-5.0579 -0.8715 2.2362
-5.0234 -1.0525 2.2362
-4.9825 -1.2322 2.2362
-4.9352 -1.4103 2.2362
-4.8815 -1.5865 2.2362
-4.8215 -1.7608 2.2362
-4.7552 -1.9327 2.2362
-4.6829 -2.1022 2.2362
-4.6045 -2.2690 2.2362
-4.5201 -2.4328 2.2362
-4.4300 -2.5935 2.2362
-4.3341 -2.7509 2.2362
-4.2326 -2.9047 2.2362
-4.1257 -3.0548 2.2362
-4.0134 -3.2010 2.2362
-3.8960 -3.3430 2.2362
-3.7736 -3.4807 2.2362
-3.6462 -3.6140 2.2362
-3.5142 -3.7426 2.2362
-3.3776 -3.8663 2.2362
-3.2367 -3.9851 2.2362
-3.0916 -4.0988 2.2362
-2.9425 -4.2071 2.2362
-2.7896 -4.3100 2.2362
-2.6332 -4.4074 2.2362
-2.4733 -4.4991 2.2362
-2.3102 -4.5850 2.2362
-2.1442 -4.6650 2.2362
-1.9754 -4.7389 2.2362
-1.8040 -4.8068 2.2362
-1.6303 -4.8685 2.2362
-1.4545 -4.9238 2.2362
-1.2768 -4.9729 2.2362
-1.0975 -5.0155 2.2362
-0.9168 -5.0516 2.2362
-0.7349 -5.0813 2.2362
-0.5520 -5.1044 2.2362
-0.3685 -5.1209 2.2362
-0.1844 -5.1308 2.2362
-0.0002 -4.8337 2.2362
0.1733 -4.8306 2.2362
0.3466 -4.8212 2.2362
0.5194 -4.8056 2.2362
0.6916 -4.7838 2.2362
0.8628 -4.7559 2.2362
1.0330 -4.7218 2.2362
1.2018 -4.6816 2.2362
1.3690 -4.6354 2.2362
1.5345 -4.5832 2.2362
1.6980 -4.5251 2.2362
1.7736 -4.2556 2.1331
1.9251 -4.1891 2.1331
2.0742 -4.1172 2.1331
1.8963 -3.4499 1.8215
1.9717 -3.3006 1.7789
2.2760 -3.5169 1.9383
2.6419 -3.7778 2.1331
1.8960 -2.5139 1.4570
2.2118 -2.7235 1.6235
2.3081 -2.6423 1.6235
1.8933 -2.0165 1.2800
3.2737 -3.2451 2.1331
3.3880 -3.1254 2.1331
3.4979 -3.0017 2.1331
3.5739 -2.8507 2.1157
3.6739 -2.7206 2.1157
3.8001 -2.6081 2.1331
3.8912 -2.4700 2.1331
3.9773 -2.3287 2.1331
4.0582 -2.1844 2.1331
4.1339 -2.0372 2.1331
4.2043 -1.8875 2.1331
4.2693 -1.7353 2.1331
4.3287 -1.5809 2.1331
4.3826 -1.4245 2.1331
4.4308 -1.2662 2.1331
4.4733 -1.1063 2.1331
4.5100 -0.9450 2.1331
4.5409 -0.7825 2.1331
4.5660 -0.6190 2.1331
4.5852 -0.4547 2.1331
4.5985 -0.2898 2.1331
4.6058 -0.1245 2.1331
4.6072 0.0409 2.1331
4.6027 0.2062 2.1331
4.5922 0.3713 2.1331
4.5758 0.5359 2.1331
4.5536 0.6998 2.1331
4.5254 0.8628 2.1331
4.4914 1.0247 2.1331
4.4517 1.1853 2.1331
4.4062 1.3443 2.1331
4.3550 1.5016 2.1331
4.2982 1.6569 2.1331
4.2359 1.8101 2.1331
4.1681 1.9610 2.1331
4.0950 2.1093 2.1331
4.0166 2.2549 2.1331
3.9330 2.3976 2.1331
3.8443 2.5372 2.1331
3.7507 2.6736 2.1331
3.6522 2.8064 2.1331
3.5491 2.9357 2.1331
3.4414 3.0612 2.1331
3.3292 3.1827 2.1331
3.2128 3.3002 2.1331
3.0922 3.4133 2.1331
2.9677 3.5221 2.1331
2.8393 3.6264 2.1331
2.7072 3.7259 2.1331
2.5717 3.8207 2.1331
0.8724 1.4022 0.7649
0.8215 1.4326 0.7649
0.7695 1.4612 0.7649
0.7166 1.4879 0.7649
0.6627 1.5127 0.7649
0.6079 1.5355 0.7649
0.5524 1.5563 0.7649
0.4962 1.5751 0.7649
0.4393 1.5919 0.7649
0.3819 1.6067 0.7649
0.3240 1.6194 0.7649
0.2656 1.6300 0.7649
0.2070 1.6384 0.7649
0.1480 1.6448 0.7649
0.0888 1.6491 0.7649
0.0296 1.6512 0.7649
-0.0297 1.6512 0.7649
-0.0890 1.6491 0.7649
-0.1481 1.6448 0.7649
-0.2070 1.6384 0.7649
-0.2657 1.6300 0.7648
-0.3241 1.6194 0.7648
-0.3820 1.6067 0.7648
-0.4394 1.5919 0.7648
-0.4963 1.5751 0.7648
-0.5525 1.5563 0.7648
-0.6080 1.5355 0.7648
-0.6628 1.5127 0.7648
-0.7167 1.4879 0.7648
-0.7696 1.4612 0.7648
-0.8216 1.4326 0.7648
-0.8725 1.4022 0.7648
-0.9223 1.3700 0.7647
-0.9709 1.3360 0.7647
-2.9773 3.8023 2.2362
-3.1119 3.6930 2.2362
-3.2426 3.5790 2.2362
-3.3690 3.4604 2.2362
-3.4911 3.3372 2.2362
-3.6088 3.2098 2.2362
-3.7217 3.0783 2.2362
-3.8299 2.9428 2.2362
-3.9332 2.8034 2.2362
-4.0314 2.6605 2.2362
-4.1244 2.5141 2.2362
-4.2120 2.3645 2.2362
-4.2943 2.2118 2.2362
-4.3710 2.0563 2.2362
-4.4421 1.8981 2.2362
-4.5075 1.7374 2.2362
-4.5670 1.5746 2.2362
-4.6207 1.4096 2.2362
-4.6684 1.2429 2.2362
-4.7101 1.0745 2.2362
-4.7458 0.9048 2.2362
-4.7753 0.7339 2.2362
-4.7987 0.5620 2.2362
-4.8158 0.3894 2.2362
-4.8268 0.2163 2.2362
-4.8316 0.0429 2.2362
-4.8301 -0.1306 2.2362
-4.8224 -0.3039 2.2362
-4.8085 -0.4768 2.2362
-4.7884 -0.6491 2.2362
-4.7621 -0.8206 2.2362
-4.7296 -0.9910 2.2362
-4.6911 -1.1601 2.2362
-4.6465 -1.3278 2.2362
-4.5959 -1.4938 2.2362
-4.5394 -1.6578 2.2362
-4.4771 -1.8197 2.2362
-4.4090 -1.9792 2.2362
-4.3351 -2.1363 2.2362
-4.2557 -2.2905 2.2362
-4.1708 -2.4418 2.2362
-4.0806 -2.5900 2.2362
-3.9850 -2.7348 2.2362
-3.8844 -2.8761 2.2362
-3.7787 -3.0138 2.2362
-3.6681 -3.1475 2.2362
-3.5528 -3.2771 2.2362
-3.4329 -3.4026 2.2362
-3.3086 -3.5236 2.2362
-3.1800 -3.6402 2.2362
-3.0474 -3.7520 2.2362
-2.9107 -3.8590 2.2362
-2.7704 -3.9610 2.2362
-2.6264 -4.0579 2.2362
-2.4791 -4.1496 2.2362
-2.3286 -4.2359 2.2362
-2.1751 -4.3168 2.2362
-2.0187 -4.3921 2.2362
-1.8598 -4.4617 2.2362
-1.6985 -4.5256 2.2362
-1.5349 -4.5837 2.2362
-1.3694 -4.6358 2.2362
-1.2022 -4.6820 2.2362
-1.0333 -4.7221 2.2362
-0.8632 -4.7561 2.2362
-0.6919 -4.7840 2.2362
-0.5198 -4.8057 2.2362
-0.3469 -4.8213 2.2362
-0.1736 -4.8306 2.2362
-0.0001 -4.5613 2.2362
0.1636 -4.5583 2.2362
0.3271 -4.5495 2.2362
0.4901 -4.5347 2.2362
0.6526 -4.5142 2.2362
0.8142 -4.4878 2.2362
0.9747 -4.4557 2.2362
1.1340 -4.4178 2.2362
1.2918 -4.3742 2.2362
1.4480 -4.3249 2.2362
1.6023 -4.2701 2.2362
1.7111 -4.1058 2.1809
1.8166 -3.9530 2.1331
1.9573 -3.8852 2.1331
2.0955 -3.8124 2.1331
2.1009 -3.5169 2.0087
2.2760 -3.5169 2.0541
1.9683 -2.8145 1.6841
1.9954 -2.6458 1.6250
2.0872 -2.5701 1.6235
2.1780 -2.4934 1.6235
2.2661 -2.4136 1.6235
1.8885 -1.8720 1.3040
1.9184 -1.7698 1.2800
3.3008 -2.8326 2.1331
3.4003 -2.7122 2.1331
3.4954 -2.5884 2.1331
3.5860 -2.4612 2.1331
3.6719 -2.3308 2.1331
3.7532 -2.1975 2.1331
3.8295 -2.0613 2.1331
3.9010 -1.9225 2.1331
3.9674 -1.7812 2.1331
4.0287 -1.6376 2.1331
4.0848 -1.4919 2.1331
4.1356 -1.3443 2.1331
4.1811 -1.1949 2.1331
4.2212 -1.0440 2.1331
4.2559 -0.8918 2.1331
4.2851 -0.7385 2.1331
4.3087 -0.5841 2.1331
4.3268 -0.4291 2.1331
4.3394 -0.2735 2.1331
4.3463 -0.1175 2.1331
4.3476 0.0386 2.1331
4.3434 0.1946 2.1331
4.3335 0.3504 2.1331
4.3181 0.5057 2.1331
4.2970 0.6604 2.1331
4.2705 0.8142 2.1331
4.2384 0.9670 2.1331
4.2009 1.1185 2.1331
4.1580 1.2685 2.1331
4.1097 1.4170 2.1331
4.0561 1.5635 2.1331
3.9973 1.7081 2.1331
3.9333 1.8505 2.1331
3.8643 1.9905 2.1331
3.7903 2.1279 2.1331
3.7114 2.2625 2.1331
3.6278 2.3943 2.1331
3.5394 2.5229 2.1331
3.4465 2.6484 2.1331
3.3492 2.7703 2.1331
3.2475 2.8888 2.1331
3.1417 3.0034 2.1331
3.0318 3.1143 2.1331
2.2232 2.4541 1.6252
2.8005 3.3237 2.1331
2.6794 3.4221 2.1331
0.9160 1.2607 0.7648
0.8702 1.2928 0.7649
0.8232 1.3232 0.7649
0.7752 1.3519 0.7649
0.7262 1.3789 0.7649
0.6762 1.4041 0.7649
0.6253 1.4274 0.7649
0.5737 1.4490 0.7649
0.5213 1.4686 0.7649
0.4683 1.4864 0.7649
0.4146 1.5022 0.7649
0.3604 1.5161 0.7649
0.3057 1.5281 0.7649
0.2507 1.5381 0.7649
0.1953 1.5461 0.7649
0.1397 1.5521 0.7649
0.0838 1.5561 0.7649
0.0279 1.5581 0.7649
-0.0280 1.5581 0.7649
-0.0840 1.5561 0.7648
-0.1398 1.5521 0.7648
-0.1954 1.5461 0.7648
-0.2508 1.5381 0.7648
-0.3058 1.5281 0.7648
-0.3605 1.5161 0.7648
-0.4147 1.5022 0.7648
-0.4683 1.4864 0.7648
-0.5214 1.4686 0.7648
-0.5738 1.4489 0.7648
-0.6254 1.4274 0.7648
-0.6763 1.4041 0.7648
-0.7263 1.3789 0.7648
-0.7753 1.3519 0.7648
-0.8233 1.3232 0.7647
-0.8703 1.2928 0.7647
-0.9162 1.2607 0.7647
-0.9608 1.2270 0.7647
-2.9367 3.4850 2.2362
-3.0599 3.3774 2.2362
-3.1793 3.2654 2.2362
-3.2945 3.1492 2.2362
-3.4055 3.0290 2.2362
-3.5121 2.9048 2.2362
-3.6142 2.7769 2.2362
-3.7116 2.6455 2.2362
-3.8043 2.5106 2.2362
-3.8920 2.3724 2.2362
-3.9747 2.2312 2.2362
-4.0524 2.0872 2.2362
-4.1247 1.9404 2.2362
-4.1918 1.7911 2.2362
-4.2535 1.6395 2.2362
-4.3097 1.4858 2.2362
-4.3604 1.3302 2.2362
-4.4054 1.1728 2.2362
-4.4447 1.0140 2.2362
-4.4784 0.8538 2.2362
-4.5062 0.6925 2.2362
-4.5283 0.5303 2.2362
-4.5445 0.3674 2.2362
-4.5548 0.2041 2.2362
-4.5593 0.0404 2.2362
-4.5579 -0.1233 2.2362
-4.5506 -0.2868 2.2362
-4.5375 -0.4499 2.2362
-4.5185 -0.6125 2.2362
-4.4937 -0.7744 2.2362
-4.4631 -0.9352 2.2362
-4.4267 -1.0948 2.2362
-4.3847 -1.2530 2.2362
-4.3369 -1.4096 2.2362
-4.2836 -1.5644 2.2362
-4.2248 -1.7172 2.2362
-4.1605 -1.8677 2.2362
-4.0908 -2.0159 2.2362
-4.0159 -2.1614 2.2362
-3.9358 -2.3042 2.2362
-3.8506 -2.4440 2.2362
-3.7604 -2.5807 2.2362
-3.6654 -2.7141 2.2362
-3.5657 -2.8439 2.2362
-3.4614 -2.9701 2.2362
-3.3525 -3.0925 2.2362
-3.2394 -3.2108 2.2362
-3.1221 -3.3251 2.2362
-3.0008 -3.4350 2.2362
-2.8756 -3.5405 2.2362
-2.7467 -3.6415 2.2362
-2.6142 -3.7377 2.2362
-2.4784 -3.8292 2.2362
-2.3394 -3.9157 2.2362
-2.1973 -3.9972 2.2362
-2.0525 -4.0735 2.2362
-1.9050 -4.1445 2.2362
-1.7550 -4.2102 2.2362
-1.6027 -4.2705 2.2362
-1.4484 -4.3253 2.2362
-1.2922 -4.3745 2.2362
-1.1344 -4.4181 2.2362
-0.9751 -4.4559 2.2362
-0.8145 -4.4880 2.2362
-0.6529 -4.5144 2.2362
-0.4904 -4.5349 2.2362
-0.3274 -4.5495 2.2362
-0.1639 -4.5583 2.2362
-0.0001 -4.3127 2.2362
0.1546 -4.3099 2.2362
0.3092 -4.3016 2.2362
0.4634 -4.2877 2.2362
0.6170 -4.2683 2.2362
0.7698 -4.2433 2.2362
0.9216 -4.2129 2.2362
1.0722 -4.1771 2.2362
1.2214 -4.1359 2.2362
1.3691 -4.0893 2.2362
1.5150 -4.0375 2.2362
0.9045 -2.1702 1.2192
1.7211 -3.7452 2.1374
1.8507 -3.6735 2.1331
1.9813 -3.6047 2.1331
1.9059 -3.1905 1.9273
2.2347 -3.4532 2.1331
1.9683 -2.8145 1.7811
1.9682 -2.6097 1.6952
1.9820 -2.4406 1.6305
2.0594 -2.3576 1.6235
2.1426 -2.2821 1.6235
2.2231 -2.2037 1.6235
2.3008 -2.1225 1.6235
1.8884 -1.6206 1.2907
2.4470 -1.9519 1.6235
3.3050 -2.4474 2.1331
3.3906 -2.3271 2.1331
3.4719 -2.2039 2.1331
3.5487 -2.0778 2.1331
3.6209 -1.9491 2.1331
3.6885 -1.8178 2.1331
3.7513 -1.6842 2.1331
3.8092 -1.5484 2.1331
3.8623 -1.4106 2.1331
3.9104 -1.2711 2.1331
3.9534 -1.1299 2.1331
3.9913 -0.9872 2.1331
4.0241 -0.8433 2.1331
4.0517 -0.6983 2.1331
4.0741 -0.5524 2.1331
4.0912 -0.4057 2.1331
4.1030 -0.2586 2.1331
4.1096 -0.1112 2.1331
4.1109 0.0364 2.1331
4.1068 0.1840 2.1331
4.0975 0.3313 2.1331
4.0829 0.4781 2.1331
4.0630 0.6244 2.1331
4.0379 0.7698 2.1331
4.0076 0.9143 2.1331
3.9721 1.0575 2.1331
3.9315 1.1994 2.1331
3.8859 1.3398 2.1331
3.8352 1.4784 2.1331
3.7796 1.6151 2.1331
3.7191 1.7497 2.1331
3.6539 1.8821 2.1331
3.5839 2.0120 2.1331
3.5093 2.1393 2.1331
3.4302 2.2639 2.1331
3.3467 2.3856 2.1331
3.2589 2.5041 2.1331
3.1668 2.6195 2.1331
3.0707 2.7315 2.1331
2.9706 2.8399 2.1331
2.2581 2.3195 1.6802
2.2284 2.4598 1.7228
2.1171 2.5126 1.7054
0.9084 1.1602 0.7648
0.8661 1.1921 0.7648
0.8228 1.2224 0.7648
0.7784 1.2511 0.7648
0.7330 1.2783 0.7648
0.6866 1.3038 0.7648
0.6393 1.3276 0.7648
0.5913 1.3497 0.7648
0.5424 1.3700 0.7648
0.4929 1.3886 0.7648
0.4427 1.4054 0.7648
0.3920 1.4204 0.7648
0.3408 1.4336 0.7648
0.2891 1.4449 0.7648
0.2370 1.4543 0.7648
0.1847 1.4619 0.7648
0.1321 1.4676 0.7648
0.0793 1.4714 0.7648
0.0264 1.4733 0.7648
-0.0265 1.4733 0.7648
-0.0794 1.4714 0.7648
-0.1321 1.4676 0.7648
-0.1847 1.4619 0.7648
-0.2371 1.4543 0.7648
-0.2892 1.4449 0.7648
-0.3409 1.4336 0.7648
-0.3921 1.4204 0.7648
-0.4428 1.4054 0.7648
-0.4930 1.3886 0.7648
-0.5425 1.3700 0.7648
-0.5914 1.3497 0.7648
-0.6394 1.3276 0.7648
-0.6867 1.3038 0.7648
-0.7331 1.2783 0.7647
-0.7785 1.2511 0.7647
-0.8229 1.2224 0.7647
-0.8663 1.1921 0.7647
-0.9085 1.1602 0.7647
-0.9496 1.1268 0.7647
-2.8933 3.1934 2.2362
-3.0061 3.0876 2.2362
-3.1151 2.9777 2.2362
-3.2200 2.8640 2.2362
-3.3208 2.7466 2.2362
-3.4174 2.6257 2.2362
-3.5095 2.5014 2.2362
-3.5971 2.3738 2.2362
-3.6800 2.2432 2.2362
-3.7583 2.1097 2.2362
-3.8317 1.9735 2.2362
-3.9001 1.8347 2.2362
-3.9635 1.6935 2.2362
-4.0218 1.5502 2.2362
-4.0750 1.4049 2.2362
-4.1229 1.2577 2.2362
-4.1654 1.1089 2.2362
-4.2026 0.9587 2.2362
-4.2344 0.8072 2.2362
-4.2608 0.6547 2.2362
-4.2816 0.5014 2.2362
-4.2969 0.3474 2.2362
-4.3067 0.1929 2.2362
-4.3110 0.0382 2.2362
-4.3096 -0.1166 2.2362
-4.3027 -0.2712 2.2362
-4.2903 -0.4255 2.2362
-4.2724 -0.5792 2.2362
-4.2489 -0.7322 2.2362
-4.2200 -0.8843 2.2362
-4.1856 -1.0352 2.2362
-4.1458 -1.1848 2.2362
-4.1007 -1.3328 2.2362
-4.0503 -1.4792 2.2362
-3.9946 -1.6236 2.2362
-3.9338 -1.7660 2.2362
-3.8679 -1.9061 2.2362
-3.7971 -2.0437 2.2362
-3.7213 -2.1787 2.2362
-3.6408 -2.3109 2.2362
-3.5555 -2.4401 2.2362
-3.4657 -2.5662 2.2362
-3.3714 -2.6890 2.2362
-3.2728 -2.8083 2.2362
-3.1699 -2.9240 2.2362
-3.0629 -3.0359 2.2362
-2.9520 -3.1439 2.2362
-2.8373 -3.2479 2.2362
-2.7189 -3.3476 2.2362
-2.5970 -3.4431 2.2362
-2.4718 -3.5341 2.2362
-2.3434 -3.6206 2.2362
-2.2119 -3.7024 2.2362
-2.0776 -3.7794 2.2362
-1.9406 -3.8515 2.2362
-1.8012 -3.9187 2.2362
-0.9047 -2.1704 1.2192
-1.5154 -4.0378 2.2362
-1.3695 -4.0896 2.2362
-1.2218 -4.1362 2.2362
-1.0726 -4.1773 2.2362
-0.9220 -4.2131 2.2362
-0.7702 -4.2435 2.2362
-0.6173 -4.2684 2.2362
-0.4637 -4.2878 2.2362
-0.3095 -4.3017 2.2362
-0.1550 -4.3100 2.2362
-0.0001 -4.0849 2.2362
0.1465 -4.0823 2.2362
0.2929 -4.0744 2.2362
0.4389 -4.0612 2.2362
0.5844 -4.0428 2.2362
0.3976 -2.1918 1.2195
0.4760 -2.1757 1.2193
0.5536 -2.1568 1.2190
0.6305 -2.1350 1.2187
0.7065 -2.1104 1.2184
0.7816 -2.0830 1.2180
0.8556 -2.0529 1.2176
1.7055 -3.7113 2.2362
1.7529 -3.4795 2.1331
1.8766 -3.4143 2.1331
1.9979 -3.3447 2.1331
2.1167 -3.2708 2.1331
2.2327 -3.1927 2.1331
1.9725 -2.6154 1.7936
1.9681 -2.4235 1.7094
0.9183 -1.0513 0.7643
2.0294 -2.1616 1.6235
2.1057 -2.0873 1.6235
2.1792 -2.0104 1.6235
2.2500 -1.9308 1.6235
2.3178 -1.8488 1.6235
1.8884 -1.3984 1.2867
2.4443 -1.6777 1.6235
3.2885 -2.0875 2.1331
3.3613 -1.9681 2.1331
3.4297 -1.8461 2.1331
3.4937 -1.7218 2.1331
3.5532 -1.5953 2.1331
3.6081 -1.4667 2.1331
3.6583 -1.3362 2.1331
3.7039 -1.2040 2.1331
3.7446 -1.0702 2.1331
3.7805 -0.9351 2.1331
3.8116 -0.7988 2.1331
3.8377 -0.6614 2.1331
3.8589 -0.5232 2.1331
3.8751 -0.3843 2.1331
3.8864 -0.2450 2.1331
3.8926 -0.1053 2.1331
3.8938 0.0345 2.1331
3.8900 0.1742 2.1331
3.8811 0.3138 2.1331
3.8673 0.4529 2.1331
3.8485 0.5914 2.1331
3.8247 0.7292 2.1331
