ply
format ascii 1.0
element vertex 2125
property float32 x
property float32 y
property float32 z
end_header
-10.2079 -4.5816 0.0503
-10.2076 -5.0292 0.0502
-10.2072 -5.4929 0.0502
-10.2068 -5.9748 0.0503
-10.2065 -6.4774 0.0505
-10.2061 -7.0033 0.0507
-10.2056 -7.5559 0.0511
-10.2052 -8.1385 0.0516
-10.2047 -8.7555 0.0522
-10.2042 -9.4116 0.0530
-10.2037 -10.1127 0.0539
-9.7237 -10.3549 0.0524
-9.2267 -10.5610 0.0509
-9.2261 -11.3587 0.0523
-12.0603 -15.9882 0.0704
-11.1826 -15.9875 0.0676
-11.0640 -17.0932 0.0696
-10.4500 -17.4906 0.0687
-10.0139 -18.2154 0.0692
-10.0110 -19.8680 0.0731
-10.0077 -21.7730 0.0779
-10.0039 -23.9994 0.0836
-6.6820 -17.8043 0.0605
-21.9821 -65.6438 0.2184
-18.9210 -73.6932 0.2365
-18.8275 -86.0422 0.2722
-12.7490 -70.2532 0.2196
-9.8260 -67.9483 0.2103
-4.3011 -39.7775 0.1222
-2.8686 -39.8798 0.1219
-2.5232 -70.2456 0.2142
-0.0002 -84.2603 2.1550
2.6401 -73.5156 1.8817
6.0417 -84.0009 2.1550
3.3851 -31.3084 0.8062
4.3933 -30.3828 0.7863
5.0277 -27.7072 0.7218
5.8218 -26.6075 0.6987
7.4356 -28.9619 0.7678
7.3045 -24.7294 0.6628
7.3023 -21.8079 0.5919
5.6139 -14.9593 0.4118
5.3064 -12.7309 0.3559
5.8510 -12.7305 0.3621
6.1009 -12.1087 0.3510
2.1110 -3.8402 0.1137
6.0634 -10.1493 0.3072
1.7903 -2.7661 0.0858
1.9264 -2.7543 0.0877
2.0774 -2.7542 0.0902
2.2368 -2.7541 0.0930
2.4028 -2.7505 0.0959
6.0654 -6.4597 0.2333
6.0649 -6.0113 0.2254
6.0102 -5.5439 0.2164
6.0597 -5.1996 0.2119
6.0594 -4.8328 0.2063
6.0592 -4.4864 0.2012
6.0589 -4.1580 0.1967
5.7785 -3.6676 0.1837
5.7783 -3.3828 0.1803
5.9701 -3.2131 0.1831
6.4018 -3.1545 0.1934
6.7816 -3.0443 0.2020
7.2513 -2.9471 0.2134
7.2485 -2.6470 0.2111
7.2457 -2.3548 0.2091
7.2429 -2.0696 0.2074
5.2957 -1.3096 0.1507
5.8432 -1.2242 0.1654
5.8430 -1.0067 0.1649
5.8428 -0.7919 0.1645
5.8427 -0.5792 0.1643
5.8425 -0.3680 0.1644
5.8424 -0.1578 0.1647
5.8422 0.0520 0.1651
5.8421 0.2619 0.1658
5.8419 0.4725 0.1668
5.8417 0.6843 0.1679
5.8416 0.8979 0.1692
6.6866 1.2750 0.1955
6.6864 1.5256 0.1976
6.6862 1.7803 0.2000
6.6860 2.0400 0.2027
9.7872 3.3747 0.3011
9.7869 3.7729 0.3059
9.7866 4.1822 0.3113
9.4951 4.4673 0.3078
8.6727 4.4674 0.2870
8.3011 4.6604 0.2808
8.3020 5.0612 0.2876
7.7036 5.0844 0.2737
7.1321 5.0840 0.2604
6.6837 5.1359 0.2512
6.6834 5.5284 0.2591
6.6831 5.9448 0.2678
6.9847 6.6774 0.2899
6.6045 6.7841 0.2847
6.2915 6.9448 0.2823
6.0526 7.1834 0.2836
5.8506 7.4724 0.2870
5.6981 7.8421 0.2937
5.7292 8.5114 0.3114
6.4795 10.4147 0.3728
6.0234 10.5045 0.3686
6.2796 11.9237 0.4108
5.8919 12.2336 0.4145
6.5225 14.8878 0.4967
5.9932 15.1360 0.4980
5.8240 16.4064 0.5331
6.1006 19.3641 0.6222
6.2160 22.5217 0.7166
5.7054 24.0003 0.7571
6.3963 31.9666 1.0011
5.6822 34.8603 1.0851
5.9333 46.9642 1.4548
5.2518 58.3488 1.8008
2.8371 52.6271 1.6202
1.3050 72.6895 2.2350
-1.3055 72.6968 2.2350
-3.9152 72.6181 2.2350
-6.3879 70.9683 2.1892
-8.7009 68.8681 2.1317
-7.2249 44.3233 1.3784
-12.4235 62.0870 1.9422
-12.8533 54.0670 1.7034
-14.0475 50.8952 1.6169
-15.1759 48.1693 1.5452
-15.2833 43.0521 1.3961
-15.7053 39.6636 1.3023
-17.4730 39.8822 1.3275
-17.6663 36.6812 1.2396
-16.4286 31.1944 1.0719
-16.4266 28.6468 1.0024
-16.4250 26.4000 0.9423
-16.4235 24.3989 0.8898
-16.4722 22.6699 0.8462
-16.4710 21.0365 0.8052
-16.4699 19.5467 0.7688
-16.4688 18.1789 0.7362
-16.4679 16.9156 0.7070
-16.4412 15.7176 0.6796
-16.4662 14.6470 0.6569
-17.2385 14.2592 0.6653
-18.5552 14.2582 0.6941
-6.5939 4.7003 0.2396
-21.5997 14.2559 0.7637
-19.4427 11.8528 0.6701
-18.0566 10.1373 0.6077
-23.4034 12.0552 0.7704
-26.3998 12.4206 0.8513
-33.3389 14.2470 1.0548
-18.0830 6.9710 0.5621
-18.3734 6.3353 0.5620
-23.3997 7.1395 0.7053
-46.9856 12.5109 1.3974
-26.3950 6.0225 0.7756
-26.3943 5.0330 0.7673
-26.3935 4.0570 0.7601
-26.3928 3.0918 0.7540
-23.3958 1.8924 0.6638
-44.1810 1.9809 1.2466
-40.9249 0.3644 1.1498
-42.3738 -1.1444 1.1870
-23.3933 -1.4735 0.6542
-48.8774 -4.8453 1.3663
-34.9962 -4.7431 0.9792
-27.0692 -4.6637 0.7591
-15.7970 -3.3095 0.4446
-13.3761 -3.3077 0.3783
-11.5711 -3.3063 0.3293
-10.1702 -3.3053 0.2917
-9.2322 -3.3714 0.2672
-9.2319 -3.7521 0.2701
-10.2076 -4.5821 0.3023
-10.2072 -5.0297 0.3065
-10.2069 -5.4933 0.3113
-10.2065 -5.9753 0.3167
-10.2061 -6.4778 0.3228
-10.2057 -7.0038 0.3296
-10.2053 -7.5563 0.3372
-10.2048 -8.1389 0.3456
-10.2043 -8.7559 0.3551
-10.2038 -9.4121 0.3657
-10.2033 -10.1131 0.3775
-9.7230 -10.3549 0.3724
-9.2267 -10.5618 0.3668
-9.2261 -11.3595 0.3819
-12.0595 -15.9882 0.5216
-11.1818 -15.9875 0.5071
-11.0640 -17.0943 0.5283
-10.4494 -17.4906 0.5276
-10.0139 -18.2165 0.5374
-10.0110 -19.8692 0.5743
-10.0077 -21.7743 0.6177
-10.0039 -24.0008 0.6693
-6.6806 -17.8015 0.4888
-21.9821 -65.6475 1.7779
-11.7722 -39.8542 1.0662
-13.7382 -53.5099 1.4162
-17.9816 -82.1806 2.1550
-12.7200 -70.0969 1.8239
-9.8258 -67.9503 1.7569
-4.3010 -39.7775 1.0235
-2.8685 -39.8798 1.0226
-2.5176 -70.0893 1.7936
-0.0002 -44.7768 2.1550
1.6068 -44.7436 2.1550
3.2111 -44.6495 2.1550
3.3848 -31.3087 1.5163
4.3930 -30.3832 1.4787
5.0277 -27.7091 1.3569
5.7983 -26.5023 1.3078
7.4350 -28.9619 1.4421
7.3045 -24.7311 1.2444
7.3023 -21.8094 1.1106
5.6135 -14.9593 0.7721
5.3060 -12.7309 0.6670
5.8507 -12.7305 0.6781
6.1004 -12.1087 0.6568
2.1106 -3.8398 0.2125
6.0634 -10.1500 0.5739
1.7804 -2.7509 0.1592
1.9262 -2.7543 0.1635
2.0772 -2.7542 0.1680
2.2366 -2.7541 0.1730
2.4026 -2.7505 0.1783
6.0696 -6.4646 0.4335
6.0688 -6.0158 0.4183
6.0102 -5.5444 0.4009
6.0597 -5.2001 0.3920
6.0594 -4.8333 0.3811
6.0592 -4.4869 0.3713
6.0589 -4.1585 0.3624
5.7785 -3.6680 0.3381
5.7783 -3.3832 0.3313
6.1282 -3.2987 0.3449
6.4009 -3.1545 0.3543
6.7806 -3.0442 0.3696
7.2514 -2.9476 0.3900
7.2485 -2.6475 0.3851
7.2457 -2.3553 0.3809
7.2430 -2.0701 0.3773
5.2945 -1.3096 0.2737
5.8432 -1.2245 0.3001
5.8430 -1.0070 0.2986
5.8428 -0.7922 0.2975
5.8427 -0.5795 0.2968
5.8425 -0.3684 0.2964
5.8424 -0.1581 0.2965
5.8422 0.0517 0.2969
5.8421 0.2616 0.2978
5.8419 0.4722 0.2990
5.8417 0.6840 0.3006
5.8416 0.8976 0.3026
6.6866 1.2746 0.3491
6.6864 1.5252 0.3523
6.6862 1.7799 0.3561
6.6860 2.0396 0.3604
9.7872 3.3741 0.5346
9.7869 3.7723 0.5425
9.7866 4.1816 0.5514
9.4964 4.4673 0.5446
8.6736 4.4673 0.5071
8.3012 4.6599 0.4956
8.3020 5.0606 0.5069
7.7044 5.0844 0.4820
7.1328 5.0840 0.4580
6.6837 5.1354 0.4413
6.6834 5.5279 0.4547
6.6831 5.9443 0.4696
7.0758 6.7639 0.5145
6.6561 6.8366 0.5022
6.4203 7.0865 0.5038
6.1673 7.3190 0.5049
5.9189 7.5590 0.5070
5.8668 8.0738 0.5275
5.7783 8.5838 0.5475
6.4800 10.4148 0.6496
5.9724 10.4149 0.6363
6.2849 11.9332 0.7154
5.7430 11.9239 0.7026
5.9841 13.6580 0.7921
6.0150 15.1901 0.8684
5.6883 16.0230 0.9042
6.0913 19.3335 1.0786
6.2163 22.5217 1.2437
5.3543 22.5223 1.2328
4.8704 24.3397 1.3222
5.5828 34.2491 1.8490
5.0143 39.6880 2.1319
3.5857 39.8373 2.1319
2.1293 39.4958 2.1083
0.7526 41.9229 2.2350
-0.7530 41.9253 2.2350
-2.2580 41.8763 2.2350
-3.7606 41.7759 2.2350
-5.2593 41.6242 2.2350
-6.4404 39.5078 2.1317
-7.8575 39.2654 2.1317
-9.2661 38.9749 2.1317
-10.6808 38.6949 2.1350
-12.0697 38.3077 2.1350
-13.4454 37.8729 2.1350
-14.8063 37.3907 2.1350
-13.0979 29.8940 1.7314
-17.4775 36.2867 2.1350
-16.4286 31.1922 1.8672
-16.4266 28.6448 1.7473
-16.4250 26.3981 1.6436
-16.4235 24.3971 1.5532
-16.4722 22.6682 1.4783
-16.4710 21.0349 1.4079
-16.4699 19.5451 1.3454
-16.4688 18.1774 1.2896
-16.4679 16.9142 1.2395
-16.4412 15.7163 1.1927
-16.4662 14.6457 1.1541
-17.2401 14.2592 1.1700
-18.5570 14.2582 1.2221
-6.5946 4.7003 0.4223
-19.1520 12.6391 1.1948
-18.9702 11.5635 1.1550
-17.5540 9.8539 1.0449
-18.1129 9.3288 1.0558
-19.3754 9.1145 1.1078
-17.6455 7.5394 0.9911
-17.5073 6.7480 0.9675
-17.9832 6.1996 0.9792
-19.3546 5.9041 1.0398
-39.6453 10.5539 2.1045
-18.2638 4.1661 0.9592
-18.2230 3.4738 0.9482
-20.1707 3.0993 1.0412
-26.3928 3.0903 1.3533
-22.5166 1.8200 1.1484
-22.5160 1.0082 1.1437
-22.5154 0.1991 1.1405
-22.5148 -0.6094 1.1387
-22.5142 -1.4194 1.1384
-22.5136 -2.2331 1.1396
-22.5130 -3.0525 1.1423
-22.5124 -3.8800 1.1465
-15.7926 -3.3095 0.8084
-13.3729 -3.3077 0.6889
-11.5687 -3.3063 0.6006
-10.1683 -3.3053 0.5328
-9.2322 -3.3719 0.4889
-9.2319 -3.7526 0.4949
-10.2072 -4.5826 0.5547
-10.2069 -5.0302 0.5632
-10.2065 -5.4938 0.5727
-10.2061 -5.9757 0.5834
-10.2058 -6.4783 0.5954
-10.2053 -7.0043 0.6087
-10.2049 -7.5568 0.6235
-10.2044 -8.1394 0.6400
-10.2039 -8.7564 0.6584
-10.2034 -9.4125 0.6788
-10.2029 -10.1135 0.7015
-9.7223 -10.3549 0.6927
-9.2267 -10.5626 0.6831
-9.2261 -11.3603 0.7120
-12.0586 -15.9882 0.9732
-11.1810 -15.9875 0.9471
-11.0640 -17.0955 0.9875
-10.4487 -17.4906 0.9871
-10.0139 -18.2177 1.0063
-10.0110 -19.8704 1.0761
-10.0077 -21.7755 1.1582
-10.0039 -24.0022 1.2558
-6.6792 -17.7987 0.9175
-14.1855 -42.3662 2.1550
-12.6624 -42.8702 2.1550
-11.1206 -43.3166 2.1550
-9.5623 -43.7046 2.1550
-7.9901 -44.0335 2.1550
-6.4060 -44.3027 2.1550
-4.3000 -39.7703 1.9254
-3.2123 -44.6610 2.1550
-1.6073 -44.7492 2.1550
-0.0002 -31.1062 2.2001
1.0815 -30.1206 2.1319
2.1616 -30.0589 2.1319
3.2385 -29.9571 2.1319
4.3005 -29.7450 2.1269
5.0061 -27.5918 1.9850
5.7979 -26.5023 1.9209
7.4346 -28.9619 2.1179
7.3045 -24.7328 1.8274
7.3023 -21.8109 1.6305
5.6131 -14.9593 1.1332
5.3057 -12.7309 0.9787
5.8502 -12.7305 0.9948
6.1000 -12.1087 0.9632
2.1103 -3.8395 0.3115
6.0634 -10.1507 0.8411
1.7802 -2.7509 0.2333
1.9261 -2.7543 0.2395
2.0771 -2.7542 0.2460
2.2365 -2.7541 0.2532
2.4024 -2.7505 0.2608
6.0737 -6.4696 0.6344
6.0729 -6.0203 0.6119
6.0102 -5.5448 0.5857
6.0597 -5.2006 0.5725
6.0594 -4.8337 0.5563
6.0592 -4.4873 0.5417
6.0589 -4.1589 0.5286
5.9394 -3.7706 0.5066
5.9392 -3.4779 0.4961
6.1604 -3.3164 0.5049
6.4001 -3.1545 0.5155
6.7795 -3.0442 0.5376
7.2515 -2.9481 0.5669
7.2486 -2.6479 0.5596
7.2458 -2.3558 0.5532
7.2431 -2.0705 0.5476
5.2932 -1.3096 0.3969
5.8432 -1.2249 0.4351
5.8430 -1.0074 0.4326
5.8428 -0.7926 0.4308
5.8427 -0.5799 0.4295
5.8425 -0.3687 0.4288
5.8424 -0.1585 0.4286
5.8422 0.0513 0.4290
5.8421 0.2613 0.4300
5.8419 0.4719 0.4315
5.8417 0.6837 0.4335
5.8416 0.8972 0.4362
6.6866 1.2742 0.5030
6.6864 1.5248 0.5074
6.6862 1.7795 0.5125
6.6860 2.0392 0.5184
9.7872 3.3735 0.7687
9.7869 3.7717 0.7797
9.7866 4.1810 0.7920
9.4976 4.4673 0.7820
8.6744 4.4671 0.7278
8.3013 4.6594 0.7108
8.3020 5.0600 0.7267
7.7052 5.0844 0.6907
7.1335 5.0840 0.6561
6.6837 5.1349 0.6319
6.6834 5.5274 0.6508
6.6831 5.9438 0.6718
7.0763 6.7638 0.7359
6.6406 6.8201 0.7162
6.3249 6.9806 0.7093
6.0844 7.2201 0.7116
5.9190 7.5587 0.7241
5.7385 7.8966 0.7367
5.7289 8.5099 0.7748
6.4804 10.4148 0.9270
5.9728 10.4149 0.9079
5.5315 10.5020 0.8980
5.7474 11.9321 1.0026
5.2660 12.0183 0.9937
5.3928 13.6181 1.1098
5.8247 16.4063 1.3196
6.1016 19.3651 1.5395
6.2167 22.5217 1.7721
5.2405 22.0421 1.7189
4.8099 24.0362 1.8601
4.5193 27.7231 2.1319
3.5205 27.8637 2.1319
2.5176 27.9696 2.1319
1.5848 29.3966 2.2350
0.5284 29.4344 2.2350
-0.5288 29.4357 2.2350
-1.5854 29.4002 2.2350
-2.6403 29.3281 2.2350
-3.6922 29.2194 2.2350
-4.7399 29.0743 2.2350
-5.7822 28.8929 2.2350
-6.5029 27.3507 2.1317
-7.4833 27.1089 2.1317
-7.7706 24.6612 1.9592
-9.4170 26.5237 2.1317
-10.3680 26.1808 2.1317
-10.4007 23.7364 1.9608
-12.2517 25.4351 2.1350
-13.1647 24.9936 2.1350
-14.0625 24.5203 2.1350
-14.9437 24.0157 2.1350
-12.8129 19.0322 1.7305
-12.8526 17.6857 1.6478
-16.4710 21.0333 2.0120
-16.4699 19.5436 1.9232
-16.4688 18.1759 1.8441
-16.4679 16.9127 1.7733
-16.4412 15.7149 1.7070
-16.4662 14.6444 1.6523
-17.2417 14.2592 1.6760
-18.5588 14.2582 1.7514
-6.6993 4.7744 0.6150
-19.0620 12.5783 1.7055
-18.8766 11.5051 1.6491
-17.5752 9.8646 1.5018
-17.9376 9.2374 1.5018
-19.3450 9.0989 1.5894
-17.5577 7.5008 1.4179
-17.4479 6.7240 1.3870
-17.6449 6.0819 1.3827
-19.1124 5.8290 1.4786
-20.6642 5.4997 1.5804
-17.8822 4.0780 1.3539
-17.8924 3.4097 1.3428
-19.4774 2.9916 1.4509
-26.3928 3.0887 1.9541
-22.5166 1.8187 1.6591
-22.5160 1.0069 1.6532
-22.5154 0.1978 1.6495
-22.5148 -0.6107 1.6479
-22.5142 -1.4207 1.6484
-22.5136 -2.2344 1.6511
-22.5130 -3.0539 1.6559
-22.5124 -3.8813 1.6630
-15.7881 -3.3095 1.1728
-13.3697 -3.3077 1.0001
-11.5662 -3.3063 0.8725
-10.1664 -3.3053 0.7744
-9.2322 -3.3725 0.7111
-9.2319 -3.7532 0.7202
-10.2069 -4.5831 0.8076
-10.2066 -5.0307 0.8204
-10.2062 -5.4943 0.8347
-10.2058 -5.9762 0.8508
-10.2054 -6.4788 0.8686
-10.2050 -7.0047 0.8885
-10.2045 -7.5572 0.9106
-10.2041 -8.1398 0.9351
-10.2035 -8.7568 0.9623
-10.2030 -9.4129 0.9925
-10.2024 -10.1139 1.0262
-9.7215 -10.3549 1.0137
-9.2267 -10.5633 1.0002
-9.2261 -11.3611 1.0428
-12.0578 -15.9882 1.4258
-11.1803 -15.9875 1.3880
-11.0640 -17.0966 1.4478
-10.4480 -17.4906 1.4476
-10.0139 -18.2188 1.4762
-10.0110 -19.8716 1.5791
-10.0077 -21.7768 1.6999
-10.0039 -24.0036 1.8436
-6.6777 -17.7960 1.3469
-10.0215 -29.9315 2.2359
-8.9458 -30.2890 2.2363
-7.8570 -30.6060 2.2368
-6.7569 -30.8840 2.2373
-5.6468 -31.1213 2.2379
-4.5263 -31.3041 2.2376
-3.3992 -31.4404 2.2369
-2.2681 -31.5342 2.2361
-1.1345 -31.5861 2.2354
-0.0002 -23.9350 2.2356
0.8586 -23.9150 2.2352
1.7159 -23.8639 2.2350
2.4524 -22.6870 2.1319
3.2644 -22.5808 2.1319
4.0623 -22.3917 2.1269
4.8622 -22.2264 2.1269
5.6552 -22.0318 2.1269
6.4403 -21.8081 2.1269
7.2164 -21.5558 2.1269
5.6127 -14.9593 1.4955
5.3053 -12.7309 1.2914
5.8498 -12.7305 1.3124
6.0720 -12.0538 1.2649
2.1099 -3.8391 0.4108
6.0634 -10.1515 1.1093
1.7801 -2.7509 0.3076
1.9259 -2.7543 0.3157
2.0769 -2.7542 0.3242
2.2363 -2.7541 0.3336
2.4022 -2.7505 0.3436
6.0779 -6.4746 0.8362
6.0769 -6.0248 0.8064
6.0102 -5.5453 0.7712
6.0597 -5.2011 0.7537
6.0594 -4.8342 0.7321
6.0592 -4.4878 0.7127
6.0589 -4.1594 0.6953
5.9567 -3.7820 0.6681
6.1393 -3.5955 0.6742
6.1596 -3.3164 0.6635
6.4582 -3.1836 0.6835
6.7785 -3.0442 0.7060
7.2516 -2.9486 0.7445
7.2487 -2.6484 0.7346
7.2459 -2.3562 0.7260
7.2431 -2.0710 0.7185
5.2919 -1.3096 0.5204
5.8432 -1.2252 0.5705
5.8430 -1.0077 0.5671
5.8428 -0.7929 0.5645
5.8427 -0.5802 0.5627
5.8425 -0.3690 0.5616
5.8424 -0.1588 0.5612
5.8422 0.0510 0.5615
5.8421 0.2609 0.5626
5.8419 0.4715 0.5644
5.8417 0.6833 0.5669
5.8416 0.8969 0.5702
6.6866 1.2739 0.6574
6.6864 1.5244 0.6630
6.6862 1.7791 0.6695
6.6860 2.0387 0.6770
9.7872 3.3729 1.0035
9.7869 3.7711 1.0176
9.7866 4.1804 1.0334
9.4989 4.4673 1.0202
8.6752 4.4670 0.9492
8.3014 4.6589 0.9268
8.3020 5.0595 0.9473
7.7060 5.0844 0.9003
7.1343 5.0840 0.8549
6.6837 5.1345 0.8231
6.6834 5.5269 0.8476
6.6831 5.9433 0.8747
7.0768 6.7637 0.9581
6.6787 6.8588 0.9375
6.3613 7.0202 0.9284
6.1181 7.2596 0.9309
5.9192 7.5584 0.9419
5.7816 7.9553 0.9654
5.7288 8.5092 1.0075
6.4807 10.4146 1.2053
5.9732 10.4149 1.1803
5.4862 10.4153 1.1578
5.7478 11.9322 1.3031
5.2111 11.8923 1.2780
4.8445 12.2329 1.2954
4.8346 13.6169 1.4231
6.1021 19.3656 2.0003
5.7759 20.9236 2.1389
5.0034 21.0438 2.1319
4.2438 21.2062 2.1319
3.4792 21.3420 2.1319
2.1588 17.0858 1.6981
1.8546 20.6033 2.0399
1.2202 22.6317 2.2350
0.4068 22.6609 2.2350
-0.4072 22.6616 2.2350
-1.2206 22.6338 2.2350
-2.0327 22.5777 2.2350
-2.8424 22.4931 2.2350
-3.6489 22.3803 2.2350
-4.4510 22.2394 2.2350
-5.2478 22.0704 2.2350
-6.0385 21.8735 2.2350
-6.5068 20.6490 2.1317
-7.2464 20.4088 2.1317
-7.9774 20.1428 2.1317
-7.7920 17.7815 1.9095
-9.4101 19.5344 2.1317
-10.1100 19.1927 2.1317
-10.2780 17.9202 2.0291
-11.4902 18.4644 2.1350
-12.1524 18.0497 2.1350
-12.7999 17.6119 2.1350
-13.4320 17.1513 2.1350
-14.0480 16.6684 2.1350
-14.6469 16.1638 2.1350
-15.2281 15.6381 2.1350
-15.7908 15.0919 2.1350
-16.3343 14.5258 2.1350
-16.8579 13.9404 2.1350
-17.3609 13.3365 2.1350
-6.6994 4.7740 0.8016
-18.3024 12.0757 2.1350
-18.7396 11.4203 2.1350
-19.1538 10.7493 2.1350
-17.9929 9.2647 1.9655
-19.9103 9.3635 2.1350
-17.4860 7.4690 1.8434
-17.3529 6.6863 1.8013
-17.6363 6.0778 1.8052
-19.1219 5.8307 1.9328
-18.2862 4.8657 1.8277
-17.8435 4.0681 1.7661
-17.8559 3.4016 1.7524
-19.4591 2.9877 1.8962
-22.0379 2.5778 2.1350
-22.1378 1.7868 2.1350
-22.5160 1.0056 2.1645
-22.5154 0.1965 2.1602
-22.5148 -0.6120 2.1588
-22.5142 -1.4220 2.1601
-16.0965 -1.5985 1.5474
-22.5130 -3.0552 2.1713
-22.4488 -3.8717 2.1750
-15.7836 -3.3095 1.5383
-13.3664 -3.3077 1.3122
-11.5638 -3.3063 1.1451
-10.1645 -3.3053 1.0166
-9.2322 -3.3731 0.9340
-9.2319 -3.7538 0.9462
-10.2066 -4.5836 1.0613
-10.2062 -5.0312 1.0784
-10.2059 -5.4948 1.0976
-10.2055 -5.9767 1.1190
-10.2050 -6.4792 1.1428
-10.2046 -7.0052 1.1692
-10.2042 -7.5577 1.1985
-10.2037 -8.1403 1.2311
-10.2032 -8.7572 1.2672
-10.2026 -9.4133 1.3073
-10.2020 -10.1143 1.3520
-9.7207 -10.3549 1.3357
-9.2267 -10.5641 1.3183
-9.2261 -11.3620 1.3747
-12.0569 -15.9882 1.8798
-11.1795 -15.9875 1.8303
-11.0640 -17.0977 1.9097
-10.4474 -17.4906 1.9095
-10.0139 -18.2200 1.9477
-10.0110 -19.8728 2.0837
-9.5102 -20.6954 2.1319
-8.7646 -21.0312 2.1319
-6.6474 -17.7162 1.7699
-7.2381 -21.6195 2.1319
-6.4593 -21.8712 2.1319
-5.9461 -23.1636 2.2351
-5.1126 -23.3695 2.2354
-4.2717 -23.5439 2.2356
-3.4247 -23.6868 2.2357
-2.5729 -23.7981 2.2359
-1.7173 -23.8774 2.2359
-0.8593 -23.9233 2.2359
-0.0002 -19.2389 2.2350
0.6902 -19.2258 2.2350
1.3795 -19.1872 2.2350
1.9937 -18.4453 2.1557
2.6247 -18.1566 2.1319
3.2740 -18.0479 2.1319
3.9096 -17.8731 2.1269
4.5475 -17.7175 2.1269
5.1791 -17.5387 2.1269
5.8036 -17.3369 2.1269
5.6123 -14.9593 1.8593
5.3049 -12.7309 1.6055
5.8494 -12.7305 1.6314
6.0648 -12.0405 1.5705
2.1096 -3.8387 0.5104
6.0634 -10.1522 1.3786
1.8019 -2.7848 0.3869
1.9258 -2.7543 0.3922
2.0767 -2.7542 0.4027
2.2361 -2.7541 0.4144
6.0270 -6.9014 1.0709
6.0821 -6.4796 1.0392
6.0810 -6.0293 1.0020
6.0102 -5.5458 0.9574
6.0597 -5.2015 0.9355
6.0594 -4.8346 0.9087
6.0592 -4.4882 0.8845
6.0589 -4.1598 0.8627
5.9561 -3.7820 0.8287
6.3394 -3.7131 0.8635
6.3392 -3.4135 0.8469
6.6421 -3.2747 0.8717
6.7774 -3.0441 0.8752
7.2516 -2.9491 0.9228
7.2488 -2.6489 0.9104
7.2460 -2.3567 0.8996
7.2438 -2.0716 0.8902
5.2906 -1.3096 0.6444
5.8432 -1.2256 0.7065
5.8430 -1.0081 0.7022
5.8428 -0.7933 0.6989
5.8427 -0.5806 0.6964
5.8425 -0.3694 0.6949
5.8424 -0.1592 0.6943
5.8422 0.0507 0.6946
5.8421 0.2606 0.6958
5.8419 0.4712 0.6979
5.8417 0.6830 0.7009
5.8416 0.8965 0.7049
6.6866 1.2735 0.8125
6.6864 1.5240 0.8192
6.6862 1.7787 0.8271
6.6860 2.0383 0.8362
9.7872 3.3723 1.2393
9.7869 3.7705 1.2566
9.7866 4.1797 1.2759
9.5002 4.4673 1.2596
8.6761 4.4669 1.1716
8.3015 4.6585 1.1437
8.3020 5.0589 1.1688
7.7068 5.0844 1.1107
7.1350 5.0840 1.0546
6.6837 5.1340 1.0151
6.6834 5.5264 1.0452
6.6831 5.9428 1.0785
7.0773 6.7636 1.1812
6.6544 6.8332 1.1515
6.4212 7.0859 1.1550
6.1682 7.3184 1.1566
5.9194 7.5581 1.1607
5.8668 8.0721 1.2070
5.7793 8.5836 1.2522
6.4812 10.4146 1.4849
5.9736 10.4150 1.4540
5.4865 10.4153 1.4261
4.9990 10.3772 1.3958
4.6129 10.5266 1.3932
4.7247 11.9296 1.5558
4.8484 13.6550 1.7574
5.2818 16.7615 2.1319
4.6757 16.9370 2.1319
4.0638 17.0911 2.1319
3.4470 17.2236 2.1319
2.8260 17.3343 2.1319
2.1589 17.0858 2.0906
1.6506 18.3357 2.2350
0.9911 18.3826 2.2350
0.3304 18.4063 2.2350
-0.3308 18.4068 2.2350
-0.9915 18.3840 2.2350
-1.6512 18.3380 2.2350
-2.3088 18.2689 2.2350
-2.9637 18.1767 2.2350
-3.6151 18.0615 2.2350
-4.2621 17.9235 2.2350
-4.9040 17.7628 2.2350
-5.5400 17.5795 2.2350
-6.1693 17.3740 2.2350
-6.4774 16.3542 2.1317
-7.0627 16.1163 2.1317
-7.6395 15.8578 2.1317
-6.5478 12.4295 1.7008
-8.7646 15.2805 2.1317
-9.3115 14.9622 2.1317
-9.8472 14.6247 2.1317
-10.3865 14.2901 2.1350
-10.8983 13.9148 2.1350
-11.3967 13.5215 2.1350
-11.8811 13.1105 2.1350
-12.3510 12.6825 2.1350
-12.8057 12.2379 2.1350
-13.2447 11.7772 2.1350
-13.6673 11.3009 2.1350
-14.0730 10.8097 2.1350
-6.6996 4.7736 0.9891
-14.8317 9.7848 2.1350
-15.1837 9.2522 2.1350
-15.5168 8.7071 2.1350
-15.8305 8.1502 2.1350
-16.1244 7.5820 2.1350
-16.3981 7.0033 2.1350
-16.6513 6.4148 2.1350
-16.8834 5.8173 2.1350
-17.0943 5.2114 2.1350
-17.2836 4.5979 2.1350
-17.4509 3.9775 2.1350
-17.5961 3.3511 2.1350
-17.7189 2.7194 2.1350
-17.8191 2.0832 2.1350
-17.8965 1.4434 2.1350
-18.2874 0.8156 2.1750
-18.3193 0.1588 2.1750
-18.3277 -0.4993 2.1750
-18.3125 -1.1578 2.1750
-16.0782 -1.5976 1.9137
-18.2109 -2.4725 2.1750
-18.1245 -3.1270 2.1750
-15.7791 -3.3095 1.9051
-13.3632 -3.3077 1.6254
-11.5613 -3.3063 1.4187
-10.1626 -3.3053 1.2599
-9.2322 -3.3736 1.1579
-9.2319 -3.7544 1.1732
-10.2063 -4.5841 1.3161
-10.2059 -5.0317 1.3376
-10.2055 -5.4953 1.3616
-10.2051 -5.9772 1.3883
-10.2047 -6.4797 1.4181
-10.2042 -7.0056 1.4511
-10.2038 -7.5581 1.4877
-10.2033 -8.1407 1.5283
-10.2028 -8.7576 1.5734
-10.2022 -9.4137 1.6234
-10.2016 -10.1147 1.6791
-9.7200 -10.3549 1.6591
-9.2267 -10.5649 1.6377
-9.2261 -11.3628 1.7081
-11.2264 -14.8879 2.1750
-10.6897 -15.2881 2.1750
-9.9377 -15.3581 2.1319
-9.3839 -15.7112 2.1319
-8.8174 -16.0439 2.1319
-8.2388 -16.3558 2.1319
-7.6491 -16.6463 2.1319
-7.0489 -16.9151 2.1319
-6.4391 -17.1619 2.1319
-6.1019 -18.2268 2.2350
-5.4451 -18.4381 2.2350
-4.7808 -18.6251 2.2350
-4.1100 -18.7877 2.2350
-3.4336 -18.9256 2.2350
-2.7525 -19.0386 2.2350
-2.0677 -19.1265 2.2350
-1.3801 -19.1893 2.2350
-0.6906 -19.2268 2.2350
-0.0002 -16.0723 2.2350
0.5765 -16.0614 2.2350
1.1524 -16.0294 2.2350
1.7116 -15.8366 2.2154
2.1926 -15.1689 2.1319
2.7351 -15.0785 2.1319
3.2740 -14.9683 2.1319
3.8083 -14.8385 2.1319
4.3374 -14.6894 2.1319
4.8606 -14.5210 2.1319
5.2656 -14.0360 2.0876
5.3046 -12.7309 1.9211
5.8490 -12.7305 1.9521
6.0648 -12.0413 1.8792
2.1092 -3.8384 0.6106
6.0634 -10.1529 1.6494
6.0628 -9.3708 1.5573
1.9232 -2.7508 0.4685
2.0766 -2.7542 0.4817
2.2331 -2.7506 0.4950
6.0265 -6.9014 1.2806
6.0864 -6.4847 1.2436
6.0851 -6.0339 1.1989
6.0102 -5.5463 1.1447
6.0597 -5.2020 1.1184
6.0594 -4.8351 1.0862
6.0592 -4.4887 1.0572
6.0589 -4.1603 1.0310
5.9554 -3.7820 0.9902
6.4557 -3.7817 1.0507
6.5393 -3.5217 1.0437
6.7248 -3.3160 1.0542
6.7763 -3.0441 1.0451
7.2517 -2.9496 1.1021
7.2488 -2.6494 1.0872
7.2460 -2.3572 1.0741
7.2450 -2.0724 1.0629
5.2893 -1.3096 0.7691
5.8432 -1.2259 0.8432
5.8430 -1.0084 0.8380
5.8428 -0.7936 0.8339
5.8427 -0.5809 0.8309
5.8425 -0.3697 0.8290
5.8424 -0.1595 0.8282
5.8422 0.0503 0.8285
5.8421 0.2602 0.8298
5.8419 0.4708 0.8322
5.8417 0.6826 0.8357
5.8416 0.8962 0.8402
6.6866 1.2730 0.9684
6.6864 1.5236 0.9763
6.6862 1.7783 0.9856
6.6860 2.0379 0.9963
9.7872 3.3717 1.4765
9.7869 3.7698 1.4968
9.7866 4.1791 1.5197
9.5015 4.4673 1.5002
8.6769 4.4667 1.3953
8.3017 4.6580 1.3618
8.3020 5.0584 1.3915
7.7076 5.0844 1.3224
7.1357 5.0840 1.2554
6.6837 5.1335 1.2082
6.6834 5.5259 1.2439
6.6831 5.9423 1.2833
7.0778 6.7636 1.4056
6.6538 6.8321 1.3698
6.4203 7.0843 1.3739
6.1438 7.2890 1.3704
5.9195 7.5577 1.3806
5.8668 8.0715 1.4356
5.7797 8.5835 1.4893
6.4816 10.4147 1.7661
5.9740 10.4150 1.7292
5.4869 10.4152 1.6959
5.0177 10.4155 1.6660
4.6618 10.6376 1.6740
4.7248 11.9292 1.8498
4.8487 13.6549 2.0895
4.4427 14.0980 2.1319
3.9330 14.2461 2.1319
3.4184 14.3760 2.1319
2.8996 14.4878 2.1319
2.3773 14.5812 2.1319
1.8520 14.6561 2.1319
1.3885 15.4239 2.2350
0.8337 15.4634 2.2350
0.2779 15.4833 2.2350
-0.2783 15.4837 2.2350
-0.8341 15.4644 2.2350
-1.3890 15.4255 2.2350
-1.9422 15.3671 2.2350
-2.4931 15.2892 2.2350
-3.0409 15.1920 2.2350
-3.5851 15.0754 2.2350
-4.1249 14.9397 2.2350
-4.6596 14.7850 2.2350
-5.1887 14.6115 2.2350
-5.7115 14.4194 2.2350
-6.2273 14.2089 2.2350
-6.4243 13.3344 2.1317
-6.5343 12.4029 2.0184
-7.3695 12.8473 2.1317
-7.8289 12.5788 2.1317
-8.2786 12.2942 2.1317
-8.7182 11.9938 2.1317
-9.1470 11.6778 2.1317
-9.5645 11.3468 2.1317
-9.9702 11.0010 2.1317
-10.3794 10.6571 2.1350
-10.7606 10.2825 2.1350
-11.1284 9.8945 2.1350
-11.4824 9.4934 2.1350
-11.8221 9.0799 2.1350
-6.6997 4.7732 1.1775
-12.4569 8.2171 2.1350
-12.7512 7.7690 2.1350
-13.0295 7.3105 2.1350
-13.2914 6.8420 2.1350
-13.5367 6.3643 2.1350
-13.7649 5.8778 2.1350
-13.9757 5.3832 2.1350
-14.1689 4.8811 2.1350
-14.3441 4.3721 2.1350
-14.5012 3.8568 2.1350
-14.6398 3.3359 2.1350
-14.7598 2.8100 2.1350
-14.8610 2.2799 2.1350
-14.9431 1.7461 2.1350
-15.2873 1.2320 2.1750
-15.3319 0.6829 2.1750
-15.3568 0.1322 2.1750
-15.3619 -0.4194 2.1750
-15.3472 -0.9712 2.1750
-15.3126 -1.5224 2.1750
-15.2582 -2.0725 2.1750
-15.1839 -2.6205 2.1750
-15.0899 -3.1659 2.1750
-13.3599 -3.3077 1.9402
-11.5589 -3.3063 1.6937
-10.1607 -3.3053 1.5043
-9.2322 -3.3742 1.3830
-9.2319 -3.7549 1.4014
-10.2059 -4.5846 1.5723
-10.2056 -5.0322 1.5981
-10.2052 -5.4958 1.6269
-10.2048 -5.9776 1.6591
-10.2043 -6.4802 1.6948
-10.2039 -7.0061 1.7344
-10.2034 -7.5586 1.7784
-10.2029 -8.1412 1.8271
-10.2024 -8.7580 1.8812
-10.2018 -9.4141 1.9412
-10.2012 -10.1150 2.0080
-9.7192 -10.3549 1.9841
-9.2267 -10.5657 1.9589
-9.2261 -11.3636 2.0432
-9.1977 -12.1984 2.1317
-8.7573 -12.5253 2.1317
-8.3058 -12.8371 2.1319
-7.8425 -13.1313 2.1319
-7.3686 -13.4086 2.1319
-6.8847 -13.6684 2.1319
-6.3915 -13.9104 2.1319
-6.1745 -14.8179 2.2350
-5.6401 -15.0333 2.2350
-5.0981 -15.2292 2.2350
-4.5491 -15.4051 2.2350
-3.9941 -15.5609 2.2350
-3.4336 -15.6963 2.2350
-2.8684 -15.8111 2.2350
-2.2994 -15.9053 2.2350
-1.7273 -15.9786 2.2350
-1.1529 -16.0308 2.2350
-0.5769 -16.0621 2.2350
-0.0002 -13.7885 2.2350
0.4945 -13.7793 2.2350
0.9886 -13.7519 2.2350
1.4813 -13.7066 2.2350
1.8809 -13.0134 2.1318
2.3464 -12.9361 2.1318
2.8087 -12.8419 2.1318
3.2671 -12.7310 2.1318
3.7212 -12.6034 2.1318
4.1704 -12.4597 2.1319
4.6138 -12.2994 2.1319
5.0510 -12.1231 2.1319
5.4813 -11.9311 2.1319
5.9181 -11.7508 2.1369
2.1089 -3.8380 0.7114
6.0634 -10.1537 1.9219
6.0628 -9.3715 1.8145
6.0623 -8.6717 1.7206
2.0738 -2.7507 0.5604
6.0614 -7.4666 1.5651
6.0260 -6.9014 1.4916
6.0864 -6.4853 1.4486
6.0878 -6.0371 1.3970
6.0102 -5.5468 1.3332
6.0597 -5.2025 1.3025
6.0594 -4.8356 1.2648
6.0592 -4.4891 1.2309
6.0589 -4.1607 1.2003
5.9547 -3.7820 1.1526
6.4549 -3.7817 1.2230
6.7393 -3.6299 1.2520
6.7391 -3.3235 1.2297
6.7753 -3.0441 1.2162
7.2518 -2.9501 1.2826
7.2489 -2.6499 1.2651
7.2465 -2.3578 1.2498
7.2462 -2.0732 1.2368
5.2880 -1.3096 0.8944
5.8432 -1.2263 0.9808
5.8430 -1.0088 0.9747
5.8428 -0.7940 0.9698
5.8427 -0.5813 0.9662
5.8425 -0.3701 0.9640
5.8424 -0.1598 0.9629
5.8422 0.0500 0.9631
5.8421 0.2599 0.9646
5.8419 0.4705 0.9673
5.8417 0.6823 0.9712
5.8416 0.8959 0.9765
6.6866 1.2726 1.1253
6.6864 1.5232 1.1344
6.6862 1.7779 1.1451
6.6860 2.0375 1.1575
9.7872 3.3711 1.7151
9.7869 3.7692 1.7386
9.7866 4.1785 1.7650
9.5028 4.4673 1.7425
8.6779 4.4667 1.6205
8.3018 4.6575 1.5812
8.3020 5.0578 1.6156
7.7084 5.0844 1.5354
7.1364 5.0840 1.4576
6.6837 5.1330 1.4025
6.6834 5.5254 1.4438
6.6831 5.9417 1.4895
7.0783 6.7635 1.6314
6.6532 6.8309 1.5896
6.4218 7.0855 1.5947
6.1687 7.3179 1.5967
5.9197 7.5574 1.6020
5.8668 8.0709 1.6657
5.7800 8.5835 1.7280
6.4820 10.4146 2.0491
5.6957 9.9291 1.9126
5.2309 9.9288 1.8756
4.7952 9.9529 1.8468
5.0735 11.5762 2.1133
4.6945 11.8518 2.1319
4.2650 12.0106 2.1319
3.8304 12.1540 2.1319
3.3909 12.2819 2.1319
2.9473 12.3943 2.1319
2.0142 10.0632 1.7175
2.0497 12.5715 2.1319
1.6741 13.2473 2.2350
1.1972 13.2983 2.2350
0.7189 13.3324 2.2350
0.2396 13.3496 2.2350
-0.2400 13.3498 2.2350
-0.7193 13.3331 2.2350
-1.1977 13.2995 2.2350
-1.6746 13.2490 2.2350
-2.1496 13.1816 2.2350
-2.6219 13.0975 2.2350
-3.0910 12.9967 2.2350
-3.5563 12.8794 2.2350
-4.0172 12.7457 2.2350
-4.4732 12.5957 2.2350
-4.9237 12.4296 2.2350
-5.3681 12.2477 2.2350
-5.8060 12.0501 2.2350
-6.2367 11.8371 2.2350
-6.3557 11.0791 2.1330
-6.7476 10.8407 2.1317
-7.1348 10.5949 2.1317
-7.5132 10.3354 2.1317
-7.8824 10.0625 2.1317
-8.2417 9.7767 2.1317
-8.5908 9.4781 2.1317
-8.9292 9.1673 2.1317
-9.2565 8.8444 2.1317
-9.5722 8.5101 2.1317
-9.8760 8.1645 2.1317
-10.1675 7.8083 2.1317
-6.6998 4.7728 1.3672
-10.7282 7.0760 2.1350
-10.9807 6.6896 2.1350
-11.2195 6.2942 2.1350
-11.4441 5.8903 2.1350
-11.6543 5.4785 2.1350
-11.8498 5.0593 2.1350
-12.0303 4.6331 2.1350
-12.1955 4.2005 2.1350
-12.3453 3.7621 2.1350
-12.4794 3.3183 2.1350
-12.5976 2.8698 2.1350
-12.6997 2.4171 2.1350
-10.1770 1.5607 1.6994
-10.1933 1.1905 1.6929
-13.1500 1.0590 2.1750
-13.1871 0.5866 2.1750
-13.2073 0.1129 2.1750
-13.2105 -0.3614 2.1750
-13.1966 -0.8359 2.1750
-13.1657 -1.3098 2.1750
-13.1177 -1.7825 2.1750
-13.0527 -2.2535 2.1750
-12.9707 -2.7221 2.1750
-12.8719 -3.1876 2.1750
-11.5564 -3.3063 1.9704
-10.1587 -3.3053 1.7502
-9.2322 -3.3748 1.6096
-9.2319 -3.7555 1.6311
-10.2056 -4.5851 1.8301
-10.2052 -5.0327 1.8603
-10.2048 -5.4963 1.8940
-10.2044 -5.9781 1.9316
-10.2040 -6.4806 1.9733
-10.2035 -7.0066 2.0196
-10.2030 -7.5590 2.0709
-10.2025 -8.1416 2.1278
-9.9262 -8.5217 2.1317
-9.6181 -8.8762 2.1317
-9.2971 -9.2194 2.1317
-8.9638 -9.5509 2.1317
-8.6186 -9.8701 2.1317
-8.2619 -10.1767 2.1317
-7.8941 -10.4702 2.1317
-7.5157 -10.7503 2.1317
-7.1274 -11.0164 2.1317
-6.7294 -11.2684 2.1317
-6.3378 -11.5336 2.1369
-6.1932 -12.2963 2.2350
-5.7493 -12.5136 2.2350
-5.2978 -12.7146 2.2350
-4.8391 -12.8990 2.2350
-4.3739 -13.0666 2.2350
-3.9029 -13.2173 2.2350
-3.4266 -13.3506 2.2350
-2.9457 -13.4666 2.2350
-2.4608 -13.5649 2.2350
-1.9726 -13.6455 2.2350
-1.4818 -13.7082 2.2350
-0.9890 -13.7530 2.2350
-0.4949 -13.7798 2.2350
-0.0002 -12.0621 2.2350
0.4326 -12.0540 2.2350
0.8647 -12.0301 2.2350
1.2957 -11.9906 2.2350
1.7199 -11.9002 2.2284
2.0526 -11.3174 2.1319
2.4571 -11.2351 2.1319
2.8582 -11.1382 2.1319
3.2555 -11.0268 2.1319
3.6484 -10.9010 2.1319
4.0364 -10.7611 2.1319
4.4190 -10.6071 2.1319
4.7957 -10.4394 2.1319
5.1659 -10.2582 2.1319
2.1085 -3.8376 0.8130
5.8989 -9.8790 2.1369
6.0628 -9.3722 2.0736
6.0623 -8.6724 1.9662
2.1194 -2.8114 0.6545
6.0614 -7.4672 1.7883
6.0255 -6.9014 1.7041
6.0802 -6.4793 1.6533
6.0818 -6.0317 1.5944
6.0109 -5.5481 1.5232
6.0597 -5.2030 1.4879
6.0594 -4.8361 1.4448
6.0592 -4.4896 1.4060
6.0589 -4.1612 1.3710
5.9540 -3.7820 1.3162
6.4541 -3.7817 1.3965
7.0194 -3.7812 1.4892
8.4044 -4.1453 1.7511
6.7742 -3.0440 1.3884
7.2519 -2.9506 1.4643
7.2490 -2.6504 1.4443
7.2478 -2.3587 1.4270
7.2474 -2.0740 1.4120
5.2866 -1.3096 1.0207
5.8432 -1.2267 1.1195
5.8430 -1.0092 1.1123
5.8428 -0.7943 1.1067
5.8427 -0.5816 1.1026
5.8425 -0.3704 1.0999
5.8424 -0.1602 1.0986
5.8422 0.0496 1.0988
5.8421 0.2595 1.1004
5.8419 0.4701 1.1034
5.8417 0.6819 1.1078
5.8416 0.8955 1.1137
6.6866 1.2722 1.2834
6.6864 1.5228 1.2936
6.6862 1.7775 1.3057
6.6860 2.0371 1.3198
9.7872 3.3705 1.9555
9.7869 3.7686 1.9822
9.7866 4.1779 2.0121
9.5042 4.4673 1.9867
8.6790 4.4667 1.8474
8.3019 4.6570 1.8024
8.3020 5.0572 1.8414
7.7092 5.0844 1.7501
7.1371 5.0840 1.6613
6.6837 5.1325 1.5983
6.6834 5.5249 1.6452
6.6831 5.9412 1.6973
7.0788 6.7634 1.8589
6.6527 6.8298 1.8109
6.4221 7.0852 1.8169
6.1690 7.3177 1.8191
5.9199 7.5571 1.8251
5.8668 8.0704 1.8975
5.7804 8.5834 1.9685
5.9401 9.5433 2.1389
5.5739 9.7161 2.1319
5.2201 9.9077 2.1319
4.7952 9.9523 2.1035
4.4937 10.2527 2.1319
4.1219 10.4056 2.1319
3.7449 10.5452 2.1319
3.3633 10.6714 2.1319
2.9775 10.7839 2.1319
2.1536 9.0558 1.7740
1.8631 9.3077 1.8092
1.7999 11.0386 2.1319
1.4700 11.6320 2.2350
1.0513 11.6769 2.2350
0.6312 11.7069 2.2350
0.2104 11.7220 2.2350
-0.2107 11.7221 2.2350
-0.6316 11.7074 2.2350
-1.0517 11.6778 2.2350
-1.4705 11.6333 2.2350
-1.8876 11.5740 2.2350
-2.3023 11.5000 2.2350
-2.7141 11.4113 2.2350
-3.1226 11.3081 2.2350
-3.5273 11.1904 2.2350
-3.9276 11.0585 2.2350
-4.3230 10.9124 2.2350
-4.7131 10.7524 2.2350
-5.0973 10.5786 2.2350
-5.4753 10.3912 2.2350
-5.8464 10.1905 2.2350
-6.2103 9.9767 2.2350
-6.3474 9.4249 2.1604
-6.5950 9.0715 2.1317
-6.9187 8.8316 2.1317
-7.2338 8.5804 2.1317
-7.5398 8.3179 2.1317
-7.8365 8.0447 2.1317
-8.1233 7.7610 2.1317
-8.4000 7.4672 2.1317
-8.6661 7.1636 2.1317
-8.9213 6.8506 2.1317
-6.7000 4.7724 1.5583
-9.3979 6.1979 2.1317
-9.6186 5.8590 2.1317
-9.8271 5.5124 2.1317
-10.0233 5.1583 2.1317
-10.2067 4.7974 2.1317
-10.3931 4.4366 2.1350
-10.5507 4.0626 2.1350
-10.6949 3.6830 2.1350
-10.8256 3.2982 2.1350
-10.9424 2.9089 2.1350
-11.0453 2.5155 2.1350
-11.1340 2.1184 2.1350
-11.2086 1.7182 2.1350
-11.4799 1.3400 2.1750
-11.5264 0.9276 2.1750
-11.5582 0.5135 2.1750
-11.5751 0.0983 2.1750
-11.5771 -0.3174 2.1750
-11.5641 -0.7332 2.1750
-11.5362 -1.1484 2.1750
-11.4933 -1.5625 2.1750
-11.4356 -1.9750 2.1750
-11.3630 -2.3854 2.1750
-11.2757 -2.7930 2.1750
-11.1736 -3.1975 2.1750
-10.1568 -3.3053 1.9979
-9.2322 -3.3754 1.8378
-9.2319 -3.7561 1.8625
-10.2053 -4.5856 2.0898
-10.2049 -5.0331 2.1244
-10.0569 -5.4172 2.1317
-9.8603 -5.7772 2.1317
-9.6508 -6.1300 2.1317
-9.4285 -6.4751 2.1317
-9.1938 -6.8120 2.1317
-8.9470 -7.1404 2.1317
-8.6884 -7.4598 2.1317
-8.4182 -7.7696 2.1317
-8.1370 -8.0696 2.1317
-7.8449 -8.3593 2.1317
-7.5424 -8.6383 2.1317
-7.2299 -8.9062 2.1317
-6.9078 -9.1627 2.1317
-6.5764 -9.4073 2.1317
-6.3320 -9.7878 2.1644
-6.1731 -10.3376 2.2350
-5.7996 -10.5550 2.2350
-5.4184 -10.7587 2.2350
-5.0300 -10.9484 2.2350
-4.6348 -11.1240 2.2350
-4.2334 -11.2851 2.2350
-3.8263 -11.4315 2.2350
-3.4142 -11.5630 2.2350
-2.9975 -11.6795 2.2350
-2.5768 -11.7808 2.2350
-2.1526 -11.8666 2.2350
-1.7256 -11.9370 2.2350
-1.2962 -11.9918 2.2350
-0.8652 -12.0309 2.2350
-0.4330 -12.0544 2.2350
-0.0002 -10.7098 2.2350
0.3840 -10.7026 2.2350
0.7677 -10.6816 2.2350
1.1504 -10.6465 2.2350
1.5315 -10.5976 2.2350
1.8224 -10.0490 2.1319
2.1816 -9.9761 2.1319
2.5378 -9.8902 2.1319
2.8906 -9.7914 2.1319
3.2395 -9.6799 2.1319
3.5841 -9.5558 2.1319
3.9239 -9.4193 2.1319
4.2585 -9.2706 2.1319
4.5874 -9.1099 2.1319
2.1082 -3.8373 0.9153
5.2264 -8.7534 2.1319
5.5357 -8.5580 2.1319
5.8512 -8.3711 2.1369
2.1193 -2.8115 0.7368
6.0614 -7.4678 2.0135
6.0250 -6.9014 1.9185
6.0740 -6.4731 1.8595
6.0757 -6.0262 1.7932
6.0131 -5.5505 1.7154
6.0597 -5.2035 1.6749
6.0594 -4.8366 1.6263
6.0592 -4.4901 1.5826
6.0589 -4.1616 1.5431
5.9534 -3.7820 1.4812
6.4534 -3.7817 1.5715
7.0185 -3.7812 1.6756
8.4044 -4.1459 1.9705
6.7731 -3.0440 1.5621
7.2520 -2.9511 1.6477
7.2494 -2.6510 1.6251
7.2490 -2.3595 1.6057
7.2487 -2.0749 1.5888
5.2853 -1.3096 1.1479
5.8432 -1.2270 1.2593
5.8430 -1.0095 1.2512
5.8428 -0.7947 1.2448
5.8427 -0.5820 1.2401
5.8425 -0.3708 1.2370
5.8424 -0.1605 1.2355
5.8422 0.0493 1.2356
5.8421 0.2592 1.2373
5.8419 0.4698 1.2406
5.8417 0.6816 1.2456
5.8416 0.8951 1.2521
6.6866 1.2718 1.4428
6.6864 1.5224 1.4543
6.6862 1.7771 1.4678
6.6860 2.0367 1.4835
9.5241 3.2792 2.1389
9.3963 3.6175 2.1389
9.2565 3.9509 2.1389
9.1049 4.2790 2.1389
8.6801 4.4667 2.0763
8.3021 4.6566 2.0254
8.3020 5.0566 2.0692
7.7101 5.0844 1.9666
7.1378 5.0840 1.8667
6.6837 5.1320 1.7957
6.6834 5.5244 1.8484
6.6831 5.9407 1.9067
7.0793 6.7633 2.0885
6.6427 6.8190 2.0313
6.3269 6.9796 2.0107
6.0859 7.2186 2.0158
5.9200 7.5567 2.0501
5.7389 7.8938 2.0848
5.5735 8.2757 2.1319
5.2715 8.4686 2.1319
4.9629 8.6505 2.1319
4.6481 8.8214 2.1319
4.3274 8.9809 2.1319
4.0014 9.1289 2.1319
3.6704 9.2653 2.1319
3.3347 9.3897 2.1319
2.9950 9.5022 2.1319
2.0663 7.4832 1.6614
2.1537 9.0558 1.9922
1.8631 9.3072 2.0317
1.6803 10.3049 2.2350
1.3091 10.3581 2.2350
0.9362 10.3981 2.2350
0.5621 10.4249 2.2350
0.1873 10.4383 2.2350
-0.1877 10.4384 2.2350
-0.5625 10.4253 2.2350
-0.9366 10.3989 2.2350
-1.3096 10.3592 2.2350
-1.6809 10.3063 2.2350
-2.0502 10.2402 2.2350
-2.4169 10.1611 2.2350
-2.7807 10.0691 2.2350
-3.1409 9.9641 2.2350
-3.4973 9.8465 2.2350
-3.8494 9.7162 2.2350
-4.1966 9.5735 2.2350
-4.5387 9.4185 2.2350
-4.8750 9.2514 2.2350
-5.2053 9.0725 2.2350
-5.5292 8.8819 2.2350
-5.8461 8.6798 2.2350
-6.1557 8.4666 2.2350
-6.3410 8.0935 2.1946
-6.4396 7.6377 2.1317
-6.7118 7.4038 2.1317
-6.9755 7.1603 2.1317
-7.2306 6.9075 2.1317
-7.4765 6.6457 2.1317
-7.7131 6.3752 2.1317
-7.9399 6.0963 2.1317
-6.7001 4.7720 1.7510
-8.3633 5.5150 2.1317
-8.5593 5.2132 2.1317
-8.7445 4.9044 2.1317
-8.9186 4.5892 2.1317
-9.0814 4.2678 2.1317
-9.2327 3.9407 2.1317
-9.3722 3.6082 2.1317
-9.4998 3.2708 2.1317
-9.6153 2.9289 2.1317
-9.7186 2.5830 2.1317
-9.8094 2.2334 2.1317
-9.8878 1.8807 2.1317
-9.9534 1.5252 2.1317
-10.0063 1.1674 2.1317
-10.0463 0.8078 2.1317
-10.0735 0.4469 2.1317
-10.0876 0.0850 2.1317
-10.0888 -0.2772 2.1317
-10.0770 -0.6395 2.1317
-10.0521 -1.0012 2.1317
-10.0142 -1.3620 2.1317
-9.9634 -1.7213 2.1317
-9.8996 -2.0788 2.1317
-9.8230 -2.4338 2.1317
-9.7336 -2.7860 2.1317
-9.6315 -3.1349 2.1317
-9.2322 -3.3760 2.0680
-9.2319 -3.7567 2.0959
-9.2505 -4.1572 2.1317
-9.0991 -4.4884 2.1317
-8.9358 -4.8140 2.1317
-8.7607 -5.1336 2.1317
-8.5742 -5.4467 2.1317
-8.3763 -5.7531 2.1317
-8.1675 -6.0522 2.1317
-7.9479 -6.3436 2.1317
-7.7178 -6.6270 2.1317
-7.4775 -6.9020 2.1317
-7.2274 -7.1682 2.1317
-6.9677 -7.4252 2.1317
-6.6988 -7.6727 2.1317
-6.4210 -7.9104 2.1317
-6.3287 -8.3952 2.1991
-6.1232 -8.7596 2.2350
-5.8064 -8.9758 2.2350
-5.4818 -9.1805 2.2350
-5.1500 -9.3733 2.2350
-4.8114 -9.5540 2.2350
-4.4663 -9.7223 2.2350
-4.1154 -9.8780 2.2350
-3.7589 -10.0208 2.2350
-3.3974 -10.1506 2.2350
-3.0314 -10.2673 2.2350
-2.6614 -10.3705 2.2350
-2.2878 -10.4603 2.2350
-1.9112 -10.5365 2.2350
-1.5321 -10.5989 2.2350
-1.1509 -10.6475 2.2350
-0.7682 -10.6822 2.2350
-0.3844 -10.7030 2.2350
-0.0002 -9.6210 2.2350
0.3450 -9.6146 2.2350
0.6896 -9.5957 2.2350
1.0334 -9.5643 2.2350
1.3757 -9.5204 2.2350
1.7162 -9.4642 2.2350
1.9597 -8.9622 2.1319
2.2797 -8.8852 2.1319
2.5967 -8.7966 2.1319
2.9102 -8.6965 2.1319
3.2198 -8.5852 2.1319
3.5252 -8.4628 2.1319
3.8258 -8.3293 2.1319
4.1214 -8.1851 2.1319
2.1078 -3.8369 1.0186
4.6957 -7.8651 2.1319
4.9737 -7.6898 2.1319
5.2451 -7.5045 2.1319
2.1192 -2.8116 0.8200
5.7802 -7.1219 2.1369
6.0245 -6.9014 2.1348
6.0677 -6.4670 2.0671
6.0697 -6.0208 1.9934
6.0152 -5.5530 1.9094
6.0597 -5.2040 1.8637
6.0594 -4.8370 1.8096
6.0592 -4.4906 1.7608
6.0589 -4.1621 1.7168
5.9527 -3.7820 1.6478
6.4526 -3.7817 1.7481
7.0176 -3.7812 1.8638
8.1929 -4.0421 2.1369
6.7720 -3.0440 1.7373
7.2520 -2.9517 1.8328
7.2506 -2.6519 1.8079
7.2503 -2.3604 1.7863
7.2499 -2.0757 1.7674
5.2839 -1.3096 1.2763
5.8432 -1.2274 1.4004
5.8430 -1.0099 1.3914
5.8428 -0.7951 1.3842
5.8427 -0.5823 1.3789
5.8425 -0.3711 1.3754
5.8424 -0.1609 1.3737
5.8422 0.0489 1.3738
5.8421 0.2588 1.3756
5.8419 0.4694 1.3792
5.8417 0.6812 1.3846
5.8416 0.8948 1.3919
6.6866 1.2714 1.6037
6.6864 1.5220 1.6164
6.6862 1.7767 1.6314
6.6860 2.0363 1.6488
8.5697 2.9501 2.1389
8.4550 3.2546 2.1389
8.3296 3.5547 2.1389
8.1935 3.8501 2.1389
8.0470 4.1403 2.1389
7.8904 4.4250 2.1389
7.7237 4.7038 2.1389
7.5472 4.9764 2.1389
7.1386 5.0840 2.0742
6.6837 5.1315 1.9950
6.6834 5.5238 2.0535
6.6831 5.9402 2.1182
6.5266 6.2348 2.1389
6.2967 6.4632 2.1389
6.0589 6.6834 2.1389
5.8134 6.8949 2.1389
5.5424 7.0742 2.1319
5.2835 7.2669 2.1319
5.0180 7.4503 2.1319
4.7462 7.6241 2.1319
4.4684 7.7881 2.1319
4.1850 7.9421 2.1319
3.8964 8.0859 2.1319
3.6029 8.2193 2.1319
3.3049 8.3422 2.1319
1.8877 5.3148 1.3402
2.2553 7.1549 1.7828
1.8650 6.7538 1.6653
2.0753 8.7256 2.1319
1.7604 8.7939 2.1319
1.5131 9.2789 2.2350
1.1788 9.3268 2.2350
0.8430 9.3628 2.2350
0.5062 9.3869 2.2350
0.1687 9.3991 2.2350
-0.1690 9.3992 2.2350
-0.5066 9.3873 2.2350
-0.8434 9.3635 2.2350
-1.1793 9.3277 2.2350
-1.5136 9.2800 2.2350
-1.8461 9.2204 2.2350
-2.1764 9.1491 2.2350
-2.5039 9.0661 2.2350
-2.8282 8.9715 2.2350
-3.1491 8.8654 2.2350
-3.4660 8.7479 2.2350
-3.7786 8.6193 2.2350
-4.0865 8.4796 2.2350
-4.3893 8.3290 2.2350
-4.6866 8.1677 2.2350
-4.9780 7.9959 2.2350
-5.2632 7.8138 2.2350
-5.5418 7.6216 2.2350
-5.8134 7.4196 2.2350
-6.0778 7.2080 2.2350
-6.3345 6.9870 2.2350
-6.3467 6.5143 2.1547
-6.5085 6.2171 2.1317
-6.7297 5.9813 2.1317
-6.9424 5.7376 2.1317
-7.1463 5.4864 2.1317
-6.7002 4.7716 1.9456
-7.5268 4.9628 2.1317
-7.7029 4.6910 2.1317
-7.8692 4.4130 2.1317
-8.0256 4.1291 2.1317
-8.1718 3.8398 2.1317
-8.3076 3.5452 2.1317
-8.4328 3.2460 2.1317
-8.5472 2.9423 2.1317
-8.6508 2.6346 2.1317
-8.7433 2.3232 2.1317
-8.8247 2.0086 2.1317
-8.8947 1.6912 2.1317
-8.9534 1.3714 2.1317
-9.0006 1.0495 2.1317
-9.0362 0.7261 2.1317
-9.0602 0.4014 2.1317
-9.0726 0.0759 2.1317
-9.0732 -0.2499 2.1317
-9.0622 -0.5756 2.1317
-9.0394 -0.9009 2.1317
-9.0050 -1.2253 2.1317
-8.9589 -1.5483 2.1317
-8.9011 -1.8696 2.1317
-8.8318 -2.1888 2.1317
-8.7511 -2.5054 2.1317
-8.6590 -2.8189 2.1317
-8.5556 -3.1291 2.1317
-8.4410 -3.4354 2.1317
-8.3154 -3.7375 2.1317
-8.1790 -4.0351 2.1317
-8.0318 -4.3275 2.1317
-7.8742 -4.6146 2.1317
-7.7062 -4.8959 2.1317
-7.5282 -5.1711 2.1317
-7.3402 -5.4397 2.1317
-7.1426 -5.7014 2.1317
-6.9356 -5.9559 2.1317
-6.7195 -6.2028 2.1317
-6.4945 -6.4418 2.1317
-6.3361 -6.7527 2.1573
-6.3107 -7.2287 2.2350
-6.0488 -7.4524 2.2350
-5.7790 -7.6665 2.2350
-5.5015 -7.8708 2.2350
-5.2167 -8.0649 2.2350
-4.9250 -8.2486 2.2350
-4.6268 -8.4216 2.2350
-4.3225 -8.5838 2.2350
-4.0124 -8.7348 2.2350
-3.6971 -8.8745 2.2350
-3.3768 -9.0027 2.2350
-3.0520 -9.1192 2.2350
-2.7232 -9.2239 2.2350
-2.3908 -9.3166 2.2350
-2.0552 -9.3971 2.2350
-1.7169 -9.4654 2.2350
-1.3763 -9.5215 2.2350
-1.0338 -9.5651 2.2350
-0.6900 -9.5962 2.2350
-0.3453 -9.6149 2.2350
-0.0002 -8.7247 2.2350
0.3128 -8.7189 2.2350
0.6253 -8.7018 2.2350
0.9370 -8.6734 2.2350
1.2475 -8.6336 2.2350
1.5563 -8.5827 2.2350
1.7771 -8.1276 2.1319
2.0673 -8.0578 2.1319
2.3547 -7.9775 2.1319
2.6391 -7.8869 2.1319
2.9199 -7.7861 2.1319
3.1968 -7.6751 2.1319
3.4695 -7.5542 2.1319
3.7377 -7.4236 2.1319
2.1074 -3.8365 1.1230
4.2587 -7.1337 2.1319
4.5109 -6.9748 2.1319
4.7572 -6.8069 2.1319
2.1191 -2.8116 0.9040
5.2305 -6.4452 2.1319
5.4570 -6.2517 2.1319
5.6762 -6.0503 2.1319
5.9017 -5.8547 2.1369
6.0173 -5.5555 2.1057
6.0597 -5.2045 2.0545
6.0594 -4.8375 1.9948
6.0592 -4.4910 1.9410
6.0589 -4.1625 1.8924
5.9520 -3.7820 1.8160
6.4518 -3.7817 1.9265
7.0167 -3.7812 2.0540
7.4336 -3.6680 2.1369
6.7709 -3.0439 1.9144
7.2523 -2.9523 2.0199
7.2519 -2.6529 1.9927
7.2515 -2.3613 1.9688
7.2512 -2.0765 1.9479
5.2826 -1.3096 1.4060
5.8432 -1.2278 1.5431
5.8430 -1.0102 1.5331
5.8428 -0.7954 1.5251
5.8427 -0.5827 1.5192
5.8425 -0.3715 1.5153
5.8424 -0.1613 1.5134
5.8422 0.0485 1.5134
5.8421 0.2585 1.5153
5.8419 0.4690 1.5193
5.8417 0.6808 1.5252
5.8416 0.8944 1.5331
6.6866 1.2710 1.7664
6.6864 1.5216 1.7803
6.6862 1.7763 1.7967
6.6860 2.0358 1.8158
7.7817 2.6783 2.1389
7.6778 2.9549 2.1389
7.5641 3.2276 2.1389
7.4408 3.4959 2.1389
7.3080 3.7595 2.1389
7.1659 4.0182 2.1389
7.0147 4.2716 2.1389
6.8547 4.5193 2.1389
6.6859 4.7611 2.1389
6.5087 4.9966 2.1389
6.3232 5.2256 2.1389
6.1298 5.4478 2.1389
5.9285 5.6629 2.1389
5.7011 5.8514 2.1319
5.4859 6.0509 2.1319
5.2638 6.2425 2.1319
5.0350 6.4260 2.1319
4.7999 6.6013 2.1319
4.5588 6.7680 2.1319
4.3119 6.9260 2.1319
4.0596 7.0751 2.1319
3.8022 7.2152 2.1319
3.5400 7.3459 2.1319
3.2734 7.4672 2.1319
3.0027 7.5790 2.1319
1.8878 5.3148 1.4752
2.0413 6.4757 1.7760
1.8650 6.7534 1.8328
1.8954 7.9688 2.1429
1.6768 8.3761 2.2350
1.3748 8.4304 2.2350
1.0711 8.4740 2.2350
0.7660 8.5068 2.2350
0.4599 8.5287 2.2350
0.1532 8.5397 2.2350
-0.1536 8.5398 2.2350
-0.4603 8.5290 2.2350
-0.7664 8.5073 2.2350
-1.0715 8.4747 2.2350
-1.3753 8.4313 2.2350
-1.6774 8.3771 2.2350
-1.9774 8.3123 2.2350
-2.2750 8.2367 2.2350
-2.5697 8.1507 2.2350
-2.8612 8.0542 2.2350
-3.1491 7.9474 2.2350
-3.4330 7.8304 2.2350
-3.7127 7.7033 2.2350
-3.9877 7.5664 2.2350
-4.2577 7.4197 2.2350
-4.5224 7.2635 2.2350
-4.7814 7.0979 2.2350
-5.0344 6.9232 2.2350
-5.2810 6.7395 2.2350
-5.5210 6.5471 2.2350
-5.7541 6.3463 2.2350
-5.9799 6.1372 2.2350
-6.1982 5.9201 2.2350
-6.3391 5.6336 2.2107
-6.3480 5.2458 2.1461
-6.4906 4.9825 2.1317
-6.6674 4.7477 2.1317
-6.8358 4.5067 2.1317
-6.9955 4.2597 2.1317
-7.1463 4.0071 2.1317
-7.2881 3.7492 2.1317
-7.4206 3.4863 2.1317
-7.5437 3.2187 2.1317
-7.6571 2.9469 2.1317
-7.7607 2.6710 2.1317
-7.8545 2.3915 2.1317
-7.9383 2.1088 2.1317
-8.0118 1.8231 2.1317
-8.0752 1.5349 2.1317
-8.1281 1.2445 2.1317
-8.1707 0.9522 2.1317
-8.2027 0.6586 2.1317
-8.2242 0.3638 2.1317
-8.2351 0.0684 2.1317
-8.2354 -0.2273 2.1317
-8.2251 -0.5230 2.1317
-8.2041 -0.8182 2.1317
-8.1726 -1.1125 2.1317
-8.1304 -1.4057 2.1317
-8.0777 -1.6972 2.1317
-8.0146 -1.9868 2.1317
-7.9410 -2.2739 2.1317
-7.8572 -2.5584 2.1317
-7.7631 -2.8397 2.1317
-7.6588 -3.1176 2.1317
-7.5447 -3.3916 2.1317
-7.4206 -3.6614 2.1317
-7.2869 -3.9267 2.1317
-7.1437 -4.1870 2.1317
-6.9910 -4.4421 2.1317
-6.8293 -4.6915 2.1317
-6.6586 -4.9350 2.1317
-6.4791 -5.1723 2.1317
-6.3395 -5.4445 2.1481
-6.3306 -5.8443 2.2141
-6.1761 -6.1265 2.2350
-5.9538 -6.3458 2.2350
-5.7238 -6.5569 2.2350
-5.4861 -6.7597 2.2350
-5.2413 -6.9537 2.2350
-4.9895 -7.1388 2.2350
-4.7311 -7.3147 2.2350
-4.4665 -7.4812 2.2350
-4.1960 -7.6380 2.2350
-3.9200 -7.7849 2.2350
-3.6387 -7.9218 2.2350
-3.3527 -8.0483 2.2350
-3.0622 -8.1645 2.2350
-2.7677 -8.2701 2.2350
-2.4695 -8.3649 2.2350
-2.1680 -8.4488 2.2350
-1.8637 -8.5218 2.2350
-1.5569 -8.5837 2.2350
-1.2480 -8.6345 2.2350
-0.9375 -8.6740 2.2350
-0.6257 -8.7022 2.2350
-0.3132 -8.7192 2.2350
-0.0002 -7.9733 2.2350
0.2858 -7.9680 2.2350
0.5714 -7.9524 2.2350
0.8563 -7.9265 2.2350
1.1400 -7.8902 2.2350
1.4222 -7.8437 2.2350
1.7025 -7.7870 2.2350
1.9052 -7.4265 2.1499
2.1519 -7.2908 2.1319
2.4117 -7.2081 2.1319
2.6684 -7.1160 2.1319
2.9215 -7.0147 2.1319
3.1708 -6.9043 2.1319
3.4159 -6.7850 2.1319
2.1071 -3.8361 1.2285
3.8922 -6.5202 2.1319
4.1227 -6.3751 2.1319
4.3479 -6.2218 2.1319
2.1189 -2.8117 0.9890
4.7807 -5.8914 2.1319
4.9878 -5.7148 2.1319
5.1883 -5.5307 2.1319
5.3821 -5.3397 2.1319
5.5687 -5.1418 2.1319
5.7614 -4.9488 2.1369
5.9336 -4.7376 2.1369
6.0592 -4.4915 2.1232
6.0589 -4.1630 2.0701
5.9513 -3.7820 1.9862
6.4509 -3.7817 2.1069
6.6738 -3.5970 2.1369
6.7964 -3.3541 2.1369
6.7698 -3.0439 2.0934
6.9124 -2.8144 2.1056
7.0055 -2.5632 2.1053
7.0895 -2.3090 2.1050
7.1644 -2.0521 2.1047
5.2812 -1.3096 1.5372
5.8432 -1.2281 1.6874
5.8430 -1.0106 1.6764
5.8428 -0.7958 1.6677
5.8427 -0.5831 1.6612
5.8425 -0.3719 1.6568
5.8424 -0.1616 1.6547
5.8422 0.0482 1.6546
5.8421 0.2581 1.6567
5.8419 0.4687 1.6610
5.8417 0.6805 1.6674
5.8416 0.8941 1.6760
6.6866 1.2706 1.9310
6.6864 1.5211 1.9461
6.6862 1.7758 1.9640
6.6860 2.0354 1.9848
7.1193 2.4498 2.1389
7.0244 2.7030 2.1389
6.9206 2.9525 2.1389
6.8080 3.1981 2.1389
6.6867 3.4394 2.1389
6.5568 3.6762 2.1389
6.4187 3.9082 2.1389
6.2724 4.1349 2.1389
6.1181 4.3563 2.1389
5.9561 4.5719 2.1389
5.7865 4.7816 2.1389
5.5911 4.9687 2.1319
5.4077 5.1650 2.1319
5.2175 5.3546 2.1319
5.0206 5.5372 2.1319
4.8174 5.7127 2.1319
4.6082 5.8808 2.1319
4.3931 6.0413 2.1319
4.1724 6.1940 2.1319
3.9466 6.3387 2.1319
3.7157 6.4753 2.1319
3.4801 6.6036 2.1319
3.2402 6.7233 2.1319
2.2801 5.2009 1.6223
2.0915 5.2788 1.6223
1.8879 5.3148 1.6117
2.0414 6.4757 1.9404
1.8650 6.7530 2.0023
1.7260 7.2562 2.1319
1.5349 7.6667 2.2350
1.2584 7.7165 2.2350
0.9804 7.7564 2.2350
0.7011 7.7864 2.2350
0.4209 7.8064 2.2350
0.1403 7.8165 2.2350
-0.1406 7.8166 2.2350
-0.4213 7.8067 2.2350
-0.7015 7.7868 2.2350
-0.9809 7.7570 2.2350
-1.2589 7.7172 2.2350
-1.5355 7.6676 2.2350
-1.8101 7.6081 2.2350
-2.0824 7.5389 2.2350
-2.3521 7.4601 2.2350
-2.6189 7.3717 2.2350
-2.8824 7.2738 2.2350
-3.1423 7.1667 2.2350
-3.3982 7.0503 2.2350
-3.6499 6.9248 2.2350
-3.8969 6.7905 2.2350
-4.1391 6.6474 2.2350
-4.3761 6.4957 2.2350
-4.6075 6.3357 2.2350
-4.8332 6.1675 2.2350
-5.0527 5.9913 2.2350
-5.2659 5.8074 2.2350
-5.4725 5.6159 2.2350
-5.6721 5.4171 2.2350
-5.8645 5.2113 2.2350
-6.0496 4.9987 2.2350
-6.2269 4.7796 2.2350
-6.3383 4.5128 2.2147
-6.3432 4.1814 2.1618
-6.4008 3.8971 2.1317
-6.5503 3.6724 2.1355
-6.6682 3.4298 2.1317
-6.7892 3.1892 2.1317
-6.9016 2.9443 2.1317
-7.0052 2.6955 2.1317
-7.0998 2.4431 2.1317
-7.1854 2.1873 2.1317
-7.2618 1.9286 2.1317
-7.3288 1.6672 2.1317
-7.3866 1.4035 2.1317
-7.4348 1.1378 2.1317
-7.4735 0.8705 2.1317
-7.5025 0.6019 2.1317
-7.5220 0.3323 2.1317
-7.5317 0.0621 2.1317
-7.5318 -0.2084 2.1317
-7.5221 -0.4787 2.1317
-7.5027 -0.7487 2.1317
-7.4736 -1.0178 2.1317
-7.4348 -1.2859 2.1317
-7.3864 -1.5524 2.1317
-7.3285 -1.8171 2.1317
-7.2610 -2.0797 2.1317
-7.1841 -2.3397 2.1317
-7.0979 -2.5969 2.1317
-7.0024 -2.8508 2.1317
-6.8978 -3.1013 2.1317
-6.7842 -3.3479 2.1317
-6.6618 -3.5903 2.1317
-6.5445 -3.8363 2.1362
-6.3910 -4.0612 2.1317
-6.3363 -4.3533 2.1636
-6.3314 -4.6930 2.2174
-6.2094 -4.9575 2.2350
-6.0292 -5.1785 2.2350
-5.8410 -5.3928 2.2350
-5.6452 -5.6003 2.2350
-5.4419 -5.8006 2.2350
-5.2315 -5.9935 2.2350
-5.0142 -6.1787 2.2350
-4.7903 -6.3559 2.2350
-4.5601 -6.5250 2.2350
-4.3240 -6.6856 2.2350
-4.0821 -6.8377 2.2350
-3.8348 -6.9809 2.2350
-3.5824 -7.1151 2.2350
-3.3254 -7.2400 2.2350
-3.0639 -7.3556 2.2350
-2.7984 -7.4617 2.2350
-2.5292 -7.5581 2.2350
-2.2567 -7.6447 2.2350
-1.9812 -7.7213 2.2350
