ply
format ascii 1.0
element vertex 2178
property float32 x
property float32 y
property float32 z
end_header
8.6480 1.3349 2.1382
8.5977 1.6458 2.1382
8.5765 1.9639 2.1482
8.5045 2.2722 2.1482
8.4217 2.5780 2.1482
8.3284 2.8809 2.1482
8.2245 3.1806 2.1482
8.0981 3.4715 2.1450
7.8379 3.6991 2.1085
7.6446 3.9500 2.0918
7.5036 4.2258 2.0918
7.3530 4.4967 2.0918
7.1930 4.7624 2.0918
2.5730 1.8400 0.7663
2.5069 1.9326 0.7661
6.5317 5.4207 2.0522
6.2996 5.6225 2.0394
6.0695 5.8224 2.0292
5.8410 6.0210 2.0216
5.6134 6.2188 2.0166
5.3861 6.4164 2.0142
5.1586 6.6142 2.0143
4.6716 6.4553 1.9112
4.4571 6.6496 1.9176
4.2403 6.8459 1.9265
4.1251 7.2277 1.9883
4.1254 7.8724 2.1206
3.8681 8.0742 2.1333
3.5805 8.2193 2.1333
3.2876 8.3542 2.1333
2.9896 8.4789 2.1333
2.6871 8.5930 2.1333
2.3802 8.6964 2.1333
2.0694 8.7890 2.1333
1.7550 8.8705 2.1333
1.4375 8.9409 2.1333
1.1173 9.0000 2.1333
0.7947 9.0476 2.1333
0.4701 9.0836 2.1333
0.1441 9.1080 2.1333
-0.1832 9.1207 2.1333
-0.5177 9.2392 2.1608
-0.8798 9.5509 2.2364
-1.2238 9.5275 2.2365
-1.5672 9.4920 2.2367
-1.9096 9.4440 2.2369
-2.2505 9.3835 2.2371
-2.5895 9.3107 2.2373
-2.9258 9.2244 2.2373
-3.2590 9.1257 2.2372
-3.5889 9.0149 2.2372
-3.9152 8.8923 2.2373
-4.2371 8.7580 2.2374
-4.5544 8.6117 2.2375
-4.8661 8.4532 2.2375
-5.1720 8.2827 2.2373
-5.4717 8.1011 2.2372
-5.7648 7.9084 2.2371
-6.0510 7.7049 2.2370
-6.3299 7.4908 2.2369
-6.6009 7.2664 2.2369
-6.8637 7.0319 2.2368
-7.1179 6.7878 2.2368
-7.3632 6.5342 2.2368
-7.5989 6.2713 2.2367
-7.8247 5.9996 2.2366
-8.0404 5.7195 2.2365
-8.2457 5.4314 2.2364
-8.0517 4.8992 2.1333
-8.2272 4.6105 2.1333
-8.3920 4.3153 2.1333
-8.5457 4.0140 2.1333
-8.6881 3.7070 2.1333
-8.8191 3.3949 2.1333
-8.9384 3.0779 2.1333
-9.0458 2.7566 2.1333
-9.1411 2.4314 2.1333
-9.2243 2.1029 2.1333
-9.2952 1.7714 2.1333
-9.3536 1.4374 2.1333
-9.3995 1.1015 2.1333
-9.4329 0.7641 2.1333
-9.4536 0.4257 2.1333
-9.4617 0.0868 2.1333
-9.4571 -0.2522 2.1333
-9.4399 -0.5907 2.1333
-9.4100 -0.9282 2.1333
-9.3676 -1.2643 2.1333
-9.3127 -1.5984 2.1333
-9.2455 -1.9301 2.1333
-9.1659 -2.2590 2.1333
-9.0742 -2.5845 2.1333
-8.9704 -2.9063 2.1333
-8.8591 -3.2252 2.1343
-8.9627 -3.6317 2.1907
-9.0041 -4.0298 2.2364
-8.8470 -4.3465 2.2364
-8.6783 -4.6568 2.2364
-8.4985 -4.9605 2.2364
-8.3076 -5.2570 2.2364
-8.1061 -5.5460 2.2364
-7.8942 -5.8271 2.2364
-7.6724 -6.1000 2.2364
-7.4408 -6.3642 2.2364
-7.1999 -6.6195 2.2364
-6.9500 -6.8654 2.2364
-6.6915 -7.1018 2.2364
-6.4248 -7.3282 2.2364
-6.1503 -7.5445 2.2364
-5.8684 -7.7503 2.2364
-5.5795 -7.9454 2.2364
-5.2840 -8.1297 2.2364
-4.9823 -8.3028 2.2364
-4.6750 -8.4646 2.2364
-4.3624 -8.6149 2.2364
-4.0449 -8.7535 2.2364
-3.7230 -8.8804 2.2364
-3.3972 -8.9954 2.2364
-3.0678 -9.0983 2.2364
-2.6094 -8.7656 2.1333
-2.2898 -8.8407 2.1333
-1.9682 -8.9041 2.1333
-1.6450 -8.9558 2.1333
-1.3205 -8.9958 2.1333
-0.9953 -9.0241 2.1333
-0.6698 -9.0407 2.1333
-0.3443 -9.0457 2.1333
-0.0193 -8.2076 2.1333
0.2750 -8.1921 2.1333
0.5683 -8.1661 2.1333
0.8600 -8.1297 2.1333
1.1499 -8.0830 2.1333
1.4376 -8.0261 2.1333
1.7228 -7.9591 2.1333
2.0051 -7.8821 2.1333
2.2841 -7.7953 2.1333
2.5596 -7.6988 2.1333
2.8311 -7.5927 2.1333
3.0985 -7.4772 2.1333
3.3613 -7.3525 2.1333
3.6193 -7.2188 2.1333
3.8811 -7.0927 2.1382
4.1291 -6.9411 2.1382
4.3714 -6.7811 2.1382
4.6077 -6.6128 2.1382
4.8787 -6.4911 2.1564
5.1041 -6.3055 2.1564
5.3226 -6.1123 2.1564
5.5341 -5.9117 2.1564
5.7383 -5.7041 2.1564
4.7746 -4.4164 1.7348
4.9317 -4.2429 1.7366
5.0891 -4.0692 1.7406
5.2471 -3.8946 1.7468
6.6419 -4.5687 2.1564
6.7978 -4.3242 2.1564
6.8867 -4.0403 2.1382
6.0239 -3.2487 1.8338
6.1954 -3.0587 1.8522
7.2714 -3.2701 2.1382
7.3815 -3.0052 2.1382
7.4823 -2.7368 2.1382
7.5737 -2.4650 2.1382
7.6556 -2.1904 2.1382
7.7278 -1.9131 2.1382
7.7904 -1.6335 2.1382
7.8433 -1.3520 2.1382
7.8863 -1.0689 2.1382
7.9196 -0.7844 2.1382
7.9429 -0.4989 2.1382
7.9563 -0.2128 2.1382
7.9598 0.0736 2.1382
7.9533 0.3601 2.1382
7.9370 0.6461 2.1382
7.9107 0.9315 2.1382
7.9113 1.2216 2.1482
7.8650 1.5060 2.1482
7.8089 1.7887 2.1482
7.7429 2.0694 2.1482
7.6672 2.3477 2.1482
7.5818 2.6234 2.1482
7.4868 2.8962 2.1482
7.3824 3.1656 2.1482
7.2685 3.4313 2.1482
7.1454 3.6931 2.1482
7.0131 3.9507 2.1482
6.8719 4.2036 2.1482
6.7217 4.4517 2.1482
2.5668 1.8361 0.8402
2.5066 1.9330 0.8420
6.1850 5.1346 2.1362
5.9654 5.3259 2.1231
5.7477 5.5155 2.1128
5.5314 5.7038 2.1052
5.3159 5.8913 2.1002
5.1006 6.0785 2.0979
4.8852 6.2660 2.0983
4.6704 6.4564 2.1021
4.4559 6.6506 2.1093
4.2391 6.8469 2.1193
4.0214 7.0493 2.1333
3.7702 7.1981 2.1333
3.5136 7.3381 2.1333
3.2518 7.4690 2.1333
2.9853 7.5907 2.1333
2.7142 7.7030 2.1333
2.4390 7.8057 2.1333
2.1600 7.8987 2.1333
1.8775 7.9817 2.1333
1.5918 8.0548 2.1333
1.3034 8.1176 2.1333
1.0125 8.1702 2.1333
0.7195 8.2124 2.1333
0.4249 8.2440 2.1333
0.1299 8.3282 2.1496
-0.1761 8.6755 2.2364
-0.4880 8.6757 2.2365
-0.8001 8.6650 2.2367
-1.1120 8.6429 2.2369
-1.4233 8.6095 2.2371
-1.7337 8.5649 2.2373
-2.0426 8.5089 2.2375
-2.3497 8.4418 2.2377
-2.6545 8.3634 2.2379
-2.9567 8.2739 2.2381
-3.2557 8.1733 2.2383
-3.5510 8.0610 2.2383
-3.8422 7.9379 2.2383
-4.1291 7.8041 2.2383
-4.4112 7.6598 2.2383
-4.6882 7.5051 2.2383
-4.9589 7.3393 2.2381
-5.2237 7.1635 2.2379
-5.4820 6.9781 2.2376
-5.7336 6.7831 2.2374
-5.9781 6.5789 2.2372
-6.2153 6.3659 2.2371
-6.4447 6.1441 2.2370
-6.6659 5.9139 2.2369
-6.8785 5.6755 2.2368
-7.0824 5.4292 2.2367
-7.2771 5.1754 2.2365
-7.4624 4.9144 2.2364
-7.6381 4.6466 2.2364
-7.4444 4.1710 2.1333
-7.5930 3.9037 2.1333
-7.7317 3.6310 2.1333
-7.8602 3.3532 2.1333
-7.9784 3.0707 2.1333
-8.0860 2.7840 2.1333
-8.1829 2.4933 2.1333
-8.2689 2.1991 2.1333
-8.3440 1.9020 2.1333
-8.4080 1.6021 2.1333
-8.4607 1.3001 2.1333
-8.5022 0.9963 2.1333
-8.5324 0.6912 2.1333
-8.5512 0.3852 2.1333
-8.5586 0.0786 2.1333
-8.5546 -0.2279 2.1333
-8.5392 -0.5340 2.1333
-8.5124 -0.8393 2.1333
-8.4743 -1.1432 2.1333
-8.4250 -1.4455 2.1333
-8.3644 -1.7456 2.1333
-8.2928 -2.0432 2.1333
-8.2103 -2.3378 2.1333
-8.1211 -2.6303 2.1344
-8.4000 -3.0572 2.2364
-8.2799 -3.3540 2.2364
-8.1489 -3.6460 2.2364
-8.0073 -3.9328 2.2364
-7.8553 -4.2139 2.2364
-7.6931 -4.4891 2.2364
-7.5211 -4.7578 2.2364
-7.3393 -5.0199 2.2364
-7.1482 -5.2748 2.2364
-6.9480 -5.5223 2.2364
-6.7390 -5.7621 2.2364
-6.5215 -5.9938 2.2364
-6.2958 -6.2171 2.2364
-6.0624 -6.4319 2.2364
-5.8215 -6.6377 2.2364
-5.5735 -6.8343 2.2364
-5.3187 -7.0216 2.2364
-5.0575 -7.1992 2.2364
-4.7903 -7.3670 2.2364
-4.5175 -7.5248 2.2364
-4.2395 -7.6723 2.2364
-3.9566 -7.8095 2.2364
-3.6692 -7.9362 2.2364
-3.3778 -8.0523 2.2364
-3.0827 -8.1575 2.2364
-2.7844 -8.2520 2.2364
-2.4832 -8.3355 2.2364
-2.1066 -8.1261 2.1614
-1.7876 -8.0789 2.1333
-1.4945 -8.1269 2.1333
-1.2003 -8.1643 2.1333
-0.9052 -8.1910 2.1333
-0.6098 -8.2071 2.1333
-0.3144 -8.2127 2.1333
-0.0193 -7.5089 2.1333
0.2500 -7.4955 2.1333
0.5184 -7.4725 2.1333
0.7854 -7.4399 2.1333
1.0509 -7.3980 2.1333
1.3143 -7.3466 2.1333
1.5755 -7.2860 2.1333
1.8341 -7.2163 2.1333
2.0898 -7.1375 2.1333
2.3423 -7.0498 2.1333
2.5912 -6.9533 2.1333
2.8363 -6.8482 2.1333
3.0773 -6.7346 2.1333
3.3139 -6.6127 2.1333
3.5458 -6.4827 2.1333
3.7728 -6.3447 2.1333
3.9946 -6.1989 2.1333
4.2109 -6.0456 2.1333
4.4215 -5.8848 2.1333
4.6262 -5.7170 2.1333
4.8359 -5.5551 2.1382
5.0285 -5.3732 2.1382
5.2144 -5.1848 2.1382
4.7741 -4.4170 1.8927
4.9311 -4.2436 1.8945
5.0885 -4.0697 1.8988
5.2466 -3.8952 1.9054
6.0375 -4.1539 2.1382
6.1796 -3.9318 2.1382
6.3137 -3.7050 2.1382
6.0202 -3.2473 1.9989
6.1916 -3.0575 2.0188
6.6673 -2.9990 2.1382
6.7685 -2.7561 2.1382
6.8611 -2.5100 2.1382
6.9451 -2.2608 2.1382
7.0203 -2.0089 2.1382
7.0867 -1.7546 2.1382
7.1442 -1.4982 2.1382
7.1928 -1.2400 2.1382
7.2323 -0.9802 2.1382
7.2628 -0.7193 2.1382
7.2842 -0.4575 2.1382
7.2964 -0.1950 2.1382
7.2996 0.0677 2.1382
7.3277 0.3319 2.1482
7.3124 0.5955 2.1482
7.2881 0.8585 2.1482
7.2545 1.1206 2.1482
7.2119 1.3814 2.1482
7.1602 1.6406 2.1482
7.0994 1.8980 2.1482
7.0297 2.1532 2.1482
6.9511 2.4059 2.1482
6.8637 2.6559 2.1482
6.7676 2.9028 2.1482
6.6629 3.1463 2.1482
6.5496 3.3862 2.1482
6.4280 3.6221 2.1482
6.2981 3.8538 2.1482
6.1601 4.0809 2.1482
2.5659 1.8360 0.9165
2.5063 1.9334 0.9188
5.6594 4.6998 2.1334
5.4913 4.9043 2.1333
5.3163 5.1033 2.1333
5.1343 5.2962 2.1333
4.9454 5.4827 2.1333
4.7499 5.6626 2.1333
4.5480 5.8357 2.1333
4.3398 6.0018 2.1333
4.1258 6.1605 2.1333
3.9060 6.3117 2.1333
3.6808 6.4553 2.1333
3.4504 6.5909 2.1333
3.2151 6.7183 2.1333
2.9752 6.8375 2.1333
2.7309 6.9482 2.1333
2.4826 7.0503 2.1333
2.2304 7.1436 2.1333
1.9749 7.2279 2.1333
1.7162 7.3031 2.1333
1.4546 7.3692 2.1333
1.1906 7.4259 2.1333
0.9379 7.5822 2.1644
0.6579 7.5280 2.1381
0.4041 7.8745 2.2282
0.1218 7.9229 2.2364
-0.1628 7.9327 2.2366
-0.4479 7.9322 2.2368
-0.7332 7.9215 2.2370
-1.0182 7.9005 2.2372
-1.3027 7.8692 2.2373
-1.5862 7.8276 2.2375
-1.8683 7.7756 2.2377
-2.1486 7.7134 2.2379
-2.4269 7.6410 2.2381
-2.7027 7.5584 2.2383
-2.9756 7.4658 2.2385
-3.2452 7.3631 2.2387
-3.5112 7.2507 2.2389
-3.7733 7.1284 2.2391
-4.0308 6.9962 2.2393
-4.2830 6.8539 2.2391
-4.5299 6.7019 2.2389
-4.7713 6.5410 2.2387
-5.0069 6.3712 2.2385
-5.2362 6.1927 2.2383
-5.4590 6.0058 2.2381
-5.6750 5.8108 2.2380
-5.8837 5.6079 2.2378
-6.0850 5.3971 2.2376
-6.2784 5.1790 2.2374
-6.4637 4.9537 2.2372
-6.6407 4.7217 2.2370
-6.8091 4.4832 2.2368
-6.9687 4.2385 2.2366
-7.1192 3.9880 2.2364
-7.1622 3.6815 2.2060
-7.0524 3.3114 2.1333
-7.1694 3.0579 2.1333
-7.2769 2.8002 2.1333
-7.3748 2.5387 2.1333
-7.4630 2.2736 2.1333
-7.5413 2.0054 2.1333
-7.6096 1.7343 2.1333
-7.6678 1.4610 2.1333
-7.7159 1.1856 2.1333
-7.7537 0.9086 2.1333
-7.7812 0.6304 2.1333
-7.7984 0.3513 2.1333
-7.8052 0.0719 2.1333
-7.8016 -0.2076 2.1333
-7.7877 -0.4867 2.1333
-7.7635 -0.7651 2.1333
-7.7289 -1.0423 2.1333
-7.6842 -1.3179 2.1333
-7.6292 -1.5917 2.1333
-7.5998 -1.8718 2.1433
-7.8287 -2.2284 2.2300
-7.7623 -2.5133 2.2364
-7.6634 -2.7883 2.2365
-7.5545 -3.0593 2.2365
-7.4349 -3.3256 2.2364
-7.3061 -3.5873 2.2364
-7.1679 -3.8440 2.2364
-7.0204 -4.0953 2.2364
-6.8639 -4.3408 2.2364
-6.6986 -4.5802 2.2364
-6.5246 -4.8132 2.2364
-6.3424 -5.0395 2.2364
-6.1522 -5.2587 2.2364
-5.9542 -5.4706 2.2364
-5.7488 -5.6750 2.2364
-5.5361 -5.8715 2.2364
-5.3167 -6.0599 2.2364
-5.0907 -6.2401 2.2364
-4.8586 -6.4116 2.2364
-4.6205 -6.5745 2.2364
-4.3769 -6.7284 2.2364
-4.1282 -6.8731 2.2364
-3.8746 -7.0087 2.2364
-3.6165 -7.1347 2.2364
-3.3543 -7.2512 2.2364
-3.0884 -7.3580 2.2364
-2.8192 -7.4553 2.2364
-2.5469 -7.5428 2.2366
-2.2718 -7.6196 2.2365
-1.9944 -7.6864 2.2364
-1.6885 -7.6229 2.2016
-1.3683 -7.4310 2.1333
-1.0993 -7.4660 2.1333
-0.8296 -7.4913 2.1333
-0.5594 -7.5068 2.1333
-0.2892 -7.5127 2.1333
-0.0193 -6.9128 2.1333
0.2286 -6.9011 2.1333
0.4758 -6.8805 2.1333
0.7218 -6.8512 2.1333
0.9663 -6.8131 2.1333
1.2090 -6.7664 2.1333
1.4497 -6.7112 2.1333
1.6881 -6.6475 2.1333
1.9238 -6.5755 2.1333
2.1565 -6.4952 2.1333
2.3861 -6.4069 2.1333
2.6121 -6.3105 2.1333
2.8344 -6.2063 2.1333
3.0527 -6.0944 2.1333
3.2667 -5.9750 2.1333
3.4762 -5.8482 2.1333
3.6809 -5.7143 2.1333
3.8806 -5.5733 2.1333
4.0750 -5.4255 2.1333
4.2640 -5.2711 2.1333
4.4473 -5.1102 2.1333
4.6247 -4.9432 2.1333
4.7960 -4.7701 2.1333
4.7891 -4.4321 2.0593
4.9467 -4.2580 2.0613
5.1046 -4.0836 2.0658
5.2633 -3.9084 2.0729
5.5676 -3.8315 2.1382
5.6989 -3.6267 2.1382
5.8228 -3.4176 2.1382
5.9394 -3.2044 2.1382
6.0483 -2.9873 2.1382
6.1496 -2.7666 2.1382
6.2431 -2.5426 2.1382
6.3287 -2.3156 2.1382
6.4063 -2.0857 2.1382
6.4758 -1.8534 2.1382
6.5372 -1.6188 2.1382
6.5903 -1.3822 2.1382
6.6351 -1.1440 2.1382
6.6716 -0.9043 2.1382
6.6998 -0.6635 2.1382
6.7195 -0.4219 2.1382
6.7623 -0.1807 2.1482
6.7651 0.0629 2.1482
6.7595 0.3064 2.1482
6.7453 0.5496 2.1482
6.7227 0.7923 2.1482
6.6916 1.0340 2.1482
6.6521 1.2746 2.1482
6.6042 1.5137 2.1482
6.5480 1.7511 2.1482
6.4835 1.9865 2.1482
6.3829 2.2100 2.1389
6.3014 2.4391 2.1386
6.2114 2.6651 2.1381
6.1135 2.8879 2.1376
6.0079 3.1071 2.1371
5.8947 3.3227 2.1366
5.7739 3.5342 2.1361
5.6458 3.7414 2.1356
2.5649 1.8358 0.9938
2.5061 1.9338 0.9966
5.2184 4.3350 2.1342
5.0620 4.5224 2.1336
4.8996 4.7049 2.1333
4.7314 4.8823 2.1333
4.5570 5.0539 2.1333
4.3764 5.2194 2.1333
4.1900 5.3785 2.1333
3.9979 5.5311 2.1333
3.8003 5.6770 2.1333
3.5975 5.8159 2.1333
3.3897 5.9476 2.1333
3.1772 6.0721 2.1333
2.9602 6.1890 2.1333
2.7389 6.2982 2.1333
2.5137 6.3997 2.1333
2.2848 6.4931 2.1333
2.0524 6.5784 2.1333
1.8169 6.6555 2.1333
1.5785 6.7241 2.1333
1.3376 6.7843 2.1333
1.0945 6.8359 2.1333
0.8686 7.0349 2.1817
0.6317 7.2470 2.2364
0.3717 7.2739 2.2365
0.1105 7.2916 2.2367
-0.1514 7.2999 2.2368
-0.4137 7.2988 2.2370
-0.6762 7.2882 2.2372
-0.9383 7.2682 2.2374
-1.1999 7.2386 2.2375
-1.4605 7.1996 2.2377
-1.7198 7.1512 2.2379
-1.9775 7.0934 2.2381
-2.2332 7.0261 2.2383
-2.4866 6.9496 2.2385
-2.7372 6.8638 2.2387
-2.9849 6.7688 2.2389
-3.2291 6.6648 2.2391
-3.4697 6.5519 2.2392
-3.7061 6.4301 2.2394
-3.9376 6.2987 2.2393
-4.1643 6.1587 2.2391
-4.3858 6.0104 2.2389
-4.6019 5.8540 2.2387
-4.8123 5.6896 2.2385
-5.0166 5.5176 2.2383
-5.2147 5.3380 2.2381
-5.4061 5.1512 2.2379
-5.5906 4.9573 2.2377
-5.7680 4.7567 2.2375
-5.9379 4.5497 2.2373
-6.1002 4.3364 2.2371
-6.2547 4.1172 2.2370
-6.4010 3.8924 2.2368
-6.5391 3.6622 2.2367
-6.6686 3.4271 2.2365
-6.7894 3.1872 2.2364
-6.8613 2.9260 2.2233
-6.8157 2.6223 2.1759
-6.7718 2.3307 2.1333
-6.8526 2.0873 2.1333
-6.9244 1.8411 2.1333
-6.9870 1.5923 2.1333
-7.0404 1.3413 2.1333
-7.0845 1.0885 2.1333
-7.1191 0.8342 2.1333
-7.1444 0.5788 2.1333
-7.1602 0.3227 2.1333
-7.1665 0.0662 2.1333
-7.1633 -0.1904 2.1333
-7.1507 -0.4466 2.1333
-7.1285 -0.7022 2.1333
-7.1262 -0.9606 2.1421
-7.2193 -1.2378 2.1826
-7.3444 -1.5317 2.2364
-7.2821 -1.7930 2.2364
-7.2104 -2.0518 2.2365
-7.1293 -2.3077 2.2365
-7.0388 -2.5602 2.2366
-6.9391 -2.8092 2.2367
-6.8303 -3.0542 2.2368
-6.7127 -3.2950 2.2369
-6.5861 -3.5310 2.2369
-6.4507 -3.7619 2.2368
-6.3071 -3.9875 2.2367
-6.1554 -4.2075 2.2366
-5.9958 -4.4217 2.2366
-5.8287 -4.6298 2.2365
-5.6542 -4.8315 2.2365
-5.4726 -5.0265 2.2365
-5.2842 -5.2146 2.2365
-5.0892 -5.3956 2.2365
-4.8879 -5.5692 2.2365
-4.6807 -5.7352 2.2365
-4.4677 -5.8935 2.2365
-4.2493 -6.0438 2.2365
-4.0258 -6.1859 2.2366
-3.7975 -6.3197 2.2367
-3.5648 -6.4451 2.2367
-3.3279 -6.5618 2.2368
-3.0871 -6.6699 2.2369
-2.8426 -6.7685 2.2368
-2.5950 -6.8580 2.2367
-2.3446 -6.9385 2.2367
-2.0917 -7.0098 2.2366
-1.8366 -7.0719 2.2365
-1.5798 -7.1248 2.2364
-1.3215 -7.1684 2.2364
-1.0171 -6.8969 2.1414
-0.7758 -6.9909 2.1631
-0.5165 -6.9096 2.1333
-0.2678 -6.9157 2.1333
-0.0193 -6.3978 2.1333
0.2102 -6.3874 2.1333
0.4390 -6.3689 2.1333
0.6667 -6.3422 2.1333
0.8932 -6.3075 2.1333
1.1180 -6.2648 2.1333
1.3409 -6.2141 2.1333
1.5617 -6.1556 2.1333
1.7801 -6.0893 2.1333
1.9958 -6.0154 2.1333
2.2086 -5.9340 2.1333
2.4181 -5.8451 2.1333
2.6242 -5.7490 2.1333
2.8266 -5.6457 2.1333
3.0250 -5.5355 2.1333
3.2193 -5.4184 2.1333
3.4092 -5.2946 2.1333
3.5944 -5.1642 2.1333
3.7748 -5.0276 2.1333
3.9502 -4.8847 2.1333
4.1202 -4.7359 2.1333
4.2849 -4.5813 2.1333
4.4439 -4.4211 2.1333
4.5970 -4.2555 2.1333
4.7442 -4.0848 2.1333
4.8852 -3.9091 2.1333
5.0199 -3.7286 2.1333
5.1481 -3.5437 2.1333
5.2697 -3.3544 2.1333
5.3846 -3.1611 2.1333
5.4926 -2.9639 2.1333
5.5935 -2.7632 2.1333
5.6873 -2.5592 2.1333
5.7740 -2.3520 2.1333
5.8532 -2.1420 2.1333
5.9251 -1.9294 2.1333
5.9895 -1.7145 2.1333
6.0604 -1.5009 2.1382
6.1097 -1.2816 2.1382
6.1514 -1.0606 2.1382
6.2142 -0.8424 2.1482
6.1969 -0.6137 2.1333
6.2151 -0.3902 2.1333
6.2266 -0.1662 2.1336
6.2307 0.0581 2.1341
6.2269 0.2825 2.1346
6.2152 0.5067 2.1351
6.1957 0.7305 2.1356
6.1684 0.9536 2.1361
6.1333 1.1757 2.1366
6.0904 1.3965 2.1371
6.0397 1.6158 2.1376
5.9814 1.8333 2.1381
5.9155 2.0488 2.1386
5.8416 2.2618 2.1389
5.7580 2.4713 2.1385
5.6671 2.6778 2.1380
5.5691 2.8810 2.1375
5.4639 3.0808 2.1371
5.3518 3.2768 2.1366
5.2328 3.4689 2.1362
2.5639 1.8357 1.0722
2.5058 1.9342 1.0755
4.8361 4.0187 2.1348
4.6909 4.1923 2.1343
4.5396 4.3607 2.1337
4.3825 4.5239 2.1333
4.2206 4.6826 2.1333
4.0531 4.8357 2.1333
3.8801 4.9828 2.1333
3.7019 5.1238 2.1333
3.5187 5.2585 2.1333
3.3306 5.3868 2.1333
3.1379 5.5085 2.1333
2.9409 5.6233 2.1333
2.7397 5.7311 2.1333
2.5346 5.8319 2.1333
2.3259 5.9253 2.1333
2.1138 6.0114 2.1333
1.8985 6.0899 2.1333
1.6804 6.1608 2.1333
1.4596 6.2239 2.1333
1.2378 6.2855 2.1355
1.0556 6.6029 2.2265
0.8224 6.6731 2.2364
0.5830 6.7062 2.2365
0.3424 6.7306 2.2367
0.1007 6.7465 2.2369
-0.1416 6.7536 2.2370
-0.3843 6.7521 2.2372
-0.6270 6.7417 2.2374
-0.8694 6.7226 2.2375
-1.1112 6.6947 2.2377
-1.3522 6.6581 2.2379
-1.5918 6.6128 2.2381
-1.8300 6.5588 2.2382
-2.0662 6.4961 2.2384
-2.3003 6.4248 2.2386
-2.5318 6.3450 2.2388
-2.7605 6.2568 2.2390
-2.9861 6.1602 2.2391
-3.2081 6.0553 2.2393
-3.4263 5.9421 2.2394
-3.6400 5.8202 2.2392
-3.8492 5.6905 2.2391
-4.0536 5.5532 2.2389
-4.2531 5.4084 2.2387
-4.4472 5.2563 2.2385
-4.6358 5.0971 2.2383
-4.8185 4.9310 2.2382
-4.9951 4.7582 2.2380
-5.1653 4.5790 2.2378
-5.3290 4.3936 2.2377
-5.4858 4.2022 2.2375
-5.6355 4.0051 2.2374
-5.7780 3.8025 2.2372
-5.9129 3.5948 2.2370
-6.0402 3.3821 2.2369
-6.1597 3.1649 2.2368
-6.2712 2.9434 2.2367
-6.3745 2.7179 2.2366
-6.4694 2.4887 2.2365
-6.5559 2.2560 2.2364
-6.6339 2.0204 2.2364
-6.6516 1.7683 2.2191
-6.6362 1.5121 2.1942
-6.6580 1.2683 2.1847
-6.6790 1.0261 2.1780
-6.6989 0.7849 2.1738
-6.7176 0.5443 2.1722
-6.7359 0.3037 2.1733
-6.7538 0.0625 2.1771
-6.8369 -0.1815 2.2049
-6.9203 -0.4320 2.2357
-6.9010 -0.6795 2.2364
-6.8707 -0.9258 2.2364
-6.8316 -1.1709 2.2365
-6.7834 -1.4142 2.2366
-6.7263 -1.6556 2.2367
-6.6600 -1.8945 2.2367
-6.5850 -2.1308 2.2367
-6.5017 -2.3642 2.2367
-6.4098 -2.5942 2.2368
-6.3096 -2.8206 2.2369
-6.2012 -3.0430 2.2370
-6.0848 -3.2612 2.2371
-5.9605 -3.4749 2.2371
-5.8285 -3.6837 2.2372
-5.6890 -3.8875 2.2373
-5.5419 -4.0856 2.2372
-5.3878 -4.2781 2.2372
-5.2268 -4.4648 2.2371
-5.0593 -4.6453 2.2371
-4.8855 -4.8195 2.2371
-4.7056 -4.9870 2.2371
-4.5198 -5.1478 2.2371
-4.3285 -5.3017 2.2371
-4.1319 -5.4484 2.2371
-3.9303 -5.5877 2.2372
-3.7239 -5.7195 2.2372
-3.5130 -5.8435 2.2372
-3.2978 -5.9595 2.2372
-3.0787 -6.0674 2.2371
-2.8561 -6.1673 2.2370
-2.6303 -6.2589 2.2369
-2.4014 -6.3423 2.2368
-2.1700 -6.4172 2.2367
-1.9363 -6.4837 2.2367
-1.7005 -6.5417 2.2366
-1.4630 -6.5911 2.2365
-1.2242 -6.6320 2.2365
-0.9843 -6.6641 2.2364
-0.7247 -6.5170 2.1793
-0.4794 -6.3938 2.1333
-0.2493 -6.3999 2.1333
-0.0193 -5.9480 2.1333
0.1941 -5.9387 2.1333
0.4068 -5.9219 2.1333
0.6186 -5.8975 2.1333
0.8292 -5.8656 2.1333
1.0384 -5.8263 2.1333
1.2458 -5.7795 2.1333
1.4513 -5.7254 2.1333
1.6545 -5.6642 2.1333
1.8553 -5.5958 2.1333
2.0533 -5.5204 2.1333
2.2484 -5.4380 2.1333
2.4403 -5.3489 2.1333
2.6288 -5.2531 2.1333
2.8136 -5.1508 2.1333
2.9945 -5.0421 2.1333
3.1714 -4.9272 2.1333
3.3439 -4.8061 2.1333
3.5120 -4.6792 2.1333
3.6754 -4.5465 2.1333
3.8339 -4.4081 2.1333
3.9873 -4.2644 2.1333
4.1355 -4.1155 2.1333
4.2782 -3.9615 2.1333
4.4154 -3.8027 2.1333
4.5469 -3.6393 2.1333
4.6724 -3.4714 2.1333
4.7920 -3.2993 2.1333
4.9053 -3.1232 2.1333
5.0124 -2.9432 2.1333
5.1131 -2.7597 2.1333
5.2072 -2.5729 2.1333
5.2947 -2.3829 2.1333
5.3755 -2.1901 2.1333
5.4494 -1.9945 2.1333
5.5164 -1.7966 2.1333
5.5764 -1.5965 2.1333
5.6294 -1.3944 2.1333
5.6753 -1.1906 2.1333
5.7140 -0.9853 2.1333
5.7455 -0.7789 2.1333
5.7697 -0.5714 2.1333
5.7867 -0.3633 2.1333
5.7974 -0.1547 2.1336
5.8012 0.0542 2.1342
5.7975 0.2632 2.1346
5.7865 0.4720 2.1351
5.7682 0.6804 2.1356
5.7426 0.8881 2.1360
5.7097 1.0948 2.1365
5.6695 1.3004 2.1370
5.6222 1.5046 2.1374
5.5676 1.7070 2.1379
5.5060 1.9076 2.1383
5.4373 2.1060 2.1388
5.3606 2.3014 2.1388
5.2758 2.4937 2.1384
5.1844 2.6829 2.1379
5.0864 2.8688 2.1375
4.9819 3.0513 2.1371
4.8710 3.2300 2.1367
2.5629 1.8356 1.1517
2.5055 1.9346 1.1557
4.5012 3.7417 2.1354
4.3659 3.9031 2.1349
4.2249 4.0598 2.1344
4.0784 4.2115 2.1339
3.9266 4.3580 2.1334
3.7702 4.4998 2.1333
3.6090 4.6365 2.1333
3.4430 4.7674 2.1333
3.2723 4.8925 2.1333
3.0971 5.0115 2.1333
2.9177 5.1244 2.1333
2.7342 5.2309 2.1333
2.5469 5.3309 2.1333
0.8509 1.9589 0.7704
2.1617 5.5108 2.1333
1.9643 5.5904 2.1333
1.7747 5.6972 2.1461
1.5611 5.7286 2.1333
1.3871 5.9209 2.1827
1.2037 6.1199 2.2364
0.9843 6.1657 2.2364
0.7631 6.2038 2.2366
0.5406 6.2341 2.2367
0.3168 6.2564 2.2369
0.0922 6.2706 2.2370
-0.1330 6.2768 2.2372
-0.3585 6.2749 2.2374
-0.5840 6.2648 2.2375
-0.8093 6.2467 2.2377
-1.0339 6.2203 2.2379
-1.2577 6.1858 2.2380
-1.4802 6.1433 2.2382
-1.7013 6.0926 2.2383
-1.9206 6.0340 2.2385
-2.1379 5.9674 2.2387
-2.3528 5.8928 2.2388
-0.8647 1.9589 0.7548
-0.9345 1.9268 0.7542
-2.9803 5.6227 2.2394
-3.1826 5.5171 2.2394
-3.3808 5.4037 2.2392
-3.5749 5.2830 2.2391
-3.7645 5.1553 2.2389
-3.9495 5.0206 2.2387
-4.1295 4.8792 2.2386
-4.3044 4.7313 2.2384
-4.4738 4.5769 2.2383
-4.6375 4.4164 2.2381
-4.7953 4.2499 2.2379
-4.9470 4.0776 2.2378
-5.0924 3.8999 2.2376
-5.2311 3.7168 2.2375
-5.3632 3.5288 2.2374
-5.4884 3.3359 2.2372
-5.6064 3.1386 2.2371
-5.7172 2.9369 2.2370
-5.8205 2.7313 2.2369
-5.9162 2.5220 2.2368
-6.0042 2.3093 2.2368
-6.0844 2.0934 2.2367
-6.1566 1.8747 2.2366
-6.2206 1.6535 2.2365
-6.2766 1.4300 2.2365
-6.3244 1.2046 2.2365
-6.3639 0.9776 2.2365
-6.3950 0.7493 2.2365
-6.4177 0.5200 2.2365
-6.4319 0.2900 2.2365
-6.4376 0.0597 2.2365
-6.4351 -0.1707 2.2365
-6.4240 -0.4008 2.2366
-6.4045 -0.6303 2.2367
-6.3766 -0.8589 2.2367
-6.3403 -1.0863 2.2368
-6.2958 -1.3121 2.2369
-6.2430 -1.5361 2.2370
-6.1820 -1.7580 2.2371
-6.1129 -1.9774 2.2372
-6.0354 -2.1939 2.2372
-5.9501 -2.4074 2.2372
-5.8571 -2.6175 2.2372
-5.7565 -2.8239 2.2372
-5.6485 -3.0265 2.2372
-5.5333 -3.2248 2.2372
-5.4110 -3.4188 2.2373
-5.2818 -3.6081 2.2374
-5.1458 -3.7924 2.2374
-5.0033 -3.9715 2.2375
-4.8544 -4.1452 2.2376
-4.6993 -4.3132 2.2377
-4.5381 -4.4752 2.2377
-4.3713 -4.6311 2.2377
-4.1991 -4.7807 2.2377
-4.0215 -4.9237 2.2376
-3.8389 -5.0599 2.2375
-3.6517 -5.1894 2.2374
-3.4600 -5.3119 2.2374
-3.2642 -5.4272 2.2373
-3.0646 -5.5352 2.2372
-2.8613 -5.6359 2.2371
-2.6547 -5.7290 2.2370
-2.4450 -5.8146 2.2370
-2.2327 -5.8926 2.2369
-2.0178 -5.9629 2.2369
-1.8008 -6.0253 2.2370
-1.5819 -6.0799 2.2370
-1.3612 -6.1260 2.2368
-1.1393 -6.1641 2.2367
-0.9163 -6.1942 2.2365
-0.6927 -6.2163 2.2364
-0.4645 -6.1766 2.2169
-0.2331 -5.9496 2.1333
-0.0197 -5.6546 2.1730
0.1799 -5.5430 2.1333
0.3823 -5.5832 2.1547
0.5762 -5.5052 2.1333
0.7729 -5.4757 2.1333
0.9682 -5.4393 2.1333
1.1619 -5.3960 2.1333
1.3538 -5.3458 2.1333
1.5437 -5.2889 2.1333
1.7312 -5.2253 2.1333
1.9163 -5.1552 2.1333
2.0986 -5.0786 2.1333
2.2779 -4.9956 2.1333
2.4540 -4.9064 2.1333
2.6268 -4.8111 2.1333
2.7959 -4.7098 2.1333
2.9613 -4.6026 2.1333
3.1226 -4.4897 2.1333
3.2798 -4.3713 2.1333
3.4326 -4.2475 2.1333
3.5808 -4.1185 2.1333
3.7243 -3.9843 2.1333
3.8629 -3.8453 2.1333
3.9964 -3.7016 2.1333
4.1247 -3.5533 2.1333
4.2477 -3.4007 2.1333
4.3652 -3.2439 2.1333
4.4770 -3.0832 2.1333
4.5831 -2.9186 2.1333
4.6833 -2.7506 2.1333
4.7774 -2.5791 2.1333
4.8655 -2.4046 2.1333
4.9474 -2.2271 2.1333
5.0230 -2.0468 2.1333
5.0921 -1.8641 2.1333
5.1549 -1.6791 2.1333
5.2110 -1.4921 2.1333
5.2606 -1.3032 2.1333
5.3035 -1.1127 2.1333
5.3397 -0.9209 2.1333
5.3692 -0.7279 2.1333
5.3918 -0.5340 2.1333
5.4077 -0.3394 2.1333
5.4175 -0.1444 2.1336
5.4211 0.0508 2.1341
5.4177 0.2462 2.1346
5.4073 0.4413 2.1351
5.3900 0.6361 2.1355
5.3659 0.8302 2.1359
5.3350 1.0234 2.1364
5.2973 1.2155 2.1368
5.2529 1.4062 2.1372
5.2017 1.5954 2.1377
5.1439 1.7827 2.1381
5.0796 1.9680 2.1385
5.0087 2.1510 2.1389
4.9298 2.3309 2.1387
4.8443 2.5077 2.1383
4.7525 2.6814 2.1379
4.6548 2.8518 2.1375
4.5510 3.0188 2.1371
2.5619 1.8355 1.2325
2.5052 1.9350 1.2372
4.2051 3.4967 2.1360
4.0785 3.6475 2.1355
3.9466 3.7938 2.1350
3.8096 3.9354 2.1345
3.6676 4.0722 2.1341
3.5209 4.2039 2.1336
3.3696 4.3306 2.1333
3.2143 4.4527 2.1333
3.0547 4.5692 2.1333
2.8910 4.6802 2.1333
2.7233 4.7853 2.1333
2.5518 4.8845 2.1333
0.8586 1.7981 0.7706
0.7935 1.8281 0.7700
0.7274 1.8556 0.7694
0.6604 1.8808 0.7688
0.5925 1.9035 0.7681
0.5238 1.9238 0.7675
0.4544 1.9416 0.7668
0.3844 1.9569 0.7662
0.9173 5.7548 2.2366
0.7109 5.7901 2.2368
0.5031 5.8179 2.2369
0.2943 5.8383 2.2370
0.0847 5.8512 2.2372
-0.1255 5.8566 2.2373
-0.3359 5.8544 2.2375
-0.5462 5.8447 2.2376
-0.7563 5.8273 2.2378
-0.9658 5.8024 2.2380
-0.3983 1.9569 0.7591
-0.4683 1.9416 0.7585
-0.5377 1.9238 0.7578
-0.6063 1.9035 0.7572
-0.6743 1.8808 0.7566
-0.7413 1.8556 0.7561
-0.8074 1.8280 0.7555
-0.8725 1.7981 0.7549
-0.9365 1.7659 0.7544
-2.9683 5.1433 2.2394
-3.1529 5.0373 2.2392
-3.3336 4.9246 2.2391
-3.5103 4.8054 2.2389
-3.6825 4.6797 2.2388
-3.8502 4.5477 2.2386
-4.0130 4.4096 2.2385
-4.1707 4.2656 2.2383
-4.3232 4.1159 2.2382
-4.4701 3.9606 2.2380
-4.6113 3.7999 2.2379
-4.7467 3.6342 2.2378
-4.8759 3.4636 2.2377
-4.9989 3.2883 2.2375
-5.1154 3.1085 2.2374
-5.2252 2.9245 2.2373
-5.3284 2.7366 2.2373
-5.4245 2.5450 2.2372
-5.5136 2.3500 2.2371
-5.5955 2.1517 2.2370
-5.6701 1.9506 2.2369
-5.7373 1.7468 2.2369
-5.7970 1.5407 2.2368
-5.8491 1.3324 2.2368
-5.8936 1.1225 2.2368
-5.9304 0.9110 2.2368
-5.9593 0.6982 2.2368
-5.9805 0.4846 2.2368
-5.9937 0.2704 2.2368
-5.9991 0.0558 2.2368
-5.9967 -0.1588 2.2368
-5.9865 -0.3732 2.2369
-5.9684 -0.5871 2.2369
-5.9425 -0.8001 2.2370
-5.9087 -1.0119 2.2371
-5.8673 -1.2224 2.2372
-5.8182 -1.4312 2.2373
-5.7616 -1.6379 2.2374
-5.6973 -1.8424 2.2375
-5.6256 -2.0443 2.2376
-5.5466 -2.2434 2.2377
-5.4602 -2.4393 2.2377
-5.3666 -2.6318 2.2377
-5.2661 -2.8207 2.2377
-5.1589 -3.0057 2.2378
-5.0450 -3.1865 2.2378
-4.9247 -3.3630 2.2378
-4.7980 -3.5349 2.2379
-4.6653 -3.7020 2.2379
-4.5267 -3.8641 2.2380
-4.3823 -4.0209 2.2381
-4.2325 -4.1723 2.2381
-4.0770 -4.3177 2.2381
-3.9165 -4.4572 2.2380
-3.7510 -4.5907 2.2379
-3.5810 -4.7180 2.2378
-3.4066 -4.8390 2.2377
-3.2281 -4.9535 2.2377
-3.0457 -5.0614 2.2376
-2.8597 -5.1626 2.2376
-2.6703 -5.2568 2.2375
-2.4778 -5.3442 2.2375
-2.2824 -5.4244 2.2375
-2.0844 -5.4976 2.2375
-1.8840 -5.5633 2.2374
-1.6815 -5.6215 2.2373
-1.4773 -5.6723 2.2371
-1.2715 -5.7157 2.2370
-1.0645 -5.7517 2.2368
-0.8565 -5.7802 2.2367
-0.6478 -5.8011 2.2366
-0.4387 -5.8146 2.2364
-0.2294 -5.8208 2.2364
-0.0202 -5.4498 2.2364
0.1737 -5.3912 2.2155
0.3537 -5.1834 2.1359
0.5385 -5.1562 2.1333
0.7227 -5.1289 2.1333
0.9057 -5.0950 2.1333
1.0872 -5.0547 2.1333
1.2671 -5.0080 2.1333
1.4450 -4.9549 2.1333
1.6208 -4.8956 2.1333
1.7943 -4.8301 2.1333
1.9652 -4.7585 2.1333
2.1333 -4.6810 2.1333
2.2984 -4.5976 2.1333
2.4604 -4.5085 2.1333
2.6191 -4.4137 2.1333
2.7741 -4.3135 2.1333
2.9255 -4.2079 2.1333
3.0729 -4.0971 2.1333
3.2162 -3.9812 2.1333
3.3552 -3.8603 2.1333
3.4899 -3.7348 2.1333
3.6199 -3.6046 2.1333
3.7452 -3.4699 2.1333
3.8656 -3.3311 2.1333
3.9810 -3.1881 2.1333
4.0913 -3.0411 2.1333
4.1962 -2.8905 2.1333
4.2958 -2.7364 2.1333
4.3898 -2.5788 2.1333
4.4782 -2.4181 2.1333
4.5609 -2.2545 2.1333
4.6377 -2.0881 2.1333
4.7087 -1.9191 2.1333
4.7736 -1.7478 2.1333
4.8325 -1.5744 2.1333
4.8852 -1.3990 2.1333
4.9317 -1.2219 2.1333
4.9720 -1.0433 2.1333
5.0060 -0.8634 2.1333
5.0336 -0.6824 2.1333
5.0548 -0.5006 2.1333
5.0697 -0.3182 2.1333
5.0788 -0.1353 2.1335
5.0820 0.0478 2.1340
5.0788 0.2310 2.1345
5.0691 0.4139 2.1350
5.0528 0.5965 2.1355
5.0301 0.7785 2.1359
5.0010 0.9597 2.1363
4.9655 1.1397 2.1367
4.9237 1.3185 2.1371
4.8756 1.4958 2.1375
4.8213 1.6714 2.1379
4.7607 1.8451 2.1383
4.6941 2.0166 2.1387
4.6212 2.1856 2.1390
4.5410 2.3514 2.1386
4.4549 2.5143 2.1382
4.3631 2.6740 2.1379
4.2657 2.8305 2.1375
2.5608 1.8353 1.3147
2.5049 1.9355 1.3201
3.9411 3.2783 2.1364
3.8223 3.4196 2.1360
3.6986 3.5567 2.1355
3.5701 3.6893 2.1351
3.4369 3.8174 2.1347
3.2992 3.9408 2.1343
3.1572 4.0593 2.1339
3.0110 4.1728 2.1335
2.8611 4.2815 2.1333
2.7075 4.3852 2.1333
2.5502 4.4835 2.1333
0.8634 1.6535 0.7708
0.8035 1.6837 0.7703
0.7426 1.7117 0.7697
0.6807 1.7375 0.7691
0.6179 1.7611 0.7685
0.5543 1.7824 0.7679
0.4900 1.8014 0.7673
0.4250 1.8181 0.7667
0.3595 1.8324 0.7661
0.2935 1.8444 0.7655
0.2272 1.8540 0.7649
0.1605 1.8612 0.7642
0.0936 1.8660 0.7636
0.0266 1.8684 0.7630
-0.0405 1.8684 0.7624
-0.1075 1.8660 0.7618
-0.1744 1.8612 0.7612
-0.2410 1.8539 0.7606
-0.3074 1.8444 0.7600
-0.3734 1.8324 0.7594
-0.4389 1.8181 0.7588
-0.5039 1.8014 0.7583
-0.5682 1.7824 0.7577
-0.6318 1.7611 0.7571
-0.6946 1.7375 0.7566
-0.7565 1.7117 0.7561
-0.8174 1.6837 0.7555
-0.8773 1.6535 0.7550
-0.9360 1.6212 0.7545
-2.9507 4.7123 2.2392
-3.1197 4.6067 2.2391
-3.2848 4.4950 2.2389
-3.4457 4.3772 2.2388
-3.6025 4.2536 2.2387
-3.7546 4.1244 2.2385
-3.9020 3.9896 2.2384
-4.0445 3.8494 2.2383
-4.1818 3.7041 2.2382
-4.3138 3.5538 2.2380
-4.4402 3.3987 2.2379
-4.5610 3.2391 2.2378
-4.6759 3.0751 2.2377
-4.7847 2.9069 2.2376
-4.8874 2.7348 2.2375
-4.9837 2.5591 2.2375
-5.0735 2.3799 2.2374
-5.1568 2.1974 2.2373
-5.2333 2.0120 2.2372
-5.3030 1.8239 2.2372
-5.3658 1.6334 2.2371
-5.4216 1.4407 2.2371
-5.4703 1.2460 2.2371
-5.5118 1.0496 2.2370
-5.5462 0.8519 2.2370
-5.5732 0.6530 2.2370
-5.5930 0.4533 2.2370
-5.6054 0.2529 2.2370
-5.6105 0.0523 2.2370
-5.6083 -0.1484 2.2371
-5.5987 -0.3488 2.2371
-5.5819 -0.5488 2.2372
-5.5577 -0.7479 2.2373
-5.5262 -0.9461 2.2373
-5.4875 -1.1428 2.2374
-5.4417 -1.3381 2.2375
-5.3888 -1.5314 2.2376
-5.3288 -1.7227 2.2377
-5.2620 -1.9115 2.2378
-5.1882 -2.0978 2.2379
-5.1077 -2.2811 2.2380
-5.0206 -2.4614 2.2382
-4.9270 -2.6382 2.2382
-4.8268 -2.8113 2.2383
-4.7205 -2.9806 2.2383
-4.6080 -3.1458 2.2383
-4.4898 -3.3067 2.2384
-4.3658 -3.4631 2.2384
-4.2362 -3.6149 2.2385
-4.1014 -3.7617 2.2385
-3.9613 -3.9035 2.2386
-3.8160 -4.0397 2.2385
-3.6659 -4.1704 2.2384
-3.5113 -4.2956 2.2383
-3.3523 -4.4149 2.2383
-3.1893 -4.5284 2.2382
-3.0224 -4.6357 2.2381
-2.8518 -4.7370 2.2381
-2.6779 -4.8319 2.2380
-2.5007 -4.9204 2.2380
-2.3206 -5.0023 2.2379
-2.1377 -5.0774 2.2378
-1.9524 -5.1458 2.2376
-1.7649 -5.2075 2.2375
-1.5754 -5.2623 2.2374
-1.3843 -5.3102 2.2372
-1.1917 -5.3511 2.2371
-0.9979 -5.3851 2.2370
-0.8032 -5.4121 2.2368
-0.6079 -5.4320 2.2367
-0.4121 -5.4449 2.2366
-0.2161 -5.4509 2.2365
-0.0203 -5.1188 2.2365
0.1634 -5.1114 2.2364
0.3466 -5.0977 2.2364
0.5087 -4.8824 2.1504
0.6777 -4.8180 2.1333
0.8560 -4.8218 2.1491
1.0203 -4.7487 2.1333
1.1893 -4.7051 2.1333
1.3565 -4.6554 2.1333
1.5218 -4.5999 2.1333
1.6848 -4.5385 2.1333
1.8455 -4.4715 2.1333
2.0036 -4.3988 2.1333
2.1589 -4.3206 2.1333
2.3112 -4.2370 2.1333
2.4604 -4.1481 2.1333
2.6062 -4.0541 2.1333
2.7485 -3.9550 2.1333
2.8872 -3.8509 2.1333
3.0220 -3.7421 2.1333
3.1528 -3.6287 2.1333
3.2795 -3.5107 2.1333
3.4018 -3.3885 2.1333
3.5197 -3.2620 2.1333
3.6330 -3.1315 2.1333
3.7416 -2.9971 2.1333
3.8454 -2.8591 2.1333
3.9441 -2.7176 2.1333
4.0378 -2.5727 2.1333
4.1263 -2.4246 2.1333
4.2095 -2.2735 2.1333
4.2873 -2.1197 2.1333
4.3596 -1.9633 2.1333
4.4264 -1.8044 2.1333
4.4875 -1.6434 2.1333
4.5429 -1.4803 2.1333
4.5925 -1.3154 2.1333
4.6363 -1.1489 2.1333
4.6742 -0.9809 2.1333
4.7062 -0.8118 2.1333
4.7322 -0.6416 2.1333
4.7522 -0.4706 2.1333
4.7661 -0.2991 2.1333
4.7745 -0.1271 2.1335
4.7774 0.0451 2.1339
4.7743 0.2173 2.1344
4.7652 0.3894 2.1349
4.7499 0.5610 2.1354
4.7285 0.7322 2.1358
4.7011 0.9025 2.1362
4.6676 1.0717 2.1366
4.6281 1.2398 2.1369
4.5828 1.4065 2.1373
4.5315 1.5715 2.1377
4.4745 1.7347 2.1381
4.4117 1.8959 2.1384
4.3432 2.0548 2.1388
4.2686 2.2111 2.1389
4.1876 2.3642 2.1385
4.1012 2.5143 2.1382
4.0096 2.6614 2.1379
2.5598 1.8352 1.3984
2.5046 1.9359 1.4046
3.7041 3.0823 2.1368
3.5924 3.2150 2.1364
3.4760 3.3438 2.1360
3.3551 3.4685 2.1356
3.2298 3.5888 2.1352
3.1002 3.7047 2.1348
2.9667 3.8160 2.1344
2.8291 3.9225 2.1341
2.6879 4.0242 2.1337
2.5430 4.1209 2.1334
0.8656 1.5225 0.7710
0.8104 1.5529 0.7704
0.7541 1.5812 0.7699
0.6969 1.6075 0.7694
0.6388 1.6317 0.7688
0.5798 1.6539 0.7682
0.5201 1.6739 0.7677
0.4597 1.6917 0.7671
0.3987 1.7074 0.7666
0.3372 1.7208 0.7660
0.2752 1.7321 0.7654
0.2129 1.7411 0.7648
0.1503 1.7479 0.7643
0.0875 1.7524 0.7637
0.0245 1.7546 0.7631
-0.0384 1.7546 0.7625
-0.1014 1.7524 0.7620
-0.1642 1.7479 0.7614
-0.2268 1.7411 0.7608
-0.2891 1.7321 0.7603
-0.3511 1.7208 0.7597
-0.4126 1.7074 0.7592
-0.4736 1.6917 0.7586
-0.5340 1.6739 0.7581
-0.5937 1.6539 0.7576
-0.6527 1.6317 0.7571
-0.7108 1.6075 0.7566
-0.7680 1.5812 0.7561
-0.8243 1.5529 0.7556
-0.8795 1.5225 0.7551
-0.9335 1.4902 0.7547
-0.9864 1.4560 0.7542
-3.0832 4.2176 2.2390
-3.2341 4.1070 2.2389
-3.3811 3.9909 2.2387
-3.5237 3.8695 2.2386
-3.6619 3.7429 2.2385
-3.7955 3.6114 2.2384
-3.9242 3.4749 2.2383
-4.0479 3.3339 2.2382
-4.1664 3.1883 2.2381
-4.2796 3.0385 2.2380
-4.3873 2.8846 2.2379
-4.4893 2.7268 2.2378
-4.5855 2.5654 2.2377
-4.6758 2.4005 2.2376
-4.7600 2.2323 2.2376
-4.8380 2.0612 2.2375
-4.9097 1.8873 2.2374
-4.9750 1.7108 2.2374
-5.0339 1.5321 2.2373
-5.0862 1.3513 2.2373
-5.1318 1.1687 2.2373
-5.1708 0.9846 2.2373
-5.2030 0.7991 2.2373
-5.2284 0.6126 2.2372
-5.2469 0.4252 2.2372
-5.2586 0.2373 2.2372
-5.2633 0.0492 2.2373
-5.2613 -0.1390 2.2373
-5.2523 -0.3270 2.2373
-5.2366 -0.5146 2.2374
-5.2139 -0.7014 2.2375
-5.1845 -0.8872 2.2375
-5.1482 -1.0718 2.2376
-5.1053 -1.2549 2.2377
-5.0557 -1.4363 2.2378
-4.9996 -1.6157 2.2379
-4.9369 -1.7929 2.2380
-4.8679 -1.9676 2.2381
-4.7925 -2.1397 2.2382
-4.7110 -2.3088 2.2383
-4.6233 -2.4748 2.2384
-4.5296 -2.6374 2.2385
-4.4302 -2.7964 2.2387
-4.3250 -2.9516 2.2388
-4.2141 -3.1027 2.2388
-4.0979 -3.2495 2.2388
-3.9765 -3.3920 2.2389
-3.8501 -3.5300 2.2390
-3.7187 -3.6631 2.2390
-3.5825 -3.7911 2.2389
-3.4418 -3.9139 2.2388
-3.2968 -4.0315 2.2387
-3.1478 -4.1437 2.2387
-2.9949 -4.2504 2.2386
-2.8383 -4.3514 2.2385
-2.6783 -4.4465 2.2384
-2.5150 -4.5356 2.2383
-2.3487 -4.6187 2.2381
-2.1796 -4.6956 2.2380
-2.0081 -4.7664 2.2379
-1.8342 -4.8308 2.2377
-1.6582 -4.8889 2.2376
-1.4804 -4.9406 2.2375
-1.3010 -4.9859 2.2373
-1.1202 -5.0246 2.2372
-0.9383 -5.0568 2.2371
-0.7556 -5.0824 2.2370
-0.5721 -5.1014 2.2369
-0.3883 -5.1138 2.2367
-0.2042 -5.1196 2.2366
-0.0203 -4.8202 2.2366
0.1527 -4.8135 2.2365
0.3252 -4.8006 2.2364
0.4970 -4.7817 2.2364
0.6473 -4.6100 2.1674
0.7991 -4.5079 2.1333
0.9785 -4.5596 2.1747
1.1191 -4.4317 2.1333
1.2767 -4.3851 2.1333
1.4324 -4.3329 2.1333
1.5860 -4.2753 2.1333
1.7375 -4.2123 2.1333
1.8864 -4.1440 2.1333
2.0328 -4.0705 2.1333
2.1764 -3.9919 2.1333
2.3170 -3.9083 2.1333
2.4545 -3.8198 2.1333
2.5887 -3.7265 2.1333
2.7195 -3.6286 2.1333
2.8466 -3.5262 2.1333
2.9700 -3.4194 2.1333
3.0894 -3.3083 2.1333
3.2048 -3.1932 2.1333
3.3160 -3.0741 2.1333
3.4229 -2.9512 2.1333
3.5253 -2.8246 2.1333
3.6231 -2.6946 2.1333
3.7163 -2.5612 2.1333
3.8047 -2.4247 2.1333
3.8882 -2.2852 2.1333
3.9667 -2.1429 2.1333
4.0401 -1.9979 2.1333
4.1083 -1.8505 2.1333
4.1713 -1.7008 2.1333
4.2289 -1.5490 2.1333
4.2812 -1.3953 2.1333
4.3280 -1.2398 2.1333
4.3693 -1.0829 2.1333
4.4050 -0.9246 2.1333
4.4352 -0.7651 2.1333
4.4597 -0.6047 2.1333
4.4785 -0.4435 2.1333
4.4917 -0.2818 2.1333
4.4995 -0.1197 2.1334
4.5022 0.0426 2.1339
4.4992 0.2049 2.1343
4.4904 0.3671 2.1348
4.4760 0.5289 2.1352
4.4558 0.6902 2.1357
4.4299 0.8507 2.1361
4.3983 1.0103 2.1365
4.3610 1.1687 2.1368
4.3182 1.3257 2.1372
4.2697 1.4812 2.1375
4.2158 1.6350 2.1379
4.1565 1.7868 2.1382
4.0918 1.9366 2.1385
4.0219 2.0840 2.1389
3.9460 2.2285 2.1388
3.8645 2.3700 2.1385
2.6923 1.7876 1.5237
2.5098 1.8000 1.4554
2.4448 1.8903 1.4554
3.4900 2.9051 2.1372
3.3846 3.0302 2.1368
3.2748 3.1515 2.1364
3.1608 3.2689 2.1360
3.0426 3.3822 2.1357
2.9205 3.4913 2.1353
2.7945 3.5961 2.1349
2.6649 3.6965 2.1346
2.5317 3.7922 2.1343
0.8655 1.4031 0.7711
0.8146 1.4335 0.7706
0.7626 1.4621 0.7701
0.7096 1.4888 0.7696
0.6558 1.5136 0.7691
0.6010 1.5364 0.7686
0.5455 1.5572 0.7680
0.4893 1.5760 0.7675
0.4324 1.5928 0.7670
0.3750 1.6076 0.7664
0.3171 1.6202 0.7659
0.2587 1.6308 0.7654
0.2001 1.6393 0.7648
0.1411 1.6457 0.7643
0.0820 1.6499 0.7637
0.0227 1.6521 0.7632
-0.0366 1.6521 0.7627
-0.0958 1.6499 0.7621
-0.1550 1.6457 0.7616
-0.2139 1.6393 0.7611
-0.2726 1.6308 0.7605
-0.3310 1.6202 0.7600
-0.3889 1.6076 0.7595
-0.4463 1.5928 0.7590
-0.5032 1.5760 0.7585
-0.5594 1.5572 0.7580
-0.6149 1.5364 0.7575
-0.6696 1.5135 0.7570
-0.7235 1.4888 0.7566
-0.7765 1.4621 0.7561
-0.8284 1.4335 0.7557
-0.8793 1.4031 0.7552
-0.9291 1.3709 0.7548
-0.9777 1.3369 0.7544
-3.0437 3.8637 2.2389
-3.1818 3.7544 2.2388
-3.3159 3.6401 2.2387
-3.4459 3.5210 2.2386
-3.5714 3.3971 2.2385
-3.6924 3.2687 2.2384
-3.8087 3.1359 2.2383
-3.9201 2.9990 2.2382
-4.0265 2.8580 2.2381
-4.1277 2.7132 2.2380
-4.2235 2.5648 2.2380
-4.3140 2.4129 2.2379
-4.3988 2.2578 2.2378
-4.4779 2.0996 2.2377
-4.5512 1.9386 2.2377
-4.6186 1.7751 2.2376
-4.6800 1.6091 2.2376
-4.7354 1.4410 2.2375
-4.7845 1.2710 2.2375
-4.8274 1.0992 2.2375
-4.8640 0.9261 2.2375
-4.8943 0.7516 2.2375
-4.9181 0.5762 2.2375
-4.9356 0.4000 2.2375
-4.9465 0.2233 2.2375
-4.9511 0.0464 2.2375
-4.9491 -0.1306 2.2375
-4.9407 -0.3074 2.2375
-4.9259 -0.4838 2.2376
-4.9047 -0.6595 2.2377
-4.8771 -0.8343 2.2377
-4.8431 -1.0079 2.2378
-4.8027 -1.1801 2.2379
-4.7561 -1.3507 2.2379
-4.7034 -1.5195 2.2380
-4.6445 -1.6861 2.2381
-4.5797 -1.8505 2.2382
-4.5089 -2.0124 2.2383
-4.4322 -2.1715 2.2384
-4.3499 -2.3276 2.2385
-4.2619 -2.4806 2.2387
-4.1685 -2.6303 2.2388
-4.0697 -2.7764 2.2389
-3.9656 -2.9187 2.2390
-3.8566 -3.0571 2.2391
-3.7426 -3.1914 2.2393
-3.6238 -3.3213 2.2394
-3.5002 -3.4466 2.2393
-3.3722 -3.5671 2.2393
-3.2398 -3.6828 2.2391
-3.1035 -3.7935 2.2390
-2.9632 -3.8991 2.2389
-2.8194 -3.9995 2.2387
-2.6721 -4.0946 2.2386
-2.5216 -4.1842 2.2385
-2.3680 -4.2683 2.2383
-2.2116 -4.3466 2.2382
-2.0526 -4.4193 2.2381
-1.8912 -4.4861 2.2379
-1.7276 -4.5470 2.2378
-1.5621 -4.6019 2.2377
-1.3948 -4.6508 2.2376
-1.2260 -4.6935 2.2374
-1.0558 -4.7302 2.2373
-0.8846 -4.7607 2.2372
-0.7126 -4.7850 2.2371
-0.5399 -4.8032 2.2370
-0.3668 -4.8151 2.2369
-0.1935 -4.8207 2.2367
-0.0203 -4.5492 2.2367
0.1430 -4.5430 2.2366
0.3058 -4.5310 2.2365
0.4680 -4.5133 2.2364
0.6293 -4.4898 2.2364
0.7721 -4.3615 2.1866
0.9050 -4.2220 2.1333
1.0554 -4.1835 2.1333
1.2138 -4.1726 2.1503
1.3512 -4.0906 2.1333
1.4963 -4.0363 2.1333
1.6394 -3.9770 2.1333
1.7801 -3.9126 2.1333
1.9184 -3.8433 2.1333
2.0540 -3.7692 2.1333
2.1869 -3.6904 2.1333
2.3168 -3.6069 2.1333
2.4436 -3.5190 2.1333
2.5671 -3.4266 2.1333
2.6872 -3.3300 2.1333
2.8038 -3.2292 2.1333
2.9167 -3.1244 2.1333
3.0257 -3.0157 2.1333
3.1308 -2.9033 2.1333
3.2318 -2.7873 2.1333
3.3287 -2.6678 2.1333
3.4211 -2.5450 2.1333
3.5092 -2.4191 2.1333
3.5928 -2.2902 2.1333
3.6717 -2.1585 2.1333
3.7459 -2.0241 2.1333
3.8153 -1.8871 2.1333
3.8797 -1.7479 2.1333
3.9393 -1.6065 2.1333
3.9938 -1.4631 2.1333
4.0432 -1.3179 2.1333
4.0874 -1.1711 2.1333
4.1265 -1.0228 2.1333
4.1603 -0.8733 2.1333
4.1888 -0.7227 2.1333
4.2119 -0.5711 2.1333
4.2297 -0.4189 2.1333
4.2422 -0.2661 2.1333
4.2494 -0.1130 2.1334
4.2519 0.0404 2.1338
4.2490 0.1937 2.1342
4.2406 0.3469 2.1347
4.2269 0.4997 2.1351
4.2078 0.6521 2.1355
4.1833 0.8037 2.1359
4.1534 0.9544 2.1363
4.1182 1.1040 2.1367
4.0776 1.2523 2.1370
4.0318 1.3992 2.1374
3.9808 1.5444 2.1377
3.9246 1.6877 2.1380
3.8634 1.8291 2.1383
3.7973 1.9683 2.1386
3.7261 2.1051 2.1390
3.6493 2.2388 2.1388
2.6841 1.7829 1.6089
2.4490 1.7570 1.5041
2.4308 1.8802 1.5327
2.4118 2.0084 1.5644
3.1957 2.8622 2.1372
3.0920 2.9767 2.1368
2.9842 3.0875 2.1364
2.8725 3.1945 2.1361
2.7571 3.2975 2.1357
2.6381 3.3964 2.1354
0.9091 1.2616 0.7716
0.8633 1.2937 0.7712
0.8163 1.3241 0.7707
0.7683 1.3528 0.7702
0.7192 1.3798 0.7698
0.6693 1.4049 0.7693
0.6184 1.4283 0.7688
0.5668 1.4498 0.7683
0.5144 1.4695 0.7678
0.4613 1.4873 0.7673
0.4077 1.5031 0.7668
0.3535 1.5170 0.7663
0.2988 1.5290 0.7658
0.2438 1.5390 0.7653
0.1884 1.5470 0.7648
0.1328 1.5530 0.7643
0.0769 1.5570 0.7638
0.0210 1.5590 0.7633
-0.0349 1.5590 0.7628
-0.0908 1.5570 0.7623
-0.1466 1.5530 0.7617
-0.2023 1.5470 0.7612
-0.2576 1.5390 0.7608
-0.3127 1.5290 0.7603
-0.3674 1.5170 0.7598
-0.4216 1.5031 0.7593
-0.4752 1.4873 0.7588
-0.5283 1.4695 0.7584
-0.5807 1.4498 0.7579
-0.6323 1.4283 0.7575
-0.6831 1.4049 0.7570
-0.7331 1.3797 0.7566
-0.7822 1.3528 0.7562
-0.8302 1.3241 0.7558
-0.8772 1.2937 0.7554
-0.9230 1.2616 0.7550
-0.9677 1.2279 0.7546
-3.0014 3.5403 2.2389
-3.1278 3.4324 2.2388
-3.2502 3.3200 2.2387
-3.3685 3.2031 2.2386
-3.4825 3.0820 2.2385
-3.5921 2.9568 2.2384
-3.6970 2.8276 2.2383
-3.7973 2.6946 2.2383
-3.8926 2.5580 2.2382
-3.9829 2.4181 2.2381
-4.0681 2.2748 2.2380
-4.1480 2.1286 2.2380
-4.2226 1.9794 2.2379
-4.2916 1.8277 2.2378
-4.3551 1.6735 2.2378
-4.4130 1.5170 2.2378
-4.4651 1.3585 2.2377
-4.5114 1.1982 2.2377
-4.5518 1.0364 2.2377
-4.5863 0.8731 2.2377
-4.6148 0.7087 2.2376
-4.6373 0.5433 2.2376
-4.6538 0.3772 2.2376
-4.6641 0.2107 2.2376
-4.6684 0.0438 2.2377
-4.6666 -0.1230 2.2377
-4.6587 -0.2897 2.2377
-4.6447 -0.4560 2.2378
-4.6248 -0.6216 2.2378
-4.5988 -0.7863 2.2379
-4.5667 -0.9500 2.2380
-4.5288 -1.1124 2.2380
-4.4849 -1.2732 2.2381
-4.4353 -1.4323 2.2382
-4.3798 -1.5895 2.2382
-4.3187 -1.7445 2.2383
-4.2520 -1.8971 2.2384
-4.1799 -2.0471 2.2385
-4.1023 -2.1944 2.2386
-4.0194 -2.3387 2.2388
-3.9314 -2.4799 2.2389
-3.8384 -2.6177 2.2390
-3.7404 -2.7519 2.2391
-3.6376 -2.8825 2.2392
-3.5302 -3.0092 2.2393
-3.4183 -3.1318 2.2394
-3.3018 -3.2500 2.2394
-3.1811 -3.3637 2.2392
-3.0564 -3.4729 2.2391
-2.9280 -3.5774 2.2390
-2.7958 -3.6772 2.2389
-2.6603 -3.7720 2.2387
-2.5215 -3.8619 2.2386
-2.3796 -3.9465 2.2385
-2.2348 -4.0260 2.2384
-2.0874 -4.1001 2.2382
-1.9375 -4.1688 2.2381
-1.7853 -4.2319 2.2380
-1.6310 -4.2896 2.2379
-1.4749 -4.3415 2.2378
-1.3171 -4.3879 2.2376
-1.1579 -4.4284 2.2375
-0.9974 -4.4632 2.2374
-0.8359 -4.4922 2.2373
-0.6736 -4.5153 2.2372
-0.5106 -4.5326 2.2371
-0.3473 -4.5440 2.2369
-0.1838 -4.5495 2.2368
-0.0203 -4.3019 2.2368
0.1341 -4.2963 2.2367
0.2881 -4.2851 2.2366
0.4415 -4.2684 2.2365
0.5941 -4.2463 2.2364
0.7458 -4.2189 2.2364
0.8849 -4.1334 2.2082
1.0011 -3.9723 2.1416
1.1380 -3.9155 2.1333
1.2771 -3.8693 2.1333
1.4171 -3.8253 2.1373
0.8934 -2.1688 1.2298
1.6829 -3.7013 2.1333
1.8138 -3.6358 2.1333
1.9422 -3.5658 2.1333
2.0679 -3.4914 2.1333
2.1909 -3.4125 2.1333
2.3109 -3.3294 2.1333
2.4279 -3.2421 2.1333
2.5416 -3.1507 2.1333
2.6520 -3.0554 2.1333
2.7589 -2.9564 2.1333
2.8621 -2.8536 2.1333
2.9616 -2.7473 2.1333
3.0573 -2.6375 2.1333
3.1490 -2.5245 2.1333
3.2366 -2.4084 2.1333
3.3199 -2.2893 2.1333
3.3991 -2.1673 2.1333
3.4738 -2.0426 2.1333
3.5441 -1.9155 2.1333
3.6098 -1.7859 2.1333
3.6709 -1.6542 2.1333
3.7273 -1.5204 2.1333
3.7789 -1.3847 2.1333
3.8257 -1.2473 2.1333
3.8676 -1.1083 2.1333
3.9045 -0.9680 2.1333
3.9365 -0.8264 2.1333
3.9635 -0.6839 2.1333
3.9854 -0.5405 2.1333
4.0023 -0.3963 2.1333
4.0141 -0.2518 2.1333
4.0208 -0.1068 2.1333
4.0231 0.0383 2.1337
4.0203 0.1834 2.1341
4.0124 0.3284 2.1345
3.9993 0.4731 2.1349
3.9811 0.6172 2.1353
3.9578 0.7607 2.1357
3.9295 0.9033 2.1361
3.8961 1.0449 2.1365
3.8577 1.1852 2.1369
3.8143 1.3242 2.1372
3.7660 1.4615 2.1375
3.7128 1.5972 2.1378
3.6548 1.7309 2.1381
3.5920 1.8625 2.1384
3.5246 1.9919 2.1387
3.4526 2.1189 2.1390
2.6759 1.7780 1.6955
2.4456 1.7552 1.5879
2.4274 1.8783 1.6181
2.4083 2.0063 1.6516
3.0231 2.7086 2.1375
2.9249 2.8170 2.1372
2.8229 2.9218 2.1368
2.7172 3.0229 2.1365
2.6079 3.1203 2.1362
0.9015 1.1611 0.7716
0.8592 1.1930 0.7712
0.8159 1.2233 0.7708
0.7715 1.2520 0.7704
0.7260 1.2792 0.7699
0.6797 1.3047 0.7695
0.6324 1.3285 0.7690
0.5844 1.3506 0.7686
0.5355 1.3709 0.7681
0.4860 1.3895 0.7676
0.4358 1.4063 0.7672
0.3851 1.4213 0.7667
0.3339 1.4344 0.7662
0.2822 1.4458 0.7657
0.2301 1.4552 0.7653
0.1778 1.4628 0.7648
0.1251 1.4685 0.7643
0.0724 1.4723 0.7638
0.0195 1.4742 0.7633
-0.0334 1.4742 0.7629
-0.0863 1.4723 0.7624
-0.1390 1.4685 0.7619
-0.1916 1.4628 0.7614
-0.2440 1.4552 0.7610
-0.2960 1.4458 0.7605
-0.3477 1.4344 0.7600
-0.3990 1.4213 0.7596
-0.4497 1.4063 0.7591
-0.4999 1.3895 0.7587
-0.5494 1.3709 0.7583
-0.5982 1.3505 0.7578
-0.6463 1.3284 0.7574
-0.6936 1.3046 0.7570
-0.7399 1.2792 0.7566
-0.7853 1.2520 0.7562
-0.8298 1.2233 0.7559
-0.8731 1.1929 0.7555
-0.9153 1.1611 0.7551
-0.9564 1.1277 0.7548
-2.9564 3.2432 2.2389
-3.0720 3.1369 2.2388
-3.1837 3.0264 2.2387
-3.2913 2.9119 2.2386
-3.3948 2.7936 2.2385
-3.4939 2.6715 2.2385
-3.5885 2.5458 2.2384
-3.6785 2.4168 2.2383
-3.7638 2.2845 2.2382
-3.8442 2.1492 2.2382
-3.9197 2.0109 2.2381
-3.9901 1.8700 2.2381
-4.0553 1.7267 2.2380
-4.1152 1.5810 2.2380
-4.1699 1.4332 2.2379
-4.2191 1.2835 2.2379
-4.2628 1.1320 2.2379
-4.3010 0.9791 2.2378
-4.3335 0.8249 2.2378
-4.3605 0.6695 2.2378
-4.3817 0.5133 2.2378
-4.3972 0.3564 2.2378
-4.4070 0.1991 2.2378
-4.4110 0.0415 2.2378
-4.4094 -0.1161 2.2379
-4.4019 -0.2736 2.2379
-4.3888 -0.4306 2.2379
-4.3699 -0.5871 2.2380
-4.3454 -0.7427 2.2380
-4.3152 -0.8973 2.2381
-4.2794 -1.0507 2.2382
-4.2380 -1.2027 2.2382
-4.1911 -1.3530 2.2383
-4.1388 -1.5015 2.2384
-4.0811 -1.6479 2.2385
-4.0182 -1.7921 2.2385
-3.9500 -1.9339 2.2386
-3.8768 -2.0731 2.2387
-3.7986 -2.2095 2.2388
-3.7155 -2.3429 2.2389
-3.6277 -2.4731 2.2390
-3.5352 -2.6000 2.2392
-3.4382 -2.7234 2.2393
-3.3368 -2.8432 2.2394
-3.2311 -2.9591 2.2394
-3.1210 -3.0708 2.2393
-3.0071 -3.1783 2.2392
-2.8894 -3.2816 2.2391
-2.7680 -3.3805 2.2390
-2.6433 -3.4749 2.2388
-2.5152 -3.5647 2.2387
-2.3841 -3.6497 2.2386
-2.2501 -3.7299 2.2385
-2.1134 -3.8051 2.2384
-1.9741 -3.8753 2.2383
-1.8325 -3.9403 2.2381
-0.9156 -2.1690 1.2135
-1.5429 -4.0548 2.2379
-1.3954 -4.1042 2.2378
-1.2463 -4.1481 2.2377
-1.0958 -4.1866 2.2376
-0.9441 -4.2196 2.2375
-0.7914 -4.2472 2.2374
-0.6380 -4.2692 2.2372
-0.4839 -4.2857 2.2371
-0.3295 -4.2967 2.2370
-0.1749 -4.3021 2.2369
-0.0203 -4.0752 2.2369
0.1260 -4.0700 2.2368
0.2719 -4.0595 2.2367
0.4172 -4.0439 2.2366
0.5618 -4.0230 2.2365
0.3866 -2.1904 1.2256
0.4649 -2.1743 1.2260
0.5426 -2.1554 1.2265
0.6195 -2.1336 1.2268
0.6955 -2.1090 1.2272
0.7706 -2.0816 1.2274
0.8446 -2.0515 1.2277
1.5938 -3.5073 2.1333
1.7179 -3.4455 2.1333
1.8396 -3.3792 2.1333
1.9588 -3.3087 2.1333
2.0754 -3.2340 2.1333
2.1892 -3.1553 2.1333
2.3001 -3.0727 2.1333
2.4079 -2.9862 2.1333
0.9114 -1.0504 0.7738
2.6140 -2.8021 2.1333
2.7119 -2.7047 2.1333
2.8063 -2.6040 2.1333
2.8970 -2.5000 2.1333
2.9840 -2.3930 2.1333
3.0670 -2.2829 2.1333
3.1462 -2.1700 2.1333
3.2212 -2.0544 2.1333
3.2921 -1.9363 2.1333
3.3587 -1.8158 2.1333
3.4211 -1.6930 2.1333
3.4790 -1.5681 2.1333
3.5325 -1.4412 2.1333
3.5815 -1.3126 2.1333
3.6259 -1.1824 2.1333
3.6656 -1.0506 2.1333
3.7007 -0.9176 2.1333
3.7310 -0.7834 2.1333
3.7566 -0.6482 2.1333
3.7774 -0.5123 2.1333
3.7934 -0.3757 2.1333
3.8046 -0.2386 2.1333
3.8109 -0.1012 2.1333
3.8130 0.0364 2.1337
3.8103 0.1740 2.1341
3.8027 0.3114 2.1344
3.7902 0.4486 2.1348
3.7729 0.5852 2.1352
3.7508 0.7212 2.1356
3.7239 0.8564 2.1359
3.6922 0.9905 2.1363
3.6557 1.1236 2.1367
3.6145 1.2553 2.1370
3.5687 1.3855 2.1374
3.5182 1.5140 2.1377
3.4632 1.6407 2.1380
3.4036 1.7655 2.1382
3.3397 1.8881 2.1385
3.2714 2.0084 2.1388
2.6674 1.7731 1.7837
2.4422 1.7534 1.6735
2.4239 1.8763 1.7053
2.4048 2.0041 1.7406
2.8646 2.5676 2.1378
2.7715 2.6703 2.1375
2.6747 2.7696 2.1372
2.5745 2.8654 2.1368
0.8924 1.0682 0.7716
0.8535 1.0998 0.7713
0.8135 1.1300 0.7709
0.7724 1.1587 0.7705
0.7303 1.1859 0.7701
0.6873 1.2117 0.7696
0.6434 1.2358 0.7692
0.5987 1.2584 0.7688
0.5531 1.2793 0.7684
0.5069 1.2985 0.7679
0.4600 1.3162 0.7675
0.4124 1.3321 0.7670
0.3644 1.3463 0.7666
0.3159 1.3587 0.7661
0.2669 1.3695 0.7657
0.2176 1.3784 0.7652
0.1680 1.3856 0.7648
0.1182 1.3910 0.7643
0.0682 1.3946 0.7638
0.0181 1.3963 0.7634
-0.0320 1.3963 0.7629
-0.0821 1.3946 0.7625
-0.1321 1.3909 0.7620
-0.1819 1.3856 0.7616
-0.2315 1.3784 0.7611
-0.2808 1.3694 0.7607
-0.3297 1.3587 0.7603
-0.3783 1.3463 0.7598
-0.4263 1.3321 0.7594
-0.4738 1.3162 0.7590
-0.5208 1.2985 0.7586
-0.5670 1.2793 0.7582
-0.6125 1.2583 0.7578
-0.6573 1.2358 0.7574
-0.7012 1.2116 0.7570
-0.7442 1.1859 0.7567
-0.7863 1.1587 0.7563
-0.8274 1.1300 0.7560
-0.8674 1.0998 0.7556
-0.9063 1.0682 0.7553
-0.9440 1.0352 0.7550
-0.9805 1.0009 0.7547
-3.0145 2.8647 2.2388
-3.1164 2.7563 2.2387
-3.2142 2.6442 2.2386
-3.3080 2.5286 2.2386
-3.3975 2.4096 2.2385
-3.4827 2.2875 2.2384
-3.5633 2.1622 2.2384
-3.6394 2.0341 2.2383
-3.7107 1.9033 2.2382
-3.7773 1.7699 2.2382
-3.8390 1.6342 2.2381
-3.8957 1.4963 2.2381
-3.9474 1.3564 2.2381
-3.9939 1.2147 2.2380
-4.0353 1.0714 2.2380
-4.0714 0.9267 2.2380
