ply
format ascii 1.0
element vertex 2148
property float32 x
property float32 y
property float32 z
end_header
-9.9686 0.4526 0.7511
-9.9210 0.0946 0.7493
-9.9163 -0.2609 0.7519
-10.1858 -0.6338 0.7767
-13.3421 -1.3116 1.0248
-18.6120 -2.5059 1.4422
-27.2762 -4.6730 2.1358
-26.9495 -5.6180 2.1358
-26.5838 -6.5440 2.1358
-27.4439 -7.8088 2.2389
-26.9830 -8.7345 2.2389
-26.4858 -9.6353 2.2389
-25.9540 -10.5097 2.2389
-25.3895 -11.3567 2.2389
-24.7938 -12.1748 2.2389
-24.1689 -12.9632 2.2389
-23.5167 -13.7209 2.2389
-22.8390 -14.4471 2.2389
-21.1791 -14.4856 2.1419
-20.4274 -15.0741 2.1357
-19.7191 -15.6739 2.1358
-18.9926 -16.2410 2.1358
-18.2503 -16.7758 2.1358
-17.2040 -16.9917 2.1004
-16.0486 -17.0300 2.0494
-15.6501 -17.8484 2.0962
-15.3205 -18.7915 2.1589
-14.5150 -19.1682 2.1589
-13.7030 -19.5126 2.1589
-12.8858 -19.8248 2.1589
-9.4010 -15.6661 1.6822
-11.2415 -20.3543 2.1589
-10.4117 -20.5624 2.1578
-9.5919 -20.7598 2.1589
-8.2051 -19.5740 2.0202
-7.9464 -21.0451 2.1589
-7.1278 -21.1440 2.1589
-6.3132 -21.2145 2.1589
-5.5036 -21.2572 2.1589
-4.6997 -21.2726 2.1589
-2.6957 -14.6865 1.4913
-2.1432 -14.6136 1.4865
-2.3309 -21.1616 2.1589
-1.0776 -14.5772 1.4933
-0.5496 -14.5076 1.4941
-0.0411 -17.0706 2.1589
0.5688 -16.9625 2.1589
1.1712 -16.8353 2.1589
1.7655 -16.6894 2.1589
2.3513 -16.5253 2.1589
2.9282 -16.3433 2.1589
3.4956 -16.1441 2.1589
4.0533 -15.9280 2.1589
4.6008 -15.6955 2.1589
5.1378 -15.4469 2.1589
5.6640 -15.1828 2.1589
4.6823 -11.2936 1.6359
5.0370 -11.0122 1.6273
5.1402 -10.2466 1.5467
4.9584 -9.0560 1.3985
4.8092 -8.0794 1.2784
4.1018 -6.3588 1.0325
4.0243 -5.7717 0.9633
4.1317 -5.4934 0.9440
4.2624 -5.2619 0.9328
4.5245 -5.1917 0.9513
4.7025 -5.0193 0.9527
4.8259 -4.7930 0.9444
4.9468 -4.5714 0.9373
5.0655 -4.3538 0.9314
5.1824 -4.1395 0.9266
5.2978 -3.9279 0.9229
5.4121 -3.7184 0.9202
5.5255 -3.5105 0.9186
5.3622 -3.1417 0.8730
5.4879 -2.9553 0.8763
5.6145 -2.7676 0.8806
5.9051 -2.6511 0.9110
6.3724 -2.5894 0.9684
6.9028 -2.5194 1.0345
7.5118 -2.4391 1.1118
5.4559 -1.5568 0.7984
5.4272 -1.3393 0.7862
5.3993 -1.1280 0.7752
5.3721 -0.9218 0.7653
5.3455 -0.7203 0.7564
5.3194 -0.5227 0.7486
5.2348 -0.3246 0.7334
6.5283 -0.1694 0.9116
7.5392 0.0758 1.0504
7.5036 0.3458 1.0442
7.4682 0.6141 1.0393
7.4329 0.8815 1.0355
7.3977 1.1485 1.0328
7.3624 1.4161 1.0314
7.3269 1.6847 1.0310
7.2912 1.9551 1.0319
7.2552 2.2281 1.0339
7.2187 2.5044 1.0371
7.1817 2.7849 1.0415
7.1441 3.0702 1.0472
7.1056 3.3614 1.0542
7.0663 3.6593 1.0626
7.0260 3.9651 1.0725
6.9844 4.2798 1.0840
6.9416 4.6048 1.0970
6.8972 4.9413 1.1119
6.8510 5.2910 1.1286
6.8029 5.6555 1.1475
6.6847 5.9763 1.1568
6.6766 6.4154 1.1880
6.6211 6.8362 1.2143
6.5850 7.3069 1.2478
6.5223 7.7821 1.2806
6.0884 7.8186 1.2424
5.7469 7.9536 1.2228
5.3774 8.0351 1.1974
5.4016 8.7342 1.2640
5.0064 8.7855 1.2367
5.9485 11.3691 1.5593
5.4022 11.2944 1.5116
4.8820 11.2252 1.4683
4.3841 11.1593 1.4287
3.9065 11.0983 1.3928
4.2089 13.4842 1.6610
3.6412 13.3293 1.6140
4.0397 17.1927 2.0490
3.5975 18.2242 2.1407
2.9545 18.4227 2.1358
2.3073 18.6420 2.1358
1.6482 18.8390 2.1358
0.9781 19.0129 2.1358
0.2976 19.1631 2.1358
-0.3923 19.2888 2.1358
-1.1435 20.3252 2.2389
-1.8837 20.4036 2.2389
-2.6308 20.4543 2.2389
-3.3838 20.4766 2.2389
-4.1415 20.4700 2.2389
-4.9026 20.4341 2.2389
-5.6661 20.3682 2.2389
-6.4304 20.2719 2.2389
-7.1944 20.1450 2.2389
-7.9566 19.9871 2.2389
-8.7155 19.7979 2.2389
-9.0331 18.6745 2.1356
-9.7467 18.4340 2.1356
-10.4530 18.1635 2.1356
-11.1505 17.8631 2.1356
-11.8377 17.5328 2.1356
-12.3300 16.9215 2.1043
-12.1375 15.4616 1.9674
-10.8261 12.8178 1.6726
-11.5510 12.7221 1.7067
-12.3128 12.6216 1.7452
-12.5534 11.9782 1.7117
-12.4291 11.0367 1.6349
-13.2002 10.9014 1.6793
-14.0251 10.7615 1.7297
-14.7920 10.5303 1.7727
-12.0182 7.9228 1.4027
-10.7814 6.5660 1.2280
-10.7069 6.0058 1.1926
-10.6363 5.4750 1.1609
-10.5692 4.9700 1.1325
-10.5051 4.4878 1.1071
-10.4436 4.0257 1.0845
-10.3845 3.5813 1.0644
-10.3275 3.1526 1.0467
-10.2724 2.7377 1.0312
-10.2188 2.3349 1.0177
-10.1667 1.9427 1.0062
-10.1158 1.5598 0.9965
-10.0659 1.1849 0.9885
-10.0170 0.8167 0.9822
-9.9688 0.4541 0.9775
-9.9212 0.0963 0.9744
-9.9163 -0.2591 0.9770
-10.1824 -0.6316 1.0080
-13.3425 -1.3087 1.3290
-18.6126 -2.5015 1.8684
-21.0785 -3.6059 2.1358
-20.8508 -4.3409 2.1358
-20.5934 -5.0633 2.1358
-20.3073 -5.7717 2.1358
-16.8627 -5.4528 1.8014
-20.6008 -7.4869 2.2389
-20.2163 -8.1785 2.2389
-19.8059 -8.8509 2.2389
-19.3707 -9.5032 2.2389
-18.9118 -10.1345 2.2389
-18.4307 -10.7440 2.2389
-17.9283 -11.3310 2.2389
-17.4061 -11.8948 2.2389
-16.8653 -12.4348 2.2389
-16.3071 -12.9506 2.2389
-15.7328 -13.4417 2.2389
-14.8217 -13.6122 2.1913
-13.8713 -13.6879 2.1358
-13.2844 -14.0840 2.1358
-12.6869 -14.4556 2.1358
-12.0798 -14.8025 2.1358
-11.4643 -15.1248 2.1358
-10.8415 -15.4223 2.1358
-10.2125 -15.6953 2.1358
-9.4029 -15.6520 2.0967
-8.9396 -16.1677 2.1358
-8.2977 -16.3675 2.1358
-7.6536 -16.5432 2.1358
-7.0837 -16.8756 2.1589
-6.4307 -17.0054 2.1589
-5.7779 -17.1118 2.1589
-5.1262 -17.1949 2.1589
-4.4765 -17.2552 2.1589
-3.8294 -17.2931 2.1589
-2.7019 -14.6800 1.8310
-2.1494 -14.6071 1.8225
-1.9112 -17.2757 2.1589
-1.0870 -14.6105 1.8309
-0.6581 -17.1592 2.1589
-0.0412 -14.3278 2.1407
0.4713 -14.2495 2.1407
0.9783 -14.1546 2.1407
1.4793 -14.0436 2.1407
1.9740 -13.9167 2.1407
2.4618 -13.7742 2.1407
2.9424 -13.6166 2.1407
3.4153 -13.4442 2.1407
3.8803 -13.2572 2.1407
4.3370 -13.0562 2.1407
4.7850 -12.8415 2.1407
4.6778 -11.2945 1.9169
5.0326 -11.0128 1.9056
5.1421 -10.2590 1.8123
4.9598 -9.0657 1.6375
4.8104 -8.0871 1.4958
4.1025 -6.3640 1.2073
4.0249 -5.7760 1.1258
4.1307 -5.4951 1.1024
4.2615 -5.2635 1.0888
4.5203 -5.1894 1.1092
4.7018 -5.0207 1.1111
4.8252 -4.7943 1.1011
4.9462 -4.5726 1.0925
5.0649 -4.3548 1.0853
5.1819 -4.1404 1.0794
5.2974 -3.9287 1.0748
5.4117 -3.7191 1.0715
5.5252 -3.5111 1.0694
5.3619 -3.1421 1.0162
5.4877 -2.9557 1.0199
5.6143 -2.7678 1.0248
5.9048 -2.6511 1.0601
6.3722 -2.5894 1.1268
6.9028 -2.5194 1.2039
7.5122 -2.4390 1.2938
5.4558 -1.5565 0.9291
5.4271 -1.3390 0.9150
5.3992 -1.1275 0.9022
5.3720 -0.9213 0.8908
5.3454 -0.7197 0.8807
5.3193 -0.5220 0.8717
5.2347 -0.3239 0.8542
6.5282 -0.1683 1.0620
7.5391 0.0772 1.2240
7.5034 0.3473 1.2172
7.4680 0.6157 1.2118
7.4327 0.8832 1.2078
7.3974 1.1504 1.2052
7.3621 1.4180 1.2040
7.3266 1.6867 1.2041
7.2909 1.9573 1.2056
7.2549 2.2305 1.2086
7.2184 2.5069 1.2129
7.1814 2.7875 1.2188
7.1437 3.0730 1.2262
7.1053 3.3643 1.2351
7.0659 3.6624 1.2458
7.0255 3.9684 1.2582
6.9840 4.2833 1.2724
6.9411 4.6085 1.2887
6.8966 4.9452 1.3071
6.8505 5.2951 1.3278
6.8023 5.6600 1.3510
6.7287 6.0209 1.3722
6.6760 6.4205 1.4011
6.6204 6.8417 1.4332
6.5842 7.3128 1.4741
6.5214 7.7885 1.5142
6.0818 7.8177 1.4690
5.7460 7.9604 1.4486
5.3713 8.0343 1.4185
5.3952 8.7334 1.4988
5.0053 8.7936 1.4694
5.9415 11.3693 1.8529
5.3954 11.2946 1.7981
4.8755 11.2255 1.7484
4.3778 11.1596 1.7030
3.9000 11.0976 1.6618
4.2009 13.4820 1.9838
3.6335 13.3272 1.9296
3.5097 14.9700 2.1358
2.9872 15.1719 2.1358
2.4550 15.3558 2.1358
1.9134 15.5213 2.1358
1.3632 15.6678 2.1358
0.8050 15.7948 2.1358
0.2395 15.9017 2.1358
-0.3486 16.7599 2.2389
-0.9544 16.8285 2.2389
-1.5654 16.8746 2.2389
-2.1809 16.8979 2.2389
-2.7998 16.8978 2.2389
-3.4213 16.8741 2.2389
-4.0443 16.8263 2.2389
-4.6680 16.7543 2.2389
-5.2911 16.6578 2.2389
-5.9128 16.5365 2.2389
-6.5317 16.3904 2.2389
-7.1470 16.2194 2.2389
-7.7575 16.0233 2.2389
-8.2462 15.5837 2.2079
-8.5460 14.8391 2.1356
-9.1078 14.5809 2.1356
-9.6605 14.2993 2.1356
-10.2031 13.9946 2.1356
-10.7344 13.6670 2.1356
-10.8309 12.8172 2.0554
-11.5557 12.7215 2.0987
-12.3174 12.6210 2.1474
-12.5526 11.9729 2.1067
-12.4285 11.0323 2.0133
-13.1347 10.8438 2.0589
-13.5417 10.3875 2.0589
-13.9298 9.9139 2.0589
-12.0179 7.9207 1.7305
-10.7812 6.5645 1.5156
-10.7067 6.0047 1.4723
-10.6362 5.4742 1.4334
-10.5691 4.9695 1.3986
-10.5050 4.4875 1.3674
-10.4436 4.0256 1.3395
-10.3846 3.5815 1.3147
-10.3276 3.1529 1.2928
-10.2724 2.7382 1.2734
-10.2189 2.3356 1.2566
-10.1668 1.9437 1.2421
-10.1159 1.5609 1.2297
-10.0661 1.1861 1.2195
-10.0172 0.8181 1.2113
-9.9690 0.4557 1.2050
-9.9214 0.0979 1.2006
-9.9163 -0.2573 1.2031
-10.1791 -0.6293 1.2401
-13.3428 -1.3058 1.6346
-17.3101 -2.3224 2.1358
-17.1618 -2.9314 2.1358
-16.9892 -3.5323 2.1358
-16.7927 -4.1239 2.1358
-16.5730 -4.7052 2.1358
-16.3308 -5.2753 2.1358
-16.8422 -6.1148 2.2389
-16.5431 -6.6861 2.2389
-16.2227 -7.2429 2.2389
-15.8818 -7.7845 2.2389
-15.5212 -8.3101 2.2389
-15.1418 -8.8190 2.2389
-14.7446 -9.3107 2.2389
-14.3303 -9.7844 2.2389
-13.9001 -10.2397 2.2389
-13.4548 -10.6761 2.2389
-12.9953 -11.0932 2.2389
-12.5227 -11.4906 2.2389
-12.0378 -11.8680 2.2389
-11.5417 -12.2251 2.2389
-11.0351 -12.5618 2.2389
-10.5192 -12.8778 2.2389
-9.8330 -12.9597 2.2026
-9.0572 -12.8710 2.1429
-8.5130 -13.0696 2.1358
-7.9935 -13.2913 2.1358
-7.4693 -13.4929 2.1358
-6.9411 -13.6747 2.1358
-6.4097 -13.8366 2.1358
-5.8759 -13.9787 2.1358
-5.3404 -14.1013 2.1358
-4.8040 -14.2044 2.1358
-4.2674 -14.2882 2.1358
-3.7311 -14.3531 2.1358
-3.1960 -14.3991 2.1358
-2.6625 -14.4265 2.1358
-2.1313 -14.4356 2.1358
-1.6031 -14.4266 2.1358
-1.0807 -14.4334 2.1407
-0.5587 -14.3892 2.1407
-0.0414 -12.3804 2.1358
0.4018 -12.3207 2.1358
0.8410 -12.2488 2.1362
1.2841 -12.2430 2.1507
1.7165 -12.1396 2.1507
2.1433 -12.0223 2.1507
2.5643 -11.8914 2.1507
2.9791 -11.7473 2.1507
3.3873 -11.5900 2.1507
3.7885 -11.4201 2.1507
4.1826 -11.2378 2.1507
4.5690 -11.0433 2.1507
4.8177 -10.5525 2.0943
5.1440 -10.2716 2.0803
4.9613 -9.0755 1.8786
4.8116 -8.0949 1.7152
4.1031 -6.3692 1.3837
4.0254 -5.7803 1.2897
4.1297 -5.4969 1.2619
4.2606 -5.2651 1.2460
4.5162 -5.1872 1.2680
4.7010 -5.0221 1.2708
4.8245 -4.7956 1.2590
4.9455 -4.5737 1.2488
5.0644 -4.3559 1.2403
5.1814 -4.1413 1.2334
5.2969 -3.9295 1.2279
5.4113 -3.7198 1.2239
5.5249 -3.5116 1.2214
5.3616 -3.1426 1.1604
5.4874 -2.9560 1.1646
5.6142 -2.7681 1.1701
5.9044 -2.6512 1.2103
6.3720 -2.5895 1.2865
6.9029 -2.5194 1.3745
7.5126 -2.4389 1.4772
5.4558 -1.5563 1.0608
5.4271 -1.3387 1.0447
5.3992 -1.1271 1.0302
5.3719 -0.9208 1.0173
5.3453 -0.7191 1.0058
5.3192 -0.5212 0.9957
5.2346 -0.3231 0.9759
6.1272 -0.1570 1.1390
7.5389 0.0785 1.3989
7.5032 0.3487 1.3914
7.4678 0.6173 1.3856
7.4325 0.8849 1.3814
7.3972 1.1522 1.3788
7.3618 1.4199 1.3778
7.3264 1.6888 1.3784
7.2906 1.9595 1.3807
7.2546 2.2328 1.3845
7.2181 2.5094 1.3901
7.1810 2.7901 1.3974
7.1434 3.0757 1.4064
7.1049 3.3672 1.4174
7.0655 3.6655 1.4302
7.0251 3.9717 1.4452
6.9835 4.2868 1.4623
6.9406 4.6122 1.4818
6.8961 4.9492 1.5038
6.8499 5.2994 1.5284
6.8017 5.6645 1.5561
6.7280 6.0257 1.5814
6.6753 6.4256 1.6157
6.6196 6.8472 1.6538
6.5834 7.3187 1.7021
6.5206 7.7949 1.7496
6.0751 7.8168 1.6969
5.7451 7.9672 1.6761
5.3651 8.0334 1.6409
5.3888 8.7325 1.7350
5.0043 8.8018 1.7039
5.7717 11.0579 2.0893
5.3886 11.2948 2.0862
4.8690 11.2258 2.0301
4.3715 11.1599 1.9790
3.8936 11.0969 1.9324
3.7984 12.2118 2.0912
3.4462 12.6649 2.1358
3.0043 12.8429 2.1358
2.5541 13.0056 2.1358
2.0961 13.1525 2.1357
1.6310 13.2835 2.1357
1.1593 13.3987 2.1358
0.6815 13.4965 2.1358
0.1981 13.5771 2.1358
-0.3040 14.2984 2.2389
-0.8201 14.3455 2.2389
-1.3399 14.3736 2.2389
-1.8626 14.3821 2.2389
-2.3875 14.3709 2.2389
-2.9138 14.3397 2.2389
-3.4406 14.2884 2.2389
-3.9671 14.2167 2.2389
-4.4925 14.1244 2.2389
-5.0159 14.0116 2.2389
-5.5365 13.8781 2.2389
-6.0532 13.7238 2.2389
-6.5653 13.5490 2.2389
-7.0717 13.3535 2.2389
-7.5716 13.1375 2.2389
-7.8484 12.5562 2.1790
-8.1538 12.0616 2.1356
-8.6073 11.7989 2.1358
-9.0503 11.5167 2.1358
-9.4827 11.2162 2.1358
-9.9036 10.8978 2.1358
-10.3121 10.5618 2.1358
-10.7075 10.2089 2.1358
-11.0888 9.8395 2.1358
-11.4554 9.4543 2.1358
-12.0446 9.2363 2.1789
-12.3038 8.7542 2.1644
-12.0177 7.9187 2.0601
-10.7810 6.5630 1.8046
-10.7066 6.0035 1.7534
-10.6361 5.4734 1.7074
-10.5690 4.9689 1.6661
-10.5050 4.4872 1.6291
-10.4436 4.0256 1.5959
-10.3846 3.5816 1.5664
-10.3276 3.1533 1.5402
-10.2725 2.7388 1.5170
-10.2190 2.3364 1.4968
-10.1669 1.9445 1.4792
-10.1161 1.5620 1.4643
-10.0662 1.1873 1.4518
-10.0173 0.8194 1.4416
-9.9692 0.4572 1.4337
-9.9216 0.0996 1.4280
-9.9163 -0.2554 1.4304
-10.1757 -0.6270 1.4733
-13.3432 -1.3029 1.9419
-14.5780 -1.9523 2.1358
-14.4602 -2.4663 2.1358
-14.3222 -2.9738 2.1358
-14.1644 -3.4742 2.1358
-13.9871 -3.9665 2.1358
-13.7909 -4.4501 2.1358
-13.5763 -4.9241 2.1358
-13.9879 -5.6479 2.2389
-13.7261 -6.1225 2.2389
-13.4469 -6.5850 2.2389
-13.1508 -7.0347 2.2389
-12.8387 -7.4710 2.2389
-12.5111 -7.8933 2.2389
-12.1687 -8.3012 2.2389
-11.8124 -8.6941 2.2389
-11.4429 -9.0717 2.2389
-11.0608 -9.4335 2.2389
-10.6688 -9.7808 2.2392
-10.2659 -10.1119 2.2396
-9.8511 -10.4249 2.2397
-9.4260 -10.7200 2.2396
-8.9936 -10.9995 2.2398
-8.5526 -11.2611 2.2399
-8.1032 -11.5035 2.2396
-7.6475 -11.7284 2.2394
-7.1862 -11.9357 2.2392
-6.7199 -12.1252 2.2390
-6.1910 -12.1820 2.2178
-5.5462 -11.9570 2.1497
-5.0890 -12.0899 2.1498
-4.5992 -12.1258 2.1358
-4.1410 -12.2239 2.1358
-3.6818 -12.3053 2.1358
-3.2223 -12.3704 2.1358
-2.7629 -12.4192 2.1358
-2.3044 -12.4519 2.1358
-1.8471 -12.4686 2.1358
-1.3917 -12.4696 2.1358
-0.9386 -12.4551 2.1358
-0.3333 -8.4816 1.4579
-0.0416 -10.9149 2.1371
0.3495 -10.8720 2.1379
0.7376 -10.8150 2.1386
1.1221 -10.7451 2.1392
1.5028 -10.6626 2.1399
1.8793 -10.5676 2.1406
2.2511 -10.4605 2.1413
2.6169 -10.3370 2.1410
2.9764 -10.1993 2.1403
3.3471 -10.1028 2.1507
3.6972 -9.9452 2.1507
4.0408 -9.7767 2.1507
4.3776 -9.5975 2.1507
4.5837 -9.1607 2.0943
4.8977 -8.9660 2.0943
4.8128 -8.1027 1.9368
4.1038 -6.3745 1.5618
4.0260 -5.7847 1.4552
4.1287 -5.4987 1.4228
4.2597 -5.2667 1.4045
4.5120 -5.1849 1.4279
4.7002 -5.0235 1.4318
4.8238 -4.7969 1.4182
4.9449 -4.5749 1.4065
5.0638 -4.3569 1.3967
5.1809 -4.1423 1.3886
5.2965 -3.9303 1.3823
5.4109 -3.7205 1.3776
5.5245 -3.5123 1.3746
5.3613 -3.1430 1.3059
5.4872 -2.9564 1.3105
5.6140 -2.7684 1.3167
5.9040 -2.6512 1.3618
6.3718 -2.5895 1.4475
6.9030 -2.5194 1.5465
7.5130 -2.4389 1.6622
5.3948 -1.5387 1.1803
5.3664 -1.3233 1.1624
5.3408 -1.1144 1.1468
5.3442 -0.9155 1.1390
5.3452 -0.7184 1.1320
5.3191 -0.5205 1.1207
5.2345 -0.3223 1.0986
5.7953 -0.1475 1.2129
7.5387 0.0799 1.5753
7.5030 0.3502 1.5671
7.4675 0.6189 1.5609
7.4322 0.8866 1.5565
7.3969 1.1540 1.5539
7.3616 1.4219 1.5532
7.3261 1.6909 1.5542
7.2904 1.9617 1.5572
7.2543 2.2351 1.5620
7.2178 2.5119 1.5687
7.1807 2.7927 1.5774
7.1430 3.0785 1.5882
7.1045 3.3702 1.6011
7.0651 3.6687 1.6163
7.0247 3.9750 1.6338
6.9831 4.2903 1.6538
6.9401 4.6159 1.6765
6.8956 4.9532 1.7021
6.8494 5.3036 1.7308
6.8011 5.6690 1.7629
6.7274 6.0306 1.7924
6.6746 6.4308 1.8321
6.6189 6.8528 1.8763
6.5826 7.3248 1.9321
6.5197 7.8015 1.9870
6.0923 7.8467 1.9339
5.7541 7.9878 1.9088
5.3588 8.0326 1.8647
5.3823 8.7317 1.9728
5.0032 8.8101 1.9406
5.0674 9.7203 2.0908
4.7350 9.9376 2.0908
4.3938 10.1441 2.0908
4.0441 10.3392 2.0908
3.7654 10.7488 2.1358
3.3918 10.9238 2.1358
3.0106 11.0860 2.1358
2.6223 11.2351 2.1358
2.2272 11.3707 2.1358
1.8258 11.4925 2.1358
1.4186 11.6002 2.1358
1.0061 11.6933 2.1358
0.5887 11.7715 2.1358
0.1752 12.4059 2.2389
-0.2707 12.4560 2.2389
-0.7198 12.4897 2.2389
-1.1716 12.5067 2.2389
-1.6254 12.5069 2.2389
-2.0806 12.4899 2.2389
-2.5365 12.4558 2.2389
-2.9923 12.4042 2.2389
-3.4475 12.3351 2.2389
-3.9011 12.2485 2.2389
-4.3527 12.1442 2.2389
-4.8013 12.0222 2.2389
-5.2462 11.8826 2.2389
-5.6867 11.7255 2.2389
-6.1220 11.5508 2.2389
-6.5513 11.3588 2.2389
-6.9739 11.1495 2.2389
-7.3889 10.9233 2.2389
-7.5571 10.3534 2.1703
-7.8163 9.9410 2.1358
-8.1864 9.6781 2.1358
-8.5466 9.4001 2.1358
-8.8960 9.1075 2.1358
-9.2340 8.8006 2.1358
-7.5048 6.6569 1.6766
-9.8733 8.1458 2.1358
-10.1733 7.7990 2.1358
-10.4595 7.4400 2.1358
-10.7312 7.0693 2.1358
-10.7808 6.5615 2.0955
-10.7064 6.0024 2.0363
-10.6360 5.4725 1.9831
-10.5689 4.9684 1.9353
-10.5049 4.4869 1.8924
-10.4436 4.0255 1.8540
-10.3846 3.5818 1.8197
-10.3277 3.1537 1.7892
-10.2726 2.7393 1.7622
-10.2191 2.3371 1.7385
-10.1670 1.9455 1.7180
-10.1162 1.5630 1.7004
-10.0664 1.1885 1.6856
-10.0175 0.8208 1.6734
-9.9694 0.4588 1.6639
-9.9219 0.1013 1.6569
-9.9163 -0.2536 1.6592
-10.1723 -0.6247 1.7079
-12.6591 -1.2333 2.1358
-12.5796 -1.6817 2.1358
-12.4825 -2.1257 2.1358
-12.3681 -2.5646 2.1358
-12.2367 -2.9977 2.1358
-12.0886 -3.4243 2.1358
-11.9243 -3.8437 2.1358
-11.7442 -4.2553 2.1358
-11.5486 -4.6584 2.1358
-11.8853 -5.2964 2.2389
-11.6494 -5.6995 2.2389
-11.3993 -6.0923 2.2390
-11.1359 -6.4744 2.2392
-10.8590 -6.8450 2.2395
-10.5688 -7.2035 2.2397
-10.2660 -7.5493 2.2398
-9.9513 -7.8822 2.2400
-9.6266 -8.2030 2.2404
-9.2916 -8.5106 2.2409
-8.9459 -8.8037 2.2413
-8.5902 -9.0821 2.2415
-8.2243 -9.3445 2.2413
-7.8504 -9.5920 2.2410
-7.4691 -9.8246 2.2408
-7.0812 -10.0422 2.2405
-6.6872 -10.2446 2.2403
-6.2878 -10.4318 2.2400
-5.8836 -10.6038 2.2398
-5.4753 -10.7605 2.2396
-5.0633 -10.9017 2.2393
-4.6484 -11.0276 2.2391
-4.2311 -11.1385 2.2389
-3.7180 -10.9570 2.1834
-3.2359 -10.7954 2.1358
-2.8343 -10.8587 2.1358
-2.4324 -10.9077 2.1358
-2.0306 -10.9424 2.1358
-1.6296 -10.9631 2.1358
-1.2297 -10.9699 2.1358
-0.6440 -8.4916 1.6543
-0.3331 -8.3741 1.6345
-0.0419 -9.7561 2.1393
0.3079 -9.7205 2.1399
0.6552 -9.6728 2.1405
0.9995 -9.6135 2.1411
1.3405 -9.5416 2.1414
1.6770 -9.4543 2.1408
2.0092 -9.3560 2.1401
2.3368 -9.2468 2.1395
2.6594 -9.1270 2.1388
2.9768 -8.9967 2.1382
3.2886 -8.8563 2.1375
3.5945 -8.7060 2.1368
3.8943 -8.5460 2.1361
4.2177 -8.4367 2.1507
4.3898 -8.0426 2.0943
4.6660 -7.8613 2.0943
4.1046 -6.3799 1.7417
4.0266 -5.7891 1.6224
4.1277 -5.5005 1.5853
4.2588 -5.2683 1.5645
4.5078 -5.1826 1.5891
4.6994 -5.0250 1.5943
4.8231 -4.7982 1.5789
4.9443 -4.5761 1.5657
5.0632 -4.3580 1.5545
5.1804 -4.1432 1.5454
5.2960 -3.9312 1.5381
5.4105 -3.7212 1.5328
5.5242 -3.5129 1.5293
5.3610 -3.1435 1.4527
5.4870 -2.9567 1.4578
5.6138 -2.7686 1.4646
5.9036 -2.6513 1.5147
6.3716 -2.5895 1.6100
6.9030 -2.5194 1.7202
7.5134 -2.4388 1.8490
5.4557 -1.5558 1.3276
5.4270 -1.3380 1.3076
5.3990 -1.1262 1.2896
5.3718 -0.9197 1.2736
5.3452 -0.7178 1.2594
5.2683 -0.5149 1.2351
5.2342 -0.3215 1.2224
5.9672 -0.1509 1.3899
7.5385 0.0813 1.7533
7.5028 0.3517 1.7445
7.4673 0.6205 1.7378
7.4320 0.8883 1.7332
7.3967 1.1559 1.7306
7.3613 1.4239 1.7301
7.3258 1.6930 1.7317
7.2901 1.9640 1.7353
7.2540 2.2375 1.7411
7.2174 2.5144 1.7491
7.1803 2.7954 1.7592
7.1426 3.0814 1.7717
7.1041 3.3732 1.7866
7.0647 3.6718 1.8041
7.0242 3.9784 1.8242
6.9826 4.2939 1.8471
6.9396 4.6197 1.8731
6.8951 4.9572 1.9023
6.8488 5.3079 1.9351
6.8005 5.6736 1.9716
6.7268 6.0355 2.0055
6.6739 6.4360 2.0507
6.6182 6.8584 2.1009
6.4797 7.2171 2.1307
6.2378 7.4713 2.1307
5.9864 7.7180 2.1307
5.7257 7.9566 2.1307
5.3525 8.0318 2.0904
5.1773 8.4084 2.1307
4.8900 8.6209 2.1307
4.5945 8.8240 2.1307
4.2909 9.0173 2.1307
3.9795 9.2005 2.1307
3.6607 9.3732 2.1307
3.3426 9.5576 2.1358
3.0091 9.7087 2.1358
2.6692 9.8483 2.1358
2.3231 9.9761 2.1358
1.9714 10.0918 2.1358
1.6145 10.1951 2.1358
1.2527 10.2857 2.1358
0.8865 10.3634 2.1358
0.5267 10.6344 2.1781
0.1499 10.9848 2.2389
-0.2447 11.0240 2.2389
-0.6419 11.0487 2.2389
-1.0410 11.0587 2.2389
-1.4416 11.0539 2.2389
-1.8430 11.0340 2.2389
-2.2447 10.9989 2.2389
-2.6460 10.9487 2.2389
-3.0464 10.8831 2.2389
-3.4452 10.8021 2.2389
-3.8418 10.7058 2.2389
-4.2355 10.5940 2.2389
-4.6257 10.4670 2.2389
-5.0118 10.3247 2.2389
-5.3930 10.1672 2.2389
-5.7688 9.9946 2.2389
-6.1384 9.8072 2.2389
-6.5014 9.6051 2.2389
-6.8569 9.3886 2.2389
-7.2044 9.1578 2.2389
-7.3329 8.6648 2.1765
-7.5102 8.2564 2.1358
-7.8150 7.9974 2.1358
-7.3040 6.9584 1.9235
-7.4975 6.6480 1.9076
-8.6675 7.1486 2.1358
-8.9292 6.8432 2.1358
-9.1788 6.5272 2.1358
-9.4158 6.2012 2.1358
-9.6398 5.8658 2.1358
-9.8504 5.5215 2.1358
-10.0472 5.1688 2.1358
-10.2298 4.8084 2.1358
-10.3980 4.4409 2.1358
-10.4436 4.0254 2.1140
-10.3846 3.5819 2.0749
-10.3277 3.1540 2.0400
-10.2727 2.7399 2.0092
-10.2192 2.3378 1.9821
-10.1672 1.9464 1.9585
-10.1163 1.5641 1.9382
-10.0666 1.1898 1.9211
-10.0177 0.8222 1.9070
-9.9696 0.4603 1.8959
-9.9221 0.1030 1.8875
-9.9163 -0.2517 1.8898
-10.1688 -0.6224 1.9441
-11.1200 -1.0808 2.1358
-11.0530 -1.4749 2.1358
-10.9707 -1.8654 2.1358
-10.8733 -2.2516 2.1358
-10.7611 -2.6330 2.1358
-10.6344 -3.0089 2.1358
-10.4934 -3.3788 2.1358
-10.3385 -3.7421 2.1358
-10.1701 -4.0983 2.1358
-9.9885 -4.4469 2.1358
-10.2672 -5.0186 2.2389
-10.0511 -5.3668 2.2391
-9.8233 -5.7061 2.2394
-9.5837 -6.0357 2.2398
-9.3324 -6.3551 2.2402
-9.0696 -6.6636 2.2405
-8.7961 -6.9611 2.2408
-8.5124 -7.2471 2.2411
-8.2191 -7.5214 2.2413
-7.9167 -7.7837 2.2416
-7.6057 -8.0338 2.2418
-7.2862 -8.2707 2.2419
-6.9583 -8.4937 2.2416
-6.6237 -8.7038 2.2414
-6.2829 -8.9008 2.2411
-5.9364 -9.0846 2.2409
-5.5848 -9.2551 2.2407
-5.2286 -9.4121 2.2404
-4.8683 -9.5556 2.2402
-4.5045 -9.6856 2.2399
-4.1377 -9.8022 2.2397
-3.7683 -9.9051 2.2394
-3.3970 -9.9945 2.2392
-3.0242 -10.0704 2.2390
-2.6505 -10.1335 2.2389
-2.1956 -9.8225 2.1595
-1.8352 -9.8615 2.1602
-1.4581 -9.7759 2.1365
-1.1023 -9.7892 2.1372
-0.6474 -8.4813 1.8520
-0.3367 -8.3621 1.8287
-0.0420 -8.8109 2.1411
0.2740 -8.7808 2.1415
0.5876 -8.7361 2.1410
0.8985 -8.6808 2.1405
1.2063 -8.6150 2.1399
1.5108 -8.5390 2.1394
1.8115 -8.4528 2.1388
2.1081 -8.3566 2.1382
2.4004 -8.2504 2.1375
2.6880 -8.1347 2.1369
2.9706 -8.0097 2.1362
3.2486 -7.8767 2.1358
3.5219 -7.7362 2.1358
3.7897 -7.5870 2.1358
4.0517 -7.4292 2.1358
4.2241 -7.1220 2.0943
4.1053 -6.3853 1.9238
4.0272 -5.7935 1.7915
4.1267 -5.5023 1.7495
4.2579 -5.2700 1.7263
4.5036 -5.1803 1.7518
4.6986 -5.0264 1.7586
4.8224 -4.7995 1.7413
4.9436 -4.5773 1.7265
5.0627 -4.3590 1.7140
5.1798 -4.1441 1.7038
5.2956 -3.9320 1.6956
5.4101 -3.7220 1.6896
5.5239 -3.5135 1.6856
5.3607 -3.1439 1.6011
5.4867 -2.9571 1.6066
5.6136 -2.7689 1.6141
5.9032 -2.6513 1.6691
6.3714 -2.5895 1.7742
6.9031 -2.5194 1.8957
7.5138 -2.4388 2.0378
5.4557 -1.5555 1.4631
5.4269 -1.3376 1.4411
5.3990 -1.1257 1.4213
5.3717 -0.9192 1.4037
5.3451 -0.7172 1.3881
5.3189 -0.5191 1.3745
5.2343 -0.3207 1.3476
5.9949 -0.1506 1.5395
7.5383 0.0827 1.9332
7.5026 0.3532 1.9237
7.4671 0.6221 1.9165
7.4318 0.8901 1.9117
7.3964 1.1577 1.9092
7.3611 1.4259 1.9089
7.3255 1.6951 1.9110
7.2898 1.9662 1.9154
7.2536 2.2399 1.9221
7.2171 2.5169 1.9313
7.1800 2.7981 1.9429
7.1422 3.0842 1.9571
7.1037 3.3762 1.9741
7.0643 3.6750 1.9938
7.0238 3.9818 2.0165
6.9821 4.2975 2.0424
6.9391 4.6236 2.0717
6.8945 4.9613 2.1047
6.8137 5.2855 2.1307
6.6382 5.5432 2.1307
6.4534 5.7955 2.1307
6.2595 6.0420 2.1307
6.0567 6.2825 2.1307
5.8451 6.5165 2.1307
5.6248 6.7438 2.1307
5.3961 6.9641 2.1307
5.1592 7.1769 2.1307
4.9142 7.3821 2.1307
4.6614 7.5792 2.1307
4.4010 7.7680 2.1307
4.1333 7.9481 2.1307
3.8585 8.1193 2.1307
3.5769 8.2812 2.1307
3.2887 8.4335 2.1307
2.9944 8.5759 2.1307
2.7005 8.7288 2.1358
2.3940 8.8510 2.1358
2.0823 8.9625 2.1358
1.7657 9.0630 2.1358
1.4446 9.1523 2.1358
1.1195 9.2302 2.1358
0.7907 9.2964 2.1358
0.4807 9.8021 2.2389
0.1296 9.8464 2.2389
-0.2240 9.8779 2.2389
-0.5796 9.8964 2.2389
-0.9367 9.9018 2.2389
-1.2949 9.8938 2.2389
-1.6535 9.8725 2.2389
-2.0122 9.8377 2.2389
-2.3703 9.7894 2.2389
-2.7273 9.7274 2.2389
-3.0826 9.6519 2.2389
-3.4358 9.5627 2.2389
-3.7862 9.4599 2.2389
-4.1333 9.3436 2.2389
-4.4765 9.2138 2.2389
-4.8153 9.0707 2.2389
-5.1490 8.9143 2.2389
-5.4772 8.7448 2.2389
-5.7993 8.5624 2.2389
-6.1146 8.3674 2.2389
-6.4227 8.1598 2.2389
-6.7230 7.9401 2.2389
-7.0151 7.7085 2.2389
-7.1537 7.3175 2.1945
-7.2234 6.8789 2.1358
-7.4752 6.6258 2.1358
-7.7172 6.3627 2.1358
-7.9490 6.0901 2.1358
-8.1700 5.8082 2.1358
-8.3799 5.5177 2.1358
-8.5784 5.2188 2.1358
-8.7651 4.9122 2.1358
-8.9395 4.5983 2.1358
-9.1015 4.2776 2.1358
-9.2508 3.9507 2.1358
-9.3870 3.6181 2.1358
-9.5099 3.2804 2.1358
-9.6194 2.9380 2.1358
-9.7153 2.5918 2.1358
-9.7973 2.2420 2.1358
-9.8655 1.8895 2.1358
-9.9197 1.5348 2.1358
-9.9598 1.1784 2.1358
-9.9858 0.8210 2.1358
-9.9698 0.4619 2.1298
-9.9223 0.1048 2.1201
-9.9163 -0.2498 2.1223
-9.9492 -0.6069 2.1358
-9.9053 -0.9605 2.1358
-9.8476 -1.3117 2.1358
-9.7765 -1.6598 2.1358
-9.6919 -2.0042 2.1358
-9.5943 -2.3446 2.1358
-9.4837 -2.6802 2.1358
-9.3605 -3.0108 2.1358
-9.2250 -3.3356 2.1358
-9.0773 -3.6543 2.1358
-9.2091 -4.0960 2.2055
-9.1699 -4.4780 2.2390
-8.9803 -4.7906 2.2393
-8.7794 -5.0951 2.2395
-8.5676 -5.3909 2.2398
-8.3454 -5.6779 2.2400
-8.1131 -5.9555 2.2403
-7.8712 -6.2235 2.2405
-7.6201 -6.4815 2.2408
-7.3602 -6.7293 2.2410
-7.0921 -6.9665 2.2412
-6.8162 -7.1930 2.2415
-6.5329 -7.4084 2.2417
-6.2427 -7.6127 2.2419
-5.9453 -7.8044 2.2418
-5.6417 -7.9842 2.2416
-5.3328 -8.1521 2.2413
-5.0191 -8.3082 2.2411
-4.7010 -8.4523 2.2408
-4.3790 -8.5845 2.2406
-4.0536 -8.7046 2.2403
-3.7253 -8.8127 2.2401
-3.3945 -8.9086 2.2399
-3.0615 -8.9924 2.2397
-2.7271 -9.0642 2.2395
-2.3914 -9.1239 2.2392
-2.0549 -9.1715 2.2390
-1.7182 -9.2073 2.2389
-1.3443 -8.9820 2.1782
-0.9991 -8.8335 2.1392
-0.6508 -8.4709 2.0512
-0.3403 -8.3499 2.0242
-0.0421 -8.0169 2.1404
0.2454 -7.9883 2.1399
0.5310 -7.9497 2.1394
0.8142 -7.9015 2.1389
1.0947 -7.8436 2.1384
1.3722 -7.7762 2.1378
1.6465 -7.6995 2.1372
1.9172 -7.6137 2.1367
2.1841 -7.5188 2.1361
2.4473 -7.4164 2.1358
2.7065 -7.3062 2.1358
2.9613 -7.1877 2.1358
3.2113 -7.0608 2.1358
3.4564 -6.9259 2.1358
3.6964 -6.7831 2.1358
3.9309 -6.6326 2.1358
4.1060 -6.3908 2.1081
4.0278 -5.7980 1.9627
4.1257 -5.5041 1.9156
4.2569 -5.2717 1.8899
4.4993 -5.1780 1.9161
4.6978 -5.0279 1.9248
4.8217 -4.8008 1.9057
4.9429 -4.5785 1.8893
5.0621 -4.3601 1.8754
5.1793 -4.1451 1.8640
5.2951 -3.9328 1.8550
5.4097 -3.7227 1.8483
5.5235 -3.5141 1.8438
5.3604 -3.1444 1.7513
5.4865 -2.9575 1.7572
5.6134 -2.7692 1.7653
5.9028 -2.6514 1.8254
6.3712 -2.5896 1.9403
6.9032 -2.5194 2.0733
7.1838 -2.3315 2.1307
5.4557 -1.5553 1.6002
5.4269 -1.3372 1.5761
5.3989 -1.1253 1.5545
5.3717 -0.9186 1.5353
5.3450 -0.7165 1.5184
5.3188 -0.5184 1.5036
5.2342 -0.3199 1.4742
6.0232 -0.1503 1.6922
7.5381 0.0841 2.1151
7.5024 0.3548 2.1050
7.4669 0.6238 2.0974
7.4315 0.8918 2.0923
7.3962 1.1596 2.0898
7.3608 1.4279 2.0898
7.3253 1.6973 2.0924
7.2895 1.9685 2.0975
7.2533 2.2423 2.1052
7.2168 2.5195 2.1156
7.1796 2.8008 2.1287
7.0953 3.0670 2.1307
6.9951 3.3278 2.1307
6.8860 3.5857 2.1307
6.7679 3.8402 2.1307
6.6409 4.0913 2.1307
6.5052 4.3384 2.1307
6.3608 4.5813 2.1307
6.2077 4.8198 2.1307
6.0462 5.0535 2.1307
5.8763 5.2821 2.1307
5.6982 5.5054 2.1307
5.5120 5.7229 2.1307
5.3179 5.9345 2.1307
5.1160 6.1398 2.1307
4.9065 6.3386 2.1307
4.6896 6.5305 2.1307
4.4654 6.7152 2.1307
4.2343 6.8925 2.1307
3.9964 7.0621 2.1307
3.7519 7.2237 2.1307
3.5011 7.3770 2.1307
3.2443 7.5218 2.1307
2.9817 7.6579 2.1307
2.7201 7.8032 2.1358
2.4462 7.9212 2.1358
2.1674 8.0295 2.1358
1.8841 8.1281 2.1358
1.5965 8.2168 2.1358
1.3051 8.2951 2.1358
1.0101 8.3631 2.1358
0.7463 8.8270 2.2389
0.4309 8.8758 2.2389
0.1130 8.9132 2.2389
-0.2070 8.9390 2.2389
-0.5286 8.9531 2.2389
-0.8514 8.9552 2.2389
-1.1749 8.9454 2.2389
-1.4987 8.9236 2.2389
-1.8223 8.8896 2.2389
-2.1452 8.8434 2.2389
-2.4670 8.7850 2.2389
-2.7871 8.7144 2.2389
-3.1051 8.6317 2.2389
-3.4205 8.5367 2.2389
-3.7327 8.4296 2.2389
-4.0413 8.3105 2.2389
-4.3458 8.1795 2.2389
-4.6456 8.0367 2.2389
-4.9404 7.8822 2.2389
-5.2295 7.7162 2.2389
-5.5125 7.5389 2.2389
-5.7890 7.3506 2.2389
-6.0584 7.1515 2.2389
-6.3202 6.9417 2.2389
-6.5741 6.7217 2.2389
-6.8196 6.4917 2.2389
-7.0077 6.2091 2.2234
-6.9574 5.7343 2.1386
-7.1560 5.4808 2.1358
-7.3541 5.2267 2.1358
-7.5423 4.9649 2.1358
-7.7203 4.6957 2.1358
-7.8877 4.4197 2.1358
-8.0442 4.1372 2.1358
-8.1896 3.8486 2.1358
-8.3236 3.5545 2.1358
-8.4460 3.2554 2.1358
-8.4877 2.9278 2.1186
-8.6190 2.6327 2.1268
-8.7417 2.3325 2.1358
-8.8159 2.0181 2.1358
-8.8776 1.7011 2.1358
-8.9270 1.3821 2.1358
-8.9638 1.0617 2.1358
-8.9880 0.7402 2.1358
-8.9997 0.4184 2.1358
-8.9988 0.0966 2.1358
-8.9854 -0.2246 2.1358
-8.9595 -0.5447 2.1358
-8.9213 -0.8631 2.1358
-8.8709 -1.1794 2.1358
-8.8083 -1.4930 2.1358
-8.7339 -1.8036 2.1358
-8.6476 -2.1106 2.1358
-8.5497 -2.4135 2.1358
-8.4405 -2.7119 2.1358
-8.3202 -3.0053 2.1358
-8.2514 -3.3185 2.1521
-8.4357 -3.7483 2.2389
-8.2770 -4.0382 2.2391
-8.1078 -4.3212 2.2393
-7.9285 -4.5970 2.2395
-7.7393 -4.8653 2.2397
-7.5406 -5.1257 2.2400
-7.3328 -5.3778 2.2402
-7.1162 -5.6214 2.2404
-6.8912 -5.8562 2.2406
-6.6583 -6.0819 2.2409
-6.4177 -6.2982 2.2411
-6.1700 -6.5049 2.2413
-5.9155 -6.7018 2.2415
-5.6546 -6.8887 2.2417
-5.3879 -7.0655 2.2419
-5.1148 -7.2307 2.2418
-4.8365 -7.3852 2.2415
-4.5536 -7.5291 2.2413
-4.2666 -7.6622 2.2411
-3.9760 -7.7845 2.2409
-3.6820 -7.8960 2.2407
-3.3851 -7.9965 2.2404
-3.0858 -8.0860 2.2402
-2.7844 -8.1646 2.2400
-2.4814 -8.2322 2.2398
-2.1771 -8.2890 2.2396
-1.8719 -8.3348 2.2394
-1.5663 -8.3698 2.2392
-1.2606 -8.3939 2.2390
-0.9552 -8.4074 2.2389
-0.6370 -8.2367 2.1925
-0.3314 -8.0357 2.1408
-0.0423 -7.3493 2.1405
0.2230 -7.3741 2.1545
0.4831 -7.2852 2.1378
0.7428 -7.2427 2.1374
1.0003 -7.1913 2.1369
1.2551 -7.1311 2.1364
1.5070 -7.0624 2.1359
1.7561 -6.9865 2.1358
2.0020 -6.9028 2.1358
2.2444 -6.8108 2.1358
2.4829 -6.7109 2.1358
2.7174 -6.6031 2.1358
2.9477 -6.4876 2.1358
3.1735 -6.3646 2.1358
3.3945 -6.2343 2.1358
3.6107 -6.0968 2.1358
3.8216 -5.9523 2.1358
4.0273 -5.8010 2.1358
4.1246 -5.5060 2.0838
4.2560 -5.2734 2.0557
4.4950 -5.1756 2.0823
4.6970 -5.0294 2.0931
4.8209 -4.8022 2.0721
4.9423 -4.5797 2.0541
5.0615 -4.3612 2.0389
5.1788 -4.1461 2.0263
5.2946 -3.9337 2.0164
5.4093 -3.7234 2.0089
5.5232 -3.5147 2.0040
5.3601 -3.1449 1.9033
5.4862 -2.9578 1.9097
5.6133 -2.7694 1.9184
5.9024 -2.6514 1.9837
6.3710 -2.5896 2.1086
6.5281 -2.3825 2.1307
6.6104 -2.1452 2.1307
5.4556 -1.5550 1.7390
5.4268 -1.3369 1.7128
5.3989 -1.1248 1.6894
5.3716 -0.9180 1.6686
5.3449 -0.7159 1.6503
5.3187 -0.5176 1.6342
5.2341 -0.3191 1.6024
6.5121 -0.1614 1.9889
6.9850 0.0793 2.1307
6.9849 0.3318 2.1307
6.9764 0.5844 2.1307
6.9594 0.8369 2.1307
6.9338 1.0890 2.1307
6.8998 1.3404 2.1307
6.8573 1.5909 2.1307
6.8062 1.8402 2.1307
6.7467 2.0881 2.1307
6.6788 2.3342 2.1307
6.6024 2.5783 2.1307
6.5176 2.8201 2.1307
6.4245 3.0593 2.1307
6.3231 3.2957 2.1307
6.2135 3.5290 2.1307
6.0958 3.7589 2.1307
5.9700 3.9852 2.1307
5.8363 4.2075 2.1307
5.6947 4.4255 2.1307
5.5453 4.6391 2.1307
5.3882 4.8479 2.1307
5.2237 5.0517 2.1307
5.0518 5.2501 2.1307
4.8726 5.4430 2.1307
4.6864 5.6300 2.1307
4.4933 5.8108 2.1307
4.2935 5.9853 2.1307
4.0871 6.1531 2.1307
3.8744 6.3140 2.1307
3.6556 6.4678 2.1307
3.4309 6.6141 2.1307
3.2005 6.7528 2.1307
2.9717 6.8998 2.1358
2.7302 7.0228 2.1358
2.4838 7.1373 2.1358
2.2327 7.2433 2.1358
1.9773 7.3406 2.1358
1.7179 7.4288 2.1358
1.4547 7.5078 2.1358
1.1964 7.6302 2.1506
0.9253 7.6939 2.1515
0.6773 8.0590 2.2389
0.3893 8.1016 2.2389
0.0991 8.1336 2.2389
-0.1928 8.1551 2.2389
-0.4860 8.1658 2.2389
-0.7802 8.1658 2.2389
-1.0749 8.1549 2.2389
-1.3697 8.1329 2.2389
-1.6642 8.1000 2.2389
-1.9579 8.0561 2.2389
-2.2505 8.0011 2.2389
-2.5414 7.9350 2.2389
-2.8303 7.8579 2.2389
-3.1167 7.7698 2.2389
-3.4001 7.6708 2.2389
-3.6801 7.5609 2.2389
-3.9563 7.4403 2.2389
-4.2282 7.3090 2.2389
-4.4954 7.1672 2.2389
-4.7574 7.0151 2.2389
-5.0139 6.8529 2.2389
-5.2642 6.6806 2.2389
-5.5082 6.4987 2.2389
-5.7453 6.3073 2.2389
-5.9752 6.1066 2.2389
-6.1974 5.8970 2.2389
-6.4116 5.6788 2.2389
-6.6174 5.4522 2.2389
-6.8145 5.2176 2.2389
-6.8343 4.8560 2.1851
-6.8504 4.5083 2.1358
-7.0115 4.2637 2.1358
-7.1630 4.0129 2.1358
-7.3048 3.7563 2.1358
-7.4365 3.4944 2.1358
-7.5580 3.2274 2.1358
-7.6691 2.9559 2.1358
-7.7694 2.6802 2.1358
-7.8590 2.4009 2.1358
-7.9377 2.1184 2.1358
-8.0053 1.8331 2.1358
-8.0617 1.5455 2.1358
-8.1070 1.2561 2.1358
-8.1409 0.9652 2.1358
-8.1635 0.6735 2.1358
-8.1748 0.3813 2.1358
-8.1748 0.0892 2.1358
-8.1635 -0.2025 2.1358
-8.1410 -0.4932 2.1358
-8.1074 -0.7825 2.1358
-8.0626 -1.0699 2.1358
-8.0069 -1.3551 2.1358
-7.9405 -1.6375 2.1358
-7.8634 -1.9167 2.1358
-7.7757 -2.1924 2.1358
-7.6778 -2.4641 2.1358
-7.7127 -2.7830 2.1761
-7.8117 -3.1385 2.2389
-7.6787 -3.4086 2.2391
-7.5358 -3.6730 2.2393
-7.3833 -3.9314 2.2395
-7.2216 -4.1833 2.2397
-7.0508 -4.4284 2.2398
-6.8714 -4.6665 2.2400
-6.6836 -4.8972 2.2402
-6.4878 -5.1203 2.2404
-6.2842 -5.3355 2.2406
-6.0733 -5.5424 2.2408
-5.8554 -5.7410 2.2410
-5.6309 -5.9309 2.2412
-5.4002 -6.1120 2.2414
-5.1635 -6.2840 2.2416
-4.9213 -6.4469 2.2418
-4.6738 -6.6002 2.2419
-4.4208 -6.7430 2.2417
-4.1636 -6.8762 2.2415
-3.9025 -6.9996 2.2413
-3.6378 -7.1133 2.2410
-3.3700 -7.2170 2.2408
-3.0994 -7.3108 2.2406
-2.8264 -7.3947 2.2404
-2.5514 -7.4686 2.2402
-2.2747 -7.5325 2.2400
-1.9968 -7.5864 2.2398
-1.7179 -7.6303 2.2397
-1.4384 -7.6642 2.2395
-1.1587 -7.6882 2.2393
-0.8790 -7.7023 2.2391
-0.5999 -7.7066 2.2389
-0.3215 -7.7015 2.2389
-0.0443 -7.0885 2.2389
0.2051 -6.8946 2.1840
0.4421 -6.7164 2.1365
0.6818 -6.6785 2.1361
0.9194 -6.6328 2.1358
1.1550 -6.5800 2.1358
1.3881 -6.5193 2.1358
1.6184 -6.4506 2.1358
1.8458 -6.3743 2.1358
2.0700 -6.2904 2.1358
2.2907 -6.1990 2.1358
2.5078 -6.1003 2.1358
2.7209 -5.9945 2.1358
2.9300 -5.8816 2.1358
3.1347 -5.7619 2.1358
3.3349 -5.6355 2.1358
3.5304 -5.5026 2.1358
3.7210 -5.3633 2.1358
3.9065 -5.2179 2.1358
4.0867 -5.0665 2.1358
4.2615 -4.9093 2.1358
4.4307 -4.7464 2.1358
4.5940 -4.5782 2.1358
4.7234 -4.3786 2.1231
4.8739 -4.2011 2.1231
5.0182 -4.0189 2.1231
5.1561 -3.8320 2.1231
5.2877 -3.6407 2.1231
5.4126 -3.4452 2.1231
5.3598 -3.1453 2.0575
5.4860 -2.9582 2.0643
5.6131 -2.7697 2.0737
5.8652 -2.6350 2.1307
5.9559 -2.4210 2.1307
6.0394 -2.2041 2.1307
6.1155 -1.9845 2.1307
5.4556 -1.5547 1.8797
5.4268 -1.3365 1.8514
5.3988 -1.1243 1.8262
5.3715 -0.9175 1.8037
5.3448 -0.7152 1.7840
5.3186 -0.5169 1.7667
5.2339 -0.3183 1.7324
6.3604 -0.1565 2.1003
6.4600 0.0745 2.1307
6.4595 0.3082 2.1307
6.4510 0.5419 2.1307
6.4347 0.7754 2.1307
6.4105 1.0085 2.1307
6.3784 1.2410 2.1307
6.3384 1.4725 2.1307
6.2905 1.7029 2.1307
6.2348 1.9319 2.1307
6.1712 2.1592 2.1307
6.0998 2.3845 2.1307
6.0206 2.6077 2.1307
5.9337 2.8284 2.1307
5.8392 3.0464 2.1307
5.7371 3.2615 2.1307
5.6274 3.4734 2.1307
5.5104 3.6818 2.1307
5.3859 3.8864 2.1307
5.2543 4.0871 2.1307
5.1154 4.2836 2.1307
4.9696 4.4755 2.1307
4.8168 4.6627 2.1307
4.6573 4.8449 2.1307
4.4912 5.0219 2.1307
4.3186 5.1934 2.1307
4.1397 5.3591 2.1307
3.9546 5.5189 2.1307
3.7636 5.6724 2.1307
3.5668 5.8195 2.1307
3.3645 5.9599 2.1307
3.1642 6.1078 2.1358
2.9509 6.2346 2.1358
2.7326 6.3539 2.1358
2.5097 6.4657 2.1358
2.2824 6.5698 2.1358
2.0509 6.6658 2.1358
1.8155 6.7538 2.1358
1.5765 6.8334 2.1358
1.3341 6.9046 2.1358
1.0887 6.9671 2.1358
0.8813 7.3597 2.2389
0.6187 7.4066 2.2389
0.3539 7.4441 2.2389
0.0873 7.4719 2.2389
-0.1807 7.4900 2.2389
-0.4499 7.4983 2.2389
-0.7198 7.4967 2.2389
-0.9901 7.4851 2.2389
-1.2604 7.4635 2.2389
-1.5303 7.4318 2.2389
-1.7994 7.3900 2.2389
-2.0674 7.3381 2.2389
-2.3337 7.2761 2.2389
-2.5981 7.2041 2.2389
-2.8600 7.1221 2.2389
-3.1193 7.0300 2.2389
-3.3753 6.9282 2.2389
-3.6277 6.8165 2.2389
-3.8761 6.6952 2.2389
-4.1202 6.5644 2.2389
-4.3595 6.4242 2.2389
-4.5937 6.2747 2.2389
-4.8222 6.1163 2.2389
-5.0449 5.9490 2.2389
-5.2613 5.7731 2.2389
-5.4710 5.5889 2.2389
-5.6738 5.3965 2.2389
-5.8692 5.1964 2.2389
-6.0569 4.9887 2.2389
-6.2367 4.7737 2.2389
-6.4082 4.5519 2.2389
-6.5712 4.3234 2.2389
-6.7252 4.0887 2.2389
-6.6928 3.7487 2.1810
-6.6833 3.4362 2.1358
-6.8147 3.2018 2.1392
-6.9146 2.9524 2.1358
-7.0160 2.7041 2.1358
-7.1079 2.4521 2.1358
-7.1899 2.1967 2.1358
-7.2619 1.9385 2.1358
-7.3240 1.6776 2.1358
-7.3759 1.4147 2.1358
-7.4176 1.1501 2.1358
-7.4490 0.8841 2.1358
-7.4702 0.6174 2.1358
-7.4811 0.3502 2.1358
-7.4817 0.0830 2.1358
-7.4720 -0.1838 2.1358
-7.4522 -0.4498 2.1358
-7.4221 -0.7146 2.1358
-7.3820 -0.9777 2.1358
-7.3320 -1.2388 2.1358
-7.2721 -1.4975 2.1358
-7.2025 -1.7534 2.1358
-7.2618 -2.0450 2.1773
-7.3742 -2.3640 2.2389
-7.2719 -2.6211 2.2390
-7.1604 -2.8739 2.2391
-7.0396 -3.1218 2.2393
-6.9098 -3.3646 2.2394
-6.7712 -3.6020 2.2396
-6.6241 -3.8336 2.2398
-6.4688 -4.0591 2.2400
-6.3054 -4.2782 2.2401
-6.1343 -4.4906 2.2403
-5.9558 -4.6962 2.2405
-5.7702 -4.8945 2.2407
-5.5778 -5.0854 2.2409
-5.3790 -5.2687 2.2410
-5.1739 -5.4442 2.2412
-4.9630 -5.6116 2.2414
-4.7467 -5.7709 2.2416
-4.5251 -5.9217 2.2418
-4.2988 -6.0641 2.2419
-4.0673 -6.1968 2.2418
-3.8317 -6.3207 2.2416
-3.5925 -6.4357 2.2414
-3.3498 -6.5417 2.2412
-3.1042 -6.6386 2.2410
-2.8559 -6.7265 2.2408
-2.6052 -6.8052 2.2406
-2.3526 -6.8748 2.2404
-2.0984 -6.9351 2.2402
-1.8428 -6.9863 2.2401
-1.5862 -7.0282 2.2399
-1.3290 -7.0609 2.2397
-1.0714 -7.0845 2.2395
-0.8139 -7.0990 2.2393
-0.5566 -7.1044 2.2392
-0.3000 -7.1009 2.2390
-0.0444 -6.5702 2.2390
0.1916 -6.5515 2.2389
0.4250 -6.5056 2.2322
0.6291 -6.1918 2.1358
0.8607 -6.2309 2.1634
1.0684 -6.1033 2.1358
1.2848 -6.0478 2.1358
1.4988 -5.9850 2.1358
1.7100 -5.9150 2.1358
1.9184 -5.8379 2.1358
2.1235 -5.7539 2.1358
2.3253 -5.6630 2.1358
2.5236 -5.5654 2.1358
2.7180 -5.4612 2.1358
2.9085 -5.3507 2.1358
3.0948 -5.2338 2.1358
3.2768 -5.1109 2.1358
3.4542 -4.9820 2.1358
3.6269 -4.8473 2.1358
3.7947 -4.7071 2.1358
3.9574 -4.5613 2.1358
4.1149 -4.4103 2.1358
4.2671 -4.2543 2.1358
4.4138 -4.0933 2.1358
4.5547 -3.9275 2.1358
4.6899 -3.7573 2.1358
4.8078 -3.5742 2.1307
4.9308 -3.3959 2.1307
5.0475 -3.2136 2.1307
5.1580 -3.0276 2.1307
5.2622 -2.8380 2.1307
5.3598 -2.6451 2.1307
5.4508 -2.4491 2.1307
5.5352 -2.2501 2.1307
5.6128 -2.0484 2.1307
5.6836 -1.8442 2.1307
5.3948 -1.5372 2.0000
5.4179 -1.3339 1.9889
5.3987 -1.1239 1.9650
5.3714 -0.9169 1.9409
5.3447 -0.7146 1.9197
5.3185 -0.5161 1.9012
5.2338 -0.3174 1.8643
5.9956 -0.1465 2.1307
6.0021 0.0704 2.1307
6.0012 0.2876 2.1307
5.9930 0.5048 2.1307
5.9774 0.7218 2.1307
5.9544 0.9384 2.1307
5.9241 1.1543 2.1307
5.8863 1.3694 2.1307
5.8413 1.5833 2.1307
5.7889 1.7958 2.1307
5.7292 2.0068 2.1307
5.6623 2.2158 2.1307
5.5881 2.4228 2.1307
5.5067 2.6275 2.1307
5.4183 2.8296 2.1307
5.3228 3.0289 2.1307
5.2203 3.2251 2.1307
5.1109 3.4181 2.1307
4.9947 3.6075 2.1307
4.8718 3.7932 2.1307
4.7422 3.9748 2.1307
4.6062 4.1523 2.1307
4.4638 4.3252 2.1307
4.3152 4.4935 2.1307
4.1605 4.6568 2.1307
3.9998 4.8149 2.1307
3.8333 4.9677 2.1307
3.6611 5.1149 2.1307
3.4835 5.2562 2.1307
3.3006 5.3915 2.1307
3.1200 5.5337 2.1358
2.9266 5.6566 2.1358
2.7286 5.7728 2.1358
2.5260 5.8822 2.1358
2.3193 5.9846 2.1358
2.1085 6.0797 2.1358
1.8939 6.1675 2.1358
1.6758 6.2476 2.1358
1.4545 6.3201 2.1358
1.2302 6.3847 2.1358
1.0379 6.6646 2.2098
0.8110 6.8029 2.2389
0.5682 6.8450 2.2389
0.3235 6.8783 2.2389
0.0772 6.9027 2.2389
-0.1704 6.9182 2.2389
-0.4189 6.9246 2.2389
-0.6680 6.9218 2.2389
-0.9174 6.9099 2.2389
-1.1666 6.8887 2.2389
-1.4155 6.8582 2.2389
-1.6635 6.8185 2.2389
-1.9103 6.7695 2.2389
-2.1556 6.7113 2.2389
-2.3991 6.6438 2.2389
-2.6402 6.5671 2.2389
-2.8788 6.4813 2.2389
-3.1143 6.3865 2.2389
-3.3465 6.2827 2.2389
-3.5749 6.1701 2.2389
-3.7993 6.0488 2.2389
-4.0193 5.9188 2.2389
-4.2344 5.7805 2.2389
-4.4445 5.6339 2.2389
-4.6490 5.4793 2.2389
-4.8478 5.3168 2.2389
-5.0404 5.1467 2.2389
-5.2266 4.9692 2.2389
-5.4061 4.7845 2.2389
-5.5785 4.5930 2.2389
-5.7436 4.3949 2.2389
-5.9011 4.1904 2.2389
-6.0507 3.9800 2.2389
-6.1922 3.7638 2.2389
-6.3254 3.5423 2.2389
-6.4501 3.3158 2.2389
-6.5660 3.0846 2.2389
-6.5821 2.8103 2.2084
-6.5561 2.5268 2.1679
-6.5435 2.2575 2.1358
-6.6190 2.0226 2.1358
-6.6854 1.7849 2.1358
-6.7427 1.5450 2.1358
-6.7906 1.3031 2.1358
-6.8293 1.0596 2.1358
-6.8586 0.8149 2.1358
-6.8784 0.5695 2.1358
-6.8889 0.3236 2.1358
-6.8899 0.0777 2.1358
-6.8815 -0.1679 2.1358
-6.8638 -0.4128 2.1358
-6.8368 -0.6566 2.1358
-6.8006 -0.8990 2.1358
-6.8180 -1.1501 2.1556
-6.8921 -1.4172 2.1968
-6.9578 -1.6916 2.2389
-6.8824 -1.9359 2.2390
-6.7981 -2.1768 2.2391
-6.7049 -2.4141 2.2392
-6.6030 -2.6474 2.2393
-6.4925 -2.8763 2.2395
-6.3737 -3.1006 2.2396
-6.2469 -3.3198 2.2398
-6.1122 -3.5339 2.2399
-5.9698 -3.7424 2.2401
-5.8200 -3.9451 2.2402
-5.6631 -4.1418 2.2404
-5.4993 -4.3321 2.2406
-5.3289 -4.5159 2.2407
-5.1522 -4.6929 2.2409
-4.9695 -4.8629 2.2411
-4.7810 -5.0258 2.2412
-4.5871 -5.1814 2.2414
-4.3881 -5.3294 2.2416
-4.1842 -5.4698 2.2417
-3.9758 -5.6023 2.2419
-3.7628 -5.7264 2.2418
-3.5457 -5.8420 2.2416
-3.3252 -5.9494 2.2415
-3.1014 -6.0486 2.2413
-2.8748 -6.1395 2.2411
-2.6456 -6.2219 2.2409
-2.4142 -6.2960 2.2407
-2.1808 -6.3615 2.2405
-1.9458 -6.4186 2.2404
-1.7095 -6.4671 2.2402
-1.4723 -6.5072 2.2400
-1.2343 -6.5387 2.2398
-0.9959 -6.5618 2.2397
-0.7575 -6.5765 2.2395
-0.5192 -6.5827 2.2393
-0.2814 -6.5806 2.2392
-0.0444 -6.1161 2.2392
0.1753 -6.0996 2.2391
0.3939 -6.0755 2.2389
0.6111 -6.0442 2.2389
0.7931 -5.7623 2.1482
0.9924 -5.6850 2.1358
1.1942 -5.6340 2.1358
1.3937 -5.5763 2.1358
1.5908 -5.5117 2.1358
1.7852 -5.4405 2.1358
1.9767 -5.3628 2.1358
2.1650 -5.2787 2.1358
2.3501 -5.1882 2.1358
2.5317 -5.0917 2.1358
2.7096 -4.9890 2.1358
2.8837 -4.8806 2.1358
3.0537 -4.7663 2.1358
3.2194 -4.6465 2.1358
3.3808 -4.5212 2.1358
3.5376 -4.3907 2.1358
3.6897 -4.2551 2.1358
3.8370 -4.1145 2.1358
3.9792 -3.9690 2.1358
4.1163 -3.8190 2.1358
4.2481 -3.6646 2.1358
4.3745 -3.5058 2.1358
4.4848 -3.3351 2.1307
4.5997 -3.1688 2.1307
4.7088 -2.9987 2.1307
4.8121 -2.8252 2.1307
4.9094 -2.6483 2.1307
5.0007 -2.4682 2.1307
5.0857 -2.2852 2.1307
5.1645 -2.0995 2.1307
5.2370 -1.9112 2.1307
5.3030 -1.7205 2.1307
5.3626 -1.5277 2.1307
5.3662 -1.3209 2.1113
5.3385 -1.1109 2.0826
5.3115 -0.9061 2.0571
5.2851 -0.7059 2.0346
5.2592 -0.5096 2.0151
5.2337 -0.3166 1.9983
5.5931 -0.1356 2.1307
5.5988 0.0668 2.1307
5.5977 0.2695 2.1307
5.5897 0.4721 2.1307
5.5748 0.6746 2.1307
5.5529 0.8767 2.1307
5.5242 1.0781 2.1307
5.4886 1.2786 2.1307
5.4461 1.4780 2.1307
5.3967 1.6761 2.1307
5.3406 1.8727 2.1307
5.2776 2.0675 2.1307
5.2079 2.2603 2.1307
5.1315 2.4509 2.1307
5.0484 2.6391 2.1307
4.9588 2.8246 2.1307
4.8627 3.0071 2.1307
4.7601 3.1866 2.1307
4.6513 3.3627 2.1307
4.5361 3.5353 2.1307
4.4149 3.7040 2.1307
4.2876 3.8688 2.1307
4.1544 4.0293 2.1307
4.0154 4.1854 2.1307
3.8707 4.3369 2.1307
3.7205 4.4835 2.1307
3.5650 4.6250 2.1307
3.4042 4.7613 2.1307
3.2461 4.9036 2.1358
3.0750 5.0290 2.1358
2.8992 5.1486 2.1358
2.7189 5.2621 2.1358
2.5343 5.3693 2.1358
0.8422 1.9641 0.7668
2.1530 5.5645 2.1358
1.9567 5.6520 2.1358
1.7569 5.7326 2.1358
1.5540 5.8061 2.1358
1.3481 5.8725 2.1358
1.1496 5.9841 2.1547
0.9733 6.2718 2.2389
0.7498 6.3179 2.2389
0.5243 6.3560 2.2389
0.2970 6.3859 2.2389
0.0684 6.4075 2.2389
-0.1613 6.4208 2.2389
-0.3919 6.4257 2.2389
-0.6229 6.4221 2.2389
-0.8541 6.4100 2.2389
-1.0852 6.3894 2.2389
-1.3157 6.3602 2.2389
-1.5455 6.3224 2.2389
-1.7741 6.2761 2.2389
-2.0012 6.2212 2.2389
-2.2265 6.1579 2.2389
-2.4496 6.0860 2.2389
-0.8732 1.9638 0.7321
-0.9429 1.9317 0.7309
-3.1028 5.8203 2.2389
-3.3140 5.7153 2.2389
-3.5214 5.6023 2.2389
-3.7247 5.4814 2.2389
-3.9235 5.3527 2.2389
-4.1176 5.2165 2.2389
-4.3065 5.0729 2.2389
-4.4901 4.9221 2.2389
-4.6680 4.7642 2.2389
-4.8400 4.5996 2.2389
-5.0057 4.4284 2.2389
-5.1649 4.2509 2.2389
-5.3174 4.0674 2.2389
-5.4628 3.8781 2.2389
-5.6010 3.6832 2.2389
-5.7317 3.4831 2.2389
-5.8547 3.2781 2.2389
-5.9699 3.0684 2.2389
-6.0770 2.8545 2.2389
-6.1758 2.6366 2.2389
-6.2663 2.4151 2.2389
-6.3482 2.1902 2.2389
-6.4215 1.9624 2.2389
-6.4608 1.7253 2.2302
-6.4611 1.4809 2.2113
-6.4641 1.2410 2.1967
-6.4667 1.0041 2.1850
-6.4689 0.7695 2.1763
-6.4706 0.5367 2.1705
-6.4719 0.3051 2.1676
-6.4892 0.0743 2.1729
-6.5479 -0.1585 2.1951
-6.6072 -0.3959 2.2205
-6.6648 -0.6385 2.2485
-6.6015 -0.8710 2.2389
-6.5582 -1.1045 2.2389
-6.5063 -1.3359 2.2390
-6.4457 -1.5650 2.2391
-6.3766 -1.7914 2.2392
-6.2992 -2.0147 2.2393
-6.2136 -2.2347 2.2394
-6.1199 -2.4511 2.2396
-6.0183 -2.6635 2.2397
-5.9090 -2.8716 2.2398
-5.7922 -3.0752 2.2400
-5.6680 -3.2740 2.2401
-5.5368 -3.4677 2.2402
-5.3987 -3.6561 2.2404
-5.2540 -3.8389 2.2405
-5.1029 -4.0160 2.2407
-4.9456 -4.1870 2.2408
-4.7824 -4.3518 2.2410
-4.6136 -4.5103 2.2411
-4.4394 -4.6621 2.2413
-4.2602 -4.8072 2.2414
-4.0761 -4.9453 2.2416
-3.8875 -5.0764 2.2418
-3.6946 -5.2002 2.2419
-3.4974 -5.3163 2.2418
-3.2964 -5.4246 2.2417
-3.0920 -5.5253 2.2415
-2.8847 -5.6184 2.2413
-2.6746 -5.7038 2.2411
-2.4620 -5.7814 2.2410
-2.2473 -5.8512 2.2408
-2.0307 -5.9132 2.2406
-1.8125 -5.9672 2.2404
-1.5931 -6.0134 2.2403
-1.3726 -6.0517 2.2401
-1.1515 -6.0820 2.2400
-0.9298 -6.1045 2.2398
-0.7081 -6.1191 2.2397
-0.4864 -6.1259 2.2395
-0.2651 -6.1249 2.2394
-0.0445 -5.7145 2.2393
0.1609 -5.6999 2.2392
0.3652 -5.6781 2.2391
0.5683 -5.6493 2.2389
0.7699 -5.6136 2.2389
0.9407 -5.4040 2.1717
1.1139 -5.2677 2.1358
1.3096 -5.2497 2.1503
1.4852 -5.1544 2.1358
1.6672 -5.0884 2.1358
1.8465 -5.0162 2.1358
2.0230 -4.9379 2.1358
2.1963 -4.8538 2.1358
2.3665 -4.7639 2.1358
2.5332 -4.6683 2.1358
2.6963 -4.5671 2.1358
2.8557 -4.4606 2.1358
3.0111 -4.3488 2.1358
3.1624 -4.2318 2.1358
3.3094 -4.1099 2.1358
3.4521 -3.9831 2.1358
3.5902 -3.8517 2.1358
3.7236 -3.7157 2.1358
3.8521 -3.5755 2.1358
3.9758 -3.4310 2.1358
4.0943 -3.2824 2.1358
4.2077 -3.1301 2.1358
4.3157 -2.9740 2.1358
4.4079 -2.8078 2.1307
4.5047 -2.6453 2.1307
4.5960 -2.4796 2.1307
4.6815 -2.3110 2.1307
4.7612 -2.1396 2.1307
4.8351 -1.9656 2.1307
4.9030 -1.7893 2.1307
4.9648 -1.6107 2.1307
5.0206 -1.4301 2.1307
5.0702 -1.2476 2.1307
5.1136 -1.0636 2.1307
5.1507 -0.8781 2.1307
5.1814 -0.6914 2.1307
5.2059 -0.5037 2.1307
5.2239 -0.3151 2.1307
5.2355 -0.1260 2.1307
5.2406 0.0636 2.1307
5.2393 0.2534 2.1307
5.2315 0.4431 2.1307
5.2173 0.6327 2.1307
5.1965 0.8218 2.1307
5.1693 1.0104 2.1307
5.1355 1.1980 2.1307
5.0954 1.3846 2.1307
5.0488 1.5700 2.1307
4.9958 1.7538 2.1307
4.9364 1.9360 2.1307
4.8707 2.1162 2.1307
4.7987 2.2944 2.1307
4.7206 2.4702 2.1307
4.6362 2.6435 2.1307
4.5459 2.8140 2.1307
4.4494 2.9815 2.1307
4.3471 3.1459 2.1307
4.2390 3.3069 2.1307
4.1251 3.4643 2.1307
4.0056 3.6179 2.1307
3.8806 3.7675 2.1307
3.7501 3.9130 2.1307
3.6145 4.0540 2.1307
3.4736 4.1905 2.1307
3.3357 4.3323 2.1358
3.1847 4.4594 2.1358
3.0291 4.5812 2.1358
2.8689 4.6977 2.1358
2.7043 4.8087 2.1358
2.5356 4.9140 2.1358
0.8499 1.8033 0.7682
0.7849 1.8332 0.7667
0.7188 1.8607 0.7651
0.6517 1.8859 0.7636
0.5838 1.9086 0.7620
0.5151 1.9289 0.7605
0.4458 1.9467 0.7589
0.3758 1.9620 0.7574
0.9045 5.8491 2.2389
0.6959 5.8913 2.2389
0.4856 5.9259 2.2389
0.2738 5.9529 2.2389
0.0607 5.9722 2.2389
-0.1534 5.9837 2.2389
-0.3682 5.9874 2.2389
-0.5834 5.9833 2.2389
-0.7986 5.9712 2.2389
-1.0137 5.9512 2.2389
-0.4068 1.9619 0.7416
-0.4768 1.9466 0.7403
-0.5461 1.9287 0.7390
-0.6148 1.9085 0.7377
-0.6827 1.8857 0.7365
-0.7497 1.8605 0.7354
-0.8158 1.8329 0.7342
-0.8809 1.8030 0.7331
-0.9449 1.7708 0.7321
-3.0856 5.3171 2.2389
-3.2783 5.2115 2.2389
-3.4670 5.0986 2.2389
-3.6515 4.9785 2.2389
-3.8316 4.8514 2.2389
-4.0070 4.7175 2.2389
-4.1774 4.5769 2.2389
-4.3425 4.4299 2.2389
-4.5020 4.2766 2.2389
-4.6558 4.1172 2.2389
-4.8035 3.9520 2.2389
-4.9449 3.7812 2.2389
-5.0798 3.6051 2.2389
-5.2081 3.4239 2.2389
-5.3293 3.2379 2.2389
-5.4435 3.0473 2.2389
-5.5504 2.8524 2.2389
-5.6498 2.6536 2.2389
-5.7416 2.4511 2.2389
-5.8256 2.2452 2.2389
-5.9018 2.0363 2.2389
-5.9699 1.8247 2.2389
-6.0302 1.6107 2.2390
-6.0820 1.3945 2.2390
-6.1255 1.1766 2.2389
-6.1607 0.9573 2.2389
-6.1875 0.7368 2.2389
-6.2060 0.5157 2.2389
-6.2160 0.2941 2.2389
-6.2178 0.0724 2.2390
-6.2111 -0.1490 2.2390
-6.1961 -0.3699 2.2391
-6.1728 -0.5899 2.2391
-6.1412 -0.8086 2.2392
-6.1015 -1.0258 2.2392
-6.0537 -1.2411 2.2393
-5.9978 -1.4543 2.2394
-5.9341 -1.6650 2.2395
-5.8625 -1.8729 2.2395
-5.7834 -2.0777 2.2396
-5.6968 -2.2792 2.2398
-5.6029 -2.4770 2.2399
-5.5018 -2.6710 2.2400
-5.3937 -2.8607 2.2401
-5.2787 -3.0461 2.2402
-5.1572 -3.2268 2.2404
-5.0293 -3.4026 2.2405
-4.8951 -3.5732 2.2406
-4.7550 -3.7386 2.2408
-4.6091 -3.8983 2.2409
-4.4577 -4.0524 2.2411
-4.3011 -4.2005 2.2412
-4.1394 -4.3425 2.2413
-3.9729 -4.4783 2.2415
-3.8018 -4.6077 2.2416
-3.6265 -4.7305 2.2418
-3.4472 -4.8466 2.2419
-3.2638 -4.9555 2.2418
-3.0769 -5.0572 2.2417
-2.8868 -5.1519 2.2415
-2.6938 -5.2396 2.2413
-2.4982 -5.3200 2.2412
-2.3002 -5.3932 2.2410
-2.1002 -5.4592 2.2409
-1.8983 -5.5178 2.2407
-1.6950 -5.5691 2.2405
-1.4904 -5.6131 2.2404
-1.2847 -5.6496 2.2402
-1.0783 -5.6788 2.2401
-0.8715 -5.7006 2.2399
-0.6644 -5.7150 2.2398
-0.4574 -5.7221 2.2396
-0.2507 -5.7219 2.2395
-0.0446 -5.3565 2.2395
0.1480 -5.3434 2.2393
0.3397 -5.3236 2.2392
