ply
format ascii 1.0
element vertex 2173
property float32 x
property float32 y
property float32 z
end_header
5.2537 3.4733 1.1666
5.1212 3.6563 1.1647
5.9979 4.6159 1.3998
5.9967 4.9675 1.4392
5.7029 5.0799 1.4106
5.3062 5.0795 1.3558
5.0663 5.2107 1.3405
6.0134 6.6460 1.6522
5.8551 6.9573 1.6752
5.8512 7.4818 1.7488
5.7704 7.9505 1.8078
6.4997 9.6667 2.1425
6.1518 9.8985 2.1425
5.7955 10.1174 2.1425
5.4134 10.2895 2.1355
5.0429 10.4812 2.1355
4.6654 10.6593 2.1355
4.2816 10.8235 2.1355
3.8918 10.9735 2.1355
3.4967 11.1091 2.1355
3.0968 11.2301 2.1355
2.2488 9.4682 1.7835
1.8766 9.3864 1.7540
1.8736 11.5040 2.1355
1.5305 12.1235 2.2386
1.0947 12.1715 2.2386
0.6575 12.2035 2.2386
0.2194 12.2194 2.2386
-0.2190 12.2192 2.2386
-0.6570 12.2028 2.2386
-1.0942 12.1703 2.2386
-1.5298 12.1218 2.2386
-1.9633 12.0573 2.2386
-2.3940 11.9769 2.2386
-2.8214 11.8807 2.2386
-3.2449 11.7689 2.2386
-3.6639 11.6416 2.2386
-4.0778 11.4991 2.2386
-4.4860 11.3415 2.2386
-4.8881 11.1690 2.2386
-5.2834 10.9820 2.2386
-5.6714 10.7807 2.2386
-6.0516 10.5654 2.2386
-6.3278 10.1823 2.2052
-6.4736 9.6284 2.1353
-6.8110 9.3849 2.1353
-7.1392 9.1292 2.1353
-7.4575 8.8619 2.1353
-7.7658 8.5833 2.1353
-8.0634 8.2938 2.1353
-8.3501 7.9937 2.1353
-8.6255 7.6837 2.1353
-8.8892 7.3640 2.1353
-9.1409 7.0351 2.1353
-9.3804 6.6975 2.1353
-9.6072 6.3517 2.1353
-9.8211 5.9982 2.1353
-10.0218 5.6374 2.1353
-10.2092 5.2698 2.1353
-10.3989 4.9034 2.1386
-10.5591 4.5232 2.1386
-10.7054 4.1378 2.1386
-10.8375 3.7477 2.1386
-10.9553 3.3534 2.1386
-11.0588 2.9555 2.1386
-11.1477 2.5544 2.1386
-11.2220 2.1507 2.1386
-11.2817 1.7449 2.1386
-11.3267 1.3377 2.1386
-11.3570 0.9294 2.1386
-11.3726 0.5207 2.1386
-11.3736 0.1120 2.1386
-11.3599 -0.2961 2.1386
-11.3316 -0.7030 2.1386
-11.2888 -1.1084 2.1386
-11.2315 -1.5116 2.1386
-11.1600 -1.9121 2.1386
-11.0743 -2.3095 2.1386
-10.9745 -2.7032 2.1386
-10.8609 -3.0928 2.1386
-10.7335 -3.4777 2.1386
-10.5927 -3.8576 2.1386
-10.4386 -4.2319 2.1386
-10.2557 -4.5932 2.1353
-10.0760 -4.9545 2.1353
-9.8837 -5.3089 2.1353
-9.6791 -5.6560 2.1353
-9.4625 -5.9954 2.1353
-9.2342 -6.3267 2.1353
-8.9945 -6.6494 2.1353
-8.7438 -6.9633 2.1353
-8.4822 -7.2679 2.1353
-8.2103 -7.5628 2.1353
-7.9283 -7.8478 2.1353
-7.6366 -8.1225 2.1353
-7.3355 -8.3866 2.1353
-7.0256 -8.6399 2.1353
-6.7071 -8.8818 2.1353
-6.3804 -9.1124 2.1353
-6.3384 -9.7824 2.2386
-5.9801 -9.9992 2.2386
-5.6147 -10.2031 2.2386
-5.2424 -10.3941 2.2386
-4.8638 -10.5718 2.2386
-4.4793 -10.7360 2.2386
-4.0894 -10.8866 2.2386
-3.6947 -11.0234 2.2386
-3.2954 -11.1462 2.2386
-2.8922 -11.2549 2.2386
-2.4855 -11.3494 2.2386
-2.0758 -11.4296 2.2386
-1.6636 -11.4954 2.2386
-1.2494 -11.5467 2.2386
-0.8337 -11.5834 2.2386
-0.4170 -11.6055 2.2386
0.0002 -10.3529 2.2386
0.3722 -10.3465 2.2386
0.7438 -10.3271 2.2386
1.1145 -10.2946 2.2386
1.4838 -10.2491 2.2386
1.7662 -9.7214 2.1355
2.1147 -9.6534 2.1355
1.8903 -7.3542 1.6405
1.9010 -6.4283 1.4479
1.8876 -5.6306 1.2824
3.4792 -9.2599 2.1355
3.8108 -9.1318 2.1355
4.1379 -8.9921 2.1355
4.4599 -8.8408 2.1355
4.7765 -8.6783 2.1355
5.0450 -8.4338 2.1177
5.3314 -8.2265 2.1115
5.3632 -7.6580 2.0128
5.7843 -7.6583 2.0652
6.2290 -7.6587 2.1232
6.5627 -7.5016 2.1425
6.6812 -7.1049 2.0953
6.6816 -6.6124 2.0184
6.9959 -6.4428 2.0409
7.5215 -6.4433 2.1239
7.8207 -6.2269 2.1425
8.0446 -5.9459 2.1425
8.2585 -5.6569 2.1425
8.4621 -5.3603 2.1425
8.6553 -5.0565 2.1425
8.8377 -4.7458 2.1425
6.6842 -3.2858 1.5896
6.6844 -2.9928 1.5619
6.6846 -2.7091 1.5371
6.6849 -2.4336 1.5149
7.0568 -2.2856 1.5783
8.0323 -2.2863 1.7756
6.7058 -1.6509 1.4671
6.0006 -1.2507 1.3011
5.9203 -1.0137 1.2739
5.7578 -0.7742 1.2312
5.8717 -0.5758 1.2493
5.8455 -0.3620 1.2391
5.8720 -0.1524 1.2418
5.7544 0.0573 1.2156
5.8952 0.2705 1.2455
6.0084 0.4923 1.2713
6.4055 0.7571 1.3591
6.6700 1.0323 1.4210
7.2225 1.3849 1.5471
7.2227 1.6557 1.5576
6.8641 1.8351 1.4923
5.9990 1.8369 1.3167
5.2530 1.8171 1.1656
5.2412 2.0263 1.1775
6.1344 2.6284 1.3974
6.0397 2.8485 1.3971
5.9990 3.0971 1.4115
5.9627 3.3546 1.4293
5.4913 3.3543 1.3434
5.1282 3.3910 1.2826
4.8197 3.4417 1.2347
4.7506 3.6566 1.2490
5.8060 4.8103 1.5699
5.7020 5.0799 1.5891
5.3055 5.0796 1.5275
4.9376 5.0791 1.4723
4.6244 5.1116 1.4318
5.8548 6.9579 1.8879
5.8516 7.4833 1.9712
5.7707 7.9519 2.0378
5.7661 8.5767 2.1425
5.4393 8.7531 2.1355
5.1240 8.9462 2.1355
4.8017 9.1278 2.1355
4.4728 9.2975 2.1355
4.1379 9.4550 2.1355
3.7973 9.6003 2.1355
3.4515 9.7330 2.1355
3.1010 9.8530 2.1355
2.7462 9.9600 2.1355
2.0219 8.5137 1.8083
1.8766 9.3874 1.9780
1.7185 10.5524 2.2087
1.3571 10.7515 2.2386
0.9708 10.7941 2.2386
0.5831 10.8224 2.2386
0.1946 10.8365 2.2386
-0.1941 10.8363 2.2386
-0.5826 10.8218 2.2386
-0.9702 10.7931 2.2386
-1.3565 10.7502 2.2386
-1.7409 10.6932 2.2386
-2.1229 10.6221 2.2386
-2.5020 10.5370 2.2386
-2.8776 10.4382 2.2386
-3.2493 10.3256 2.2386
-3.6165 10.1996 2.2386
-3.9787 10.0602 2.2386
-4.3355 9.9077 2.2386
-4.6863 9.7422 2.2386
-5.0307 9.5641 2.2386
-5.3683 9.3736 2.2386
-5.6985 9.1709 2.2386
-6.0209 8.9565 2.2386
-6.3289 8.7217 2.2363
-6.3416 8.1104 2.1377
-6.6175 7.8648 2.1353
-6.8914 7.6180 2.1353
-7.1561 7.3616 2.1353
-7.4111 7.0959 2.1353
-7.6561 6.8212 2.1353
-7.8908 6.5380 2.1353
-8.1149 6.2465 2.1353
-8.3281 5.9473 2.1353
-8.5302 5.6408 2.1353
-6.5406 3.9955 1.6015
-6.7252 3.7838 1.6135
-9.0671 4.6814 2.1353
-9.2223 4.3497 2.1353
-9.3653 4.0130 2.1353
-9.4959 3.6715 2.1353
-9.6140 3.3257 2.1353
-9.7195 2.9762 2.1353
-9.8122 2.6234 2.1353
-9.8920 2.2678 2.1353
-9.9590 1.9097 2.1353
-10.0129 1.5498 2.1353
-10.0539 1.1884 2.1353
-10.0818 0.8261 2.1353
-10.0966 0.4633 2.1353
-10.0984 0.1005 2.1353
-10.0872 -0.2618 2.1353
-10.0631 -0.6232 2.1353
-10.0260 -0.9833 2.1353
-9.9762 -1.3415 2.1353
-9.9136 -1.6974 2.1353
-9.8384 -2.0506 2.1353
-9.7506 -2.4006 2.1353
-9.6506 -2.7470 2.1353
-9.5383 -3.0894 2.1353
-9.4140 -3.4273 2.1353
-9.2779 -3.7603 2.1353
-9.1301 -4.0880 2.1353
-8.9708 -4.4100 2.1353
-8.8003 -4.7259 2.1353
-8.6189 -5.0354 2.1353
-8.4267 -5.3381 2.1353
-8.2241 -5.6335 2.1353
-8.0112 -5.9214 2.1353
-7.7884 -6.2014 2.1353
-7.5560 -6.4732 2.1353
-7.3142 -6.7364 2.1353
-7.0635 -6.9908 2.1353
-6.8040 -7.2360 2.1353
-6.5536 -7.4916 2.1410
-6.3470 -7.8043 2.1648
-6.2660 -8.2966 2.2386
-5.9611 -8.5124 2.2386
-5.6490 -8.7173 2.2386
-5.3300 -8.9109 2.2386
-5.0044 -9.0932 2.2386
-4.6728 -9.2637 2.2386
-4.3355 -9.4225 2.2386
-3.9929 -9.5692 2.2386
-3.6455 -9.7038 2.2386
-3.2937 -9.8260 2.2386
-2.9378 -9.9358 2.2386
-2.5784 -10.0329 2.2386
-2.2159 -10.1174 2.2386
-1.8507 -10.1890 2.2386
-1.4832 -10.2478 2.2386
-1.1139 -10.2936 2.2386
-0.7433 -10.3264 2.2386
-0.3718 -10.3462 2.2386
0.0002 -9.3305 2.2386
0.3355 -9.3247 2.2386
0.6704 -9.3072 2.2386
1.0045 -9.2778 2.2386
1.3374 -9.2367 2.2386
1.6687 -9.1840 2.2386
1.9060 -8.6995 2.1355
2.0818 -8.0980 2.0045
1.9013 -6.4283 1.6068
2.1569 -6.4331 1.6259
1.8849 -5.0162 1.2838
3.4343 -8.2285 2.1355
3.7289 -8.1022 2.1355
4.0189 -7.9657 2.1355
4.3041 -7.8189 2.1355
4.5840 -7.6621 2.1355
4.8583 -7.4955 2.1355
5.1266 -7.3192 2.1355
5.3887 -7.1335 2.1355
5.6441 -6.9385 2.1355
5.9120 -6.7568 2.1425
6.1540 -6.5434 2.1425
6.3885 -6.3214 2.1425
6.6150 -6.0911 2.1425
6.8334 -5.8529 2.1425
7.0433 -5.6069 2.1425
7.2444 -5.3535 2.1425
7.4366 -5.0929 2.1425
7.6195 -4.8255 2.1425
7.7929 -4.5517 2.1425
7.9565 -4.2717 2.1425
6.6842 -3.2849 1.7658
6.6844 -2.9920 1.7351
6.6846 -2.7083 1.7077
6.6849 -2.4328 1.6831
7.0593 -2.2856 1.7543
8.0356 -2.2863 1.9739
6.7062 -1.6503 1.6305
6.0012 -1.2501 1.4462
5.9199 -1.0129 1.4159
5.7577 -0.7736 1.3685
5.8452 -0.5726 1.3825
5.8452 -0.3614 1.3775
5.8451 -0.1511 1.3743
5.7545 0.0579 1.3516
5.8955 0.2712 1.3851
6.0087 0.4930 1.4139
6.4050 0.7578 1.5115
6.6697 1.0330 1.5805
7.2226 1.3857 1.7209
7.2228 1.6566 1.7328
6.8608 1.8350 1.6595
5.9968 1.8369 1.4644
5.2024 1.8001 1.2845
4.9832 1.9272 1.2458
5.9965 2.5700 1.5201
5.9600 2.8116 1.5344
5.8587 3.0254 1.5343
5.8086 3.2687 1.5499
5.4903 3.3544 1.4952
5.0127 3.3152 1.3957
4.8202 3.4427 1.3748
4.6961 3.6153 1.3747
5.6204 4.6574 1.6922
5.6193 5.0070 1.7438
5.3048 5.0797 1.7008
4.9366 5.0789 1.6393
4.6696 5.1623 1.6103
4.8063 5.7127 1.7262
5.6913 7.2792 2.1355
5.4290 7.4820 2.1355
5.1593 7.6751 2.1355
4.8827 7.8583 2.1355
4.5994 8.0314 2.1355
4.3100 8.1941 2.1355
4.0147 8.3461 2.1355
3.7139 8.4872 2.1355
3.4081 8.6173 2.1355
3.0977 8.7362 2.1355
2.7830 8.8437 2.1355
2.4646 8.9396 2.1355
2.0217 8.5137 2.0148
1.8182 9.0961 2.1355
1.5630 9.5986 2.2386
1.2179 9.6494 2.2386
0.8712 9.6875 2.2386
0.5233 9.7128 2.2386
0.1747 9.7255 2.2386
-0.1742 9.7253 2.2386
-0.5228 9.7124 2.2386
-0.8706 9.6867 2.2386
-1.2173 9.6483 2.2386
-1.5623 9.5972 2.2386
-1.9052 9.5336 2.2386
-2.2454 9.4575 2.2386
-2.5826 9.3689 2.2386
-2.9162 9.2682 2.2386
-3.2458 9.1553 2.2386
-3.5710 9.0305 2.2386
-3.8914 8.8939 2.2386
-4.2064 8.7457 2.2386
-4.5157 8.5862 2.2386
-4.8189 8.4155 2.2386
-5.1156 8.2339 2.2386
-5.4053 8.0417 2.2386
-5.6877 7.8392 2.2386
-5.9624 7.6266 2.2386
-6.2290 7.4042 2.2386
-6.3305 6.9990 2.1844
-6.4261 6.6117 2.1353
-6.6554 6.3734 2.1353
-6.8759 6.1271 2.1353
-7.0871 5.8731 2.1353
-7.2888 5.6117 2.1353
-7.4809 5.3433 2.1353
-7.6629 5.0683 2.1353
-6.5329 3.9917 1.7805
-6.7102 3.7762 1.7919
-8.1470 4.2073 2.1353
-8.2871 3.9096 2.1353
-8.4162 3.6073 2.1353
-8.5342 3.3006 2.1353
-8.6410 2.9902 2.1353
-8.7364 2.6762 2.1353
-8.8204 2.3593 2.1353
-8.8929 2.0397 2.1353
-8.9538 1.7180 2.1353
-9.0030 1.3945 2.1353
-9.0405 1.0697 2.1353
-9.0663 0.7439 2.1353
-9.0804 0.4177 2.1353
-9.0828 0.0914 2.1353
-9.0734 -0.2345 2.1353
-9.0524 -0.5597 2.1353
-9.0198 -0.8836 2.1353
-8.9756 -1.2060 2.1353
-8.9200 -1.5263 2.1353
-8.8530 -1.8443 2.1353
-8.7747 -2.1594 2.1353
-8.6853 -2.4713 2.1353
-8.5849 -2.7796 2.1353
-8.4737 -3.0840 2.1353
-8.3517 -3.3839 2.1353
-8.2193 -3.6792 2.1353
-8.0765 -3.9694 2.1353
-7.9235 -4.2541 2.1353
-7.7607 -4.5331 2.1353
-7.5881 -4.8059 2.1353
-7.4061 -5.0722 2.1353
-7.2149 -5.3318 2.1353
-7.0146 -5.5843 2.1353
-6.8057 -5.8294 2.1353
-6.5883 -6.0669 2.1353
-6.3628 -6.2963 2.1353
-6.3410 -6.7425 2.2090
-6.1732 -7.0558 2.2386
-5.9130 -7.2696 2.2386
-5.6455 -7.4741 2.2386
-5.3711 -7.6689 2.2386
-5.0901 -7.8538 2.2386
-4.8028 -8.0286 2.2386
-4.5096 -8.1931 2.2386
-4.2109 -8.3471 2.2386
-3.9071 -8.4904 2.2386
-3.5985 -8.6229 2.2386
-3.2855 -8.7444 2.2386
-2.9684 -8.8548 2.2386
-2.6478 -8.9539 2.2386
-2.3239 -9.0416 2.2386
-1.9972 -9.1179 2.2386
-1.6680 -9.1826 2.2386
-1.3369 -9.2356 2.2386
-1.0040 -9.2770 2.2386
-0.6700 -9.3066 2.2386
-0.3351 -9.3245 2.2386
0.0002 -8.4836 2.2386
0.3051 -8.4784 2.2386
0.6097 -8.4624 2.2386
0.9135 -8.4356 2.2386
1.2162 -8.3982 2.2386
1.5174 -8.3501 2.2386
1.7331 -7.9095 2.1355
1.8899 -7.3507 2.0013
1.9015 -6.4283 1.7673
1.9079 -5.6896 1.5817
2.1706 -5.7757 1.6259
1.8853 -4.5166 1.2894
3.3902 -7.3655 2.1355
3.6538 -7.2411 2.1355
3.8810 -7.0495 2.1181
4.1337 -6.9086 2.1183
4.4165 -6.8130 2.1355
4.6602 -6.6525 2.1355
4.8983 -6.4834 2.1355
5.1303 -6.3059 2.1355
5.3559 -6.1203 2.1355
5.5749 -5.9267 2.1355
5.8061 -5.7442 2.1425
6.0117 -5.5347 2.1425
6.2098 -5.3179 2.1425
6.4003 -5.0941 2.1425
6.5827 -4.8635 2.1425
6.7570 -4.6266 2.1425
6.9228 -4.3834 2.1425
7.0799 -4.1343 2.1425
7.2282 -3.8797 2.1425
6.6842 -3.2841 1.9438
6.6844 -2.9912 1.9102
6.6846 -2.7075 1.8801
6.6849 -2.4320 1.8531
7.0619 -2.2856 1.9324
7.9208 -2.2528 2.1425
6.7065 -1.6496 1.7957
6.0018 -1.2496 1.5928
5.9195 -1.0122 1.5593
5.7575 -0.7729 1.5073
5.8717 -0.5745 1.5298
5.8455 -0.3607 1.5176
5.8720 -0.1511 1.5210
5.7546 0.0585 1.4892
5.8958 0.2718 1.5262
6.0091 0.4937 1.5580
6.4045 0.7584 1.6654
6.6693 1.0337 1.7416
7.2228 1.3866 1.8967
7.2230 1.6574 1.9098
6.8580 1.8350 1.8283
5.9946 1.8369 1.6136
5.3112 1.8384 1.4456
4.9886 1.9299 1.3749
5.8049 2.4886 1.6224
5.8061 2.7397 1.6481
5.8000 2.9958 1.6748
5.6920 3.2038 1.6747
5.4892 3.3545 1.6485
5.0701 3.3539 1.5569
4.6945 3.3535 1.4767
4.6630 3.5905 1.5055
5.4473 4.5147 1.8090
5.4389 4.8471 1.8618
5.3041 5.0798 1.8759
4.9358 5.0788 1.8081
4.6772 5.1715 1.7794
4.8063 5.7135 1.9044
5.1584 6.5986 2.1355
4.9205 6.7821 2.1355
4.6759 6.9569 2.1355
4.4250 7.1227 2.1355
4.1682 7.2793 2.1355
3.9058 7.4265 2.1355
3.6380 7.5640 2.1355
3.3654 7.6917 2.1355
3.0882 7.8094 2.1355
2.8069 7.9170 2.1355
2.5217 8.0142 2.1355
2.2332 8.1009 2.1355
1.9416 8.1771 2.1355
1.7169 8.5905 2.2256
1.4162 8.6978 2.2386
1.1035 8.7437 2.2386
0.7893 8.7781 2.2386
0.4741 8.8011 2.2386
0.1583 8.8125 2.2386
-0.1578 8.8124 2.2386
-0.4736 8.8007 2.2386
-0.7888 8.7775 2.2386
-1.1029 8.7428 2.2386
-1.4155 8.6967 2.2386
-1.7262 8.6391 2.2386
-2.0345 8.5703 2.2386
-2.3400 8.4902 2.2386
-2.6424 8.3991 2.2386
-2.9411 8.2970 2.2386
-3.2359 8.1841 2.2386
-3.5263 8.0605 2.2386
-3.8119 7.9265 2.2386
-4.0924 7.7821 2.2386
-4.3673 7.6277 2.2386
-4.6363 7.4635 2.2386
-4.8990 7.2895 2.2386
-5.1552 7.1063 2.2386
-5.4044 6.9138 2.2386
-5.6463 6.7125 2.2386
-5.8807 6.5027 2.2386
-6.1072 6.2845 2.2386
-6.3255 6.0584 2.2386
-6.3352 5.6463 2.1700
-6.4257 5.3259 2.1353
-6.6090 5.0892 2.1353
-6.7834 4.8461 2.1353
-6.9489 4.5970 2.1353
-6.5253 3.9878 1.9610
-6.6951 3.7686 1.9714
-7.3892 3.8169 2.1353
-7.5167 3.5471 2.1353
-7.6342 3.2730 2.1353
-7.7418 2.9951 2.1353
-7.8391 2.7136 2.1353
-7.9262 2.4290 2.1353
-8.0029 2.1415 2.1353
-8.0692 1.8517 2.1353
-8.1250 1.5599 2.1353
-8.1702 1.2664 2.1353
-8.2048 0.9717 2.1353
-8.2287 0.6761 2.1353
-8.2420 0.3801 2.1353
-8.2447 0.0839 2.1353
-8.2368 -0.2120 2.1353
-8.2182 -0.5072 2.1353
-8.1891 -0.8013 2.1353
-8.1496 -1.0941 2.1353
-8.0996 -1.3850 2.1353
-8.0393 -1.6738 2.1353
-7.9687 -1.9601 2.1353
-7.8880 -2.2435 2.1353
-7.7973 -2.5237 2.1353
-7.6967 -2.8003 2.1353
-7.5864 -3.0729 2.1353
-7.4665 -3.3413 2.1353
-7.3372 -3.6051 2.1353
-7.1987 -3.8640 2.1353
-7.0511 -4.1177 2.1353
-6.8947 -4.3658 2.1353
-6.7297 -4.6081 2.1353
-6.5562 -4.8442 2.1353
-6.3746 -5.0739 2.1353
-6.3399 -5.4296 2.1888
-6.2773 -5.7795 2.2386
-6.0627 -5.9984 2.2386
-5.8406 -6.2095 2.2386
-5.6112 -6.4125 2.2386
-5.3749 -6.6072 2.2386
-5.1319 -6.7933 2.2386
-4.8826 -6.9706 2.2386
-4.6273 -7.1389 2.2386
-4.3663 -7.2981 2.2386
-4.0999 -7.4478 2.2386
-3.8285 -7.5881 2.2386
-3.5523 -7.7186 2.2386
-3.2718 -7.8392 2.2386
-2.9873 -7.9499 2.2386
-2.6991 -8.0504 2.2386
-2.4076 -8.1406 2.2386
-2.1131 -8.2205 2.2386
-1.8160 -8.2900 2.2386
-1.5167 -8.3489 2.2386
-1.2156 -8.3972 2.2386
-0.9130 -8.4349 2.2386
-0.6092 -8.4619 2.2386
-0.3047 -8.4781 2.2386
0.0002 -7.7700 2.2386
0.2795 -7.7651 2.2386
0.5585 -7.7504 2.2386
0.8367 -7.7259 2.2386
1.1140 -7.6915 2.2386
1.3899 -7.6474 2.2386
1.6641 -7.5935 2.2386
1.8471 -7.1832 2.1355
1.9017 -6.4283 1.9298
1.9637 -5.8554 1.7775
1.9903 -5.2954 1.6278
2.1774 -5.2156 1.6259
1.8857 -4.0962 1.2969
3.3463 -6.6307 2.1355
3.5545 -6.4556 2.1182
3.7855 -6.3259 2.1183
4.0444 -6.2381 2.1355
4.2675 -6.0909 2.1355
4.4853 -5.9359 2.1355
4.6976 -5.7732 2.1355
4.9040 -5.6030 2.1355
5.1044 -5.4255 2.1355
5.2984 -5.2410 2.1355
5.4858 -5.0496 2.1355
5.6664 -4.8516 2.1355
5.8591 -4.6625 2.1425
6.0259 -4.4513 2.1425
6.1851 -4.2341 2.1425
6.3366 -4.0114 2.1425
6.4801 -3.7832 2.1425
6.6155 -3.5500 2.1425
6.6842 -3.2833 2.1239
6.6844 -2.9904 2.0873
6.6846 -2.7067 2.0545
6.6849 -2.4312 2.0252
7.0645 -2.2856 2.1127
7.2472 -2.0604 2.1425
6.7060 -1.6487 1.9625
6.0023 -1.2490 1.7412
5.9192 -1.0115 1.7044
5.7574 -0.7723 1.6478
5.8717 -0.5739 1.6724
5.8455 -0.3601 1.6591
5.8720 -0.1504 1.6630
5.7547 0.0592 1.6283
5.8962 0.2725 1.6690
6.0094 0.4944 1.7039
6.4040 0.7591 1.8211
6.6690 1.0344 1.9046
7.2229 1.3874 2.0744
7.2232 1.6583 2.0890
6.8551 1.8351 1.9991
5.9924 1.8369 1.7645
5.3093 1.8384 1.5808
4.6551 1.8014 1.4035
4.6217 1.9819 1.4132
5.6196 2.6524 1.7453
5.6208 2.9039 1.7759
5.6186 3.1632 1.8089
5.4881 3.3545 1.8035
5.0691 3.3539 1.7034
4.6933 3.3534 1.6157
4.6696 3.5962 1.6500
5.3634 4.4459 1.9494
5.2534 4.6825 1.9682
5.2522 5.0309 2.0332
4.9351 5.0788 1.9789
4.6850 5.1808 1.9510
4.8063 5.7143 2.0847
4.7121 6.0285 2.1355
4.4946 6.1959 2.1355
4.2711 6.3554 2.1355
4.0418 6.5066 2.1355
3.8071 6.6495 2.1355
3.5673 6.7837 2.1355
3.3227 6.9092 2.1355
3.0736 7.0256 2.1355
2.8204 7.1330 2.1355
2.5634 7.2311 2.1355
2.3030 7.3197 2.1355
2.0394 7.3988 2.1355
1.7731 7.4683 2.1355
1.5770 7.8914 2.2386
1.2932 7.9437 2.2386
1.0077 7.9855 2.2386
0.7208 8.0170 2.2386
0.4330 8.0379 2.2386
0.1445 8.0484 2.2386
-0.1441 8.0482 2.2386
-0.4325 8.0376 2.2386
-0.7203 8.0165 2.2386
-1.0072 7.9848 2.2386
-1.2926 7.9427 2.2386
-1.5764 7.8903 2.2386
-1.8579 7.8275 2.2386
-2.1370 7.7545 2.2386
-2.4132 7.6714 2.2386
-2.6861 7.5783 2.2386
-2.9553 7.4754 2.2386
-3.2206 7.3627 2.2386
-3.4815 7.2404 2.2386
-3.7378 7.1088 2.2386
-3.9890 6.9680 2.2386
-4.2348 6.8181 2.2386
-4.4750 6.6595 2.2386
-4.7091 6.4923 2.2386
-4.9369 6.3167 2.2386
-5.1581 6.1331 2.2386
-5.3724 5.9416 2.2386
-5.5795 5.7425 2.2386
-5.7792 5.5361 2.2386
-5.9712 5.3228 2.2386
-6.1552 5.1026 2.2386
-6.3310 4.8761 2.2386
-6.3331 4.5253 2.1816
-6.3502 4.2018 2.1353
-6.4933 3.9692 2.1353
-6.6278 3.7316 2.1353
-6.7536 3.4894 2.1353
-6.8704 3.2430 2.1353
-6.9783 2.9927 2.1353
-7.0769 2.7387 2.1353
-7.1663 2.4816 2.1353
-7.2463 2.2215 2.1353
-7.3169 1.9588 2.1353
-7.3778 1.6939 2.1353
-7.4292 1.4272 2.1353
-7.4710 1.1589 2.1353
-7.5030 0.8894 2.1353
-7.5253 0.6192 2.1353
-7.5379 0.3484 2.1353
-7.5408 0.0776 2.1353
-7.5339 -0.1930 2.1353
-7.5174 -0.4631 2.1353
-7.4912 -0.7322 2.1353
-7.4554 -1.0000 2.1353
-7.4101 -1.2663 2.1353
-7.3552 -1.5306 2.1353
-7.2911 -1.7926 2.1353
-7.2176 -2.0520 2.1353
-7.1350 -2.3085 2.1353
-7.0433 -2.5617 2.1353
-6.9427 -2.8114 2.1353
-6.8333 -3.0572 2.1353
-6.7153 -3.2987 2.1353
-6.5888 -3.5359 2.1353
-6.4541 -3.7682 2.1353
-6.3484 -4.0191 2.1479
-6.3391 -4.3398 2.1972
-6.2921 -4.6482 2.2386
-6.1181 -4.8688 2.2386
-5.9363 -5.0831 2.2386
-5.7472 -5.2906 2.2386
-5.5510 -5.4913 2.2386
-5.3478 -5.6847 2.2386
-5.1380 -5.8708 2.2386
-4.9217 -6.0493 2.2386
-4.6994 -6.2199 2.2386
-4.4713 -6.3824 2.2386
-4.2376 -6.5368 2.2386
-3.9987 -6.6827 2.2386
-3.7548 -6.8200 2.2386
-3.5063 -6.9486 2.2386
-3.2534 -7.0683 2.2386
-2.9966 -7.1790 2.2386
-2.7360 -7.2804 2.2386
-2.4721 -7.3726 2.2386
-2.2052 -7.4554 2.2386
-1.9355 -7.5287 2.2386
-1.6634 -7.5924 2.2386
-1.3893 -7.6464 2.2386
-1.1134 -7.6907 2.2386
-0.8362 -7.7253 2.2386
-0.5580 -7.7500 2.2386
-0.2791 -7.7649 2.2386
0.0002 -7.1598 2.2386
0.2576 -7.1553 2.2386
0.5147 -7.1417 2.2386
0.7711 -7.1191 2.2386
1.0266 -7.0874 2.2386
1.2809 -7.0466 2.2386
1.5335 -6.9969 2.2386
1.7133 -6.6623 2.1495
1.9020 -6.4283 2.0944
2.0576 -6.1346 2.0211
1.9642 -5.2251 1.7433
2.0496 -4.9090 1.6609
2.2602 -4.9092 1.6870
1.8859 -3.7365 1.3061
3.3019 -5.9959 2.1355
3.5163 -5.8752 2.1355
3.7264 -5.7469 2.1355
3.9319 -5.6111 2.1355
4.1324 -5.4681 2.1355
4.3279 -5.3181 2.1355
4.5179 -5.1611 2.1355
4.7024 -4.9974 2.1355
4.8809 -4.8273 2.1355
5.0534 -4.6508 2.1355
5.2196 -4.4682 2.1355
5.3792 -4.2798 2.1355
5.5321 -4.0857 2.1355
5.6781 -3.8862 2.1355
5.8360 -3.6937 2.1425
5.9680 -3.4835 2.1425
6.0925 -3.2686 2.1425
6.2092 -3.0492 2.1425
6.3181 -2.8257 2.1425
6.4190 -2.5984 2.1425
6.5118 -2.3675 2.1425
6.5963 -2.1334 2.1425
6.6725 -1.8962 2.1425
6.3299 -1.5555 2.0121
6.0029 -1.2484 1.8916
5.9188 -1.0107 1.8513
5.7573 -0.7716 1.7900
5.8717 -0.5732 1.8169
5.8455 -0.3594 1.8025
5.8720 -0.1498 1.8068
5.7548 0.0598 1.7692
5.8965 0.2732 1.8136
6.0098 0.4951 1.8516
6.4035 0.7598 1.9789
6.5483 1.0164 2.0324
6.8641 1.3193 2.1425
6.8163 1.5656 2.1425
5.8106 1.5561 1.8417
5.6810 1.7421 1.8182
5.3072 1.8383 1.7176
4.7523 1.8396 1.5576
4.6645 2.0008 1.5505
5.4382 2.5675 1.8361
5.4394 2.8109 1.8684
5.4407 3.0637 1.9044
5.4419 3.3270 1.9444
5.0681 3.3539 1.8517
4.6921 3.3532 1.7564
4.6763 3.6020 1.7968
5.2544 4.3563 2.0767
5.1250 4.5689 2.0881
5.0725 4.8596 2.1355
4.8970 5.0404 2.1355
4.6929 5.1903 2.1254
4.5267 5.3826 2.1355
4.3324 5.5435 2.1355
4.1323 5.6973 2.1355
3.9267 5.8437 2.1355
3.7158 5.9826 2.1355
3.5000 6.1138 2.1355
3.2794 6.2371 2.1355
3.0545 6.3523 2.1355
2.8255 6.4592 2.1355
2.5927 6.5578 2.1355
2.3564 6.6479 2.1355
2.1170 6.7293 2.1355
1.8747 6.8019 2.1355
1.7085 7.1971 2.2386
1.4496 7.2546 2.2386
1.1888 7.3025 2.2386
0.9263 7.3410 2.2386
0.6626 7.3699 2.2386
0.3980 7.3891 2.2386
0.1329 7.3987 2.2386
-0.1324 7.3986 2.2386
-0.3975 7.3888 2.2386
-0.6621 7.3694 2.2386
-0.9258 7.3404 2.2386
-1.1882 7.3018 2.2386
-1.4490 7.2536 2.2386
-1.7078 7.1960 2.2386
-1.9644 7.1290 2.2386
-2.2183 7.0527 2.2386
-2.4692 6.9672 2.2386
-2.7168 6.8727 2.2386
-2.9607 6.7693 2.2386
-3.2006 6.6570 2.2386
-3.4363 6.5362 2.2386
-3.6673 6.4069 2.2386
-3.8934 6.2693 2.2386
-4.1143 6.1236 2.2386
-4.3297 5.9700 2.2386
-4.5393 5.8088 2.2386
-4.7428 5.6401 2.2386
-4.9400 5.4642 2.2386
-5.1306 5.2813 2.2386
-5.3144 5.0917 2.2386
-5.4911 4.8957 2.2386
-5.6606 4.6934 2.2386
-5.8225 4.4853 2.2386
-5.9767 4.2715 2.2386
-6.1230 4.0523 2.2386
-6.2612 3.8281 2.2386
-6.3329 3.5664 2.2181
-6.3351 3.2740 2.1775
-6.3441 2.9954 2.1434
-6.4196 2.7539 2.1353
-6.5106 2.5204 2.1353
-6.5932 2.2839 2.1353
-6.6671 2.0447 2.1353
-6.7323 1.8031 2.1353
-6.7887 1.5594 2.1353
-6.8363 1.3140 2.1353
-6.8750 1.0672 2.1353
-6.9048 0.8193 2.1353
-6.9257 0.5706 2.1353
-6.9376 0.3215 2.1353
-6.9406 0.0722 2.1353
-6.9346 -0.1769 2.1353
-6.9197 -0.4255 2.1353
-6.8959 -0.6732 2.1353
-6.8633 -0.9198 2.1353
-6.8218 -1.1650 2.1353
-6.7717 -1.4084 2.1353
-6.7129 -1.6497 2.1353
-6.6456 -1.8886 2.1353
-6.5698 -2.1248 2.1353
-6.4856 -2.3581 2.1353
-6.3933 -2.5881 2.1353
-6.3461 -2.8384 2.1534
-6.3381 -3.1127 2.1884
-6.3384 -3.4006 2.2304
-6.2317 -3.6376 2.2386
-6.0940 -3.8572 2.2386
-5.9486 -4.0717 2.2386
-5.7958 -4.2807 2.2386
-5.6356 -4.4841 2.2386
-5.4685 -4.6816 2.2386
-5.2944 -4.8730 2.2386
-5.1138 -5.0580 2.2386
-4.9268 -5.2364 2.2386
-4.7336 -5.4080 2.2386
-4.5345 -5.5725 2.2386
-4.3298 -5.7299 2.2386
-4.1197 -5.8798 2.2386
-3.9045 -6.0222 2.2386
-3.6844 -6.1568 2.2386
-3.4598 -6.2835 2.2386
-3.2309 -6.4021 2.2386
-2.9980 -6.5125 2.2386
-2.7613 -6.6146 2.2386
-2.5213 -6.7082 2.2386
-2.2781 -6.7932 2.2386
-2.0321 -6.8696 2.2386
-1.7836 -6.9372 2.2386
-1.5329 -6.9960 2.2386
-1.2803 -7.0458 2.2386
-1.0261 -7.0867 2.2386
-0.7706 -7.1186 2.2386
-0.5142 -7.1414 2.2386
-0.2572 -7.1551 2.2386
0.0002 -6.6316 2.2386
0.2386 -6.6275 2.2386
0.4768 -6.6149 2.2386
0.7143 -6.5938 2.2386
0.9510 -6.5644 2.2386
1.1865 -6.5266 2.2386
1.4206 -6.4806 2.2386
1.6528 -6.4262 2.2386
1.7964 -6.0706 2.1355
1.8912 -5.6378 2.0055
2.2287 -5.9280 2.1355
2.0515 -4.9128 1.7948
2.0177 -4.3818 1.6259
2.1745 -4.3076 1.6259
1.8862 -3.4247 1.3171
3.2568 -5.4408 2.1355
3.4513 -5.3218 2.1355
3.6415 -5.1960 2.1355
3.8271 -5.0634 2.1355
4.0081 -4.9243 2.1355
4.1839 -4.7788 2.1355
4.3546 -4.6271 2.1355
4.5199 -4.4694 2.1355
4.6795 -4.3059 2.1355
4.8332 -4.1367 2.1355
4.9809 -3.9621 2.1355
5.1223 -3.7822 2.1355
5.2573 -3.5974 2.1355
5.3856 -3.4078 2.1355
5.5072 -3.2137 2.1355
5.6218 -3.0153 2.1355
5.7482 -2.8221 2.1425
5.8488 -2.6151 2.1425
5.9420 -2.4046 2.1425
6.0276 -2.1908 2.1425
6.1056 -1.9739 2.1425
6.1759 -1.7543 2.1425
6.2383 -1.5323 2.1425
6.0035 -1.2478 2.0440
5.9184 -1.0100 2.0003
5.7572 -0.7709 1.9342
5.8717 -0.5725 1.9633
5.8455 -0.3587 1.9479
5.8720 -0.1491 1.9527
5.7549 0.0605 1.9121
5.8969 0.2739 1.9602
6.0102 0.4958 2.0014
6.1546 0.7310 2.0558
6.3862 0.9920 2.1425
6.3500 1.2212 2.1425
6.3055 1.4490 2.1425
5.0463 1.3520 1.7291
5.6788 1.7421 1.9649
5.0293 1.7426 1.7598
4.7510 1.8397 1.6836
4.6703 2.0039 1.6785
5.3396 2.5216 1.9493
5.2529 2.7152 1.9510
5.2541 2.9593 1.9887
5.2553 3.2136 2.0305
5.0672 3.3540 2.0021
4.6910 3.3530 1.8989
4.6831 3.6080 1.9460
4.9958 4.1426 2.1355
4.8461 4.3209 2.1355
4.6899 4.4937 2.1355
4.5275 4.6608 2.1355
4.3591 4.8220 2.1355
4.1849 4.9770 2.1355
4.0052 5.1256 2.1355
3.8201 5.2676 2.1355
3.6299 5.4028 2.1355
3.4349 5.5311 2.1355
3.2353 5.6523 2.1355
3.0314 5.7661 2.1355
2.8235 5.8725 2.1355
2.6117 5.9713 2.1355
2.3965 6.0623 2.1355
2.1781 6.1454 2.1355
1.9567 6.2206 2.1355
1.7328 6.2877 2.1355
1.5792 6.6529 2.2386
1.3399 6.7060 2.2386
1.0987 6.7503 2.2386
0.8562 6.7858 2.2386
0.6124 6.8124 2.2386
0.3679 6.8302 2.2386
0.1228 6.8391 2.2386
-0.1224 6.8390 2.2386
-0.3674 6.8300 2.2386
-0.6119 6.8121 2.2386
-0.8556 6.7853 2.2386
-1.0982 6.7496 2.2386
-1.3392 6.7052 2.2386
-1.5785 6.6520 2.2386
-1.8156 6.5901 2.2386
-2.0503 6.5197 2.2386
-2.2823 6.4408 2.2386
-2.5112 6.3535 2.2386
-2.7367 6.2580 2.2386
-2.9585 6.1544 2.2386
-3.1764 6.0428 2.2386
-3.3900 5.9233 2.2386
-3.5991 5.7963 2.2386
-3.8034 5.6617 2.2386
-4.0026 5.5199 2.2386
-4.1965 5.3710 2.2386
-4.3848 5.2152 2.2386
-4.5673 5.0527 2.2386
-4.7436 4.8838 2.2386
-4.9137 4.7086 2.2386
-5.0773 4.5275 2.2386
-5.2341 4.3406 2.2386
-5.3840 4.1483 2.2386
-5.5268 3.9507 2.2386
-5.6623 3.7482 2.2386
-5.7903 3.5410 2.2386
-5.9107 3.3294 2.2386
-6.0233 3.1137 2.2386
-6.1280 2.8941 2.2386
-6.2247 2.6711 2.2386
-6.3132 2.4447 2.2386
-6.3340 2.1949 2.2177
-6.3342 1.9434 2.1931
-6.3375 1.6981 2.1729
-6.3420 1.4576 2.1563
-6.3457 1.2205 2.1425
-6.3606 0.9881 2.1353
-6.3884 0.7588 2.1353
-6.4080 0.5287 2.1353
-6.4193 0.2982 2.1353
-6.4223 0.0675 2.1353
-6.4170 -0.1630 2.1353
-6.4035 -0.3930 2.1353
-6.3817 -0.6223 2.1353
-6.3517 -0.8505 2.1353
-6.3465 -1.0831 2.1464
-6.3429 -1.3185 2.1610
-6.3387 -1.5570 2.1784
-6.3371 -1.8002 2.1998
-6.3373 -2.0489 2.2252
-6.2940 -2.2877 2.2386
-6.2046 -2.5110 2.2386
-6.1073 -2.7308 2.2386
-6.0023 -2.9470 2.2386
-5.8897 -3.1591 2.2386
-5.7696 -3.3671 2.2386
-5.6423 -3.5705 2.2386
-5.5079 -3.7692 2.2386
-5.3665 -3.9629 2.2386
-5.2184 -4.1514 2.2386
-5.0638 -4.3344 2.2386
-4.9028 -4.5118 2.2386
-4.7356 -4.6832 2.2386
-4.5626 -4.8485 2.2386
-4.3838 -5.0076 2.2386
-4.1995 -5.1601 2.2386
-4.0100 -5.3059 2.2386
-3.8155 -5.4449 2.2386
-3.6163 -5.5769 2.2386
-3.4125 -5.7017 2.2386
-3.2045 -5.8191 2.2386
-2.9926 -5.9291 2.2386
-2.7769 -6.0314 2.2386
-2.5577 -6.1261 2.2386
-2.3354 -6.2129 2.2386
-2.1102 -6.2917 2.2386
-1.8823 -6.3625 2.2386
-1.6521 -6.4252 2.2386
-1.4199 -6.4797 2.2386
-1.1859 -6.5260 2.2386
-0.9505 -6.5639 2.2386
-0.7138 -6.5934 2.2386
-0.4763 -6.6146 2.2386
-0.2382 -6.6273 2.2386
0.0002 -6.1695 2.2386
0.2221 -6.1656 2.2386
0.4436 -6.1539 2.2386
0.6647 -6.1343 2.2386
0.8848 -6.1069 2.2386
1.1040 -6.0718 2.2386
1.3217 -6.0288 2.2386
1.5378 -5.9782 2.2386
1.7068 -5.7672 2.1808
1.8736 -5.5845 2.1355
1.8940 -5.0370 1.9506
2.1502 -5.1484 2.0219
1.9650 -4.2667 1.7020
2.0230 -4.0069 1.6259
2.1662 -3.9326 1.6259
2.3068 -3.8532 1.6259
2.4445 -3.7689 1.6259
3.3875 -4.8329 2.1355
3.5602 -4.7095 2.1355
3.7284 -4.5800 2.1355
3.8919 -4.4446 2.1355
4.0506 -4.3034 2.1355
4.2042 -4.1566 2.1355
4.3525 -4.0043 2.1355
4.4954 -3.8469 2.1355
4.6326 -3.6843 2.1355
4.7640 -3.5170 2.1355
4.8894 -3.3450 2.1355
5.0086 -3.1686 2.1355
5.1215 -2.9879 2.1355
5.2280 -2.8033 2.1355
5.3278 -2.6149 2.1355
5.4209 -2.4230 2.1355
5.5071 -2.2278 2.1355
5.5863 -2.0296 2.1355
5.6584 -1.8286 2.1355
5.7233 -1.6250 2.1355
5.7999 -1.4239 2.1425
5.8503 -1.2153 2.1425
5.8932 -1.0050 2.1425
5.7571 -0.7702 2.0805
5.7236 -0.5574 2.0588
5.6907 -0.3486 2.0400
5.7223 -0.1446 2.0471
5.7550 0.0612 2.0572
5.8972 0.2746 2.1091
5.9798 0.4940 2.1425
5.9613 0.7087 2.1425
5.9352 0.9226 2.1425
5.9013 1.1356 2.1425
5.8597 1.3473 2.1425
5.0440 1.3520 1.8598
4.8030 1.4741 1.7884
4.8032 1.6649 1.8087
4.7500 1.8399 1.8115
4.6763 2.0070 1.8088
5.2517 2.4808 2.0635
5.2235 2.7007 2.0882
5.1258 2.8878 2.0883
5.0842 3.1096 2.1145
5.0210 3.3241 2.1355
4.6898 3.3528 2.0436
4.6901 3.6140 2.0980
4.6407 3.8489 2.1355
4.5015 4.0144 2.1355
4.3563 4.1748 2.1355
4.2054 4.3299 2.1355
4.0489 4.4795 2.1355
3.8870 4.6233 2.1355
3.7200 4.7613 2.1355
3.5480 4.8931 2.1355
3.3713 5.0186 2.1355
3.1901 5.1376 2.1355
3.0047 5.2501 2.1355
2.8153 5.3557 2.1355
2.6221 5.4544 2.1355
0.8579 1.9617 0.7553
2.2255 5.6305 2.1355
2.0227 5.7077 2.1355
1.8171 5.7774 2.1355
1.6868 6.1215 2.2386
1.4665 6.1788 2.2386
1.2442 6.2280 2.2386
1.0203 6.2691 2.2386
0.7951 6.3021 2.2386
0.5687 6.3268 2.2386
0.3416 6.3433 2.2386
0.1141 6.3515 2.2386
-0.1136 6.3514 2.2386
-0.3411 6.3431 2.2386
-0.5682 6.3265 2.2386
-0.7945 6.3016 2.2386
-1.0198 6.2686 2.2386
-1.2436 6.2273 2.2386
-1.4658 6.1780 2.2386
-1.6861 6.1206 2.2386
-1.9040 6.0553 2.2386
-2.1195 5.9821 2.2386
-2.3320 5.9011 2.2386
-0.8578 1.9617 0.7555
-0.9275 1.9297 0.7557
-2.9500 5.6128 2.2386
-3.1484 5.5020 2.2386
-3.3427 5.3840 2.2386
-3.5325 5.2592 2.2386
-3.7176 5.1276 2.2386
-3.8978 4.9894 2.2386
-4.0727 4.8448 2.2386
-4.2423 4.6940 2.2386
-4.4062 4.5372 2.2386
-4.5643 4.3746 2.2386
-4.7164 4.2064 2.2386
-4.8622 4.0330 2.2386
-5.0016 3.8544 2.2386
-5.1344 3.6710 2.2386
-5.2604 3.4829 2.2386
-5.3795 3.2905 2.2386
-5.4916 3.0940 2.2386
-5.5964 2.8937 2.2386
-5.6939 2.6898 2.2386
-5.7839 2.4826 2.2386
-5.8663 2.2724 2.2386
-5.9411 2.0595 2.2386
-6.0082 1.8441 2.2386
-6.0674 1.6265 2.2386
-6.1187 1.4070 2.2386
-6.1620 1.1859 2.2386
-6.1974 0.9635 2.2386
-6.2248 0.7401 2.2386
-6.2440 0.5159 2.2386
-6.2552 0.2913 2.2386
-6.2584 0.0665 2.2386
-6.2535 -0.1581 2.2386
-6.2405 -0.3823 2.2386
-6.2195 -0.6057 2.2386
-6.1905 -0.8282 2.2386
-6.1536 -1.0494 2.2386
-6.1088 -1.2691 2.2386
-6.0562 -1.4869 2.2386
-5.9959 -1.7026 2.2386
-5.9280 -1.9158 2.2386
-5.8525 -2.1265 2.2386
-5.7695 -2.3342 2.2386
-5.6792 -2.5387 2.2386
-5.5818 -2.7398 2.2386
-5.4772 -2.9372 2.2386
-5.3657 -3.1307 2.2386
-5.2475 -3.3200 2.2386
-5.1226 -3.5049 2.2386
-4.9913 -3.6851 2.2386
-4.8537 -3.8605 2.2386
-4.7100 -4.0309 2.2386
-4.5603 -4.1959 2.2386
-4.4050 -4.3555 2.2386
-4.2441 -4.5094 2.2386
-4.0779 -4.6574 2.2386
-3.9065 -4.7994 2.2386
-3.7304 -4.9352 2.2386
-3.5495 -5.0646 2.2386
-3.3642 -5.1874 2.2386
-3.1747 -5.3036 2.2386
-2.9813 -5.4130 2.2386
-2.7841 -5.5153 2.2386
-2.5834 -5.6107 2.2386
-2.3796 -5.6988 2.2386
-2.1728 -5.7796 2.2386
-1.9633 -5.8530 2.2386
-1.7513 -5.9190 2.2386
-1.5372 -5.9773 2.2386
-1.3211 -6.0281 2.2386
-1.1034 -6.0711 2.2386
-0.8843 -6.1065 2.2386
-0.6642 -6.1340 2.2386
-0.4432 -6.1537 2.2386
-0.2216 -6.1655 2.2386
0.0002 -5.7614 2.2386
0.2074 -5.7578 2.2386
0.4143 -5.7468 2.2386
0.6208 -5.7285 2.2386
0.8264 -5.7029 2.2386
1.0310 -5.6700 2.2386
1.2344 -5.6299 2.2386
1.4362 -5.5826 2.2386
1.6363 -5.5281 2.2386
1.7498 -5.2148 2.1355
1.9365 -5.1494 2.1355
1.8925 -4.5309 1.9056
2.3025 -4.9989 2.1355
1.9652 -3.8921 1.6914
2.0230 -3.6720 1.6259
2.1542 -3.5978 1.6259
2.2828 -3.5190 1.6259
2.4085 -3.4356 1.6259
3.3245 -4.3970 2.1355
3.4815 -4.2760 2.1355
3.6341 -4.1495 2.1355
3.7822 -4.0176 2.1355
3.9255 -3.8804 2.1355
4.0639 -3.7382 2.1355
4.1972 -3.5911 2.1355
4.3253 -3.4393 2.1355
4.4478 -3.2829 2.1355
4.5648 -3.1223 2.1355
4.6760 -2.9575 2.1355
4.7813 -2.7888 2.1355
4.8805 -2.6163 2.1355
4.9736 -2.4404 2.1355
5.0603 -2.2612 2.1355
5.1406 -2.0789 2.1355
5.2144 -1.8938 2.1355
5.2816 -1.7061 2.1355
5.3420 -1.5161 2.1355
5.3956 -1.3239 2.1355
5.4423 -1.1299 2.1355
5.4820 -0.9342 2.1355
5.5148 -0.7371 2.1355
5.5404 -0.5389 2.1355
5.5590 -0.3398 2.1355
5.5704 -0.1401 2.1355
5.5746 0.0599 2.1355
5.5716 0.2601 2.1355
5.5614 0.4601 2.1355
5.5441 0.6598 2.1355
5.5196 0.8587 2.1355
5.4879 1.0567 2.1355
5.4491 1.2536 2.1355
5.0417 1.3520 1.9926
4.8030 1.4747 1.9170
4.8032 1.6655 1.9388
4.7490 1.8401 1.9414
4.6823 2.0102 1.9415
5.0697 2.3954 2.1355
4.9827 2.5769 2.1355
4.8892 2.7551 2.1355
4.7893 2.9299 2.1355
4.6831 3.1011 2.1355
4.5708 3.2683 2.1355
4.4524 3.4315 2.1355
4.3281 3.5903 2.1355
4.1982 3.7446 2.1355
4.0627 3.8941 2.1355
3.9219 4.0386 2.1355
3.7758 4.1780 2.1355
3.6248 4.3121 2.1355
3.4690 4.4406 2.1355
3.3085 4.5634 2.1355
3.1437 4.6804 2.1355
2.9747 4.7913 2.1355
2.8018 4.8961 2.1355
2.6251 4.9945 2.1355
0.8657 1.8009 0.7561
0.8006 1.8309 0.7560
0.7345 1.8584 0.7558
0.6674 1.8836 0.7557
0.5995 1.9063 0.7556
0.5308 1.9266 0.7555
0.4614 1.9444 0.7555
0.3915 1.9597 0.7554
0.9513 5.8458 2.2386
0.7413 5.8765 2.2386
0.5302 5.8995 2.2386
0.3185 5.9149 2.2386
0.1064 5.9225 2.2386
-0.1059 5.9225 2.2386
-0.3181 5.9147 2.2386
-0.5298 5.8992 2.2386
-0.7408 5.8761 2.2386
-0.9508 5.8453 2.2386
-0.3913 1.9597 0.7555
-0.4613 1.9444 0.7556
-0.5307 1.9266 0.7556
-0.5994 1.9063 0.7557
-0.6673 1.8836 0.7559
-0.7343 1.8584 0.7560
-0.8004 1.8308 0.7561
-0.8655 1.8009 0.7563
-0.9295 1.7687 0.7564
-2.9358 5.1311 2.2386
-3.1170 5.0212 2.2386
-3.2940 4.9049 2.2386
-3.4667 4.7823 2.2386
-3.6348 4.6535 2.2386
-3.7980 4.5187 2.2386
-3.9563 4.3782 2.2386
-4.1092 4.2321 2.2386
-4.2568 4.0805 2.2386
-4.3987 3.9238 2.2386
-4.5348 3.7621 2.2386
-4.6649 3.5956 2.2386
-4.7889 3.4247 2.2386
-4.9066 3.2494 2.2386
-5.0178 3.0700 2.2386
-5.1224 2.8868 2.2386
-5.2204 2.7000 2.2386
-5.3114 2.5099 2.2386
-5.3956 2.3167 2.2386
-5.4726 2.1206 2.2386
-5.5426 1.9220 2.2386
-5.6053 1.7211 2.2386
-5.6607 1.5182 2.2386
-5.7087 1.3134 2.2386
-5.7494 1.1072 2.2386
-5.7826 0.8997 2.2386
-5.8083 0.6912 2.2386
-5.8264 0.4821 2.2386
-5.8371 0.2725 2.2386
-5.8402 0.0628 2.2386
-5.8358 -0.1468 2.2386
-5.8238 -0.3560 2.2386
-5.8044 -0.5646 2.2386
-5.7776 -0.7723 2.2386
-5.7433 -0.9788 2.2386
-5.7017 -1.1838 2.2386
-5.6528 -1.3871 2.2386
-5.5966 -1.5885 2.2386
-5.5333 -1.7876 2.2386
-5.4630 -1.9843 2.2386
-5.3858 -2.1782 2.2386
-5.3016 -2.3692 2.2386
-5.2108 -2.5570 2.2386
-5.1133 -2.7414 2.2386
-5.0094 -2.9221 2.2386
-4.8991 -3.0989 2.2386
-4.7826 -3.2716 2.2386
-4.6602 -3.4400 2.2386
-4.5318 -3.6038 2.2386
-4.3977 -3.7629 2.2386
-4.2581 -3.9171 2.2386
-4.1131 -4.0662 2.2386
-3.9629 -4.2100 2.2386
-3.8078 -4.3483 2.2386
-3.6479 -4.4810 2.2386
-3.4835 -4.6079 2.2386
-3.3146 -4.7288 2.2386
-3.1416 -4.8436 2.2386
-2.9647 -4.9522 2.2386
-2.7841 -5.0544 2.2386
-2.6000 -5.1501 2.2386
-2.4127 -5.2391 2.2386
-2.2223 -5.3215 2.2386
-2.0292 -5.3970 2.2386
-1.8335 -5.4657 2.2386
-1.6356 -5.5273 2.2386
-1.4356 -5.5818 2.2386
-1.2338 -5.6293 2.2386
-1.0305 -5.6695 2.2386
-0.8259 -5.7025 2.2386
-0.6203 -5.7282 2.2386
-0.4139 -5.7466 2.2386
-0.2070 -5.7577 2.2386
0.0002 -5.3981 2.2386
0.1944 -5.3947 2.2386
0.3883 -5.3844 2.2386
0.5817 -5.3672 2.2386
0.7744 -5.3432 2.2386
0.9661 -5.3123 2.2386
1.1567 -5.2747 2.2386
1.3458 -5.2303 2.2386
1.5332 -5.1792 2.2386
1.7063 -5.0844 2.2223
1.8145 -4.8244 2.1355
1.9872 -4.7569 2.1355
2.1574 -4.6833 2.1355
1.8937 -3.7499 1.7394
1.9655 -3.5672 1.6860
2.0184 -3.3704 1.6259
2.1388 -3.2966 1.6259
2.2566 -3.2184 1.6259
2.3715 -3.1361 1.6259
3.2617 -4.0055 2.1355
3.4047 -3.8869 2.1355
3.5434 -3.7632 2.1355
3.6776 -3.6346 2.1355
3.8072 -3.5013 2.1355
3.9319 -3.3634 2.1355
4.0518 -3.2212 2.1355
4.1665 -3.0746 2.1355
4.2760 -2.9241 2.1355
4.3800 -2.7697 2.1355
4.4786 -2.6116 2.1355
4.5714 -2.4500 2.1355
4.6584 -2.2851 2.1355
4.7396 -2.1172 2.1355
4.8147 -1.9465 2.1355
4.8837 -1.7731 2.1355
4.9464 -1.5972 2.1355
5.0029 -1.4192 2.1355
5.0529 -1.2392 2.1355
5.0965 -1.0575 2.1355
5.1336 -0.8742 2.1355
5.1641 -0.6896 2.1355
5.1880 -0.5040 2.1355
5.2052 -0.3176 2.1355
5.2157 -0.1306 2.1355
5.2196 0.0567 2.1355
5.2166 0.2442 2.1355
5.2070 0.4314 2.1355
5.1906 0.6183 2.1355
5.1675 0.8046 2.1355
5.1377 0.9899 2.1355
5.1012 1.1742 2.1355
5.0394 1.3520 2.1276
4.8030 1.4752 2.0479
4.8032 1.6661 2.0712
4.7480 1.8403 2.0736
4.6885 2.0135 2.0769
4.7453 2.2428 2.1355
4.6638 2.4125 2.1355
4.5762 2.5793 2.1355
4.4825 2.7429 2.1355
4.3830 2.9030 2.1355
4.2778 3.0595 2.1355
4.1669 3.2121 2.1355
4.0506 3.3607 2.1355
3.9288 3.5050 2.1355
3.8020 3.6448 2.1355
3.6701 3.7800 2.1355
3.5334 3.9104 2.1355
3.3920 4.0358 2.1355
3.2461 4.1560 2.1355
3.0959 4.2708 2.1355
2.9417 4.3802 2.1355
2.7835 4.4839 2.1355
2.6216 4.5819 2.1355
0.8705 1.6563 0.7568
0.8106 1.6865 0.7566
0.7496 1.7145 0.7565
0.6877 1.7403 0.7564
0.6249 1.7639 0.7563
0.5613 1.7852 0.7562
0.4970 1.8042 0.7561
0.4321 1.8209 0.7560
0.3665 1.8352 0.7560
0.3006 1.8472 0.7559
0.2342 1.8568 0.7559
0.1675 1.8640 0.7559
0.1006 1.8688 0.7559
0.0336 1.8712 0.7558
-0.0335 1.8712 0.7559
-0.1005 1.8688 0.7559
-0.1674 1.8640 0.7559
-0.2340 1.8568 0.7559
-0.3004 1.8472 0.7560
-0.3664 1.8352 0.7561
-0.4319 1.8209 0.7561
-0.4969 1.8042 0.7562
-0.5612 1.7852 0.7563
-0.6248 1.7639 0.7564
-0.6876 1.7403 0.7565
-0.7495 1.7145 0.7567
-0.8104 1.6865 0.7568
-0.8703 1.6563 0.7569
-0.9291 1.6240 0.7571
-2.9166 4.6992 2.2386
-3.0824 4.5904 2.2386
-3.2440 4.4757 2.2386
-3.4013 4.3553 2.2386
-3.5541 4.2292 2.2386
-3.7023 4.0978 2.2386
-3.8455 3.9611 2.2386
-3.9837 3.8194 2.2386
-4.1166 3.6728 2.2386
-4.2440 3.5216 2.2386
-4.3659 3.3658 2.2386
-4.4820 3.2059 2.2386
-4.5923 3.0419 2.2386
-4.6965 2.8741 2.2386
-4.7946 2.7027 2.2386
-4.8863 2.5279 2.2386
-4.9717 2.3500 2.2386
-5.0506 2.1692 2.2386
-5.1229 1.9858 2.2386
-5.1885 1.7999 2.2386
-5.2473 1.6119 2.2386
-5.2993 1.4219 2.2386
-5.3445 1.2303 2.2386
-5.3826 1.0372 2.2386
-5.4139 0.8430 2.2386
-5.4381 0.6479 2.2386
-5.4552 0.4520 2.2386
-5.4653 0.2558 2.2386
-5.4684 0.0595 2.2386
-5.4644 -0.1368 2.2386
-5.4534 -0.3327 2.2386
-5.4354 -0.5281 2.2386
-5.4104 -0.7225 2.2386
-5.3784 -0.9159 2.2386
-5.3396 -1.1080 2.2386
-5.2939 -1.2984 2.2386
-5.2415 -1.4870 2.2386
-5.1824 -1.6736 2.2386
-5.1166 -1.8578 2.2386
-5.0444 -2.0395 2.2386
-4.9657 -2.2185 2.2386
-4.8808 -2.3944 2.2386
-4.7896 -2.5672 2.2386
-4.6923 -2.7365 2.2386
-4.5891 -2.9022 2.2386
-4.4801 -3.0640 2.2386
-4.3655 -3.2218 2.2386
-4.2453 -3.3754 2.2386
-4.1198 -3.5245 2.2386
-3.9891 -3.6690 2.2386
-3.8533 -3.8088 2.2386
-3.7127 -3.9436 2.2386
-3.5675 -4.0732 2.2386
-3.4177 -4.1976 2.2386
-3.2637 -4.3165 2.2386
-3.1055 -4.4299 2.2386
-2.9435 -4.5375 2.2386
-2.7778 -4.6393 2.2386
-2.6086 -4.7351 2.2386
-2.4361 -4.8248 2.2386
-2.2606 -4.9083 2.2386
-2.0823 -4.9856 2.2386
-1.9013 -5.0564 2.2386
-1.7180 -5.1207 2.2386
-1.5326 -5.1785 2.2386
-1.3452 -5.2297 2.2386
-1.1561 -5.2742 2.2386
-0.9656 -5.3119 2.2386
-0.7739 -5.3428 2.2386
-0.5812 -5.3670 2.2386
-0.3878 -5.3842 2.2386
-0.1939 -5.3946 2.2386
0.0002 -5.0722 2.2386
0.1827 -5.0690 2.2386
0.3649 -5.0593 2.2386
0.5467 -5.0431 2.2386
0.7277 -5.0205 2.2386
0.9079 -4.9915 2.2386
1.0870 -4.9561 2.2386
1.2647 -4.9144 2.2386
1.4408 -4.8664 2.2386
1.6151 -4.8121 2.2386
1.7153 -4.5599 2.1482
1.8673 -4.4694 2.1355
1.8969 -4.1172 1.9982
2.1355 -4.2281 2.0875
1.9712 -3.5770 1.7995
1.9657 -3.2820 1.6852
2.0097 -3.0971 1.6259
2.1253 -3.0307 1.6297
2.2759 -3.0092 1.6607
2.4525 -3.0113 1.7089
3.1990 -3.6514 2.1355
3.3292 -3.5352 2.1355
3.4552 -3.4143 2.1355
3.5769 -3.2890 2.1355
3.6941 -3.1594 2.1355
3.8066 -3.0256 2.1355
3.9143 -2.8879 2.1355
4.0171 -2.7464 2.1355
4.1147 -2.6013 2.1355
4.2072 -2.4527 2.1355
4.2943 -2.3009 2.1355
4.3760 -2.1460 2.1355
4.4521 -1.9882 2.1355
4.5226 -1.8278 2.1355
4.5873 -1.6649 2.1355
4.6461 -1.4997 2.1355
4.6990 -1.3324 2.1355
4.7459 -1.1633 2.1355
4.7868 -0.9926 2.1355
4.8215 -0.8204 2.1355
4.8500 -0.6471 2.1355
4.8723 -0.4727 2.1355
4.8884 -0.2976 2.1355
4.8981 -0.1220 2.1355
4.9016 0.0539 2.1355
4.8987 0.2299 2.1355
4.8895 0.4057 2.1355
4.8740 0.5812 2.1355
4.8522 0.7561 2.1355
4.8241 0.9301 2.1355
4.7897 1.1031 2.1355
4.7492 1.2748 2.1355
4.7024 1.4450 2.1355
4.6496 1.6134 2.1355
4.5906 1.7799 2.1355
4.5257 1.9442 2.1355
4.4549 2.1061 2.1355
4.3783 2.2655 2.1355
4.2960 2.4220 2.1355
4.2080 2.5755 2.1355
4.1145 2.7257 2.1355
4.0156 2.8726 2.1355
3.9115 3.0158 2.1355
3.8021 3.1552 2.1355
3.6878 3.2906 2.1355
3.5687 3.4217 2.1355
3.4449 3.5486 2.1355
3.3165 3.6709 2.1355
3.1837 3.7885 2.1355
3.0467 3.9013 2.1355
2.9057 4.0090 2.1355
2.7609 4.1116 2.1355
2.6124 4.2089 2.1355
0.8726 1.5253 0.7574
0.8174 1.5557 0.7572
0.7612 1.5840 0.7571
0.7040 1.6103 0.7570
0.6458 1.6345 0.7569
0.5869 1.6567 0.7568
0.5272 1.6767 0.7567
0.4668 1.6945 0.7566
0.4058 1.7102 0.7566
0.3442 1.7236 0.7565
0.2823 1.7349 0.7565
0.2199 1.7439 0.7564
0.1573 1.7507 0.7564
0.0945 1.7552 0.7564
0.0316 1.7574 0.7564
-0.0314 1.7574 0.7564
-0.0944 1.7552 0.7564
-0.1572 1.7507 0.7564
-0.2198 1.7439 0.7565
-0.2821 1.7349 0.7565
-0.3441 1.7236 0.7566
-0.4056 1.7102 0.7566
-0.4666 1.6945 0.7567
-0.5270 1.6767 0.7568
-0.5867 1.6567 0.7569
-0.6457 1.6345 0.7570
-0.7038 1.6103 0.7571
-0.7611 1.5840 0.7573
-0.8173 1.5557 0.7574
-0.8725 1.5253 0.7575
-0.9266 1.4930 0.7577
-0.9794 1.4588 0.7579
-3.0447 4.2014 2.2386
-3.1924 4.0884 2.2386
-3.3359 3.9702 2.2386
-3.4750 3.8469 2.2386
-3.6095 3.7187 2.2386
-3.7393 3.5857 2.2386
-3.8641 3.4482 2.2386
-3.9838 3.3063 2.2386
-4.0983 3.1602 2.2386
-4.2074 3.0101 2.2386
-4.3110 2.8562 2.2386
-4.4089 2.6987 2.2386
-4.5011 2.5379 2.2386
-4.5873 2.3739 2.2386
-4.6676 2.2069 2.2386
-4.7418 2.0372 2.2386
-4.8097 1.8650 2.2386
-4.8714 1.6906 2.2386
-4.9268 1.5140 2.2386
-4.9758 1.3357 2.2386
-5.0183 1.1558 2.2386
-5.0542 0.9746 2.2386
-5.0837 0.7922 2.2386
-5.1065 0.6090 2.2386
-5.1228 0.4251 2.2386
-5.1324 0.2409 2.2386
-5.1354 0.0565 2.2386
-5.1318 -0.1279 2.2386
-5.1216 -0.3119 2.2386
-5.1048 -0.4953 2.2386
-5.0814 -0.6780 2.2386
-5.0515 -0.8596 2.2386
-5.0152 -1.0400 2.2386
-4.9724 -1.2189 2.2386
-4.9233 -1.3961 2.2386
-4.8678 -1.5714 2.2386
-4.8062 -1.7445 2.2386
-4.7384 -1.9152 2.2386
-4.6647 -2.0833 2.2386
-4.5849 -2.2487 2.2386
-4.4994 -2.4110 2.2386
-4.4081 -2.5701 2.2386
-4.3113 -2.7258 2.2386
-4.2090 -2.8779 2.2386
-4.1013 -3.0262 2.2386
-3.9885 -3.1706 2.2386
-3.8706 -3.3108 2.2386
-3.7479 -3.4466 2.2386
-3.6204 -3.5780 2.2386
-3.4884 -3.7047 2.2386
-3.3519 -3.8265 2.2386
-3.2113 -3.9435 2.2386
-3.0666 -4.0553 2.2386
-2.9181 -4.1618 2.2386
-2.7658 -4.2630 2.2386
-2.6102 -4.3587 2.2386
-2.4512 -4.4488 2.2386
-2.2892 -4.5332 2.2386
-2.1243 -4.6117 2.2386
-1.9567 -4.6843 2.2386
-1.7867 -4.7509 2.2386
-1.6144 -4.8114 2.2386
-1.4402 -4.8657 2.2386
-1.2641 -4.9138 2.2386
-1.0864 -4.9556 2.2386
-0.9074 -4.9911 2.2386
-0.7273 -5.0202 2.2386
-0.5462 -5.0429 2.2386
-0.3644 -5.0591 2.2386
-0.1822 -5.0689 2.2386
0.0002 -4.7779 2.2386
0.1721 -4.7749 2.2386
0.3438 -4.7658 2.2386
0.5150 -4.7505 2.2386
0.6856 -4.7292 2.2386
0.8554 -4.7019 2.2386
1.0240 -4.6685 2.2386
1.1914 -4.6292 2.2386
1.3573 -4.5839 2.2386
1.5216 -4.5327 2.2386
1.6839 -4.4757 2.2386
1.7592 -4.2098 2.1355
1.9098 -4.1446 2.1355
2.0580 -4.0740 2.1355
2.2037 -3.9982 2.1355
1.9679 -3.2851 1.7909
1.9686 -3.0333 1.6907
2.1104 -3.0091 1.7180
2.2763 -3.0092 1.7632
2.8869 -3.5440 2.1355
3.0133 -3.4389 2.1355
3.1359 -3.3293 2.1355
3.2546 -3.2154 2.1355
3.3691 -3.0973 2.1355
3.4795 -2.9752 2.1355
3.5854 -2.8492 2.1355
3.6867 -2.7194 2.1355
3.7835 -2.5861 2.1355
3.8754 -2.4494 2.1355
3.9624 -2.3094 2.1355
4.0444 -2.1664 2.1355
4.1212 -2.0205 2.1355
4.1928 -1.8718 2.1355
4.2591 -1.7207 2.1355
4.3199 -1.5672 2.1355
4.3752 -1.4116 2.1355
4.4250 -1.2541 2.1355
4.4690 -1.0949 2.1355
4.5074 -0.9341 2.1355
4.5400 -0.7719 2.1355
4.5667 -0.6087 2.1355
4.5876 -0.4445 2.1355
4.6027 -0.2797 2.1355
4.6117 -0.1143 2.1355
4.6149 0.0513 2.1355
4.6121 0.2170 2.1355
4.6033 0.3826 2.1355
4.5886 0.5477 2.1355
4.5680 0.7124 2.1355
4.5414 0.8762 2.1355
4.5090 1.0390 2.1355
4.4707 1.2006 2.1355
4.4266 1.3608 2.1355
4.3767 1.5193 2.1355
4.3212 1.6760 2.1355
4.2600 1.8306 2.1355
4.1933 1.9830 2.1355
4.1211 2.1329 2.1355
4.0435 2.2802 2.1355
3.9606 2.4246 2.1355
3.8725 2.5660 2.1355
3.7794 2.7042 2.1355
3.6813 2.8389 2.1355
3.5784 2.9700 2.1355
3.4707 3.0974 2.1355
3.3585 3.2208 2.1355
3.2419 3.3401 2.1355
3.1211 3.4552 2.1355
2.9961 3.5658 2.1355
2.8671 3.6719 2.1355
2.7344 3.7732 2.1355
2.5981 3.8697 2.1355
0.8725 1.4059 0.7579
0.8216 1.4363 0.7578
0.7696 1.4649 0.7577
0.7167 1.4916 0.7575
0.6628 1.5163 0.7574
0.6081 1.5392 0.7573
0.5526 1.5600 0.7572
0.4963 1.5788 0.7572
0.4395 1.5956 0.7571
0.3820 1.6104 0.7570
0.3241 1.6230 0.7570
0.2658 1.6336 0.7569
0.2071 1.6421 0.7569
0.1481 1.6485 0.7569
0.0890 1.6528 0.7569
0.0297 1.6549 0.7568
-0.0296 1.6549 0.7569
-0.0888 1.6528 0.7569
-0.1480 1.6485 0.7569
-0.2069 1.6421 0.7569
-0.2656 1.6336 0.7570
-0.3239 1.6231 0.7570
-0.3819 1.6104 0.7571
-0.4393 1.5956 0.7572
-0.4962 1.5788 0.7573
-0.5524 1.5600 0.7573
-0.6079 1.5392 0.7574
-0.6627 1.5164 0.7576
-0.7165 1.4916 0.7577
-0.7695 1.4649 0.7578
-0.8215 1.4363 0.7579
-0.8724 1.4059 0.7581
-0.9221 1.3737 0.7582
-0.9707 1.3397 0.7584
-3.0043 3.8481 2.2386
-3.1394 3.7369 2.2386
-3.2703 3.6209 2.2386
-3.3970 3.5003 2.2386
-3.5191 3.3752 2.2386
-3.6366 3.2459 2.2386
-3.7494 3.1124 2.2386
-3.8572 2.9749 2.2386
-3.9600 2.8337 2.2386
-4.0575 2.6889 2.2386
-4.1498 2.5407 2.2386
-4.2366 2.3894 2.2386
-4.3179 2.2350 2.2386
-4.3935 2.0779 2.2386
-4.4634 1.9182 2.2386
-4.5275 1.7562 2.2386
-4.5857 1.5920 2.2386
-4.6379 1.4259 2.2386
-4.6841 1.2580 2.2386
-4.7242 1.0887 2.2386
-4.7582 0.9181 2.2386
-4.7860 0.7464 2.2386
-4.8076 0.5740 2.2386
-4.8230 0.4009 2.2386
-4.8322 0.2274 2.2386
-4.8351 0.0538 2.2386
-4.8318 -0.1198 2.2386
-4.8223 -0.2930 2.2386
-4.8066 -0.4658 2.2386
-4.7847 -0.6378 2.2386
-4.7567 -0.8089 2.2386
-4.7225 -0.9787 2.2386
-4.6824 -1.1472 2.2386
-4.6362 -1.3141 2.2386
-4.5841 -1.4792 2.2386
-4.5262 -1.6422 2.2386
-4.4624 -1.8030 2.2386
-4.3930 -1.9614 2.2386
-4.3180 -2.1172 2.2386
-4.2376 -2.2701 2.2386
-4.1517 -2.4200 2.2386
-4.0606 -2.5667 2.2386
-3.9643 -2.7100 2.2386
-3.8629 -2.8497 2.2386
-3.7567 -2.9857 2.2386
-3.6458 -3.1178 2.2386
-3.5302 -3.2458 2.2386
-3.4102 -3.3696 2.2386
-3.2859 -3.4890 2.2386
-3.1574 -3.6039 2.2386
-3.0250 -3.7141 2.2386
-2.8887 -3.8194 2.2386
-2.7488 -3.9199 2.2386
-2.6055 -4.0152 2.2386
-2.4588 -4.1054 2.2386
-2.3091 -4.1903 2.2386
-2.1565 -4.2699 2.2386
-2.0012 -4.3439 2.2386
-1.8433 -4.4123 2.2386
-1.6832 -4.4751 2.2386
-1.5209 -4.5321 2.2386
-1.3567 -4.5833 2.2386
-1.1909 -4.6287 2.2386
-1.0235 -4.6681 2.2386
-0.8549 -4.7015 2.2386
-0.6851 -4.7289 2.2386
-0.5145 -4.7503 2.2386
-0.3433 -4.7656 2.2386
-0.1717 -4.7748 2.2386
0.0002 -4.5106 2.2386
0.1625 -4.5078 2.2386
0.3246 -4.4992 2.2386
0.4863 -4.4848 2.2386
0.6474 -4.4646 2.2386
0.8076 -4.4388 2.2386
0.9669 -4.4073 2.2386
1.1249 -4.3701 2.2386
1.2816 -4.3273 2.2386
1.4366 -4.2790 2.2386
1.5898 -4.2252 2.2386
1.7070 -4.0845 2.1948
1.8031 -3.9125 2.1355
1.9430 -3.8458 2.1355
2.0805 -3.7742 2.1355
2.2154 -3.6977 2.1355
1.9701 -3.0351 1.7922
2.2788 -3.2485 1.9649
2.6026 -3.4401 2.1355
2.7254 -3.3452 2.1355
2.8447 -3.2459 2.1355
2.9604 -3.1424 2.1355
3.0724 -3.0349 2.1355
3.1805 -2.9234 2.1355
3.2846 -2.8080 2.1355
3.3845 -2.6890 2.1355
3.4802 -2.5665 2.1355
3.5714 -2.4406 2.1355
3.6581 -2.3115 2.1355
3.7402 -2.1793 2.1355
3.8175 -2.0443 2.1355
3.8899 -1.9065 2.1355
3.9574 -1.7662 2.1355
4.0199 -1.6235 2.1355
4.0772 -1.4786 2.1355
4.1294 -1.3318 2.1355
4.1762 -1.1831 2.1355
4.2178 -1.0327 2.1355
4.2539 -0.8810 2.1355
4.2845 -0.7280 2.1355
4.3097 -0.5739 2.1355
4.3293 -0.4189 2.1355
4.3434 -0.2634 2.1355
4.3519 -0.1073 2.1355
4.3548 0.0490 2.1355
4.3521 0.2053 2.1355
4.3437 0.3615 2.1355
4.3297 0.5174 2.1355
4.3102 0.6727 2.1355
4.2850 0.8273 2.1355
4.2543 0.9809 2.1355
4.2181 1.1333 2.1355
4.1765 1.2844 2.1355
4.1293 1.4340 2.1355
4.0768 1.5818 2.1355
4.0190 1.7276 2.1355
3.9560 1.8714 2.1355
3.8878 2.0128 2.1355
3.8146 2.1517 2.1355
3.7363 2.2879 2.1355
3.6532 2.4212 2.1355
3.5652 2.5515 2.1355
3.4726 2.6785 2.1355
3.3755 2.8022 2.1355
3.2739 2.9223 2.1355
3.1680 3.0387 2.1355
3.0580 3.1512 2.1355
2.9439 3.2597 2.1355
2.8260 3.3640 2.1355
2.7044 3.4640 2.1355
0.9162 1.2644 0.7586
0.8703 1.2965 0.7584
0.8234 1.3269 0.7583
0.7753 1.3556 0.7582
0.7263 1.3826 0.7580
0.6763 1.4077 0.7579
0.6255 1.4311 0.7578
0.5738 1.4526 0.7577
0.5214 1.4723 0.7576
0.4684 1.4901 0.7576
0.4147 1.5059 0.7575
0.3605 1.5198 0.7574
0.3059 1.5318 0.7574
0.2508 1.5418 0.7574
0.1954 1.5498 0.7573
0.1398 1.5558 0.7573
0.0840 1.5598 0.7573
0.0281 1.5618 0.7573
-0.0279 1.5618 0.7573
-0.0838 1.5598 0.7573
-0.1396 1.5558 0.7573
-0.1953 1.5498 0.7574
-0.2506 1.5418 0.7574
-0.3057 1.5318 0.7575
-0.3604 1.5198 0.7575
-0.4146 1.5059 0.7576
-0.4682 1.4901 0.7577
-0.5213 1.4723 0.7578
-0.5737 1.4526 0.7578
-0.6253 1.4311 0.7580
-0.6762 1.4077 0.7581
-0.7261 1.3826 0.7582
-0.7752 1.3556 0.7583
-0.8232 1.3269 0.7585
-0.8702 1.2965 0.7586
-0.9160 1.2644 0.7588
-0.9607 1.2307 0.7589
-2.9612 3.5254 2.2386
-3.0848 3.4161 2.2386
-3.2043 3.3024 2.2386
-3.3195 3.1844 2.2386
-3.4305 3.0624 2.2386
-3.5369 2.9365 2.2386
-3.6387 2.8069 2.2386
-3.7357 2.6738 2.2386
-3.8277 2.5372 2.2386
-3.9148 2.3975 2.2386
-3.9968 2.2547 2.2386
-4.0736 2.1092 2.2386
-4.1450 1.9610 2.2386
-4.2110 1.8104 2.2386
-4.2716 1.6575 2.2386
-4.3265 1.5026 2.2386
-4.3759 1.3459 2.2386
-4.4196 1.1876 2.2386
-4.4575 1.0278 2.2386
-4.4896 0.8669 2.2386
-4.5160 0.7049 2.2386
-4.5365 0.5422 2.2386
-4.5511 0.3789 2.2386
-4.5598 0.2152 2.2386
-4.5627 0.0513 2.2386
-4.5597 -0.1125 2.2386
