ply
format ascii 1.0
element vertex 2108
property float32 x
property float32 y
property float32 z
end_header
-6.6820 -92.8930 -0.3687
-3.3795 -94.0817 -0.3738
-0.0006 -94.6078 1.7554
3.3924 -94.4830 1.7555
6.7946 -94.4890 1.7614
2.8427 -26.2966 0.4928
13.6224 -94.2257 1.7787
10.7778 -59.4062 1.1318
13.0980 -59.8732 1.1535
3.1143 -12.1326 0.2368
11.7290 -39.7156 0.7871
11.7256 -35.0241 0.7061
12.6710 -33.7704 0.6939
14.2564 -34.2097 0.7180
15.5559 -33.8522 0.7271
17.2762 -34.2953 0.7555
18.6188 -33.8768 0.7670
18.1722 -30.4237 0.7094
21.4429 -33.1371 0.7976
22.7521 -32.5374 0.8102
25.2005 -33.4176 0.8628
24.7027 -30.4217 0.8164
29.1752 -33.4045 0.9341
31.5391 -33.5970 0.9815
32.2549 -31.9778 0.9785
32.7563 -30.2225 0.9715
33.2399 -28.5296 0.9664
33.7079 -26.8918 0.9629
10.5604 -7.8217 0.2971
34.9098 -23.9650 0.9694
35.2906 -22.4066 0.9693
35.3125 -20.6807 0.9610
35.3334 -19.0239 0.9546
34.9947 -17.2511 0.9402
38.0083 -17.0695 1.0172
41.0709 -16.7005 1.0966
44.0163 -16.0825 1.1743
57.9702 -18.8514 1.5475
56.1451 -16.0540 1.5019
58.6043 -14.5034 1.5729
53.6909 -11.2591 1.4478
74.4935 -12.8490 2.0207
77.8732 -10.5697 2.1276
77.2231 -7.6704 2.1276
80.1996 -5.0674 2.2309
79.3441 -2.1586 2.2309
78.4082 0.6824 2.2309
73.8194 3.2950 2.1278
11.5740 0.9338 0.3384
8.6903 1.0162 0.2580
30.3685 4.6617 0.9163
39.2705 7.4801 1.2058
33.5992 7.6591 1.0510
54.7892 14.5769 1.7480
54.7846 16.7032 1.7847
39.2572 13.5274 1.3074
12.2814 4.7317 0.4186
10.6595 4.5528 0.3724
10.2808 4.8345 0.3685
39.3133 20.2410 1.4478
8.7260 4.8967 0.3306
39.2343 23.9084 1.5317
39.2299 25.8817 1.5803
39.2254 27.9503 1.6330
6.0067 4.6140 0.2589
5.8416 4.8303 0.2611
39.2102 34.8668 1.8207
39.2044 37.4671 1.8952
10.8024 11.0926 0.5448
39.1917 43.2483 2.0672
5.9285 7.0340 0.3279
5.8089 7.4170 0.3378
32.9735 45.3673 2.0220
6.1234 9.0945 0.3974
5.8048 9.3276 0.4002
29.8008 51.9569 2.1921
5.8647 11.1330 0.4625
24.9913 51.8778 2.1252
5.8349 13.3149 0.5385
5.9897 15.1233 0.6046
6.0801 17.1235 0.6775
6.0075 19.0640 0.7473
2.6079 9.4467 0.3673
5.9738 25.1233 0.9698
5.8315 29.1372 1.1179
5.7858 35.4883 1.3547
5.7634 45.6098 1.7340
5.0538 56.1387 2.1276
3.0334 56.2581 2.1276
1.0603 59.0568 2.2309
-1.0612 59.0685 2.2309
-3.1832 59.0233 2.2309
-5.3050 58.9212 2.2309
-7.0829 56.0467 2.1278
-7.0329 43.1344 1.6436
-11.3756 56.8357 2.1759
-13.4382 56.5128 2.1759
-9.2094 33.3579 1.2931
-9.5121 30.1843 1.1792
-9.7862 27.5602 1.0863
-6.2125 15.6855 0.6245
-10.4256 23.7902 0.9578
-10.6612 22.1303 0.9021
-10.9422 20.7714 0.8584
-11.1753 19.4835 0.8173
-9.5745 15.3849 0.6561
-9.7356 14.4592 0.6277
-9.8496 13.5515 0.5999
-10.0245 12.7993 0.5787
-10.1946 12.0954 0.5595
-10.3155 11.3831 0.5398
-10.4324 10.7126 0.5218
-10.5841 10.1149 0.5072
-10.6901 9.5058 0.4919
-10.7497 8.8887 0.4759
-10.9360 8.4003 0.4667
-11.0403 7.8667 0.4550
-11.0300 7.2769 0.4397
-11.2092 6.8306 0.4329
-11.2025 6.2865 0.4198
-6.2322 3.2087 0.2269
-11.4707 5.3940 0.4064
-11.5403 4.9289 0.3983
-11.6190 4.4765 0.3912
-9.7416 3.3568 0.3204
-9.7922 2.9856 0.3149
-9.8555 2.6221 0.3103
-9.8205 2.2387 0.3031
-9.9920 1.9033 0.3026
-10.0547 1.5435 0.2992
-10.0064 1.1702 0.2928
-10.1691 0.8205 0.2930
-10.2324 0.4568 0.2907
-10.1947 0.0888 0.2858
-10.3725 -0.2822 0.2873
-10.4381 -0.6595 0.2860
-10.4934 -1.0422 0.2847
-10.4579 -1.4194 0.2814
-10.5760 -1.8242 0.2825
-10.6471 -2.2327 0.2827
-10.7203 -2.6530 0.2833
-10.7958 -3.0869 0.2843
-10.9307 -3.5545 0.2872
-10.9036 -3.9838 0.2863
-11.1097 -4.5174 0.2920
-11.1864 -5.0237 0.2947
-11.2799 -5.5605 0.2984
-11.3909 -6.1329 0.3030
-11.4952 -6.7320 0.3081
-11.5932 -7.3606 0.3136
-11.7258 -8.0494 0.3207
-11.3529 -8.4084 0.3147
-10.6855 -8.5246 0.3008
-10.0593 -8.6336 0.2883
-9.5835 -8.8420 0.2802
-9.7046 -9.6210 0.2904
-9.8717 -10.5156 0.3031
-10.0286 -11.4821 0.3169
-10.2354 -12.6047 0.3340
-10.3081 -13.6690 0.3486
-10.6201 -15.1874 0.3738
-10.9433 -16.9109 0.4025
-11.3389 -18.9830 0.4379
-6.3176 -11.4946 0.2576
-10.5659 -20.9740 0.4576
-11.0719 -24.0935 0.5129
-10.7093 -25.6973 0.5349
-10.3003 -27.4512 0.5598
-12.0994 -36.1394 0.7235
-12.3371 -41.7730 0.8227
-12.3235 -48.0067 0.9320
-12.3065 -56.2518 1.0786
-12.2488 -67.5097 1.2810
-11.2006 -77.4676 1.4577
-10.1760 -94.1244 1.7597
-3.3400 -92.9930 1.7264
-0.0006 -54.2863 2.2309
1.9466 -54.2333 2.2309
3.7088 -51.5906 2.1276
2.8416 -26.2940 1.0889
7.4455 -51.5133 2.1456
9.2977 -51.2606 2.1509
11.1107 -50.8014 2.1509
3.1131 -12.1306 0.5191
11.7290 -39.7253 1.7209
11.7256 -35.0327 1.5390
11.7610 -31.3528 1.3991
11.7541 -28.2121 1.2810
11.7483 -25.5726 1.1837
11.7433 -23.3178 1.1022
11.7391 -21.3647 1.0332
11.7353 -19.6522 0.9742
11.7320 -18.1350 0.9234
11.7290 -16.7780 0.8792
11.7263 -15.5543 0.8407
11.8323 -14.5758 0.8144
28.6378 -32.7989 1.8987
31.5333 -33.6010 2.0203
32.0520 -31.7866 1.9902
32.5510 -30.0429 1.9643
26.2044 -22.4987 1.5406
33.4982 -26.7340 1.9234
10.5593 -7.8238 0.5934
34.9096 -23.9742 1.9244
35.2905 -22.4157 1.9120
35.3124 -20.6896 1.8840
35.3333 -19.0326 1.8597
34.9946 -17.2596 1.8201
37.0867 -16.6645 1.9095
41.0466 -16.7003 2.0953
42.4323 -15.5136 2.1509
42.6670 -13.8848 2.1509
42.6237 -12.1974 2.1400
42.4929 -10.5257 2.1278
42.5470 -8.9316 2.1278
42.5440 -7.3476 2.1278
44.5434 -6.0556 2.2309
44.4241 -4.4222 2.2309
44.2488 -2.8055 2.2309
44.0188 -1.2071 2.2309
43.7355 0.3712 2.2309
43.4002 1.9278 2.2309
41.0241 3.3011 2.1277
8.6901 1.0143 0.4553
29.3087 4.4926 1.5532
39.2701 7.4714 2.1075
33.5791 7.6471 1.8272
17.8227 4.7378 0.9846
15.5336 4.7325 0.8724
38.6774 13.3188 2.2109
12.2518 4.7175 0.7138
10.7511 4.5894 0.6393
10.3098 4.8457 0.6265
35.5448 18.2922 2.2109
8.3099 4.6612 0.5298
33.7767 20.5743 2.2109
30.5979 20.1789 2.0595
6.4235 4.5754 0.4454
6.0086 4.6138 0.4299
5.8426 4.8296 0.4322
5.8075 5.1625 0.4450
25.0947 23.9753 1.9962
10.8122 11.0994 0.8950
23.5564 25.9872 2.0339
5.9597 7.0691 0.5382
5.8478 7.4647 0.5540
21.6295 29.7517 2.1564
20.2331 30.0428 2.1304
5.8432 9.3871 0.6524
18.1010 31.5510 2.1523
5.8692 11.1389 0.7470
14.3131 29.7048 1.9612
5.8348 13.3117 0.8665
5.9910 15.1233 0.9718
6.0814 17.1235 1.0877
5.9853 18.9895 1.1938
2.6084 9.4463 0.5885
5.8099 24.4294 1.5099
5.7999 28.9738 1.7787
5.6833 34.8527 2.1276
4.4248 35.0099 2.1276
2.6829 29.7966 1.8047
1.9909 36.9184 2.2309
0.6636 36.9632 2.2309
-0.6645 36.9676 2.2309
-1.9924 36.9322 2.2309
-3.3193 36.8566 2.2309
-4.6443 36.7408 2.2309
-5.8611 35.9384 2.1915
-6.9483 34.7073 2.1278
-8.2015 34.4821 2.1278
-9.4493 34.2184 2.1278
-9.5144 30.1843 1.8937
-9.7868 27.5553 1.7462
-6.2141 15.6858 1.0054
-10.4983 23.9501 1.5546
-10.3341 21.4460 1.4116
-10.9430 20.7675 1.3882
-11.1760 19.4796 1.3242
-9.7037 15.5883 1.0793
-9.8519 14.6280 1.0332
-10.0032 13.7590 0.9931
-10.0587 12.8393 0.9487
-10.1643 12.0559 0.9137
-10.2791 11.3395 0.8832
-10.4300 10.7068 0.8590
-10.5846 10.1122 0.8375
-10.6906 9.5031 0.8147
-10.7691 8.9017 0.7920
-10.9391 8.3997 0.7780
-11.0306 7.8569 0.7602
-11.0675 7.2987 0.7403
-11.2097 6.8280 0.7291
-11.2954 6.3357 0.7154
-6.2304 3.2063 0.3849
-11.3197 5.3203 0.6832
-11.4050 4.8685 0.6734
-11.4829 4.4214 0.6642
-9.7419 3.3547 0.5528
-9.7926 2.9834 0.5459
-9.8559 2.6200 0.5404
-9.8215 2.2367 0.5303
-9.9924 1.9011 0.5321
-10.0550 1.5413 0.5286
-10.0073 1.1681 0.5201
-10.1695 0.8183 0.5232
-10.2328 0.4546 0.5217
-10.1957 0.0866 0.5158
-10.3728 -0.2844 0.5214
-10.4385 -0.6618 0.5219
-10.4938 -1.0445 0.5226
-10.4584 -1.4217 0.5194
-10.5765 -1.8265 0.5246
-10.6476 -2.2351 0.5280
-10.7208 -2.6555 0.5324
-10.7963 -3.0894 0.5375
-10.9311 -3.5571 0.5465
-10.9048 -3.9867 0.5482
-11.1102 -4.5201 0.5625
-11.0241 -4.9534 0.5630
-11.1209 -5.4848 0.5738
-11.1723 -6.0178 0.5833
-11.2718 -6.6040 0.5967
-11.4300 -7.2598 0.6145
-11.5466 -7.9294 0.6317
-11.3496 -8.4090 0.6331
-10.6825 -8.5251 0.6089
-10.0565 -8.6341 0.5870
-9.4679 -8.7381 0.5674
-9.5292 -9.4499 0.5877
-9.6254 -10.2562 0.6127
-9.8472 -11.2775 0.6487
-10.2216 -12.5912 0.6992
-10.3270 -13.6976 0.7361
-10.6210 -15.1925 0.7917
-10.9857 -16.9808 0.8600
-11.3335 -18.9785 0.9361
-6.3157 -11.4938 0.5532
-10.5888 -21.0243 0.9894
-11.0694 -24.0935 1.1106
-10.0223 -24.0541 1.0881
-9.7199 -25.9100 1.1522
-12.0994 -36.1471 1.5829
-12.3371 -41.7817 1.8049
-12.3234 -48.0164 2.0496
-11.0063 -50.3190 2.1259
-9.2072 -50.7557 2.1259
-6.2105 -42.9625 1.7869
-5.6695 -52.4501 2.1697
-3.8927 -54.1336 2.2309
-1.9484 -54.2531 2.2309
-0.0005 -35.0339 2.2309
1.2559 -35.0038 2.2309
2.3936 -33.3057 2.1276
2.8326 -26.2172 1.6812
4.7688 -33.0021 2.1276
5.9437 -32.7774 2.1276
7.1015 -32.4781 2.1259
3.1118 -12.1287 0.8018
9.3846 -31.7926 2.1259
10.0106 -29.9159 2.0266
8.9677 -23.9123 1.6438
10.1724 -24.4219 1.7064
11.7483 -25.5791 1.8196
11.7434 -23.3237 1.6922
11.7391 -21.3702 1.5841
11.7353 -19.6574 1.4915
11.7320 -18.1398 1.4115
11.7290 -16.7826 1.3419
11.7263 -15.5586 1.2809
11.7239 -14.4464 1.2273
11.7216 -13.4288 1.1799
11.7196 -12.4919 1.1379
11.7177 -11.6243 1.1006
22.4641 -20.7400 2.0465
24.2819 -20.8552 2.1509
24.9140 -19.8902 2.1509
10.5582 -7.8258 0.8904
26.0580 -17.9023 2.1509
26.5692 -16.8831 2.1509
27.0393 -15.8493 2.1509
27.4684 -14.8029 2.1509
27.8561 -13.7457 2.1509
27.0908 -12.1794 2.0661
28.3064 -11.5235 2.1357
28.4628 -10.4128 2.1278
28.6833 -9.3408 2.1278
28.8637 -8.2663 2.1278
29.6149 -7.3424 2.1726
30.5148 -6.4126 2.2309
30.5793 -5.2880 2.2309
30.6032 -4.1672 2.2309
30.5869 -3.0515 2.2309
30.5313 -1.9424 2.2309
30.4367 -0.8413 2.2309
30.3040 0.2506 2.2309
22.4937 0.9943 1.6653
28.5430 2.2906 2.1277
8.6899 1.0124 0.6531
28.0449 4.2928 2.1277
28.6417 5.4429 2.1963
28.3207 6.4433 2.1978
17.8297 4.7357 1.4021
15.5336 4.7290 1.2395
27.2692 9.3841 2.2109
12.2391 4.7098 1.0096
10.7571 4.5894 0.9041
10.3098 4.8432 0.8841
22.5281 11.5880 1.9742
8.3112 4.6599 0.7454
21.4765 13.0765 1.9744
21.8790 14.4233 2.0653
21.6187 15.3932 2.0991
6.0106 4.6138 0.6014
5.8430 4.8283 0.6036
5.8468 5.1958 0.6249
18.3759 17.5508 2.0365
6.0330 6.1915 0.6949
17.2625 19.0384 2.0718
5.9614 7.0691 0.7475
5.8478 7.4626 0.7685
14.8001 20.3525 2.0448
14.1270 20.9711 2.0595
5.8431 9.3847 0.9024
13.2556 23.0997 2.1786
5.8701 11.1380 1.0319
11.6819 24.2385 2.2094
5.8347 13.3085 1.1952
5.9923 15.1233 1.3401
5.8758 16.5411 1.4481
5.8230 18.4706 1.5996
2.6088 9.4460 0.8103
5.8098 24.4238 2.0779
5.0427 25.1861 2.1276
4.1319 25.3343 2.1276
3.2176 25.4534 2.1276
2.3003 25.5434 2.1276
1.4479 26.8467 2.2309
0.4826 26.8798 2.2309
-0.4834 26.8822 2.2309
-1.4491 26.8540 2.2309
-2.4138 26.7951 2.2309
-3.3766 26.7055 2.2309
-4.3368 26.5853 2.2309
-5.2935 26.4345 2.2309
-5.9572 25.0400 2.1278
-6.8606 24.8380 2.1278
-7.7583 24.6070 2.1278
-8.6495 24.3471 2.1278
-6.2158 15.6860 1.3873
-9.8074 22.3683 2.0048
-10.1178 20.9917 1.9092
-10.9461 20.7680 1.9196
-11.2538 19.6101 1.8448
-9.7041 15.5849 1.4946
-9.8525 14.6248 1.4321
-10.0037 13.7560 1.3779
-10.1448 12.9456 1.3288
-10.2770 12.1861 1.2844
-9.5901 10.5763 1.1469
-10.5346 10.8108 1.2090
-10.5850 10.1094 1.1686
-10.6911 9.5004 1.1382
-10.8170 8.9381 1.1129
-10.9397 8.3971 1.0900
-11.0310 7.8542 1.0664
-11.1220 7.3317 1.0452
-11.2101 6.8254 1.0259
-11.2958 6.3331 1.0083
-6.2285 3.2038 0.5432
-11.4610 5.3839 0.9781
-11.5411 4.9238 0.9652
-11.5219 4.4337 0.9456
-9.7422 3.3525 0.7858
-9.7930 2.9813 0.7773
-9.8562 2.6179 0.7710
-9.9191 2.2567 0.7656
-9.9817 1.8969 0.7612
-10.0443 1.5375 0.7578
-10.1070 1.1775 0.7554
-10.1699 0.8161 0.7539
-10.2332 0.4524 0.7533
-10.2971 0.0852 0.7537
-10.3618 -0.2863 0.7551
-10.4274 -0.6633 0.7576
-10.4970 -1.0472 0.7612
-10.3658 -1.4114 0.7514
-10.5769 -1.8290 0.7672
-10.6480 -2.2375 0.7740
-10.7212 -2.6580 0.7820
-10.7967 -3.0920 0.7914
-10.9363 -3.5613 0.8067
-11.0133 -4.0289 0.8187
-11.0984 -4.5179 0.8327
-11.1874 -5.0294 0.8485
-11.2809 -5.5663 0.8663
-11.3794 -6.1322 0.8863
-11.4836 -6.7309 0.9087
-11.5944 -7.3672 0.9338
-11.7274 -8.0566 0.9631
-11.3463 -8.4096 0.9521
-10.6795 -8.5257 0.9175
-10.0538 -8.6346 0.8863
-9.5843 -8.8483 0.8691
-9.7058 -9.6280 0.9075
-9.8590 -10.5082 0.9531
-10.0300 -11.4901 1.0054
-10.2224 -12.5956 1.0658
-10.4395 -13.8505 1.1360
-10.6219 -15.1977 1.2107
-10.9868 -16.9866 1.3172
-11.4408 -19.1629 1.4492
-6.3138 -11.4931 0.8494
-10.5626 -20.9772 1.5176
-11.0668 -24.0935 1.7094
-10.0361 -24.0926 1.6792
-9.6042 -25.6073 1.7563
-9.2136 -27.5317 1.8613
-9.4113 -31.8798 2.1278
-8.2726 -32.2396 2.1278
-7.1188 -32.5526 2.1278
-5.9521 -32.8180 2.1278
-5.0059 -34.6359 2.2309
-3.7624 -34.8128 2.2309
-2.5120 -34.9383 2.2309
-1.2573 -35.0121 2.2309
-0.0005 -25.8426 2.2309
0.9262 -25.8219 2.2309
1.8511 -25.7643 2.2309
2.6444 -24.4818 2.1276
3.5187 -24.3568 2.1276
4.3868 -24.1972 2.1276
5.2202 -23.8800 2.1167
3.1105 -12.1267 1.0852
5.7172 -19.3732 1.7529
7.7620 -23.2018 2.1259
8.5770 -22.8761 2.1259
9.3774 -22.5188 2.1259
10.1620 -22.1309 2.1259
9.9610 -19.7887 1.9375
11.6789 -21.2661 2.1259
11.7353 -19.6626 2.0105
11.7320 -18.1447 1.9012
11.7290 -16.7872 1.8061
11.7263 -15.5630 1.7226
11.7239 -14.4505 1.6491
11.7217 -13.4327 1.5840
11.7196 -12.4957 1.5262
11.7177 -11.6280 1.4748
17.6367 -16.2884 2.1509
18.1562 -15.5992 2.1509
18.6476 -14.8926 2.1509
10.5571 -7.8279 1.1882
19.5445 -13.4326 2.1509
19.9491 -12.6816 2.1509
20.3242 -11.9183 2.1509
20.4457 -11.0235 2.1276
20.7573 -10.2479 2.1276
21.0390 -9.4637 2.1276
21.2906 -8.6724 2.1276
21.5121 -7.8750 2.1276
22.6340 -7.3760 2.2189
22.9259 -6.5710 2.2309
23.0637 -5.7234 2.2309
23.1701 -4.8743 2.2309
23.2455 -4.0250 2.2309
23.2901 -3.1765 2.2309
23.3041 -2.3300 2.2309
23.2878 -1.4867 2.2309
23.2416 -0.6475 2.2309
23.1659 0.1865 2.2309
21.9954 0.9675 2.1278
21.8681 1.7501 2.1278
8.6897 1.0105 0.8515
21.5331 3.2913 2.1278
21.3265 4.0481 2.1278
21.6335 4.9171 2.1822
17.4355 4.6271 1.7804
15.1680 4.6143 1.5701
13.7792 4.7387 1.4478
12.2391 4.7069 1.3071
10.7631 4.5894 1.1701
10.3098 4.8408 1.1426
19.4305 9.9900 2.1985
8.3125 4.6586 0.9618
18.6553 11.3540 2.2107
18.0978 11.9260 2.2003
17.6834 12.5865 2.2096
6.0127 4.6138 0.7736
5.8430 4.8266 0.7756
5.8466 5.1940 0.8024
15.5470 14.8443 2.2109
6.0195 6.1758 0.8891
14.3747 15.8489 2.2109
5.9630 7.0691 0.9577
5.8477 7.4605 0.9836
12.5085 17.1967 2.2109
11.8606 17.6021 2.2109
5.8431 9.3822 1.1533
10.5301 18.3457 2.2109
5.8710 11.1372 1.3179
5.9973 12.4407 1.4478
5.8343 13.3047 1.5250
5.8312 14.7134 1.6633
5.8274 16.4013 1.8313
5.8229 18.4663 2.0392
2.6093 9.4457 1.0329
4.6685 19.6220 2.1276
3.9580 19.7645 2.1276
3.2436 19.8836 2.1276
2.5260 19.9793 2.1276
1.8937 21.0246 2.2309
1.1368 21.0756 2.2309
0.3788 21.1018 2.2309
-0.3797 21.1033 2.2309
-1.1379 21.0800 2.2309
-1.8952 21.0320 2.2309
-2.6508 20.9593 2.2309
-3.4040 20.8618 2.2309
-4.1541 20.7398 2.2309
-4.9004 20.5931 2.2309
-5.6422 20.4219 2.2309
-6.0839 19.2918 2.1278
-6.7807 19.0821 2.1278
-6.2174 15.6863 1.7707
-8.1545 18.5939 2.1278
-8.8301 18.3155 2.1278
-9.4973 18.0146 2.1278
-10.3848 18.0912 2.1759
-9.7046 15.5815 1.9114
-9.8530 14.6217 1.8324
-10.0853 13.8644 1.7783
-10.1453 12.9426 1.7022
-10.3116 12.2236 1.6517
-9.5906 10.5736 1.4710
-10.1347 10.3973 1.4926
-10.2424 9.7790 1.4522
-10.3051 9.1543 1.4099
-10.5489 8.7136 1.3958
-10.9400 8.3943 1.4030
-11.0315 7.8515 1.3738
-11.1224 7.3291 1.3475
-11.2106 6.8227 1.3237
-11.2963 6.3305 1.3022
-6.2267 3.2013 0.7019
-11.4615 5.3813 1.2654
-11.5416 4.9212 1.2499
-11.6203 4.4688 1.2362
-9.7425 3.3503 1.0195
-9.7933 2.9792 1.0096
-9.8566 2.6157 1.0024
-9.9195 2.2545 0.9964
-9.9821 1.8947 0.9917
-10.0447 1.5353 0.9883
-10.1073 1.1753 0.9862
-10.1703 0.8140 0.9853
-10.2336 0.4501 0.9857
-10.2975 0.0830 0.9873
-10.3622 -0.2886 0.9903
-10.4278 -0.6656 0.9946
-10.5003 -1.0498 1.0008
-10.3634 -1.4133 0.9883
-10.5773 -1.8313 1.0107
-10.6484 -2.2400 1.0208
-10.7216 -2.6605 1.0326
-10.7972 -3.0945 1.0461
-10.9431 -3.5660 1.0682
-11.0137 -4.0316 1.0847
-11.0989 -4.5207 1.1045
-11.1879 -5.0323 1.1267
-11.2814 -5.5693 1.1516
-11.3799 -6.1353 1.1794
-11.4842 -6.7341 1.2105
-11.5949 -7.3705 1.2453
-11.7282 -8.0602 1.2858
-11.3430 -8.4102 1.2719
-10.6765 -8.5262 1.2270
-10.0511 -8.6350 1.1865
-9.5847 -8.8515 1.1649
-9.7064 -9.6316 1.2175
-9.8597 -10.5120 1.2798
-10.0307 -11.4942 1.3513
-10.3511 -12.7576 1.4516
-10.2265 -13.5715 1.4979
-10.0899 -14.4401 1.5493
-10.1305 -15.6666 1.6374
-11.3358 -18.9916 1.9372
-6.3119 -11.4924 1.1463
-10.5610 -20.9789 2.0496
-10.4228 -22.6966 2.1759
-9.4041 -22.5805 2.1278
-8.6001 -22.9351 2.1278
-7.7818 -23.2580 2.1278
-6.9504 -23.5485 2.1278
-6.1073 -23.8060 2.1278
-5.5085 -25.1941 2.2309
-4.6046 -25.3933 2.2309
-3.6930 -25.5564 2.2309
-2.7752 -25.6831 2.2309
-1.8528 -25.7732 2.2309
-0.9274 -25.8264 2.2309
-0.0005 -20.4552 2.2309
0.7329 -20.4395 2.2309
1.4649 -20.3951 2.2309
2.1945 -20.3223 2.2309
2.7853 -19.2852 2.1276
3.4730 -19.1618 2.1276
4.1550 -19.0117 2.1276
3.1093 -12.1248 1.3696
5.4974 -18.6330 2.1276
6.1558 -18.4051 2.1276
5.1906 -13.8474 1.6231
6.0554 -14.5451 1.7314
8.0603 -17.5581 2.1259
8.6723 -17.2330 2.1259
9.2705 -16.8850 2.1259
9.8540 -16.5148 2.1259
9.1292 -14.1230 1.8622
10.9736 -15.7103 2.1259
11.5080 -15.2776 2.1259
11.7239 -14.4547 2.0727
11.7217 -13.4367 1.9899
11.7196 -12.4995 1.9163
11.7177 -11.6317 1.8506
14.0630 -12.9922 2.1509
14.1135 -12.1300 2.0956
14.4617 -11.5538 2.0895
10.5561 -7.8301 1.4873
15.4534 -10.6251 2.1276
15.7836 -10.0377 2.1276
16.0908 -9.4400 2.1276
16.3749 -8.8328 2.1276
16.6356 -8.2171 2.1276
16.9066 -7.6090 2.1319
17.9155 -7.3019 2.2309
18.1143 -6.6354 2.2309
18.2882 -5.9640 2.2309
18.4369 -5.2886 2.2309
18.5607 -4.6102 2.2309
18.6594 -3.9296 2.2309
18.7333 -3.2478 2.2309
18.7823 -2.5658 2.2309
18.8067 -1.8845 2.2309
18.8067 -1.2047 2.2309
18.7823 -0.5273 2.2309
18.7340 0.1468 2.2309
17.7996 0.7790 2.1278
17.7083 1.4133 2.1278
8.6895 1.0086 1.0508
17.4598 2.6649 2.1277
17.3034 3.2806 2.1277
17.1259 3.8887 2.1277
16.9278 4.4886 2.1277
15.1795 4.6144 1.9328
13.3974 4.6043 1.7305
11.9583 4.5962 1.5691
10.7691 4.5895 1.4376
10.3098 4.8383 1.4022
15.9314 8.1871 2.2109
8.3138 4.6573 1.1791
15.2283 9.2645 2.2109
14.8509 9.7825 2.2109
14.4568 10.2861 2.2109
6.0148 4.6137 0.9467
5.8429 4.8250 0.9484
5.8464 5.1921 0.9806
12.7263 12.1474 2.2109
6.0213 6.1758 1.0860
11.7764 12.9805 2.2109
5.9647 7.0691 1.1688
5.8475 7.4582 1.1997
10.2589 14.1002 2.2109
9.7307 14.4375 2.2109
5.8430 9.3797 1.4053
5.8433 10.1779 1.4945
5.8392 11.0742 1.5963
5.8369 12.1052 1.7156
5.8342 13.3015 1.8562
5.8311 14.7099 2.0242
5.5645 15.6579 2.1277
4.9942 15.8351 2.1277
2.6097 9.4454 1.2566
3.8389 16.1316 2.1277
3.2550 16.2508 2.1278
2.6677 16.3504 2.1278
2.1784 17.2264 2.2309
1.5575 17.2895 2.2309
0.9350 17.3320 2.2309
0.3115 17.3537 2.2309
-0.3124 17.3547 2.2309
-0.9360 17.3350 2.2309
-1.5588 17.2946 2.2309
-2.1801 17.2334 2.2309
-2.7993 17.1517 2.2309
-3.4158 17.0493 2.2309
-4.0289 16.9264 2.2309
-4.6380 16.7831 2.2309
-5.2424 16.6194 2.2309
-5.7998 16.3175 2.2149
-6.1377 15.4814 2.1278
-6.6975 15.2678 2.1278
-7.2505 15.0353 2.1278
-7.7962 14.7842 2.1278
-8.3339 14.5145 2.1278
-8.8630 14.2265 2.1278
-9.3830 13.9205 2.1278
-10.0176 13.7674 2.1545
-10.1520 12.9474 2.0784
-10.2780 12.1802 2.0096
-9.5911 10.5709 1.7964
-9.9885 10.2441 1.7973
-10.0946 9.6347 1.7494
-10.1957 9.0541 1.7058
-10.4393 8.6200 1.6900
-10.9404 8.3915 1.7173
-11.0686 7.8749 1.6880
-11.1598 7.3508 1.6567
-11.2110 6.8201 1.6229
-11.2967 6.3279 1.5974
-6.2248 3.1988 0.8612
-11.5000 5.3966 1.5592
-11.5420 4.9187 1.5359
-11.6208 4.4663 1.5199
-9.7428 3.3482 1.2543
-9.7937 2.9770 1.2429
-9.8570 2.6136 1.2348
-9.9199 2.2524 1.2282
-9.9825 1.8926 1.2233
-10.0451 1.5331 1.2199
-10.1077 1.1732 1.2181
-10.1706 0.8117 1.2178
-10.2340 0.4479 1.2191
-10.2979 0.0807 1.2219
-10.3626 -0.2909 1.2265
-10.4282 -0.6679 1.2326
-10.5008 -1.0521 1.2412
-10.3638 -1.4157 1.2266
-10.5222 -1.8241 1.2486
-10.5930 -2.2307 1.2620
-10.6658 -2.6490 1.2775
-10.7410 -3.0808 1.2951
-10.9434 -3.5686 1.3303
-11.0142 -4.0343 1.3518
-11.0994 -4.5235 1.3774
-11.1884 -5.0352 1.4061
-11.2819 -5.5723 1.4381
-11.4914 -6.1982 1.4882
-11.5966 -6.8030 1.5285
-11.5955 -7.3738 1.5582
-11.7290 -8.0638 1.6099
-11.3397 -8.4107 1.5929
-10.6735 -8.5267 1.5376
-10.0483 -8.6355 1.4877
-9.5851 -8.8546 1.4619
-9.7070 -9.6351 1.5289
-9.9837 -10.6473 1.6282
-10.0314 -11.4982 1.6986
-10.3519 -12.7621 1.8257
-10.2241 -13.5719 1.8843
-9.6360 -13.7942 1.8626
-9.7018 -15.0075 1.9748
-10.1062 -16.9359 2.1759
-6.3100 -11.4917 1.4442
-8.6958 -17.2778 2.1278
-8.0812 -17.6016 2.1278
-7.4539 -17.9018 2.1278
-6.8147 -18.1776 2.1278
-6.1646 -18.4287 2.1278
-5.7223 -19.3919 2.2119
-5.0704 -19.7681 2.2309
-4.3612 -19.9505 2.2309
-3.6450 -20.1053 2.2309
-2.9231 -20.2321 2.2309
-2.1964 -20.3306 2.2309
-1.4663 -20.4007 2.2309
-0.7340 -20.4423 2.2309
-0.0005 -16.9122 2.2309
0.6057 -16.8996 2.2309
1.2109 -16.8636 2.2309
1.8142 -16.8044 2.2309
2.3027 -15.9481 2.1276
2.8716 -15.8476 2.1276
3.4359 -15.7254 2.1276
3.0889 -12.0481 1.6451
4.5474 -15.4168 2.1276
5.0929 -15.2309 2.1276
5.2356 -13.9711 1.9785
6.1540 -14.7856 2.1259
6.6727 -14.5392 2.1259
7.1812 -14.2736 2.1259
7.6785 -13.9891 2.1259
8.1641 -13.6862 2.1259
8.6371 -13.3654 2.1259
9.0971 -13.0275 2.1259
9.5432 -12.6728 2.1259
9.9750 -12.3020 2.1259
10.3918 -11.9159 2.1259
10.7931 -11.5149 2.1259
11.1784 -11.0998 2.1259
11.5566 -10.6801 2.1276
11.9087 -10.2386 2.1276
12.2434 -9.7850 2.1276
10.5554 -7.8325 1.7880
12.8591 -8.8448 2.1276
13.1395 -8.3597 2.1276
13.4011 -7.8655 2.1276
13.7356 -7.4126 2.1420
14.5402 -7.1857 2.2309
14.7542 -6.6439 2.2309
14.9478 -6.0959 2.2309
15.1207 -5.5424 2.2309
15.2730 -4.9843 2.2309
15.4045 -4.4223 2.2309
15.5152 -3.8572 2.2309
15.6051 -3.2899 2.2309
15.6743 -2.7210 2.2309
15.7228 -2.1514 2.2309
15.7507 -1.5818 2.2309
15.7581 -1.0129 2.2309
15.7451 -0.4455 2.2309
15.7120 0.1196 2.2309
15.0200 0.6541 2.1399
14.8655 1.1832 2.1278
8.6893 1.0066 1.2512
14.6704 2.2359 2.1277
14.5454 2.7545 2.1277
14.4026 3.2671 2.1277
14.2423 3.7733 2.1277
14.0647 4.2723 2.1277
13.4066 4.6044 2.0565
11.9657 4.5962 1.8638
10.7752 4.5895 1.7068
9.7726 4.5839 1.5765
8.9590 4.6018 1.4741
8.3152 4.6559 1.3977
12.8533 7.8163 2.2109
12.5392 8.2565 2.2109
6.6889 4.7574 1.2111
6.0169 4.6137 1.1208
5.8429 4.8233 1.1221
5.8461 5.1902 1.1598
10.7631 10.2703 2.2109
6.0231 6.1758 1.2841
9.9655 10.9812 2.2109
5.9664 7.0691 1.3813
5.8472 7.4558 1.4169
5.8530 8.0425 1.4895
5.8445 8.6693 1.5677
5.8429 9.3772 1.6587
5.8411 10.1715 1.7629
5.8391 11.0714 1.8833
5.8368 12.1022 2.0237
5.6702 12.9245 2.1277
5.1976 13.1088 2.1277
4.7194 13.2770 2.1277
4.2362 13.4289 2.1277
2.6102 9.4452 1.4816
3.2569 13.6831 2.1278
2.7617 13.7853 2.1278
2.2636 13.8707 2.1278
1.8484 14.6144 2.2309
1.3216 14.6685 2.2309
0.7934 14.7048 2.2309
0.2643 14.7233 2.2309
-0.2652 14.7241 2.2309
-0.7944 14.7070 2.2309
-1.3228 14.6721 2.2309
-1.8499 14.6195 2.2309
-2.3751 14.5491 2.2309
-2.8979 14.4611 2.2309
-3.4178 14.3554 2.2309
-3.9340 14.2323 2.2309
-4.4462 14.0917 2.2309
-4.9537 13.9338 2.2309
-5.4561 13.7587 2.2309
-5.7930 13.2024 2.1710
-6.1454 12.7403 2.1278
-6.6066 12.5250 2.1278
-7.0607 12.2939 2.1278
-7.5074 12.0473 2.1278
-7.9460 11.7853 2.1278
-8.3760 11.5081 2.1278
-8.7970 11.2161 2.1278
-9.2085 10.9094 2.1278
-9.5927 10.5695 2.1240
-9.7012 9.9462 2.0641
-9.7647 9.3169 2.0016
-10.0502 8.9219 1.9895
-10.4354 8.6138 1.9995
-10.9431 8.3905 2.0338
-11.0324 7.8462 1.9928
-11.1234 7.3238 1.9565
-11.2115 6.8175 1.9237
-11.2972 6.3253 1.8942
-6.2239 3.1968 1.0214
-11.5553 5.4197 1.8591
-11.5425 4.9161 1.8234
-11.6212 4.4637 1.8052
-9.7430 3.3460 1.4904
-9.7941 2.9749 1.4774
-9.8574 2.6114 1.4684
-10.0169 2.2722 1.4755
-10.0802 1.9088 1.4703
-10.1433 1.5459 1.4668
-10.2066 1.1824 1.4653
-10.1710 0.8095 1.4515
-10.2344 0.4457 1.4537
-10.3986 0.0792 1.4721
-10.4640 -0.2960 1.4782
-10.5302 -0.6768 1.4863
-10.5013 -1.0545 1.4829
-10.1940 -1.3947 1.4421
-10.1655 -1.7645 1.4425
-10.2338 -2.1573 1.4587
-10.3042 -2.5615 1.4772
-10.3768 -2.9788 1.4984
-10.4520 -3.4107 1.5223
-11.1220 -4.0764 1.6362
-11.2080 -4.5704 1.6680
-11.1889 -5.0381 1.6870
-11.2824 -5.5753 1.7262
-11.4919 -6.2013 1.7872
-11.5972 -6.8062 1.8363
-11.5961 -7.3772 1.8728
-11.7298 -8.0674 1.9358
-11.3364 -8.4113 1.9155
-10.6705 -8.5272 1.8497
-10.0455 -8.6360 1.7904
-9.5855 -8.8578 1.7606
-9.7077 -9.6386 1.8420
-9.8610 -10.5195 1.9380
-10.0403 -11.5117 2.0496
-10.2306 -12.6160 2.1759
-9.5707 -12.7079 2.1278
-9.1225 -13.0624 2.1278
-8.6605 -13.4001 2.1278
-8.1854 -13.7204 2.1278
-6.2663 -11.4149 1.7321
-7.1987 -14.3065 2.1278
-6.6884 -14.5713 2.1278
-6.1679 -14.8167 2.1278
-5.7359 -15.3034 2.1648
-5.3463 -15.9859 2.2309
-4.7733 -16.1793 2.2309
-4.1929 -16.3506 2.2309
-3.6061 -16.4996 2.2309
-3.0137 -16.6260 2.2309
-2.4166 -16.7295 2.2309
-1.8158 -16.8100 2.2309
-1.2122 -16.8674 2.2309
-0.6068 -16.9015 2.2309
-0.0005 -14.4026 2.2309
0.5157 -14.3921 2.2309
1.0310 -14.3619 2.2309
1.5447 -14.3121 2.2309
2.0560 -14.2428 2.2309
2.4454 -13.4990 2.1276
2.9262 -13.3960 2.1276
3.0850 -12.0360 1.9291
3.8737 -13.1359 2.1276
4.3389 -12.9792 2.1276
4.7974 -12.8050 2.1276
5.2487 -12.6137 2.1276
5.6921 -12.4056 2.1276
6.1268 -12.1811 2.1276
6.5470 -11.9308 2.1259
6.9624 -11.6748 2.1259
7.3674 -11.4036 2.1259
7.7614 -11.1177 2.1259
8.1506 -10.8265 2.1276
8.5214 -10.5124 2.1276
8.8796 -10.1850 2.1276
9.2249 -9.8449 2.1276
9.5567 -9.4926 2.1276
9.8747 -9.1288 2.1276
10.1784 -8.7540 2.1276
10.4675 -8.3687 2.1276
10.5547 -7.8349 2.0906
11.0005 -7.5694 2.1276
11.6375 -7.4072 2.2021
12.0280 -7.0627 2.2309
12.2497 -6.6138 2.2309
12.4544 -6.1580 2.2309
12.6418 -5.6958 2.2309
12.8119 -5.2279 2.2309
12.9645 -4.7551 2.2309
13.0994 -4.2780 2.2309
13.2167 -3.7973 2.2309
13.3162 -3.3136 2.2309
13.3980 -2.8276 2.2309
13.4620 -2.3400 2.2309
13.5083 -1.8514 2.2309
13.5369 -1.3625 2.2309
13.5479 -0.8738 2.2309
13.5414 -0.3862 2.2309
13.5174 0.0999 2.2309
13.4763 0.5838 2.2309
12.7979 1.0158 2.1278
8.6718 1.0027 1.4499
12.6383 1.9233 2.1278
12.5348 2.3709 2.1277
12.4157 2.8136 2.1277
12.2814 3.2510 2.1277
12.1321 3.6824 2.1277
11.9681 4.1075 2.1277
11.7896 4.5258 2.1277
10.7813 4.5895 1.9780
9.7777 4.5839 1.8264
8.9189 4.5790 1.6988
8.2451 4.6147 1.6039
7.5893 4.6132 1.5103
7.1300 4.6929 1.4541
10.5598 7.5077 2.2109
6.0190 4.6136 1.2962
5.8428 4.8216 1.2968
5.8459 5.1883 1.3401
9.3167 8.8872 2.2109
5.9049 6.0527 1.4541
5.8477 6.4419 1.4981
5.8419 6.9197 1.5615
5.8471 7.4537 1.6355
5.8458 8.0304 1.7169
5.8444 8.6669 1.8089
5.8428 9.3748 1.9136
5.8410 10.1689 2.0336
5.7194 10.8419 2.1277
5.3213 11.0309 2.1277
4.9174 11.2060 2.1277
4.5080 11.3671 2.1277
4.0937 11.5142 2.1277
3.6749 11.6469 2.1278
2.6107 9.4449 1.7081
2.8257 11.8692 2.1278
2.3962 11.9585 2.1278
2.0592 12.6161 2.2309
1.6039 12.6788 2.2309
1.1468 12.7261 2.2309
0.6884 12.7578 2.2309
0.2293 12.7739 2.2309
-0.2302 12.7744 2.2309
-0.6894 12.7594 2.2309
-1.1479 12.7288 2.2309
-1.6053 12.6826 2.2309
-2.0609 12.6209 2.2309
-2.5144 12.5438 2.2309
-2.9651 12.4513 2.2309
-3.4128 12.3434 2.2309
-3.8567 12.2203 2.2309
-4.2965 12.0821 2.2309
-4.7317 11.9289 2.2309
-5.1617 11.7608 2.2309
-5.5862 11.5780 2.2309
-5.7905 10.9751 2.1514
-6.1198 10.6528 2.1278
-6.5059 10.4374 2.1278
-6.8848 10.2085 2.1278
-7.2561 9.9666 2.1278
-7.6193 9.7118 2.1278
-7.9741 9.4443 2.1278
-8.3199 9.1643 2.1278
-8.6564 8.8723 2.1278
-8.9831 8.5683 2.1278
-9.2997 8.2528 2.1278
-9.6056 7.9260 2.1278
-10.1243 7.7598 2.1759
-10.4143 7.4037 2.1759
-10.6922 7.0370 2.1759
-10.9577 6.6603 2.1759
-11.2103 6.2738 2.1759
-6.2238 3.1951 1.1828
-11.4759 5.3797 2.1386
-11.5536 4.9180 2.1147
-11.6303 4.4644 2.0939
-9.7433 3.3438 1.7280
-9.7945 2.9727 1.7135
-9.8577 2.6093 1.7036
-10.0173 2.2700 1.7124
-10.0805 1.9066 1.7068
-10.1437 1.5436 1.7034
-10.2070 1.1801 1.7022
-10.1714 0.8073 1.6868
-10.2348 0.4434 1.6899
-10.3990 0.0769 1.7118
-10.4644 -0.2984 1.7195
-10.5306 -0.6791 1.7295
-10.5018 -1.0569 1.7262
-10.1867 -1.3960 1.6780
-9.9876 -1.7359 1.6508
-10.0548 -2.1219 1.6699
-10.1239 -2.5190 1.6917
-10.1953 -2.9290 1.7165
-10.2692 -3.3535 1.7445
-11.1225 -4.0792 1.9092
-11.1343 -4.5430 1.9340
-11.1894 -5.0410 1.9698
-11.2850 -5.5793 2.0166
-11.3899 -6.1491 2.0694
-11.5015 -6.7530 2.1283
-11.5251 -7.3350 2.1759
-11.2752 -7.7577 2.1759
-11.0093 -8.1716 2.1759
-10.6674 -8.5278 2.1636
-10.0428 -8.6365 2.0949
-9.5933 -8.8679 2.0628
-9.5763 -9.5111 2.1278
-9.2432 -9.8634 2.1278
-8.8967 -10.2035 2.1278
-8.5372 -10.5307 2.1278
-8.1652 -10.8446 2.1278
-7.7811 -11.1447 2.1278
-7.3856 -11.4304 2.1278
-6.9791 -11.7012 2.1278
-6.2579 -11.4022 2.0291
-6.1356 -12.1967 2.1278
-5.7458 -12.5206 2.1450
-5.5101 -13.2394 2.2309
-5.0360 -13.4390 2.2309
-4.5543 -13.6206 2.2309
-4.0657 -13.7838 2.2309
-3.5710 -13.9284 2.2309
-3.0710 -14.0542 2.2309
-2.5663 -14.1608 2.2309
-2.0578 -14.2482 2.2309
-1.5461 -14.3162 2.2309
-1.0322 -14.3647 2.2309
-0.5167 -14.3935 2.2309
-0.0005 -12.5303 2.2309
0.4485 -12.5213 2.2309
0.8967 -12.4953 2.2309
1.3436 -12.4524 2.2309
1.7884 -12.3926 2.2309
2.2306 -12.3160 2.2309
2.5824 -11.8250 2.1583
2.9604 -11.5527 2.1276
3.3706 -11.4327 2.1276
3.7757 -11.2973 2.1276
4.1752 -11.1469 2.1276
4.5684 -10.9816 2.1276
4.9549 -10.8018 2.1276
5.3341 -10.6077 2.1276
5.7054 -10.3998 2.1276
6.0682 -10.1782 2.1276
6.4222 -9.9434 2.1276
6.7668 -9.6958 2.1276
7.1015 -9.4357 2.1276
7.4259 -9.1636 2.1276
7.7395 -8.8800 2.1276
8.0420 -8.5852 2.1276
8.3330 -8.2798 2.1276
8.6120 -7.9641 2.1276
8.8878 -7.6466 2.1298
9.2862 -7.4270 2.1634
9.8291 -7.2990 2.2309
10.0682 -6.9307 2.2309
10.2933 -6.5544 2.2309
10.5041 -6.1706 2.2309
10.7003 -5.7800 2.2309
10.8817 -5.3831 2.2309
11.0482 -4.9805 2.2309
11.1997 -4.5728 2.2309
11.3359 -4.1605 2.2309
11.4568 -3.7443 2.2309
11.5623 -3.3247 2.2309
11.6524 -2.9023 2.2309
11.7270 -2.4776 2.2309
11.7861 -2.0514 2.2309
11.8297 -1.6240 2.2309
11.8578 -1.1961 2.2309
11.8705 -0.7683 2.2309
11.8679 -0.3411 2.2309
11.8500 0.0850 2.2309
11.8169 0.5093 2.2309
11.2250 0.8884 2.1278
8.6146 0.9941 1.6418
11.0906 1.6853 2.1278
11.0025 2.0786 2.1278
10.9007 2.4678 2.1277
10.7854 2.8525 2.1277
10.6569 3.2322 2.1277
10.5152 3.6065 2.1277
10.3608 3.9749 2.1277
10.1938 4.3370 2.1277
9.7828 4.5839 2.0784
8.9233 4.5791 1.9327
8.2489 4.6147 1.8243
7.5925 4.6132 1.7175
7.0098 4.6120 1.6246
6.4877 4.6108 1.5433
6.0211 4.6136 1.4730
5.8427 4.8198 1.4729
5.8457 5.1864 1.5218
5.8449 5.5737 1.5748
5.8439 5.9884 1.6336
5.8429 6.4347 1.6990
5.8419 6.9176 1.7720
5.8471 7.4515 1.8558
5.8458 8.0282 1.9478
5.8443 8.6645 2.0520
5.7275 9.1874 2.1277
5.3887 9.3790 2.1277
5.0437 9.5587 2.1277
4.6931 9.7263 2.1277
4.3373 9.8817 2.1277
3.9765 10.0247 2.1277
3.6113 10.1551 2.1278
3.2421 10.2730 2.1278
2.6112 9.4446 1.9364
2.4932 10.4702 2.1278
2.2167 11.0606 2.2309
1.8170 11.1300 2.2309
1.4153 11.1856 2.2309
1.0119 11.2276 2.2309
0.6075 11.2557 2.2309
0.2023 11.2699 2.2309
-0.2032 11.2704 2.2309
-0.6084 11.2569 2.2309
-1.0130 11.2297 2.2309
-1.4165 11.1886 2.2309
-1.8185 11.1337 2.2309
-2.2185 11.0652 2.2309
-2.6161 10.9829 2.2309
-3.0109 10.8871 2.2309
-3.4023 10.7777 2.2309
-3.7899 10.6549 2.2309
-4.1734 10.5189 2.2309
-4.5523 10.3697 2.2309
-4.9261 10.2074 2.2309
-5.2945 10.0322 2.2309
-5.6569 9.8444 2.2309
-5.7887 9.2843 2.1477
-6.0684 8.9955 2.1278
-6.3947 8.7810 2.1278
-6.7138 8.5551 2.1278
-7.0254 8.3181 2.1278
-7.3289 8.0702 2.1278
-7.6240 7.8116 2.1278
-7.9104 7.5426 2.1278
-8.1876 7.2635 2.1278
-8.4554 6.9744 2.1278
-8.7133 6.6759 2.1278
-8.9611 6.3681 2.1278
-9.1984 6.0514 2.1278
-9.4248 5.7260 2.1278
-9.6400 5.3925 2.1278
-6.2237 3.1935 1.3453
-10.2627 4.8084 2.1759
-10.4467 4.4443 2.1759
-10.6181 4.0733 2.1759
-9.7436 3.3416 1.9673
-9.7949 2.9705 1.9514
-9.8581 2.6071 1.9405
-9.9301 2.2479 1.9340
-10.0229 1.8934 1.9340
-10.1033 1.5352 1.9340
-10.1710 1.1737 1.9340
-10.1718 0.8050 1.9238
-10.2351 0.4412 1.9279
-10.2991 0.0739 1.9345
-10.3638 -0.2978 1.9437
-10.4294 -0.6749 1.9556
-10.5024 -1.0593 1.9714
-10.1794 -1.3973 1.9153
-9.8142 -1.7080 1.8534
-9.8802 -2.0873 1.8753
-9.9482 -2.4776 1.9003
-10.0183 -2.8804 1.9287
-10.0909 -3.2976 1.9606
-11.0352 -4.0498 2.1669
-10.9474 -4.4693 2.1759
-10.7990 -4.8677 2.1759
-10.6360 -5.2610 2.1759
-10.4583 -5.6487 2.1759
-10.2662 -6.0303 2.1759
-10.0598 -6.4050 2.1759
-9.6220 -6.6229 2.1278
-9.3930 -6.9745 2.1278
-9.1509 -7.3180 2.1278
-8.8958 -7.6527 2.1278
-8.6281 -7.9782 2.1278
-8.3481 -8.2939 2.1278
-8.0562 -8.5993 2.1278
-7.7528 -8.8941 2.1278
-7.4382 -9.1776 2.1278
-7.1128 -9.4495 2.1278
-6.7772 -9.7093 2.1278
-6.4317 -9.9566 2.1278
-6.0768 -10.1910 2.1278
-5.7509 -10.4810 2.1419
-5.5998 -11.1341 2.2309
-5.2014 -11.3370 2.2309
-4.7954 -11.5248 2.2309
-4.3823 -11.6974 2.2309
-3.9628 -11.8543 2.2309
-3.5374 -11.9954 2.2309
-3.1068 -12.1203 2.2309
-2.6716 -12.2290 2.2309
-2.2325 -12.3212 2.2309
-1.7900 -12.3967 2.2309
-1.3449 -12.4555 2.2309
-0.8979 -12.4974 2.2309
-0.4495 -12.5223 2.2309
-0.0005 -11.0785 2.2309
0.3964 -11.0706 2.2309
0.7926 -11.0478 2.2309
1.1877 -11.0101 2.2309
1.5809 -10.9577 2.2309
1.9719 -10.8905 2.2309
2.3599 -10.8087 2.2309
2.7444 -10.7124 2.2309
3.0961 -10.5044 2.2104
3.3922 -10.1525 2.1618
3.6922 -9.8599 2.1276
4.0403 -9.7146 2.1276
4.3825 -9.5565 2.1276
4.7184 -9.3858 2.1276
5.0473 -9.2027 2.1276
5.3690 -9.0078 2.1276
5.6828 -8.8011 2.1276
5.9885 -8.5830 2.1276
6.2856 -8.3540 2.1276
6.5736 -8.1143 2.1276
6.8522 -7.8643 2.1276
7.1475 -7.6326 2.1355
7.5575 -7.5117 2.1789
7.9984 -7.3992 2.2309
8.2475 -7.0983 2.2309
8.4850 -6.7887 2.2309
8.7107 -6.4710 2.2309
8.9242 -6.1457 2.2309
9.1254 -5.8131 2.2309
9.3140 -5.4739 2.2309
9.4897 -5.1285 2.2309
9.6525 -4.7775 2.2309
9.8021 -4.4212 2.2309
9.9384 -4.0602 2.2309
10.0612 -3.6951 2.2309
10.1706 -3.3263 2.2309
10.2663 -2.9544 2.2309
10.3484 -2.5799 2.2309
10.4168 -2.2032 2.2309
10.4714 -1.8249 2.2309
10.5123 -1.4455 2.2309
10.5394 -1.0655 2.2309
10.5529 -0.6854 2.2309
10.5527 -0.3057 2.2309
10.5389 0.0732 2.2309
10.5116 0.4507 2.2309
9.9870 0.7882 2.1278
8.6061 0.9912 1.8431
9.8714 1.4978 2.1278
9.7949 1.8482 2.1278
9.7062 2.1952 2.1277
9.6054 2.5382 2.1277
9.4927 2.8769 2.1277
9.3683 3.2109 2.1277
9.2324 3.5398 2.1277
9.0853 3.8632 2.1277
8.9270 4.1807 2.1277
8.7580 4.4920 2.1277
8.2526 4.6147 2.0468
7.5958 4.6132 1.9265
7.0126 4.6120 1.8221
6.4902 4.6108 1.7306
6.0232 4.6135 1.6514
5.8427 4.8181 1.6505
5.8457 5.1846 1.7050
5.8448 5.5719 1.7642
5.8439 5.9865 1.8298
5.8429 6.4327 1.9028
5.8418 6.9156 1.9843
5.8470 7.4494 2.0779
5.7034 7.8306 2.1277
5.4132 8.0233 2.1277
5.1168 8.2057 2.1277
4.8145 8.3777 2.1277
4.5068 8.5389 2.1277
4.1938 8.6894 2.1277
3.8761 8.8289 2.1277
3.5539 8.9573 2.1278
3.2277 9.0744 2.1278
2.8979 9.1803 2.1278
2.5647 9.2746 2.1278
2.2494 9.4445 2.1476
1.9816 9.8853 2.2309
1.6243 9.9477 2.2309
1.2652 9.9977 2.2309
0.9046 10.0353 2.2309
0.5430 10.0605 2.2309
0.1808 10.0733 2.2309
-0.1817 10.0737 2.2309
-0.5440 10.0615 2.2309
-0.9057 10.0370 2.2309
-1.2664 10.0000 2.2309
-1.6257 9.9507 2.2309
-1.9832 9.8890 2.2309
-2.3385 9.8151 2.2309
-2.6912 9.7289 2.2309
-3.0409 9.6306 2.2309
-3.3872 9.5203 2.2309
-3.7297 9.3980 2.2309
-4.0680 9.2640 2.2309
-4.4016 9.1182 2.2309
-4.7304 8.9609 2.2309
-5.0537 8.7923 2.2309
-5.3713 8.6124 2.2309
-5.6827 8.4215 2.2309
-5.7873 7.9447 2.1562
-5.9997 7.6429 2.1294
-6.2727 7.4247 2.1278
-6.5429 7.2025 2.1278
-6.8054 6.9707 2.1278
-7.0601 6.7296 2.1278
-7.3065 6.4796 2.1278
-7.5443 6.2207 2.1278
-7.7733 5.9534 2.1278
-7.9931 5.6779 2.1278
-8.2034 5.3946 2.1278
-8.4039 5.1036 2.1278
-8.5944 4.8053 2.1278
-6.1604 3.1595 1.4939
-8.9441 4.1883 2.1278
-9.1029 3.8703 2.1278
-9.2505 3.5464 2.1278
-9.3868 3.2170 2.1278
-9.5117 2.8824 2.1278
-9.6247 2.5431 2.1278
-9.7258 2.1994 2.1278
-10.0019 1.8872 2.1684
-10.0642 1.5270 2.1650
-10.1270 1.1663 2.1644
-10.1902 0.8042 2.1667
-10.2543 0.4397 2.1718
-10.3002 0.0716 2.1759
-10.3137 -0.2987 2.1759
-10.3139 -0.6698 2.1759
-10.3008 -1.0413 2.1759
-10.1720 -1.3986 2.1542
-9.6386 -1.6796 2.0493
-9.7034 -2.0521 2.0739
-9.7702 -2.4355 2.1020
-9.8390 -2.8312 2.1337
-9.7200 -3.1786 2.1278
-9.6153 -3.5310 2.1278
-9.4977 -3.8798 2.1278
-9.3672 -4.2246 2.1278
-9.2240 -4.5649 2.1278
-9.0682 -4.9002 2.1278
-8.8999 -5.2301 2.1278
-8.7195 -5.5540 2.1278
-8.5270 -5.8714 2.1278
-8.3226 -6.1820 2.1278
-8.1067 -6.4852 2.1278
-7.8794 -6.7807 2.1278
-7.6411 -7.0678 2.1278
-7.3920 -7.3463 2.1278
-7.1325 -7.6156 2.1278
-6.8629 -7.8755 2.1278
-6.5835 -8.1253 2.1278
-6.2947 -8.3649 2.1278
-5.9969 -8.5937 2.1278
-5.7507 -8.9047 2.1503
-5.6364 -9.4548 2.2309
-5.2985 -9.6589 2.2309
-4.9529 -9.8503 2.2309
-4.6001 -10.0288 2.2309
-4.2407 -10.1941 2.2309
-3.8751 -10.3458 2.2309
-3.5039 -10.4839 2.2309
-3.1276 -10.6079 2.2309
-2.7467 -10.7179 2.2309
-2.3619 -10.8134 2.2309
-1.9736 -10.8945 2.2309
-1.5824 -10.9609 2.2309
-1.1889 -11.0126 2.2309
-0.7937 -11.0494 2.2309
-0.3974 -11.0714 2.2309
-0.0005 -9.9188 2.2309
0.3548 -9.9118 2.2309
0.7095 -9.8915 2.2309
1.0631 -9.8580 2.2309
1.4152 -9.8113 2.2309
1.7652 -9.7515 2.2309
2.1126 -9.6786 2.2309
2.4569 -9.5928 2.2309
2.7977 -9.4943 2.2309
3.1344 -9.3831 2.2309
3.4665 -9.2596 2.2309
3.7936 -9.1238 2.2309
4.1153 -8.9760 2.2309
4.4310 -8.8164 2.2309
4.7403 -8.6453 2.2309
5.0428 -8.4629 2.2309
5.3382 -8.2696 2.2309
5.6259 -8.0656 2.2309
5.9056 -7.8512 2.2309
6.1769 -7.6269 2.2309
6.4394 -7.3928 2.2309
6.6929 -7.1495 2.2309
6.9370 -6.8972 2.2309
7.1714 -6.6364 2.2309
7.3957 -6.3674 2.2309
7.6097 -6.0906 2.2309
7.8132 -5.8065 2.2309
8.0059 -5.5155 2.2309
8.1875 -5.2179 2.2309
8.3579 -4.9143 2.2309
8.5169 -4.6050 2.2309
8.6643 -4.2906 2.2309
8.8000 -3.9714 2.2309
8.9238 -3.6479 2.2309
9.0355 -3.3206 2.2309
9.1352 -2.9899 2.2309
9.2227 -2.6563 2.2309
9.2979 -2.3202 2.2309
9.3609 -1.9821 2.2309
9.4115 -1.6424 2.2309
9.4498 -1.3016 2.2309
9.4758 -0.9602 2.2309
9.4894 -0.6185 2.2309
9.4908 -0.2771 2.2309
9.4800 0.0637 2.2309
9.4570 0.4033 2.2309
8.9865 0.7072 2.1278
8.5975 0.9883 2.0459
8.8853 1.3461 2.1278
8.8179 1.6618 2.1278
8.7394 1.9745 2.1278
8.6500 2.2837 2.1277
8.5498 2.5891 2.1277
8.4390 2.8904 2.1277
8.3179 3.1871 2.1277
8.1865 3.4790 2.1277
8.0451 3.7657 2.1277
7.8938 4.0468 2.1277
7.7330 4.3221 2.1277
7.5629 4.5913 2.1277
7.0155 4.6120 2.0216
6.4927 4.6108 1.9198
6.0254 4.6135 1.8317
5.8426 4.8164 1.8298
5.8456 5.1829 1.8900
5.8448 5.5700 1.9554
5.8438 5.9846 2.0279
5.8428 6.4307 2.1086
5.6530 6.6902 2.1277
5.4038 6.8828 2.1277
5.1483 7.0665 2.1277
4.8868 7.2411 2.1277
4.6196 7.4064 2.1277
4.3470 7.5621 2.1277
4.0694 7.7083 2.1277
3.7870 7.8447 2.1278
3.5003 7.9711 2.1278
3.2096 8.0875 2.1278
2.9151 8.1937 2.1278
2.6173 8.2897 2.1278
2.3165 8.3752 2.1278
2.1105 8.8596 2.2309
1.7899 8.9273 2.2309
1.4672 8.9838 2.2309
1.1428 9.0291 2.2309
0.8171 9.0632 2.2309
0.4905 9.0861 2.2309
0.1633 9.0976 2.2309
-0.1642 9.0979 2.2309
-0.4914 9.0869 2.2309
-0.8182 9.0646 2.2309
-1.1440 9.0310 2.2309
-1.4685 8.9862 2.2309
-1.7914 8.9303 2.2309
-2.1123 8.8632 2.2309
-2.4307 8.7850 2.2309
-2.7464 8.6958 2.2309
-3.0590 8.5957 2.2309
-3.3681 8.4848 2.2309
-3.6734 8.3632 2.2309
-3.9745 8.2311 2.2309
-4.2709 8.0885 2.2309
-4.5625 7.9356 2.2309
-4.8489 7.7726 2.2309
-5.1296 7.5996 2.2309
-5.4044 7.4168 2.2309
-5.6729 7.2244 2.2309
-5.7862 6.8468 2.1751
-5.9037 6.4968 2.1278
-6.1399 6.2870 2.1278
-6.3690 6.0688 2.1278
-6.5905 5.8425 2.1278
-6.8042 5.6084 2.1278
-7.0098 5.3666 2.1278
-7.2071 5.1176 2.1278
-7.3958 4.8614 2.1278
-7.5755 4.5985 2.1278
-7.7462 4.3290 2.1278
-6.1535 3.1543 1.6559
-8.0591 3.7719 2.1278
-8.2009 3.4848 2.1278
-8.3327 3.1925 2.1278
-8.4542 2.8953 2.1278
-8.5653 2.5936 2.1278
-8.6658 2.2877 2.1278
-8.7555 1.9780 2.1278
-8.8342 1.6648 2.1278
-8.9018 1.3485 2.1278
-8.9582 1.0297 2.1278
-9.0032 0.7085 2.1278
-9.0368 0.3854 2.1278
-9.0588 0.0609 2.1278
-9.0692 -0.2647 2.1278
-9.0679 -0.5909 2.1278
-9.0548 -0.9174 2.1278
-9.0300 -1.2436 2.1278
-8.9933 -1.5692 2.1278
-8.9449 -1.8938 2.1278
-8.8846 -2.2168 2.1278
-8.8126 -2.5379 2.1278
-8.7289 -2.8566 2.1278
-8.6335 -3.1725 2.1278
-8.5265 -3.4851 2.1278
-8.4081 -3.7941 2.1278
-8.2783 -4.0989 2.1278
-8.1372 -4.3992 2.1278
-7.9851 -4.6945 2.1278
-7.8220 -4.9844 2.1278
-7.6483 -5.2684 2.1278
-7.4640 -5.5462 2.1278
-7.2693 -5.8174 2.1278
-7.0646 -6.0815 2.1278
-6.8501 -6.3382 2.1278
-6.6259 -6.5870 2.1278
-6.3926 -6.8276 2.1278
-6.1502 -7.0597 2.1278
-5.8992 -7.2828 2.1278
-5.7535 -7.6477 2.1707
-5.6327 -8.0740 2.2309
-5.3445 -8.2778 2.2309
-5.0486 -8.4709 2.2309
-4.7455 -8.6529 2.2309
-4.4356 -8.8237 2.2309
-4.1194 -8.9829 2.2309
-3.7973 -9.1302 2.2309
-3.4697 -9.2656 2.2309
-3.1372 -9.3886 2.2309
-2.8001 -9.4993 2.2309
-2.4590 -9.5972 2.2309
-2.1144 -9.6824 2.2309
-1.7667 -9.7547 2.2309
-1.4165 -9.8139 2.2309
-1.0643 -9.8600 2.2309
-0.7105 -9.8928 2.2309
-0.3557 -9.9124 2.2309
-0.0005 -8.9702 2.2309
0.3207 -8.9639 2.2309
0.6414 -8.9457 2.2309
0.9612 -8.9156 2.2309
1.2796 -8.8735 2.2309
1.5961 -8.8197 2.2309
1.9103 -8.7540 2.2309
2.2217 -8.6768 2.2309
2.5300 -8.5881 2.2309
2.8346 -8.4879 2.2309
3.1351 -8.3766 2.2309
3.4312 -8.2543 2.2309
3.7223 -8.1211 2.2309
4.0082 -7.9772 2.2309
4.2883 -7.8230 2.2309
4.5623 -7.6586 2.2309
4.8299 -7.4843 2.2309
5.0906 -7.3003 2.2309
5.3442 -7.1070 2.2309
5.5902 -6.9046 2.2309
5.8284 -6.6934 2.2309
6.0584 -6.4738 2.2309
6.2800 -6.2461 2.2309
6.4928 -6.0106 2.2309
6.6967 -5.7676 2.2309
6.8912 -5.5176 2.2309
7.0763 -5.2609 2.2309
7.2517 -4.9979 2.2309
7.4171 -4.7290 2.2309
7.5724 -4.4545 2.2309
7.7174 -4.1748 2.2309
7.8520 -3.8903 2.2309
7.9759 -3.6015 2.2309
8.0891 -3.3088 2.2309
8.1915 -3.0125 2.2309
8.2830 -2.7130 2.2309
8.3634 -2.4108 2.2309
8.4328 -2.1063 2.2309
8.4910 -1.7999 2.2309
8.5381 -1.4920 2.2309
8.5740 -1.1830 2.2309
8.5987 -0.8733 2.2309
8.6123 -0.5633 2.2309
8.6147 -0.2535 2.2309
8.6060 0.0558 2.2309
8.5863 0.3642 2.2309
8.4255 0.6611 2.1970
8.1206 0.9316 2.1278
8.0706 1.2208 2.1278
8.0104 1.5078 2.1278
7.9401 1.7920 2.1278
7.8599 2.0732 2.1278
7.7698 2.3511 2.1277
7.6701 2.6252 2.1277
7.5609 2.8952 2.1277
7.4424 3.1609 2.1277
7.3147 3.4220 2.1277
7.1780 3.6780 2.1277
7.0326 3.9288 2.1277
6.8787 4.1741 2.1277
6.7163 4.4134 2.1277
6.4953 4.6108 2.1112
6.0276 4.6135 2.0140
5.8426 4.8147 2.0110
5.8456 5.1810 2.0770
5.7878 5.5139 2.1277
5.5804 5.7130 2.1277
5.3664 5.9046 2.1277
5.1460 6.0883 2.1277
4.9195 6.2642 2.1277
4.6872 6.4319 2.1277
4.4494 6.5913 2.1277
4.2064 6.7422 2.1277
3.9584 6.8845 2.1277
3.7059 7.0180 2.1278
3.4489 7.1426 2.1278
3.1880 7.2581 2.1278
2.9233 7.3644 2.1278
2.6552 7.4615 2.1278
2.3841 7.5491 2.1278
2.2123 7.9968 2.2309
1.9225 8.0687 2.2309
1.6305 8.1305 2.2309
1.3366 8.1821 2.2309
1.0411 8.2236 2.2309
0.7444 8.2547 2.2309
0.4468 8.2756 2.2309
0.1487 8.2862 2.2309
-0.1496 8.2864 2.2309
-0.4477 8.2763 2.2309
-0.7454 8.2559 2.2309
-1.0422 8.2252 2.2309
-1.3378 8.1842 2.2309
-1.6319 8.1330 2.2309
-1.9241 8.0716 2.2309
-2.2141 8.0001 2.2309
-2.5016 7.9186 2.2309
-2.7862 7.8271 2.2309
-3.0676 7.7257 2.2309
-3.3455 7.6146 2.2309
-3.6194 7.4939 2.2309
-3.8892 7.3636 2.2309
-4.1545 7.2239 2.2309
-4.4149 7.0750 2.2309
-4.6702 6.9169 2.2309
-4.9200 6.7500 2.2309
-5.1640 6.5743 2.2309
-5.4019 6.3901 2.2309
-5.6335 6.1975 2.2309
-5.7847 5.9213 2.2028
-5.7962 5.5211 2.1280
-5.9966 5.3142 2.1278
-6.1904 5.1006 2.1278
-6.3768 4.8802 2.1278
-6.5556 4.6531 2.1278
-6.7265 4.4196 2.1278
-6.8892 4.1800 2.1278
-7.0436 3.9345 2.1278
-6.1466 3.1492 1.8192
-7.3264 3.4271 2.1278
-7.4544 3.1657 2.1278
-7.5733 2.8997 2.1278
-7.6828 2.6292 2.1278
-7.7828 2.3547 2.1278
-7.8730 2.0765 2.1278
-7.9535 1.7949 2.1278
-8.0239 1.5102 2.1278
-8.0843 1.2228 2.1278
-8.1344 0.9331 2.1278
-8.1742 0.6414 2.1278
-8.2036 0.3480 2.1278
-8.2224 0.0534 2.1278
-8.2308 -0.2421 2.1278
-8.2284 -0.5381 2.1278
-8.2155 -0.8342 2.1278
-8.1918 -1.1301 2.1278
-8.1575 -1.4253 2.1278
-8.1124 -1.7194 2.1278
-8.0567 -2.0121 2.1278
-7.9903 -2.3030 2.1278
-7.9134 -2.5916 2.1278
-7.8259 -2.8776 2.1278
-7.7279 -3.1606 2.1278
-7.6196 -3.4402 2.1278
-7.5010 -3.7160 2.1278
-7.3723 -3.9876 2.1278
-7.2336 -4.2546 2.1278
-7.0851 -4.5167 2.1278
-6.9269 -4.7734 2.1278
-6.7592 -5.0245 2.1278
-6.5822 -5.2694 2.1278
-6.3961 -5.5080 2.1278
-6.2012 -5.7397 2.1278
-5.9977 -5.9644 2.1278
-5.7859 -6.1816 2.1278
-5.7542 -6.6071 2.1997
-5.5970 -6.9118 2.2309
-5.3505 -7.1140 2.2309
-5.0964 -7.3072 2.2309
-4.8352 -7.4910 2.2309
-4.5672 -7.6651 2.2309
-4.2927 -7.8293 2.2309
-4.0121 -7.9832 2.2309
-3.7259 -8.1267 2.2309
-3.4343 -8.2595 2.2309
-3.1379 -8.3815 2.2309
-2.8371 -8.4924 2.2309
-2.5321 -8.5921 2.2309
-2.2236 -8.6804 2.2309
-1.9119 -8.7572 2.2309
-1.5975 -8.8223 2.2309
-1.2808 -8.8756 2.2309
-0.9623 -8.9172 2.2309
-0.6425 -8.9468 2.2309
-0.3217 -8.9645 2.2309
-0.0005 -8.1792 2.2309
0.2923 -8.1735 2.2309
0.5847 -8.1570 2.2309
0.8762 -8.1296 2.2309
1.1665 -8.0914 2.2309
1.4551 -8.0425 2.2309
1.7416 -7.9829 2.2309
2.0256 -7.9127 2.2309
2.3067 -7.8321 2.2309
2.5845 -7.7411 2.2309
2.8587 -7.6399 2.2309
3.1288 -7.5287 2.2309
3.3944 -7.4076 2.2309
3.6553 -7.2769 2.2309
3.9110 -7.1366 2.2309
4.1611 -6.9871 2.2309
4.4055 -6.8286 2.2309
4.6436 -6.6612 2.2309
4.8753 -6.4853 2.2309
5.1001 -6.3012 2.2309
5.3178 -6.1090 2.2309
5.5282 -5.9091 2.2309
5.7309 -5.7018 2.2309
5.9256 -5.4874 2.2309
6.1122 -5.2661 2.2309
6.2904 -5.0384 2.2309
6.4599 -4.8046 2.2309
6.6206 -4.5649 2.2309
6.7723 -4.3198 2.2309
6.9149 -4.0695 2.2309
7.0480 -3.8145 2.2309
7.1717 -3.5551 2.2309
7.2856 -3.2917 2.2309
7.3899 -3.0246 2.2309
7.4842 -2.7542 2.2309
7.5686 -2.4809 2.2309
7.6430 -2.2050 2.2309
7.7072 -1.9269 2.2309
7.7613 -1.6471 2.2309
7.8053 -1.3658 2.2309
7.8390 -1.0834 2.2309
7.8625 -0.8003 2.2309
7.8758 -0.5170 2.2309
7.8789 -0.2337 2.2309
7.8718 0.0493 2.2309
7.8547 0.3314 2.2309
7.8275 0.6124 2.2309
7.4303 0.8507 2.1278
7.3854 1.1155 2.1278
7.3311 1.3782 2.1278
7.2676 1.6385 2.1278
7.1949 1.8961 2.1278
7.1133 2.1507 2.1278
7.0227 2.4019 2.1278
6.9235 2.6494 2.1277
6.8156 2.8930 2.1277
6.6994 3.1324 2.1277
6.5749 3.3673 2.1277
6.4423 3.5973 2.1277
6.3017 3.8223 2.1277
6.1536 4.0420 2.1277
5.9979 4.2561 2.1276
5.8351 4.4645 2.1276
5.6652 4.6668 2.1277
5.4885 4.8629 2.1277
5.3051 5.0525 2.1277
5.1154 5.2353 2.1277
4.9196 5.4113 2.1277
4.7179 5.5801 2.1277
4.5105 5.7417 2.1277
4.2978 5.8959 2.1277
4.0800 6.0424 2.1277
3.8574 6.1811 2.1278
3.6302 6.3119 2.1278
3.3987 6.4347 2.1278
3.1632 6.5492 2.1278
2.9240 6.6555 2.1278
2.6813 6.7533 2.1278
2.4355 6.8425 2.1278
2.2535 7.1341 2.1927
2.0294 7.3339 2.2309
1.7636 7.4000 2.2309
1.4957 7.4569 2.2309
1.2261 7.5044 2.2309
0.9550 7.5425 2.2309
0.6829 7.5711 2.2309
0.4099 7.5903 2.2309
0.1364 7.6000 2.2309
-0.1373 7.6002 2.2309
-0.4108 7.5909 2.2309
-0.6838 7.5721 2.2309
-0.9561 7.5438 2.2309
-1.2273 7.5061 2.2309
-1.4970 7.4589 2.2309
-1.7651 7.4025 2.2309
-2.0311 7.3367 2.2309
-2.2947 7.2616 2.2309
-2.5556 7.1775 2.2309
-2.8136 7.0842 2.2309
-3.0683 6.9820 2.2309
-3.3195 6.8709 2.2309
-3.5667 6.7511 2.2309
-3.8098 6.6226 2.2309
-4.0483 6.4857 2.2309
-4.2821 6.3404 2.2309
-4.5109 6.1870 2.2309
-4.7343 6.0255 2.2309
-4.9521 5.8562 2.2309
-5.1640 5.6792 2.2309
-5.3698 5.4947 2.2309
-5.5691 5.3030 2.2309
-5.7618 5.1043 2.2309
-5.7812 4.7617 2.1685
-5.8430 4.4699 2.1278
-6.0063 4.2615 2.1278
-6.1623 4.0472 2.1278
-6.3108 3.8273 2.1278
-6.4516 3.6021 2.1278
-6.1396 3.1440 1.9840
-6.7093 3.1367 2.1278
-6.8258 2.8970 2.1278
-6.9340 2.6531 2.1278
-7.0335 2.4053 2.1278
-7.1242 2.1538 2.1278
-7.2061 1.8989 2.1278
-7.2789 1.6409 2.1278
-7.3426 1.3802 2.1278
-7.3970 1.1171 2.1278
-7.4420 0.8519 2.1278
-7.4776 0.5850 2.1278
-7.5036 0.3165 2.1278
-7.5200 0.0471 2.1278
-7.5268 -0.2232 2.1278
-7.5238 -0.4938 2.1278
-7.5111 -0.7644 2.1278
-7.4886 -1.0348 2.1278
-7.4563 -1.3045 2.1278
-7.4143 -1.5732 2.1278
-7.3626 -1.8405 2.1278
-7.3011 -2.1061 2.1278
-7.2300 -2.3696 2.1278
-7.1493 -2.6306 2.1278
-7.0590 -2.8888 2.1278
-6.9593 -3.1439 2.1278
-6.8503 -3.3954 2.1278
-6.7321 -3.6430 2.1278
-6.6048 -3.8865 2.1278
-6.4685 -4.1254 2.1278
-6.3234 -4.3593 2.1278
-6.1698 -4.5881 2.1278
-6.0076 -4.8112 2.1278
-5.8373 -5.0285 2.1278
-5.7546 -5.3282 2.1638
-5.7379 -5.7079 2.2309
-5.5348 -5.9152 2.2309
-5.3241 -6.1150 2.2309
-5.1059 -6.3072 2.2309
-4.8807 -6.4912 2.2309
-4.6486 -6.6670 2.2309
-4.4101 -6.8342 2.2309
-4.1653 -6.9925 2.2309
-3.9148 -7.1418 2.2309
-3.6587 -7.2818 2.2309
-3.3975 -7.4123 2.2309
-3.1315 -7.5331 2.2309
-2.8611 -7.6440 2.2309
-2.5867 -7.7448 2.2309
-2.3086 -7.8354 2.2309
-2.0273 -7.9157 2.2309
-1.7431 -7.9855 2.2309
-1.4564 -8.0447 2.2309
-1.1677 -8.0932 2.2309
-0.8773 -8.1309 2.2309
-0.5857 -8.1579 2.2309
-0.2933 -8.1740 2.2309
-0.0005 -7.5088 2.2309
0.2683 -7.5037 2.2309
0.5366 -7.4886 2.2309
0.8042 -7.4635 2.2309
1.0706 -7.4286 2.2309
1.3355 -7.3838 2.2309
1.5985 -7.3293 2.2309
