ply
format ascii 1.0
element vertex 2173
property float32 x
property float32 y
property float32 z
end_header
0.2490 12.0032 2.2379
-0.1814 11.9686 2.2378
-0.6090 11.9192 2.2378
-1.0335 11.8566 2.2382
-1.4541 11.7766 2.2381
-1.8703 11.6820 2.2380
-2.2818 11.5730 2.2379
-2.6879 11.4499 2.2378
-3.0882 11.3127 2.2376
-3.4824 11.1620 2.2375
-3.8699 10.9981 2.2374
-4.2504 10.8213 2.2372
-4.6235 10.6320 2.2372
-4.9556 10.3609 2.2222
-5.2325 10.0000 2.1895
-5.5011 9.6523 2.1609
-5.7612 9.3138 2.1356
-6.0725 9.0712 2.1341
-6.3790 8.8254 2.1341
-6.6761 8.5698 2.1341
-6.9636 8.3048 2.1341
-7.2412 8.0308 2.1341
-7.5111 7.7506 2.1348
-7.3408 7.0490 2.0173
-8.0226 7.1673 2.1368
-8.2627 6.8638 2.1378
-8.4915 6.5523 2.1387
-8.7090 6.2334 2.1395
-8.9107 5.9049 2.1392
-7.9870 4.8886 1.8772
-9.2745 5.2276 2.1376
-9.4380 4.8809 2.1366
-7.8442 3.7052 1.7469
-7.8433 3.3651 1.7210
-7.8545 3.0401 1.7004
-7.8608 2.7215 1.6814
-7.8572 2.4072 1.6628
-7.8539 2.1002 1.6466
-7.8401 1.7968 1.6305
-7.8196 1.4981 1.6153
-7.7913 1.2037 1.6005
-7.7575 0.9139 1.5867
-7.7218 0.6289 1.5746
-7.6813 0.3479 1.5634
-7.6310 0.0706 1.5520
-7.5698 -0.2026 1.5404
-7.5041 -0.4716 1.5297
-7.4235 -0.7357 1.5177
-7.3337 -0.9945 1.5055
-7.2344 -1.2477 1.4931
-7.1322 -1.4963 1.4817
-7.0248 -1.7400 1.4709
-6.9139 -1.9792 1.4609
-6.8056 -2.2162 1.4531
-6.6964 -2.4507 1.4468
-6.5844 -2.6822 1.4414
-6.4702 -2.9114 1.4371
-6.3505 -3.1371 1.4333
-6.2259 -3.3596 1.4301
-9.1148 -5.3507 2.1341
-8.9274 -5.6824 2.1341
-5.8481 -4.0252 1.4298
-8.5190 -6.3271 2.1341
-5.5657 -4.4532 1.4313
-5.4300 -4.6747 1.4365
-5.2921 -4.8983 1.4433
-5.1512 -5.1242 1.4517
-5.0071 -5.3527 1.4617
-4.8668 -5.5931 1.4758
-4.7233 -5.8397 1.4921
-4.5759 -6.0932 1.5106
-4.4311 -6.3648 1.5342
-4.2818 -6.6480 1.5609
-5.5362 -9.3152 2.1341
-5.2098 -9.5304 2.1341
-4.8755 -9.7348 2.1341
-4.5336 -9.9281 2.1341
-4.1843 -10.1099 2.1341
-3.8280 -10.2800 2.1341
-3.4652 -10.4382 2.1341
-3.0961 -10.5840 2.1341
-2.7212 -10.7173 2.1341
-2.3408 -10.8378 2.1341
-1.9554 -10.9453 2.1341
-1.5655 -11.0394 2.1341
-1.1958 -11.3528 2.1787
-0.8108 -11.7275 2.2372
-0.3904 -11.7831 2.2372
0.0331 -10.5211 2.2372
0.4118 -10.5408 2.2372
0.7920 -10.5471 2.2372
1.1731 -10.5397 2.2372
1.5547 -10.5187 2.2372
1.9363 -10.4839 2.2372
2.3173 -10.4352 2.2372
2.6973 -10.3727 2.2372
3.0757 -10.2964 2.2372
3.4521 -10.2061 2.2372
3.8258 -10.1020 2.2372
4.1964 -9.9840 2.2372
4.5634 -9.8523 2.2372
4.9261 -9.7069 2.2372
5.2841 -9.5478 2.2372
5.6368 -9.3753 2.2372
5.9837 -9.1895 2.2372
6.3243 -8.9906 2.2372
6.5794 -8.6751 2.2108
6.6624 -8.1599 2.1341
6.9661 -7.9337 2.1341
7.2617 -7.6959 2.1341
7.5488 -7.4466 2.1341
7.8269 -7.1863 2.1341
8.0954 -6.9152 2.1341
8.3541 -6.6336 2.1341
8.6024 -6.3420 2.1341
8.8398 -6.0408 2.1341
9.0661 -5.7302 2.1341
9.2807 -5.4108 2.1341
8.9318 -4.7874 2.0100
9.7782 -4.7986 2.1572
8.2835 -3.7032 1.7945
3.2995 -1.3355 0.7030
7.7530 -2.8195 1.6274
10.4156 -3.3708 2.1572
7.3100 -2.0798 1.4960
10.6512 -2.6222 2.1572
6.9298 -1.4451 1.3909
6.7582 -1.1587 1.3463
6.5968 -0.8893 1.3061
6.4444 -0.6349 1.2699
8.3608 -0.5224 1.6420
6.1849 -0.1646 1.2123
6.0309 0.0554 1.1815
7.8366 0.3528 1.5364
5.7837 0.4682 1.1364
7.5076 0.8792 1.4805
7.3574 1.1298 1.4581
7.2116 1.3732 1.4384
7.0696 1.6103 1.4212
10.6316 2.8255 2.1572
6.8065 2.0724 1.3960
10.3898 3.5744 2.1572
10.2475 3.9411 2.1572
10.0914 4.3017 2.1572
9.9216 4.6557 2.1572
7.4664 3.8355 1.6539
7.5687 4.2371 1.7110
7.3962 4.4957 1.7094
9.0152 5.9318 2.1341
8.7848 6.2421 2.1341
5.5458 4.2474 1.3853
5.5004 4.5341 1.4159
8.0272 7.1148 2.1341
7.7540 7.3850 2.1341
7.4712 7.6442 2.1341
7.1792 7.8921 2.1341
6.8787 8.1285 2.1341
6.5700 8.3529 2.1341
6.2536 8.5652 2.1341
4.5418 6.7130 1.6344
5.8706 9.3848 2.2372
5.5183 9.5677 2.2372
5.1601 9.7370 2.2372
4.7966 9.8925 2.2372
4.4285 10.0342 2.2372
4.0561 10.1618 2.2372
3.6802 10.2753 2.2372
3.3012 10.3747 2.2372
2.9198 10.4600 2.2372
2.5363 10.5310 2.2372
2.1515 10.5878 2.2372
1.7661 10.6319 2.2374
1.3802 10.6622 2.2378
0.9944 10.6785 2.2382
0.6091 10.6798 2.2383
0.2249 10.6672 2.2385
-0.1576 10.6416 2.2388
-0.5380 10.6025 2.2391
-0.9158 10.5483 2.2391
-1.2903 10.4804 2.2390
-1.6613 10.3994 2.2389
-2.0281 10.3054 2.2387
-2.3905 10.1988 2.2386
-2.7479 10.0797 2.2385
-3.1001 9.9485 2.2383
-3.4465 9.8054 2.2382
-3.7868 9.6506 2.2381
-4.1207 9.4843 2.2380
-4.4477 9.3069 2.2378
-4.7676 9.1187 2.2377
-5.0800 8.9200 2.2376
-5.3846 8.7110 2.2375
-5.6810 8.4921 2.2374
-5.9691 8.2636 2.2372
-6.2486 8.0259 2.2372
-6.5194 7.7796 2.2372
-6.6967 7.4311 2.2093
-6.8454 7.0675 2.1774
-6.9909 6.7165 2.1495
-7.1755 6.4138 2.1379
-7.4448 6.1874 2.1543
-7.5976 5.8653 2.1397
-7.7883 5.5772 2.1390
-7.9680 5.2827 2.1382
-7.9867 4.8907 2.0977
-8.2958 4.6781 2.1364
-8.4437 4.3686 2.1355
-7.9884 3.7750 1.9872
-8.7085 3.7380 2.1341
-8.8274 3.4182 2.1341
-8.9354 3.0949 2.1341
-8.0346 2.4627 1.8983
-9.1181 2.4394 2.1341
-9.1927 2.1078 2.1341
-9.2561 1.7742 2.1341
-9.3082 1.4388 2.1341
-9.3489 1.1021 2.1341
-9.3783 0.7644 2.1341
-7.6819 0.3483 1.7447
-7.6232 0.0708 1.7301
-7.5550 -0.2021 1.7155
-7.4948 -0.4710 1.7047
-7.4203 -0.7354 1.6927
-7.3337 -0.9946 1.6799
-7.2349 -1.2481 1.6662
-7.1383 -1.4979 1.6549
-7.0361 -1.7432 1.6441
-6.9290 -1.9841 1.6340
-6.8178 -2.2208 1.6247
-6.7062 -2.4550 1.6172
-6.5922 -2.6862 1.6108
-6.4751 -2.9146 1.6056
-6.3520 -3.1389 1.6006
-6.2247 -3.3601 1.5965
-6.0958 -3.5797 1.5938
-5.9639 -3.7974 1.5923
-5.8311 -4.0150 1.5925
-5.6978 -4.2334 1.5946
-5.5653 -4.4546 1.5992
-5.4333 -4.6795 1.6064
-5.2976 -4.9056 1.6150
-5.1587 -5.1339 1.6253
-5.0166 -5.3654 1.6377
-4.8712 -5.6009 1.6521
-4.7223 -5.8415 1.6689
-4.5748 -6.0951 1.6900
-4.4227 -6.3564 1.7139
-4.2837 -6.6551 1.7483
-4.9436 -8.3235 2.1341
-4.6509 -8.5138 2.1341
-4.3511 -8.6942 2.1341
-4.0447 -8.8646 2.1341
-3.7318 -9.0247 2.1341
-3.4129 -9.1741 2.1341
-3.0882 -9.3127 2.1341
-2.7582 -9.4402 2.1341
-2.4231 -9.5564 2.1341
-2.1177 -9.8209 2.1693
-1.8233 -10.2253 2.2372
-1.4585 -10.3102 2.2372
-1.0900 -10.3824 2.2372
-0.7183 -10.4418 2.2372
-0.3438 -10.4881 2.2372
0.0331 -9.4679 2.2372
0.3738 -9.4833 2.2372
0.7157 -9.4865 2.2372
1.0583 -9.4774 2.2372
1.4011 -9.4561 2.2372
1.7437 -9.4224 2.2372
2.0856 -9.3763 2.2372
2.4264 -9.3177 2.2372
2.7657 -9.2467 2.2372
3.1029 -9.1633 2.2372
3.4376 -9.0675 2.2372
3.7693 -8.9593 2.2372
4.0976 -8.8389 2.2372
4.4219 -8.7062 2.2372
4.7418 -8.5615 2.2372
5.0569 -8.4048 2.2372
5.3666 -8.2362 2.2372
5.6705 -8.0560 2.2372
5.9681 -7.8643 2.2372
6.0120 -7.3589 2.1489
6.2412 -7.1040 2.1341
6.5045 -6.8895 2.1341
6.7600 -6.6650 2.1341
7.0075 -6.4306 2.1341
7.2464 -6.1867 2.1341
7.4763 -5.9337 2.1341
7.6969 -5.6718 2.1341
7.9079 -5.4013 2.1341
8.1088 -5.1227 2.1341
8.2992 -4.8364 2.1341
8.4790 -4.5426 2.1341
8.7413 -4.2878 2.1572
8.2851 -3.7023 2.0080
3.2994 -1.3349 0.7867
7.7521 -2.8179 1.8210
9.3061 -3.0104 2.1572
7.3092 -2.0786 1.6744
9.5146 -2.3413 2.1572
6.9293 -1.4443 1.5571
6.7578 -1.1580 1.5073
6.5965 -0.8887 1.4624
6.4442 -0.6344 1.4220
6.3282 -0.3951 1.3918
6.1853 -0.1644 1.3577
6.0308 0.0556 1.3231
7.8365 0.3529 1.7207
5.7837 0.4682 1.2728
7.5204 0.8806 1.6609
5.5534 0.8526 1.2326
5.4434 1.0363 1.2159
7.0818 1.6127 1.5943
9.4943 2.5226 2.1572
5.1290 1.5612 1.1779
9.2795 3.1916 2.1572
9.1532 3.5192 2.1572
9.0146 3.8415 2.1572
8.8639 4.1581 2.1572
7.6725 3.9401 1.9021
8.5272 4.7721 2.1572
6.6101 4.0164 1.7094
8.0582 5.3002 2.1341
7.8535 5.5782 2.1341
5.5687 4.2633 1.5558
5.5092 4.5395 1.5858
7.1799 6.3611 2.1341
6.9369 6.6038 2.1341
6.6852 6.8368 2.1341
6.4253 7.0599 2.1341
6.1576 7.2728 2.1341
5.8826 7.4751 2.1341
5.6007 7.6666 2.1341
4.5381 6.7036 1.8230
5.2603 8.4039 2.2372
4.9459 8.5696 2.2372
4.6261 8.7232 2.2372
4.3015 8.8646 2.2372
3.9726 8.9936 2.2372
3.6397 9.1102 2.2372
3.3035 9.2143 2.2372
2.9644 9.3057 2.2372
2.6231 9.3852 2.2373
2.2800 9.4526 2.2376
1.9353 9.5074 2.2379
1.5896 9.5495 2.2383
1.2432 9.5782 2.2384
0.8969 9.5953 2.2388
0.5509 9.6001 2.2392
0.2056 9.5923 2.2396
-0.1383 9.5716 2.2399
-0.4806 9.5377 2.2399
-0.8206 9.4909 2.2398
-1.1579 9.4321 2.2397
-1.4921 9.3615 2.2395
-1.8228 9.2793 2.2394
-2.1496 9.1856 2.2393
-2.4722 9.0806 2.2392
-2.7901 8.9646 2.2390
-3.1030 8.8378 2.2389
-3.4105 8.7003 2.2388
-3.7124 8.5524 2.2387
-4.0082 8.3944 2.2386
-4.2977 8.2265 2.2384
-4.5805 8.0489 2.2383
-4.8564 7.8620 2.2382
-5.1251 7.6661 2.2381
-5.3863 7.4614 2.2380
-5.6397 7.2483 2.2379
-5.8851 7.0268 2.2377
-6.1223 6.7975 2.2376
-6.3510 6.5606 2.2375
-6.5710 6.3165 2.2374
-6.7822 6.0654 2.2373
-6.9844 5.8077 2.2373
-7.1772 5.5435 2.2372
-7.3608 5.2736 2.2372
-7.4345 4.9314 2.2074
-7.4902 4.5889 2.1764
-7.5457 4.2571 2.1494
-7.6313 3.9502 2.1346
-7.7576 3.6676 2.1341
-7.8858 3.3864 2.1367
-7.9844 3.0932 2.1341
-8.0828 2.8009 2.1341
-8.0347 2.4639 2.0984
-8.2495 2.2081 2.1341
-8.3177 1.9081 2.1341
-8.3756 1.6062 2.1341
-8.4232 1.3027 2.1341
-8.4605 0.9980 2.1341
-8.4875 0.6923 2.1341
-8.5041 0.3859 2.1341
-8.5104 0.0793 2.1341
-8.5063 -0.2273 2.1341
-8.4919 -0.5336 2.1341
-8.4671 -0.8392 2.1341
-8.4320 -1.1438 2.1341
-8.3867 -1.4470 2.1341
-8.3311 -1.7486 2.1341
-8.2654 -2.0483 2.1341
-8.1896 -2.3457 2.1341
-6.9672 -2.2701 1.8348
-8.0078 -2.9323 2.1341
-7.9021 -3.2209 2.1341
-7.7866 -3.5060 2.1341
-7.6614 -3.7872 2.1341
-7.5266 -4.0642 2.1341
-7.3824 -4.3367 2.1341
-7.2288 -4.6045 2.1341
-5.9511 -4.0992 1.7973
-6.8944 -5.1245 2.1341
-6.7138 -5.3761 2.1341
-6.5244 -5.6217 2.1341
-6.3266 -5.8610 2.1341
-6.1204 -6.0937 2.1341
-5.9060 -6.3196 2.1341
-5.6837 -6.5384 2.1341
-5.0793 -6.2864 1.9876
-5.2162 -6.9534 2.1341
-4.9714 -7.1492 2.1341
-4.7195 -7.3367 2.1341
-4.4609 -7.5157 2.1341
-4.1958 -7.6860 2.1341
-3.9243 -7.8474 2.1341
-3.6470 -7.9995 2.1341
-3.3639 -8.1422 2.1341
-3.0755 -8.2753 2.1341
-2.8465 -8.5933 2.1836
-2.6038 -8.9227 2.2372
-2.2865 -9.0305 2.2372
-1.9650 -9.1273 2.2372
-1.6395 -9.2129 2.2372
-1.3105 -9.2872 2.2372
-0.9783 -9.3500 2.2372
-0.6434 -9.4012 2.2372
-0.3062 -9.4405 2.2372
0.0331 -8.5980 2.2372
0.3425 -8.6101 2.2372
0.6528 -8.6113 2.2372
0.9635 -8.6012 2.2372
1.2744 -8.5801 2.2372
1.5849 -8.5477 2.2372
1.8947 -8.5040 2.2372
2.2034 -8.4491 2.2372
2.5105 -8.3830 2.2372
2.8156 -8.3056 2.2372
3.1184 -8.2170 2.2372
3.4183 -8.1173 2.2372
3.7149 -8.0065 2.2372
4.0079 -7.8848 2.2372
4.2968 -7.7521 2.2372
4.5812 -7.6087 2.2372
4.8606 -7.4546 2.2372
5.1347 -7.2900 2.2372
5.4030 -7.1152 2.2372
5.4041 -6.6109 2.1341
5.6478 -6.4250 2.1341
5.8849 -6.2298 2.1341
6.1149 -6.0257 2.1341
6.3376 -5.8128 2.1341
6.5525 -5.5914 2.1341
6.7592 -5.3619 2.1341
6.9575 -5.1244 2.1341
7.1470 -4.8793 2.1341
7.3275 -4.6270 2.1341
7.4985 -4.3677 2.1341
7.6598 -4.1019 2.1341
7.8112 -3.8298 2.1341
7.9524 -3.5520 2.1341
3.2994 -1.3342 0.8711
7.7511 -2.8162 2.0165
8.4022 -2.7167 2.1572
7.3085 -2.0774 1.8545
8.5889 -2.1125 2.1572
6.9288 -1.4435 1.7249
6.7574 -1.1573 1.6698
6.5962 -0.8882 1.6202
6.4439 -0.6340 1.5755
8.3603 -0.5215 2.0374
6.1856 -0.1641 1.5046
6.0307 0.0557 1.4662
7.8364 0.3530 1.9068
5.7837 0.4682 1.4104
5.6924 0.6665 1.3931
5.5535 0.8525 1.3659
5.4435 1.0361 1.3474
7.0820 1.6124 1.7666
8.5685 2.2760 2.1572
5.1292 1.5608 1.3051
8.3757 2.8799 2.1572
8.2622 3.1757 2.1572
8.1377 3.4667 2.1572
8.0023 3.7527 2.1572
7.6731 3.9391 2.1069
7.6998 4.3076 2.1572
5.9695 3.6259 1.7094
7.2781 4.7853 2.1341
7.0941 5.0369 2.1341
5.5777 4.2684 1.7249
5.5181 4.5450 1.7579
6.4884 5.7460 2.1341
6.2698 5.9660 2.1341
6.0433 6.1775 2.1341
5.8094 6.3800 2.1341
5.5684 6.5734 2.1341
5.3207 6.7574 2.1341
5.0667 6.9317 2.1341
4.5344 6.6941 2.0131
4.5414 7.2507 2.1341
4.2709 7.3951 2.1341
4.1887 7.8927 2.2372
3.0111 6.2005 1.7291
3.5988 8.1405 2.2372
3.2984 8.2484 2.2373
2.9950 8.3452 2.2376
2.6886 8.4303 2.2377
2.3798 8.5038 2.2378
2.0691 8.5658 2.2379
1.7570 8.6163 2.2380
1.4440 8.6561 2.2383
1.1304 8.6849 2.2387
0.8165 8.7024 2.2391
0.5028 8.7085 2.2395
0.1897 8.7028 2.2398
-0.1224 8.6854 2.2399
-0.4331 8.6568 2.2400
-0.7419 8.6171 2.2402
-1.0485 8.5662 2.2402
-1.3523 8.5039 2.2401
-1.6530 8.4309 2.2400
-1.9504 8.3475 2.2398
-2.2440 8.2538 2.2397
-2.5334 8.1500 2.2396
-2.8185 8.0363 2.2395
-3.0987 7.9128 2.2394
-3.3739 7.7798 2.2392
-3.6437 7.6375 2.2391
-3.9078 7.4861 2.2390
-4.1659 7.3259 2.2389
-4.4178 7.1571 2.2387
-4.6633 6.9800 2.2386
-4.9019 6.7948 2.2385
-5.1335 6.6017 2.2384
-5.3579 6.4011 2.2383
-5.5748 6.1932 2.2382
-5.7841 5.9784 2.2381
-5.9855 5.7568 2.2380
-6.1789 5.5287 2.2379
-6.3639 5.2945 2.2378
-6.5405 5.0543 2.2377
-6.7085 4.8086 2.2376
-6.8678 4.5576 2.2375
-7.0182 4.3017 2.2374
-7.1595 4.0411 2.2373
-7.2917 3.7761 2.2373
-7.4147 3.5071 2.2372
-7.5284 3.2344 2.2372
-7.5905 2.9419 2.2248
-7.5983 2.6342 2.1997
-7.6084 2.3343 2.1786
-7.6173 2.0398 2.1603
-7.5957 1.7433 2.1364
-7.6405 1.4660 2.1341
-7.6843 1.1891 2.1341
-7.7605 0.9159 2.1456
-7.7435 0.6320 2.1341
-7.7589 0.3525 2.1341
-7.7648 0.0726 2.1341
-7.7612 -0.2073 2.1341
-7.7481 -0.4868 2.1341
-7.7255 -0.7657 2.1341
-7.6934 -1.0437 2.1341
-7.6519 -1.3205 2.1341
-7.6011 -1.5958 2.1341
-7.5409 -1.8692 2.1341
-7.4714 -2.1405 2.1341
-6.9669 -2.2707 2.0111
-7.3049 -2.6757 2.1341
-7.2080 -2.9389 2.1341
-7.1022 -3.1988 2.1341
-6.9875 -3.4552 2.1341
-6.8640 -3.7077 2.1341
-6.7319 -3.9561 2.1341
-6.5913 -4.2000 2.1341
-5.9504 -4.1003 1.9711
-6.2850 -4.6734 2.1341
-6.1197 -4.9023 2.1341
-5.9464 -5.1258 2.1341
-5.7653 -5.3434 2.1341
-5.5766 -5.5549 2.1341
-5.3805 -5.7601 2.1341
-5.1772 -5.9587 2.1341
-4.9669 -6.1505 2.1341
-4.7498 -6.3352 2.1341
-4.5260 -6.5126 2.1341
-4.3097 -6.7037 2.1409
-4.0597 -6.8444 2.1341
-3.8207 -7.0039 2.1357
-3.6376 -7.2796 2.1745
-3.4469 -7.5668 2.2177
-3.2064 -7.7679 2.2372
-2.9307 -7.8934 2.2372
-2.6503 -8.0094 2.2372
-2.3654 -8.1158 2.2372
-2.0764 -8.2123 2.2372
-1.7836 -8.2987 2.2372
-1.4874 -8.3749 2.2372
-1.1881 -8.4408 2.2372
-0.8860 -8.4962 2.2372
-0.5815 -8.5409 2.2372
-0.2750 -8.5749 2.2372
0.0331 -7.8667 2.2372
0.3162 -7.8764 2.2372
0.5999 -7.8760 2.2372
0.8840 -7.8655 2.2372
1.1681 -7.8447 2.2372
1.4517 -7.8137 2.2372
1.7346 -7.7724 2.2372
2.0164 -7.7209 2.2372
2.2967 -7.6591 2.2372
2.5750 -7.5871 2.2372
2.8511 -7.5048 2.2372
3.1244 -7.4125 2.2372
3.3948 -7.3101 2.2372
3.6617 -7.1976 2.2372
3.9247 -7.0753 2.2372
4.1836 -6.9432 2.2372
4.4379 -6.8015 2.2372
4.6872 -6.6503 2.2372
4.9312 -6.4897 2.2372
5.1631 -6.3123 2.2344
5.1527 -5.8584 2.1341
5.3681 -5.6796 2.1341
5.5770 -5.4927 2.1341
5.7792 -5.2978 2.1341
5.9742 -5.0954 2.1341
6.1618 -4.8855 2.1341
6.3417 -4.6685 2.1341
6.5135 -4.4446 2.1341
6.6771 -4.2143 2.1341
6.8321 -3.9777 2.1341
6.9783 -3.7351 2.1341
7.1154 -3.4871 2.1341
7.2433 -3.2338 2.1341
3.2994 -1.3336 0.9565
7.4702 -2.7129 2.1341
7.6509 -2.4726 2.1572
7.3078 -2.0762 2.0366
7.8198 -1.9224 2.1572
6.9283 -1.4426 1.8946
6.7569 -1.1566 1.8342
6.5958 -0.8876 1.7798
6.4436 -0.6336 1.7308
8.0570 -0.5022 2.1572
6.1860 -0.1639 1.6532
6.0307 0.0559 1.6108
7.8231 0.3525 2.0914
5.7837 0.4682 1.5496
7.5205 0.8804 2.0222
5.5535 0.8524 1.5007
5.4436 1.0359 1.4803
7.0822 1.6121 1.9409
7.7997 2.0713 2.1572
5.1294 1.5605 1.4338
7.6248 2.6210 2.1572
7.5220 2.8903 2.1572
7.4091 3.1554 2.1572
7.2864 3.4158 2.1572
7.1539 3.6713 2.1572
7.0121 3.9215 2.1572
5.9143 3.5911 1.8595
6.6293 4.3571 2.1341
6.4624 4.5866 2.1341
5.5867 4.2736 1.8963
5.5272 4.5505 1.9324
5.9128 5.2339 2.1341
5.7143 5.4350 2.1341
5.5087 5.6284 2.1341
5.2962 5.8137 2.1341
5.0773 5.9907 2.1341
4.8523 6.1592 2.1341
4.6214 6.3190 2.1341
4.3851 6.4699 2.1341
4.1438 6.6117 2.1341
3.8978 6.7443 2.1341
3.6473 6.8676 2.1341
3.5570 7.3188 2.2372
3.2867 7.4283 2.2373
3.0130 7.5277 2.2374
2.7364 7.6167 2.2375
2.4571 7.6955 2.2376
2.1756 7.7638 2.2377
1.8923 7.8223 2.2379
1.6078 7.8707 2.2382
1.3221 7.9088 2.2386
1.0357 7.9362 2.2389
0.7490 7.9527 2.2391
0.4624 7.9588 2.2392
0.1762 7.9545 2.2394
-0.1091 7.9399 2.2395
-0.3932 7.9151 2.2396
-0.6756 7.8802 2.2397
-0.9562 7.8353 2.2399
-1.2344 7.7805 2.2400
-1.5100 7.7159 2.2401
-1.7826 7.6417 2.2402
-2.0518 7.5576 2.2402
-2.3173 7.4639 2.2401
-2.5787 7.3609 2.2400
-2.8359 7.2490 2.2398
-3.0885 7.1283 2.2397
-3.3362 6.9990 2.2396
-3.5788 6.8614 2.2394
-3.8160 6.7156 2.2393
-4.0475 6.5619 2.2392
-4.2731 6.4004 2.2391
-4.4926 6.2315 2.2390
-4.7056 6.0553 2.2388
-4.9122 5.8721 2.2387
-5.1119 5.6822 2.2387
-5.3046 5.4858 2.2386
-5.4901 5.2831 2.2385
-5.6682 5.0744 2.2384
-5.8387 4.8599 2.2383
-6.0014 4.6400 2.2382
-6.1563 4.4150 2.2381
-6.3032 4.1850 2.2380
-6.4420 3.9504 2.2379
-6.5724 3.7115 2.2378
-6.6944 3.4684 2.2377
-6.8079 3.2216 2.2376
-6.9127 2.9713 2.2376
-7.0088 2.7177 2.2375
-7.0961 2.4613 2.2374
-7.1746 2.2022 2.2374
-7.2441 1.9408 2.2373
-7.3045 1.6774 2.2372
-7.3559 1.4121 2.2372
-7.3984 1.1455 2.2372
-7.4419 0.8789 2.2402
-7.4031 0.6047 2.2213
-7.3683 0.3350 2.2064
-7.3353 0.0688 2.1948
-7.2770 -0.1942 2.1784
-7.2053 -0.4527 2.1606
-7.1339 -0.7071 2.1454
-7.0667 -0.9588 2.1341
-7.0285 -1.2131 2.1341
-6.9817 -1.4660 2.1341
-6.9262 -1.7173 2.1341
-6.8622 -1.9665 2.1341
-6.8603 -2.2365 2.1563
-6.7441 -2.4710 2.1453
-6.6274 -2.7030 2.1366
-6.5218 -2.9384 2.1341
-6.4161 -3.1737 2.1341
-6.3023 -3.4055 2.1341
-6.1805 -3.6333 2.1341
-6.0509 -3.8571 2.1341
-5.9136 -4.0764 2.1341
-5.7687 -4.2912 2.1341
-5.6282 -4.5105 2.1386
-5.4921 -4.7362 2.1479
-5.2900 -4.9050 2.1341
-5.1162 -5.0987 2.1341
-4.9357 -5.2865 2.1341
-4.7560 -5.4768 2.1374
-4.6048 -5.7052 2.1574
-4.4498 -5.9385 2.1804
-4.2909 -6.1779 2.2068
-4.1281 -6.4254 2.2372
-3.9005 -6.5803 2.2372
-3.6672 -6.7274 2.2372
-3.4286 -6.8665 2.2372
-3.1848 -6.9974 2.2372
-2.9363 -7.1200 2.2372
-2.6832 -7.2339 2.2372
-2.4258 -7.3392 2.2372
-2.1644 -7.4354 2.2372
-1.8993 -7.5226 2.2372
-1.6308 -7.6006 2.2372
-1.3593 -7.6691 2.2372
-1.0850 -7.7282 2.2372
-0.8083 -7.7776 2.2372
-0.5294 -7.8172 2.2372
-0.2489 -7.8469 2.2372
0.0331 -7.2427 2.2372
0.2937 -7.2506 2.2372
0.5548 -7.2491 2.2372
0.8162 -7.2383 2.2372
1.0775 -7.2181 2.2372
1.3383 -7.1885 2.2372
1.5983 -7.1495 2.2372
1.8572 -7.1010 2.2372
2.1147 -7.0431 2.2372
2.3703 -6.9758 2.2372
2.6237 -6.8992 2.2372
2.8746 -6.8132 2.2372
3.1227 -6.7181 2.2372
3.3675 -6.6138 2.2372
3.6087 -6.5005 2.2372
3.8460 -6.3782 2.2372
4.0790 -6.2471 2.2372
4.3074 -6.1074 2.2372
4.5309 -5.9591 2.2372
4.7490 -5.8025 2.2372
4.7330 -5.3779 2.1341
4.9301 -5.2131 2.1341
5.1212 -5.0410 2.1341
5.3061 -4.8616 2.1341
5.4844 -4.6752 2.1341
5.6559 -4.4821 2.1341
5.8203 -4.2826 2.1341
5.9774 -4.0768 2.1341
6.1268 -3.8651 2.1341
6.2684 -3.6477 2.1341
6.4019 -3.4250 2.1341
6.5271 -3.1972 2.1341
6.6437 -2.9647 2.1341
3.2993 -1.3330 1.0428
6.8508 -2.4868 2.1341
6.9408 -2.2421 2.1341
7.0217 -1.9940 2.1341
7.0932 -1.7429 2.1341
6.9278 -1.4418 2.0662
6.7565 -1.1559 2.0005
6.5955 -0.8870 1.9412
6.4434 -0.6331 1.8879
7.3859 -0.4600 2.1572
6.1864 -0.1637 1.8035
6.0306 0.0560 1.7572
7.3967 0.3334 2.1572
5.7837 0.4682 1.6905
7.3541 0.8608 2.1572
5.5536 0.8522 1.6371
5.4437 1.0357 1.6149
7.0704 1.6090 2.1137
6.9318 1.8403 2.0912
5.1296 1.5601 1.5640
6.9906 2.4023 2.1572
6.8966 2.6492 2.1572
6.7935 2.8923 2.1572
6.6814 3.1312 2.1572
6.5604 3.3656 2.1572
6.4308 3.5951 2.1572
5.9149 3.5901 2.0276
6.0808 3.9951 2.1341
5.9282 4.2058 2.1341
5.5960 4.2789 2.0704
5.5363 4.5561 2.1096
5.4258 4.8007 2.1341
5.2442 4.9857 2.1341
5.0561 5.1635 2.1341
4.8618 5.3341 2.1341
4.6614 5.4971 2.1341
4.4555 5.6524 2.1341
4.2441 5.7997 2.1341
4.0278 5.9390 2.1341
3.8067 6.0699 2.1341
3.5813 6.1925 2.1341
3.3518 6.3065 2.1341
3.1187 6.4118 2.1341
3.0215 6.8229 2.2372
1.6400 4.0935 1.3244
2.5167 6.9979 2.2374
2.2605 7.0717 2.2376
2.0023 7.1363 2.2379
1.7423 7.1910 2.2381
1.4808 7.2361 2.2383
1.2183 7.2715 2.2385
0.9550 7.2973 2.2386
0.6915 7.3135 2.2388
0.4279 7.3201 2.2389
0.1647 7.3173 2.2390
-0.0977 7.3050 2.2391
-0.3591 7.2833 2.2393
-0.6191 7.2523 2.2394
-0.8774 7.2120 2.2395
-1.1337 7.1626 2.2396
-1.3876 7.1042 2.2397
-1.6388 7.0368 2.2398
-1.8871 6.9608 2.2399
-2.1321 6.8762 2.2401
-2.3736 6.7830 2.2402
-2.6111 6.6812 2.2402
-2.8443 6.5709 2.2401
-3.0731 6.4527 2.2399
-3.2972 6.3267 2.2398
-3.5163 6.1931 2.2397
-3.7303 6.0521 2.2396
-3.9389 5.9039 2.2395
-4.1418 5.7488 2.2393
-4.3389 5.5870 2.2392
-4.5300 5.4186 2.2391
-4.7149 5.2440 2.2391
-4.8932 5.0633 2.2390
-5.0649 4.8767 2.2389
-5.2299 4.6845 2.2387
-5.3878 4.4870 2.2386
-5.5386 4.2844 2.2385
-5.6822 4.0770 2.2385
-5.8184 3.8650 2.2384
-5.9470 3.6487 2.2383
-6.0680 3.4283 2.2382
-6.1811 3.2040 2.2381
-6.2864 2.9762 2.2381
-6.3837 2.7452 2.2380
-6.4729 2.5111 2.2379
-6.5539 2.2743 2.2378
-6.6268 2.0351 2.2378
-6.6913 1.7936 2.2377
-6.7475 1.5502 2.2376
-6.7952 1.3052 2.2376
-6.8346 1.0588 2.2375
-6.8654 0.8113 2.2375
-6.8878 0.5630 2.2374
-6.9017 0.3142 2.2374
-6.9070 0.0650 2.2373
-6.9038 -0.1841 2.2373
-6.8921 -0.4329 2.2373
-6.8718 -0.6812 2.2372
-6.8431 -0.9286 2.2372
-6.8060 -1.1750 2.2372
-6.7605 -1.4199 2.2372
-6.7066 -1.6632 2.2372
-6.6444 -1.9046 2.2372
-6.5740 -2.1438 2.2372
-6.4703 -2.3714 2.2285
-6.3537 -2.5922 2.2180
-6.2384 -2.8116 2.2104
-6.1245 -3.0305 2.2059
-6.0098 -3.2486 2.2039
-5.8942 -3.4663 2.2042
-5.7741 -3.6820 2.2057
-5.6490 -3.8956 2.2082
-5.5246 -4.1113 2.2140
-5.3991 -4.3287 2.2225
-5.2722 -4.5486 2.2340
-5.1177 -4.7475 2.2372
-4.9492 -4.9345 2.2372
-4.7740 -5.1158 2.2372
-4.5925 -5.2911 2.2372
-4.4047 -5.4603 2.2372
-4.2110 -5.6230 2.2372
-4.0115 -5.7791 2.2372
-3.8064 -5.9283 2.2372
-3.5959 -6.0706 2.2372
-3.3803 -6.2056 2.2372
-3.1598 -6.3332 2.2372
-2.9346 -6.4531 2.2372
-2.7050 -6.5653 2.2372
-2.4713 -6.6695 2.2372
-2.2337 -6.7657 2.2372
-1.9924 -6.8535 2.2372
-1.7478 -6.9329 2.2372
-1.5002 -7.0038 2.2372
-1.2498 -7.0660 2.2372
-0.9969 -7.1193 2.2372
-0.7419 -7.1638 2.2372
-0.4850 -7.1992 2.2372
-0.2265 -7.2256 2.2372
0.0331 -6.7035 2.2372
0.2743 -6.7100 2.2372
0.5159 -6.7078 2.2372
0.7576 -6.6969 2.2372
0.9993 -6.6773 2.2372
1.2404 -6.6491 2.2372
1.4807 -6.6121 2.2372
1.7200 -6.5664 2.2372
1.9578 -6.5120 2.2372
2.1938 -6.4489 2.2372
2.4279 -6.3773 2.2372
2.6594 -6.2970 2.2372
2.8883 -6.2083 2.2372
3.1142 -6.1112 2.2372
3.3367 -6.0057 2.2372
3.5555 -5.8920 2.2372
3.7703 -5.7702 2.2372
3.9808 -5.6405 2.2372
4.1867 -5.5029 2.2372
4.3877 -5.3576 2.2372
4.3742 -4.9673 2.1350
4.5537 -4.8124 2.1341
4.7297 -4.6529 2.1341
4.8998 -4.4869 2.1341
5.0639 -4.3144 2.1341
5.2217 -4.1359 2.1341
3.0438 -2.2385 1.2090
5.5173 -3.7611 2.1341
5.6547 -3.5655 2.1341
5.7848 -3.3647 2.1341
5.9075 -3.1590 2.1341
6.0225 -2.9486 2.1341
6.1297 -2.7340 2.1341
3.2993 -1.3323 1.1304
6.3199 -2.2930 2.1341
6.4025 -2.0672 2.1341
6.4768 -1.8383 2.1341
6.5424 -1.6067 2.1341
6.5993 -1.3727 2.1341
6.6474 -1.1366 2.1341
6.7590 -0.9085 2.1572
6.4431 -0.6327 2.0471
6.8112 -0.4238 2.1572
6.1868 -0.1634 1.9559
6.0305 0.0562 1.9055
6.8209 0.3075 2.1572
5.7837 0.4682 1.8332
6.7815 0.7937 2.1572
5.5537 0.8521 1.7753
5.4438 1.0355 1.7512
6.6544 1.5140 2.1572
6.5941 1.7502 2.1572
5.1298 1.5598 1.6959
6.4473 2.2149 2.1572
6.3609 2.4426 2.1572
6.2661 2.6669 2.1572
6.1630 2.8873 2.1572
6.0517 3.1036 2.1572
5.9326 3.3154 2.1572
5.8057 3.5225 2.1572
5.6105 3.6847 2.1341
5.4701 3.8793 2.1341
5.3228 4.0684 2.1341
5.1686 4.2517 2.1341
5.0079 4.4290 2.1341
4.8409 4.6000 2.1341
4.6677 4.7646 2.1341
4.4888 4.9224 2.1341
4.3044 5.0733 2.1341
4.1147 5.2171 2.1341
3.9200 5.3537 2.1341
3.7207 5.4828 2.1341
3.5170 5.6043 2.1341
3.3093 5.7181 2.1341
3.0977 5.8240 2.1341
2.8828 5.9220 2.1341
1.6117 3.6362 1.2908
1.6400 4.0894 1.4322
2.3278 6.4658 2.2374
2.0913 6.5347 2.2376
1.8528 6.5947 2.2378
1.6127 6.6460 2.2379
1.3712 6.6884 2.2381
1.1286 6.7219 2.2382
0.8854 6.7466 2.2383
0.6418 6.7625 2.2385
0.3982 6.7695 2.2386
0.1549 6.7678 2.2388
-0.0879 6.7573 2.2389
-0.3297 6.7380 2.2390
-0.5703 6.7102 2.2391
-0.8094 6.6738 2.2392
-1.0467 6.6289 2.2393
-1.2819 6.5757 2.2395
-1.5146 6.5143 2.2396
-1.7447 6.4447 2.2397
-1.9717 6.3671 2.2398
-2.1956 6.2816 2.2399
-2.4159 6.1884 2.2400
-2.6325 6.0875 2.2401
-2.8451 5.9793 2.2402
-3.0531 5.8633 2.2401
-3.2566 5.7401 2.2400
-3.4553 5.6101 2.2399
-3.6491 5.4734 2.2398
-3.8377 5.3302 2.2397
-4.0209 5.1807 2.2396
-4.1985 5.0251 2.2395
-4.3703 4.8636 2.2394
-4.5361 4.6964 2.2393
-4.6958 4.5238 2.2392
-4.8493 4.3460 2.2391
-4.9963 4.1631 2.2390
-5.1367 3.9755 2.2389
-5.2703 3.7834 2.2388
-5.3971 3.5870 2.2387
-5.5169 3.3864 2.2387
-5.6295 3.1821 2.2386
-5.7349 2.9741 2.2385
-5.8330 2.7629 2.2384
-5.9236 2.5486 2.2383
-6.0068 2.3314 2.2383
-6.0824 2.1117 2.2382
-6.1503 1.8897 2.2381
-6.2105 1.6656 2.2381
-6.2628 1.4396 2.2380
-6.3074 1.2122 2.2379
-6.3441 0.9834 2.2379
-6.3730 0.7536 2.2378
-6.3939 0.5230 2.2378
-6.4069 0.2919 2.2378
-6.4119 0.0606 2.2377
-6.4089 -0.1708 2.2377
-6.3981 -0.4018 2.2376
-6.3793 -0.6324 2.2376
-6.3526 -0.8622 2.2376
-6.3181 -1.0910 2.2375
-6.2757 -1.3184 2.2375
-6.2256 -1.5443 2.2375
-6.1676 -1.7684 2.2375
-6.1019 -1.9905 2.2374
-6.0287 -2.2102 2.2374
-5.9479 -2.4274 2.2374
-5.8596 -2.6418 2.2374
-5.7640 -2.8531 2.2373
-5.6611 -3.0611 2.2373
-5.5510 -3.2657 2.2373
-5.4336 -3.4662 2.2372
-5.3096 -3.6629 2.2372
-5.1787 -3.8554 2.2373
-5.0411 -4.0434 2.2373
-4.8970 -4.2267 2.2373
-4.7465 -4.4051 2.2373
-4.5897 -4.5783 2.2373
-4.4266 -4.7459 2.2372
-4.2578 -4.9081 2.2372
-4.0832 -5.0645 2.2372
-3.9032 -5.2150 2.2372
-3.7178 -5.3593 2.2372
-3.5272 -5.4972 2.2372
-3.3317 -5.6285 2.2372
-3.1315 -5.7531 2.2372
-2.9267 -5.8708 2.2372
-2.7177 -5.9813 2.2372
-2.5046 -6.0846 2.2372
-2.2878 -6.1806 2.2372
-2.0673 -6.2689 2.2372
-1.8435 -6.3496 2.2372
-1.6167 -6.4224 2.2372
-1.3872 -6.4873 2.2372
-1.1551 -6.5441 2.2372
-0.9207 -6.5927 2.2372
-0.6845 -6.6330 2.2372
-0.4465 -6.6650 2.2372
-0.2073 -6.6885 2.2372
0.0331 -6.2325 2.2372
0.2573 -6.2378 2.2372
0.4819 -6.2350 2.2372
0.7065 -6.2242 2.2372
0.9310 -6.2053 2.2372
1.1550 -6.1784 2.2372
1.3781 -6.1433 2.2372
1.6003 -6.1002 2.2372
1.8210 -6.0489 2.2372
2.0401 -5.9897 2.2372
2.2571 -5.9225 2.2372
2.4720 -5.8473 2.2372
2.6842 -5.7643 2.2372
2.8936 -5.6734 2.2372
3.0998 -5.5749 2.2372
3.3026 -5.4688 2.2372
3.5016 -5.3552 2.2372
3.6966 -5.2342 2.2372
3.8873 -5.1060 2.2372
4.0734 -4.9708 2.2372
4.2546 -4.8286 2.2372
4.2265 -4.4640 2.1341
4.3894 -4.3157 2.1341
4.5468 -4.1613 2.1341
4.6986 -4.0010 2.1341
4.8445 -3.8351 2.1341
4.9843 -3.6637 2.1341
5.1178 -3.4870 2.1341
5.2448 -3.3054 2.1341
5.3650 -3.1190 2.1341
5.4784 -2.9281 2.1341
5.5847 -2.7329 2.1341
5.6837 -2.5338 2.1341
3.2993 -1.3317 1.2191
5.8593 -2.1248 2.1341
5.9356 -1.9155 2.1341
6.0041 -1.7033 2.1341
6.0647 -1.4886 2.1341
6.1172 -1.2717 2.1341
6.1615 -1.0529 2.1341
6.1977 -0.8325 2.1341
6.2257 -0.6109 2.1341
6.2453 -0.3883 2.1341
6.3242 -0.1668 2.1572
6.0304 0.0564 2.0560
5.9314 0.2675 2.0240
5.7837 0.4682 1.9780
6.2852 0.7356 2.1572
5.5538 0.8520 1.9155
5.4440 1.0353 1.8895
6.1676 1.4029 2.1572
6.1119 1.6218 2.1572
5.1300 1.5594 1.8297
5.9761 2.0524 2.1572
5.8963 2.2635 2.1572
5.8086 2.4714 2.1572
5.7133 2.6757 2.1572
5.6105 2.8763 2.1572
5.5004 3.0727 2.1572
5.3254 3.2299 2.1341
5.2024 3.4153 2.1341
5.0727 3.5959 2.1341
4.9364 3.7715 2.1341
4.7938 3.9417 2.1341
4.6451 4.1063 2.1341
4.4906 4.2652 2.1341
4.3304 4.4181 2.1341
4.1648 4.5648 2.1341
3.9941 4.7051 2.1341
3.8186 4.8389 2.1341
3.6383 4.9660 2.1341
3.4538 5.0863 2.1341
3.2651 5.1995 2.1341
3.0727 5.3056 2.1341
2.8767 5.4044 2.1341
2.6775 5.4958 2.1341
0.8691 1.9591 0.7493
1.6410 4.0881 1.5424
2.1631 6.0021 2.2373
1.9438 6.0666 2.2375
1.7226 6.1229 2.2376
1.4998 6.1712 2.2378
1.2757 6.2112 2.2379
1.0506 6.2431 2.2380
0.8248 6.2668 2.2382
0.5986 6.2822 2.2383
0.3723 6.2894 2.2384
0.1463 6.2884 2.2386
-0.0793 6.2793 2.2387
-0.3041 6.2622 2.2388
-0.5278 6.2370 2.2389
-0.7501 6.2039 2.2390
-0.9708 6.1629 2.2391
-1.1895 6.1142 2.2393
-1.4061 6.0577 2.2394
-1.6202 5.9936 2.2395
-1.8315 5.9221 2.2396
-2.0400 5.8432 2.2397
-2.2452 5.7571 2.2398
-0.8464 1.9591 0.7748
-0.9161 1.9271 0.7759
-2.8391 5.4569 2.2401
-3.0290 5.3433 2.2402
-3.2145 5.2230 2.2402
-3.3952 5.0962 2.2401
-3.5711 4.9633 2.2400
-3.7420 4.8246 2.2399
-3.9078 4.6801 2.2398
-4.0681 4.5301 2.2397
-4.2230 4.3748 2.2396
-4.3721 4.2143 2.2395
-4.5154 4.0490 2.2394
-4.6527 3.8790 2.2393
-4.7839 3.7045 2.2392
-4.9088 3.5257 2.2391
-5.0272 3.3428 2.2390
-5.1392 3.1562 2.2390
-5.2445 2.9659 2.2389
-5.3430 2.7723 2.2388
-5.4347 2.5755 2.2387
-5.5196 2.3759 2.2387
-5.5973 2.1736 2.2386
-5.6681 1.9688 2.2385
-5.7316 1.7619 2.2385
-5.7879 1.5530 2.2384
-5.8369 1.3424 2.2383
-5.8787 1.1304 2.2383
-5.9131 0.9171 2.2382
-5.9401 0.7029 2.2382
-5.9597 0.4879 2.2381
-5.9719 0.2724 2.2381
-5.9766 0.0567 2.2380
-5.9740 -0.1591 2.2380
-5.9639 -0.3745 2.2379
-5.9464 -0.5895 2.2379
-5.9215 -0.8038 2.2379
-5.8892 -1.0171 2.2379
-5.8497 -1.2292 2.2379
-5.8028 -1.4398 2.2378
-5.7486 -1.6488 2.2378
-5.6873 -1.8558 2.2378
-5.6188 -2.0606 2.2377
-5.5433 -2.2630 2.2377
-5.4608 -2.4628 2.2377
-5.3715 -2.6598 2.2377
-5.2753 -2.8536 2.2377
-5.1724 -3.0441 2.2377
-5.0625 -3.2307 2.2374
-4.9465 -3.4139 2.2374
-4.8243 -3.5931 2.2374
-4.6958 -3.7681 2.2374
-4.5612 -3.9387 2.2374
-4.4207 -4.1046 2.2374
-4.2743 -4.2658 2.2375
-4.1220 -4.4216 2.2373
-3.9641 -4.5720 2.2372
-3.8013 -4.7174 2.2372
-3.6333 -4.8572 2.2372
-3.4603 -4.9912 2.2372
-3.2825 -5.1192 2.2372
-3.1002 -5.2410 2.2372
-2.9135 -5.3566 2.2372
-2.7226 -5.4656 2.2372
-2.5277 -5.5681 2.2372
-2.3292 -5.6637 2.2372
-2.1270 -5.7524 2.2372
-1.9217 -5.8341 2.2372
-1.7132 -5.9085 2.2372
-1.5020 -5.9757 2.2372
-1.2883 -6.0354 2.2372
-1.0722 -6.0876 2.2372
-0.8541 -6.1322 2.2372
-0.6343 -6.1690 2.2372
-0.4129 -6.1981 2.2372
-0.1904 -6.2193 2.2372
0.0331 -5.8171 2.2372
0.2424 -5.8215 2.2372
0.4519 -5.8183 2.2372
0.6615 -5.8077 2.2372
0.8709 -5.7895 2.2372
1.0797 -5.7637 2.2372
1.2878 -5.7304 2.2372
1.4948 -5.6896 2.2372
1.7006 -5.6413 2.2372
1.9047 -5.5855 2.2372
2.1069 -5.5222 2.2372
2.3070 -5.4516 2.2372
2.5047 -5.3736 2.2372
2.6996 -5.2885 2.2372
2.8916 -5.1961 2.2372
3.0803 -5.0967 2.2372
3.2655 -4.9904 2.2372
3.4469 -4.8772 2.2372
3.6243 -4.7574 2.2372
3.7973 -4.6309 2.2372
3.9658 -4.4981 2.2372
3.9392 -4.1581 2.1341
4.0906 -4.0196 2.1341
4.2369 -3.8755 2.1341
4.3779 -3.7259 2.1341
4.5134 -3.5711 2.1341
4.6433 -3.4113 2.1341
4.7673 -3.2465 2.1341
4.8852 -3.0772 2.1341
4.9969 -2.9035 2.1341
5.1021 -2.7256 2.1341
5.2007 -2.5438 2.1341
5.2926 -2.3583 2.1341
3.2992 -1.3310 1.3093
5.4555 -1.9774 2.1341
5.5264 -1.7825 2.1341
5.5899 -1.5850 2.1341
5.6460 -1.3852 2.1341
5.6947 -1.1833 2.1341
5.7359 -0.9796 2.1341
5.7694 -0.7745 2.1341
5.7952 -0.5683 2.1341
5.8134 -0.3611 2.1341
5.8238 -0.1534 2.1341
5.8264 0.0546 2.1341
5.8213 0.2626 2.1341
5.8084 0.4702 2.1341
5.8504 0.6846 2.1572
5.5539 0.8518 2.0579
5.4441 1.0351 2.0299
5.7412 1.3055 2.1572
5.6894 1.5093 2.1572
5.1303 1.5590 1.9657
5.5633 1.9101 2.1572
5.4892 2.1066 2.1572
5.4078 2.3001 2.1572
5.3193 2.4903 2.1572
5.1679 2.6484 2.1341
5.0667 2.8294 2.1341
4.9588 3.0064 2.1341
4.8446 3.1792 2.1341
4.7241 3.3475 2.1341
4.5975 3.5111 2.1341
4.4650 3.6697 2.1341
4.3269 3.8233 2.1341
4.1833 3.9714 2.1341
4.0344 4.1141 2.1341
3.8806 4.2510 2.1341
3.7219 4.3820 2.1341
3.5586 4.5070 2.1341
3.3910 4.6257 2.1341
3.2194 4.7380 2.1341
3.0439 4.8439 2.1341
2.8649 4.9432 2.1341
2.6825 5.0357 2.1341
0.8768 1.7983 0.7494
0.8118 1.8282 0.7503
0.7457 1.8558 0.7512
0.6786 1.8810 0.7522
0.6107 1.9037 0.7532
0.5420 1.9240 0.7542
0.4727 1.9418 0.7552
0.4027 1.9571 0.7562
0.9819 5.8217 2.2379
0.7714 5.8443 2.2380
0.5605 5.8592 2.2381
0.3495 5.8665 2.2383
0.1387 5.8663 2.2384
-0.0718 5.8584 2.2385
-0.2815 5.8430 2.2386
-0.4902 5.8201 2.2387
-0.6978 5.7898 2.2389
-0.9038 5.7521 2.2390
-0.3800 1.9571 0.7679
-0.4499 1.9418 0.7689
-0.5193 1.9240 0.7700
-0.5880 1.9037 0.7710
-0.6559 1.8810 0.7720
-0.7230 1.8558 0.7731
-0.7891 1.8283 0.7741
-0.8541 1.7984 0.7751
-0.9181 1.7661 0.7761
-2.8275 4.9917 2.2400
-3.0011 4.8800 2.2401
-3.1705 4.7624 2.2402
-3.3353 4.6389 2.2402
-3.4954 4.5096 2.2401
-3.6506 4.3749 2.2400
-3.8008 4.2350 2.2399
-3.9458 4.0901 2.2398
-4.0856 3.9404 2.2397
-4.2199 3.7861 2.2396
-4.3486 3.6274 2.2396
-4.4715 3.4644 2.2395
-4.5886 3.2974 2.2394
-4.6996 3.1266 2.2393
-4.8046 2.9522 2.2392
-4.9034 2.7744 2.2391
-4.9958 2.5934 2.2391
-5.0819 2.4095 2.2390
-5.1614 2.2228 2.2389
-5.2344 2.0337 2.2389
-5.3008 1.8422 2.2388
-5.3604 1.6486 2.2387
-5.4133 1.4533 2.2387
-5.4594 1.2563 2.2386
-5.4986 1.0579 2.2386
-5.5309 0.8583 2.2385
-5.5563 0.6579 2.2385
-5.5747 0.4567 2.2384
-5.5862 0.2551 2.2384
-5.5907 0.0532 2.2383
-5.5882 -0.1487 2.2383
-5.5788 -0.3503 2.2382
-5.5624 -0.5515 2.2382
-5.5391 -0.7520 2.2382
-5.5089 -0.9516 2.2382
-5.4718 -1.1501 2.2381
-5.4279 -1.3472 2.2381
-5.3771 -1.5426 2.2381
-5.3196 -1.7363 2.2381
-5.2554 -1.9279 2.2380
-5.1846 -2.1173 2.2380
-5.1073 -2.3042 2.2380
-5.0236 -2.4884 2.2380
-4.9334 -2.6696 2.2380
-4.8368 -2.8476 2.2379
-4.7337 -3.0221 2.2376
-4.6249 -3.1932 2.2375
-4.5103 -3.3607 2.2376
-4.3899 -3.5242 2.2376
-4.2638 -3.6835 2.2376
-4.1321 -3.8386 2.2376
-3.9950 -3.9890 2.2376
-3.8523 -4.1344 2.2375
-3.7044 -4.2748 2.2372
-3.5517 -4.4103 2.2372
-3.3944 -4.5406 2.2372
-3.2325 -4.6655 2.2372
-3.0661 -4.7848 2.2372
-2.8954 -4.8984 2.2372
-2.7207 -5.0060 2.2372
-2.5421 -5.1075 2.2372
-2.3598 -5.2027 2.2372
-2.1740 -5.2917 2.2372
-1.9850 -5.3741 2.2372
-1.7930 -5.4499 2.2372
-1.5981 -5.5190 2.2372
-1.4007 -5.5812 2.2372
-1.2009 -5.6364 2.2372
-0.9991 -5.6846 2.2372
-0.7953 -5.7257 2.2372
-0.5900 -5.7596 2.2372
-0.3833 -5.7861 2.2372
-0.1755 -5.8053 2.2372
0.0331 -5.4477 2.2372
0.2291 -5.4513 2.2372
0.4253 -5.4479 2.2372
0.6215 -5.4374 2.2372
0.8174 -5.4199 2.2372
1.0129 -5.3953 2.2372
1.2075 -5.3636 2.2372
1.4012 -5.3250 2.2372
1.5936 -5.2792 2.2372
1.7845 -5.2266 2.2372
1.9736 -5.1669 2.2372
2.1606 -5.1004 2.2372
2.3453 -5.0270 2.2372
2.5275 -4.9469 2.2372
2.7069 -4.8601 2.2372
2.8831 -4.7668 2.2372
3.0561 -4.6669 2.2372
3.2255 -4.5607 2.2372
3.3911 -4.4483 2.2372
3.5526 -4.3297 2.2372
3.7099 -4.2052 2.2372
3.7737 -3.9809 2.1856
3.8259 -3.7573 2.1341
3.9624 -3.6223 2.1341
4.0939 -3.4823 2.1341
4.2203 -3.3374 2.1341
4.3414 -3.1878 2.1341
4.4570 -3.0337 2.1341
4.5670 -2.8753 2.1341
4.6710 -2.7128 2.1341
4.7691 -2.5464 2.1341
4.8610 -2.3765 2.1341
4.9466 -2.2031 2.1341
3.2992 -1.3303 1.4009
5.0984 -1.8471 2.1341
5.1644 -1.6649 2.1341
5.2235 -1.4804 2.1341
5.2758 -1.2936 2.1341
5.3211 -1.1050 2.1341
5.3594 -0.9148 2.1341
5.3906 -0.7232 2.1341
5.4146 -0.5306 2.1341
5.4315 -0.3371 2.1341
5.4412 -0.1431 2.1341
5.4436 0.0512 2.1341
5.4388 0.2454 2.1341
5.4267 0.4393 2.1341
5.4074 0.6327 2.1341
5.3810 0.8252 2.1341
5.3473 1.0165 2.1341
5.3066 1.2064 2.1341
5.2589 1.3947 2.1341
5.2042 1.5810 2.1341
5.1426 1.7651 2.1341
5.0742 1.9467 2.1341
4.9992 2.1255 2.1341
4.9176 2.3014 2.1341
4.8295 2.4741 2.1341
4.7351 2.6433 2.1341
4.6346 2.8087 2.1341
4.5281 2.9703 2.1341
4.4157 3.1276 2.1341
4.2977 3.2806 2.1341
4.1741 3.4291 2.1341
4.0453 3.5727 2.1341
3.9113 3.7114 2.1341
3.7724 3.8449 2.1341
3.6288 3.9731 2.1341
3.4807 4.0958 2.1341
3.3284 4.2129 2.1341
3.1719 4.3242 2.1341
3.0117 4.4295 2.1341
2.8479 4.5288 2.1341
2.6807 4.6220 2.1341
0.8816 1.6537 0.7495
0.8217 1.6839 0.7503
0.7608 1.7119 0.7512
0.6989 1.7377 0.7521
0.6362 1.7613 0.7530
0.5726 1.7826 0.7539
0.5083 1.8016 0.7548
0.4433 1.8183 0.7558
0.3778 1.8326 0.7567
0.3118 1.8446 0.7577
0.2454 1.8542 0.7587
0.1788 1.8614 0.7597
0.1119 1.8662 0.7607
0.0449 1.8686 0.7616
-0.0222 1.8686 0.7626
-0.0892 1.8662 0.7636
-0.1561 1.8614 0.7646
-0.2227 1.8542 0.7656
-0.2891 1.8446 0.7666
-0.3551 1.8326 0.7676
-0.4206 1.8183 0.7686
-0.4855 1.8016 0.7696
-0.5498 1.7826 0.7706
-0.6134 1.7613 0.7716
-0.6762 1.7377 0.7725
-0.7381 1.7119 0.7735
-0.7990 1.6839 0.7744
-0.8589 1.6537 0.7753
-0.9177 1.6214 0.7763
-2.8109 4.5742 2.2399
-2.9698 4.4643 2.2400
-3.1247 4.3490 2.2401
-3.2752 4.2284 2.2402
-3.4212 4.1026 2.2402
-3.5623 3.9717 2.2401
-3.6986 3.8362 2.2400
-3.8299 3.6960 2.2399
-3.9561 3.5515 2.2399
-4.0771 3.4028 2.2398
-4.1927 3.2501 2.2397
-4.3027 3.0936 2.2396
-4.4071 2.9336 2.2395
-4.5059 2.7701 2.2395
-4.5988 2.6034 2.2394
-4.6857 2.4337 2.2393
-4.7667 2.2612 2.2392
-4.8416 2.0861 2.2392
-4.9103 1.9087 2.2391
-4.9727 1.7290 2.2391
-5.0288 1.5475 2.2390
-5.0786 1.3641 2.2389
-5.1220 1.1793 2.2389
-5.1589 0.9931 2.2388
-5.1893 0.8058 2.2388
-5.2133 0.6177 2.2387
-5.2307 0.4289 2.2387
-5.2415 0.2396 2.2386
-5.2458 0.0501 2.2386
-5.2435 -0.1394 2.2385
-5.2347 -0.3287 2.2385
-5.2193 -0.5175 2.2385
-5.1974 -0.7057 2.2384
-5.1690 -0.8931 2.2384
-5.1341 -1.0794 2.2384
-5.0928 -1.2643 2.2384
-5.0451 -1.4478 2.2383
-4.9911 -1.6296 2.2383
-4.9307 -1.8094 2.2383
-4.8642 -1.9871 2.2383
-4.7915 -2.1624 2.2383
-4.7127 -2.3352 2.2382
-4.6280 -2.5053 2.2382
-4.5369 -2.6721 2.2380
-4.4401 -2.8358 2.2378
-4.3377 -2.9961 2.2377
-4.2300 -3.1532 2.2377
-4.1168 -3.3064 2.2377
-3.9983 -3.4558 2.2377
-3.8745 -3.6010 2.2377
-3.7457 -3.7420 2.2377
-3.6116 -3.8782 2.2376
-3.4727 -4.0096 2.2374
-3.3291 -4.1362 2.2372
-3.1814 -4.2582 2.2372
-3.0293 -4.3751 2.2372
-2.8731 -4.4867 2.2372
-2.7128 -4.5928 2.2372
-2.5488 -4.6934 2.2372
-2.3812 -4.7882 2.2372
-2.2101 -4.8772 2.2372
-2.0358 -4.9601 2.2372
-1.8585 -5.0370 2.2372
-1.6784 -5.1077 2.2372
-1.4956 -5.1720 2.2372
-1.3105 -5.2299 2.2372
-1.1232 -5.2812 2.2372
-0.9340 -5.3259 2.2372
-0.7430 -5.3640 2.2372
-0.5506 -5.3952 2.2372
-0.3569 -5.4196 2.2372
-0.1623 -5.4371 2.2372
0.0332 -5.1167 2.2372
0.2172 -5.1197 2.2372
0.4014 -5.1160 2.2372
0.5856 -5.1058 2.2372
0.7696 -5.0889 2.2372
0.9530 -5.0654 2.2372
1.1357 -5.0353 2.2372
1.3174 -4.9986 2.2372
1.4979 -4.9553 2.2372
1.6770 -4.9055 2.2372
1.8543 -4.8491 2.2372
2.0297 -4.7863 2.2372
2.2029 -4.7171 2.2372
2.3736 -4.6416 2.2372
2.5417 -4.5598 2.2372
2.7069 -4.4719 2.2372
2.8690 -4.3779 2.2372
3.0277 -4.2779 2.2372
3.1828 -4.1722 2.2372
3.3341 -4.0607 2.2372
3.4814 -3.9436 2.2372
3.6244 -3.8211 2.2372
3.5896 -3.5231 2.1341
3.7173 -3.3963 2.1341
3.8404 -3.2648 2.1341
3.9587 -3.1288 2.1341
4.0720 -2.9883 2.1341
4.1802 -2.8437 2.1341
4.2830 -2.6951 2.1341
4.3804 -2.5427 2.1341
4.4721 -2.3866 2.1341
4.5580 -2.2272 2.1341
3.2378 -1.4413 1.4898
3.2224 -1.2987 1.4594
3.3576 -1.2158 1.4990
4.8416 -1.5601 2.1341
4.8969 -1.3871 2.1341
4.9457 -1.2120 2.1341
4.9881 -1.0353 2.1341
5.0238 -0.8570 2.1341
5.0529 -0.6775 2.1341
5.0754 -0.4970 2.1341
5.0911 -0.3157 2.1341
5.1001 -0.1339 2.1341
5.1023 0.0481 2.1341
5.0978 0.2301 2.1341
5.0865 0.4118 2.1341
5.0684 0.5930 2.1341
5.0437 0.7733 2.1341
5.0122 0.9526 2.1341
4.9741 1.1306 2.1341
4.9295 1.3070 2.1341
4.8783 1.4815 2.1341
4.8207 1.6541 2.1341
4.7567 1.8243 2.1341
4.6865 1.9919 2.1341
4.6101 2.1568 2.1341
4.5278 2.3187 2.1341
4.4395 2.4773 2.1341
4.3454 2.6325 2.1341
4.2458 2.7839 2.1341
4.1406 2.9316 2.1341
4.0302 3.0751 2.1341
3.9145 3.2144 2.1341
3.7940 3.3492 2.1341
3.6686 3.4794 2.1341
3.5386 3.6047 2.1341
3.4041 3.7251 2.1341
3.2655 3.8404 2.1341
3.1228 3.9504 2.1341
2.9763 4.0550 2.1341
2.8263 4.1540 2.1341
2.6728 4.2475 2.1341
0.8838 1.5227 0.7496
0.8286 1.5531 0.7504
0.7724 1.5814 0.7512
0.7152 1.6077 0.7520
0.6570 1.6319 0.7528
0.5981 1.6541 0.7537
0.5384 1.6741 0.7545
0.4780 1.6919 0.7554
0.4170 1.7076 0.7563
0.3555 1.7210 0.7572
0.2935 1.7323 0.7581
0.2312 1.7413 0.7590
0.1686 1.7481 0.7600
0.1058 1.7526 0.7609
0.0428 1.7549 0.7618
-0.0201 1.7548 0.7627
-0.0831 1.7526 0.7637
-0.1459 1.7481 0.7646
-0.2085 1.7413 0.7656
-0.2708 1.7323 0.7665
-0.3328 1.7210 0.7674
-0.3943 1.7076 0.7684
-0.4553 1.6919 0.7693
-0.5157 1.6741 0.7702
-0.5754 1.6541 0.7711
-0.6343 1.6320 0.7720
-0.6925 1.6077 0.7729
-0.7497 1.5814 0.7738
-0.8059 1.5531 0.7747
-0.8611 1.5227 0.7755
-0.9151 1.4905 0.7764
-0.9680 1.4562 0.7772
-2.9355 4.0886 2.2399
-3.0773 3.9755 2.2400
-3.2148 3.8576 2.2401
-3.3479 3.7351 2.2402
-3.4765 3.6080 2.2402
-3.6002 3.4764 2.2402
-3.7191 3.3407 2.2401
-3.8331 3.2010 2.2400
-3.9420 3.0575 2.2399
-4.0457 2.9105 2.2398
-4.1442 2.7600 2.2397
-4.2373 2.6063 2.2397
-4.3249 2.4496 2.2396
-4.4069 2.2900 2.2395
-4.4832 2.1278 2.2395
-4.5539 1.9632 2.2394
-4.6187 1.7962 2.2393
-4.6776 1.6273 2.2393
-4.7305 1.4564 2.2392
-4.7775 1.2839 2.2392
-4.8184 1.1100 2.2391
-4.8533 0.9348 2.2390
-4.8820 0.7586 2.2390
-4.9046 0.5815 2.2389
-4.9210 0.4038 2.2389
-4.9313 0.2257 2.2388
-4.9354 0.0473 2.2388
-4.9333 -0.1310 2.2388
-4.9250 -0.3092 2.2387
-4.9105 -0.4869 2.2387
-4.8899 -0.6641 2.2387
-4.8631 -0.8404 2.2386
-4.8303 -1.0157 2.2386
-4.7913 -1.1898 2.2386
-4.7464 -1.3625 2.2386
-4.6954 -1.5335 2.2385
-4.6385 -1.7027 2.2385
-4.5758 -1.8699 2.2385
-4.5073 -2.0349 2.2385
-4.4331 -2.1975 2.2385
-4.3530 -2.3573 2.2384
-4.2672 -2.5143 2.2382
-4.1760 -2.6682 2.2380
-4.0794 -2.8189 2.2378
-3.9779 -2.9665 2.2378
-3.8712 -3.1106 2.2378
-3.7596 -3.2510 2.2378
-3.6430 -3.3875 2.2378
-3.5216 -3.5199 2.2378
-3.3953 -3.6478 2.2377
-3.2644 -3.7713 2.2375
-3.1292 -3.8902 2.2373
-2.9900 -4.0045 2.2372
-2.8468 -4.1142 2.2372
-2.6997 -4.2188 2.2372
-2.5489 -4.3184 2.2372
-2.3945 -4.4127 2.2372
-2.2367 -4.5015 2.2372
-2.0757 -4.5849 2.2372
-1.9118 -4.6626 2.2372
-1.7449 -4.7345 2.2372
-1.5755 -4.8006 2.2372
-1.4036 -4.8607 2.2372
-1.2296 -4.9147 2.2372
-1.0535 -4.9626 2.2372
-0.8756 -5.0043 2.2372
-0.6961 -5.0396 2.2372
-0.5153 -5.0686 2.2372
-0.3333 -5.0911 2.2372
-0.1504 -5.1072 2.2372
0.0332 -4.8181 2.2372
0.2064 -4.8206 2.2372
0.3799 -4.8168 2.2372
0.5533 -4.8068 2.2372
0.7264 -4.7906 2.2372
0.8990 -4.7681 2.2372
1.0710 -4.7394 2.2372
1.2419 -4.7045 2.2372
1.4117 -4.6635 2.2372
1.5801 -4.6162 2.2372
1.7469 -4.5629 2.2372
1.9118 -4.5034 2.2372
2.0746 -4.4380 2.2372
2.2351 -4.3667 2.2372
2.3931 -4.2894 2.2372
2.5483 -4.2064 2.2372
2.7006 -4.1177 2.2372
2.8497 -4.0235 2.2372
2.9954 -3.9237 2.2372
3.1375 -3.8186 2.2372
3.2758 -3.7083 2.2372
3.4101 -3.5929 2.2372
3.3921 -3.3273 2.1436
3.4970 -3.1931 2.1341
3.6126 -3.0693 2.1341
3.7236 -2.9413 2.1341
3.8299 -2.8091 2.1341
3.9314 -2.6730 2.1341
4.0279 -2.5332 2.1341
4.1192 -2.3898 2.1341
2.4852 -1.3256 1.2612
4.2858 -2.0931 2.1341
3.2310 -1.4375 1.5811
3.2186 -1.2965 1.5504
3.3534 -1.2136 1.5925
4.5517 -1.4659 2.1341
4.6035 -1.3033 2.1341
4.6493 -1.1388 2.1341
4.6890 -0.9727 2.1341
4.7225 -0.8051 2.1341
4.7498 -0.6364 2.1341
4.7708 -0.4668 2.1341
4.7855 -0.2964 2.1341
4.7939 -0.1256 2.1341
4.7960 0.0454 2.1341
4.7917 0.2164 2.1341
4.7811 0.3871 2.1341
4.7641 0.5573 2.1341
4.7408 0.7267 2.1341
4.7113 0.8952 2.1341
4.6756 1.0624 2.1341
4.6337 1.2282 2.1341
4.5856 1.3922 2.1341
4.5316 1.5544 2.1341
4.4716 1.7143 2.1341
4.4057 1.8719 2.1341
4.3341 2.0269 2.1341
4.2568 2.1791 2.1341
4.1740 2.3282 2.1341
4.0857 2.4741 2.1341
3.9922 2.6166 2.1341
3.8935 2.7554 2.1341
3.7898 2.8904 2.1341
3.6813 3.0215 2.1341
3.5681 3.1483 2.1341
3.4504 3.2708 2.1341
3.3284 3.3888 2.1341
3.2022 3.5022 2.1341
3.0720 3.6108 2.1341
2.9380 3.7144 2.1341
2.8005 3.8129 2.1341
2.6595 3.9063 2.1341
0.8837 1.4033 0.7497
0.8328 1.4337 0.7505
0.7808 1.4623 0.7512
0.7279 1.4890 0.7520
0.6740 1.5137 0.7527
0.6193 1.5366 0.7535
0.5638 1.5574 0.7543
0.5076 1.5762 0.7551
0.4507 1.5930 0.7559
0.3933 1.6078 0.7568
0.3354 1.6204 0.7576
0.2770 1.6310 0.7585
0.2183 1.6395 0.7593
0.1594 1.6459 0.7602
0.1003 1.6502 0.7611
0.0410 1.6523 0.7620
-0.0183 1.6523 0.7628
-0.0775 1.6502 0.7637
-0.1367 1.6459 0.7646
-0.1956 1.6395 0.7655
-0.2543 1.6311 0.7664
-0.3126 1.6205 0.7673
-0.3706 1.6078 0.7681
-0.4280 1.5930 0.7690
-0.4848 1.5763 0.7699
-0.5411 1.5574 0.7707
-0.5966 1.5366 0.7716
-0.6513 1.5138 0.7724
-0.7052 1.4890 0.7733
-0.7581 1.4623 0.7741
-0.8101 1.4338 0.7749
-0.8610 1.4034 0.7757
-0.9107 1.3711 0.7765
-0.9593 1.3371 0.7772
-2.8983 3.7470 2.2399
-3.0281 3.6361 2.2400
-3.1538 3.5208 2.2400
-3.2752 3.4012 2.2401
-3.3922 3.2775 2.2402
-3.5047 3.1500 2.2402
-3.6124 3.0184 2.2402
-3.7152 2.8833 2.2401
-3.8132 2.7447 2.2400
-3.9063 2.6030 2.2399
-3.9942 2.4581 2.2399
-4.0770 2.3104 2.2398
-4.1545 2.1600 2.2397
-4.2267 2.0071 2.2397
-4.2934 1.8519 2.2396
-4.3547 1.6945 2.2395
-4.4104 1.5351 2.2395
-4.4604 1.3740 2.2394
-4.5049 1.2113 2.2393
-4.5435 1.0473 2.2393
-4.5765 0.8820 2.2392
-4.6037 0.7158 2.2392
-4.6251 0.5487 2.2391
-4.6407 0.3811 2.2391
-4.6504 0.2131 2.2390
-4.6543 0.0448 2.2390
-4.6523 -0.1235 2.2390
-4.6445 -0.2915 2.2389
-4.6309 -0.4592 2.2389
-4.6114 -0.6264 2.2389
-4.5861 -0.7927 2.2389
-4.5551 -0.9581 2.2388
-4.5183 -1.1223 2.2388
-4.4758 -1.2852 2.2388
-4.4277 -1.4466 2.2388
-4.3740 -1.6062 2.2387
-4.3147 -1.7639 2.2387
-4.2500 -1.9195 2.2387
-4.1799 -2.0728 2.2387
-4.1041 -2.2234 2.2385
-4.0231 -2.3714 2.2383
-3.9369 -2.5165 2.2381
-3.8457 -2.6586 2.2379
-3.7497 -2.7977 2.2379
-3.6490 -2.9334 2.2379
-3.5436 -3.0657 2.2379
-3.4335 -3.1943 2.2379
-3.3189 -3.3190 2.2379
-3.1996 -3.4395 2.2378
-3.0761 -3.5557 2.2376
-2.9485 -3.6677 2.2374
-2.8169 -3.7752 2.2372
-2.6817 -3.8783 2.2372
-2.5429 -3.9767 2.2372
-2.4006 -4.0703 2.2372
-2.2550 -4.1590 2.2372
-2.1062 -4.2425 2.2372
-1.9543 -4.3208 2.2372
-1.7997 -4.3937 2.2372
-1.6424 -4.4612 2.2372
-1.4826 -4.5232 2.2372
-1.3206 -4.5795 2.2372
-1.1565 -4.6302 2.2372
-0.9905 -4.6750 2.2372
-0.8229 -4.7139 2.2372
-0.6538 -4.7469 2.2372
-0.4834 -4.7738 2.2372
-0.3120 -4.7947 2.2372
-0.1397 -4.8095 2.2372
0.0332 -4.5472 2.2372
0.1967 -4.5492 2.2372
0.3603 -4.5453 2.2372
0.5240 -4.5356 2.2372
0.6873 -4.5200 2.2372
0.8501 -4.4985 2.2372
1.0122 -4.4712 2.2372
1.1735 -4.4380 2.2372
1.3336 -4.3989 2.2372
1.4923 -4.3541 2.2372
1.6495 -4.3035 2.2372
1.8049 -4.2472 2.2372
1.9584 -4.1852 2.2372
2.1096 -4.1176 2.2372
2.2584 -4.0446 2.2372
2.4047 -3.9660 2.2372
2.5481 -3.8822 2.2372
2.6885 -3.7931 2.2372
2.8257 -3.6989 2.2372
2.9595 -3.5996 2.2372
3.0897 -3.4954 2.2372
3.2162 -3.3864 2.2372
3.3386 -3.2728 2.2372
3.2976 -3.0093 2.1341
3.4064 -2.8925 2.1341
3.5108 -2.7716 2.1341
3.6109 -2.6470 2.1341
3.7064 -2.5186 2.1341
3.7971 -2.3867 2.1341
3.8830 -2.2515 2.1341
2.4683 -1.3159 1.3289
4.0397 -1.9719 2.1341
3.2241 -1.4337 1.6740
3.2147 -1.2942 1.6430
3.3492 -1.2114 1.6876
4.2897 -1.3807 2.1341
4.3384 -1.2275 2.1341
4.3814 -1.0726 2.1341
4.4187 -0.9161 2.1341
4.4502 -0.7582 2.1341
4.4758 -0.5993 2.1341
4.4956 -0.4395 2.1341
4.5094 -0.2791 2.1341
4.5172 -0.1182 2.1341
4.5191 0.0429 2.1341
4.5151 0.2039 2.1341
4.5051 0.3647 2.1341
4.4891 0.5250 2.1341
4.4672 0.6847 2.1341
4.4394 0.8433 2.1341
4.4058 1.0008 2.1341
4.3664 1.1570 2.1341
4.3212 1.3115 2.1341
4.2704 1.4643 2.1341
4.2139 1.6150 2.1341
4.1520 1.7635 2.1341
4.0846 1.9095 2.1341
4.0119 2.0529 2.1341
3.9339 2.1934 2.1341
3.8509 2.3310 2.1341
3.7629 2.4653 2.1341
3.6701 2.5961 2.1341
3.5725 2.7234 2.1341
3.4704 2.8470 2.1341
3.3639 2.9667 2.1341
3.2531 3.0822 2.1341
3.1383 3.1936 2.1341
3.0195 3.3005 2.1341
2.8969 3.4030 2.1341
2.7708 3.5008 2.1341
0.9274 1.2618 0.7493
0.8815 1.2939 0.7499
0.8345 1.3243 0.7506
0.7865 1.3530 0.7513
0.7375 1.3800 0.7519
0.6875 1.4051 0.7527
0.6367 1.4285 0.7534
0.5850 1.4500 0.7541
0.5327 1.4697 0.7549
0.4796 1.4875 0.7556
0.4260 1.5033 0.7564
0.3718 1.5172 0.7572
0.3171 1.5292 0.7580
0.2620 1.5392 0.7588
0.2067 1.5472 0.7596
0.1511 1.5532 0.7605
0.0953 1.5572 0.7613
0.0393 1.5592 0.7621
-0.0166 1.5592 0.7629
-0.0725 1.5572 0.7638
-0.1283 1.5532 0.7646
-0.1840 1.5472 0.7654
-0.2393 1.5392 0.7663
-0.2944 1.5292 0.7671
-0.3490 1.5173 0.7679
-0.4032 1.5033 0.7688
-0.4569 1.4875 0.7696
-0.5099 1.4697 0.7704
-0.5623 1.4501 0.7712
-0.6140 1.4285 0.7720
-0.6648 1.4052 0.7728
-0.7148 1.3800 0.7735
-0.7638 1.3530 0.7743
-0.8118 1.3243 0.7750
-0.8588 1.2939 0.7758
-0.9046 1.2619 0.7765
-0.9493 1.2282 0.7772
-2.8584 3.4347 2.2398
-2.9773 3.3259 2.2399
-3.0921 3.2131 2.2400
-3.2028 3.0965 2.2400
-3.3093 2.9761 2.2401
-3.4114 2.8521 2.2402
-3.5089 2.7247 2.2402
-3.6017 2.5939 2.2402
-3.6898 2.4601 2.2401
-3.7730 2.3233 2.2400
-3.8514 2.1838 2.2400
-3.9248 2.0417 2.2399
-3.9931 1.8972 2.2398
-4.0563 1.7506 2.2398
-4.1143 1.6018 2.2397
-4.1671 1.4512 2.2396
-4.2145 1.2990 2.2396
-4.2566 1.1452 2.2395
-4.2933 0.9901 2.2395
-4.3245 0.8339 2.2394
-4.3503 0.6768 2.2394
-4.3706 0.5189 2.2393
-4.3853 0.3604 2.2393
-4.3946 0.2016 2.2392
-4.3983 0.0425 2.2392
-4.3965 -0.1166 2.2392
-4.3891 -0.2755 2.2391
-4.3762 -0.4340 2.2391
-4.3578 -0.5920 2.2391
-4.3339 -0.7493 2.2390
-4.3045 -0.9056 2.2390
-4.2697 -1.0609 2.2390
-4.2295 -1.2149 2.2390
-4.1840 -1.3674 2.2389
-4.1331 -1.5182 2.2389
-4.0770 -1.6673 2.2389
-4.0157 -1.8143 2.2389
-3.9492 -1.9591 2.2388
-3.8775 -2.1015 2.2386
-3.8008 -2.2413 2.2384
-3.7193 -2.3784 2.2383
-3.6330 -2.5127 2.2381
-3.5421 -2.6439 2.2380
-3.4468 -2.7722 2.2380
-3.3470 -2.8971 2.2380
-3.2429 -3.0185 2.2380
-3.1344 -3.1362 2.2380
-3.0216 -3.2499 2.2378
-2.9048 -3.3597 2.2377
-2.7841 -3.4653 2.2375
-2.6597 -3.5667 2.2373
-2.5317 -3.6638 2.2372
-2.4004 -3.7566 2.2372
