ply
format ascii 1.0
element vertex 1968
property float32 x
property float32 y
property float32 z
end_header
16.2528 -32.3839 -5.7051
23.7477 -43.3725 -7.8038
26.0546 -43.7888 -8.0612
28.2282 -43.7950 -8.2646
35.3242 -47.0366 -9.3827
26.5948 -32.8915 -6.7670
27.3780 -31.4845 -6.6958
38.8665 -33.5287 -8.3500
40.1218 -32.1790 -8.3971
21.5986 -14.9141 -4.3178
21.8674 -13.9701 -4.2853
22.2194 -13.0984 -4.2765
22.4804 -12.1887 -4.2570
22.2574 -11.0548 -4.1541
22.6938 -10.2748 -4.1814
22.6231 -9.2807 -4.1217
33.7872 -12.4653 -6.0961
34.1260 -11.2177 -6.1068
34.8326 -10.0814 -6.1911
34.9121 -8.7608 -6.1721
34.7073 -7.3973 -6.1116
31.5457 -5.5489 -5.5404
30.7558 -4.2790 -5.3948
32.1168 -3.2989 -5.6337
32.2738 -2.1484 -5.6688
33.4122 -1.0220 -5.8841
32.5850 0.1733 -5.7608
32.6515 1.3466 -5.8025
34.2569 2.6473 -6.1270
35.1217 3.9870 -6.3302
32.5836 4.8896 -5.9256
31.6898 5.9262 -5.8224
24.3269 5.4603 -4.5214
32.7799 8.6054 -6.1712
31.9070 9.6141 -6.0926
33.9660 11.5812 -6.5871
35.5324 13.5593 -7.0083
35.4823 15.0225 -7.1277
29.0338 13.5428 -5.9487
20.8155 10.6367 -4.3565
18.8470 10.5020 -4.0355
18.4637 11.1769 -4.0512
15.5352 10.1851 -3.4988
15.4658 10.9547 -3.5815
15.1043 11.5366 -3.6033
14.6510 12.0491 -3.6077
12.9105 11.4207 -3.2882
10.2488 9.7457 -2.7058
9.9856 10.2044 -2.7393
9.4348 10.3628 -2.6962
9.4420 11.1520 -2.8185
2.0199 2.5678 -0.6317
8.2576 11.3129 -2.7147
8.2171 12.1534 -2.8498
8.1338 13.0169 -2.9880
8.9268 15.5017 -3.4892
7.9371 15.0085 -3.3178
7.2099 14.9094 -3.2419
6.5644 14.9237 -3.1966
8.6448 21.7469 -4.5951
8.1871 22.9741 -4.7953
10.2921 32.5443 -6.7192
9.0929 32.8221 -6.7116
17.1138 71.7264 -14.5447
8.9451 54.6851 -10.9452
6.9610 54.9108 -10.9386
-22.5308 94.3861 -19.1259
-24.4200 88.1123 -18.0027
-23.8143 75.2764 -15.5272
-21.3348 59.8498 -12.4794
-23.6108 59.3787 -12.5324
-26.0890 59.2957 -12.6852
-19.2399 39.7769 -8.6375
-18.2915 34.5803 -7.6332
-19.1216 33.1988 -7.4608
-19.4031 31.0460 -7.1147
-21.8051 32.2446 -7.5478
-22.6439 31.0167 -7.4291
-23.5621 29.9478 -7.3535
-24.6498 29.1095 -7.3420
-26.7851 29.4153 -7.6369
-27.9990 28.6087 -7.6628
-33.7650 32.1031 -8.8927
-35.3266 31.2461 -8.9747
-38.3271 31.5165 -9.4132
-39.0066 29.7894 -9.2807
-38.3300 27.1469 -8.8521
-48.4820 31.7821 -10.8881
-49.9697 30.2457 -10.9323
-53.2431 29.6653 -11.3667
-63.5645 32.4783 -13.2634
-63.3177 29.5318 -12.9332
-58.2307 24.6514 -11.6608
-58.6614 22.3835 -11.5333
-51.8140 17.6654 -10.0159
-50.1613 15.1133 -9.5467
-51.2918 13.4643 -9.6242
-50.1857 11.2639 -9.2962
-49.9759 9.3455 -9.1508
-50.3987 7.5628 -9.1339
-58.4615 6.6365 -10.5003
-54.6369 4.2225 -9.7379
-53.7413 2.2168 -9.5168
-54.7531 0.2918 -9.6459
-54.8566 -1.6771 -9.6264
-55.5024 -3.6936 -9.7142
-54.4887 -5.5956 -9.5240
-57.2596 -7.9647 -10.0080
-58.7440 -10.3311 -10.2806
-55.0754 -11.7364 -9.6639
-60.6371 -15.2137 -10.6822
-60.4825 -17.5024 -10.7124
-59.1793 -19.4500 -10.5530
-57.9210 -21.3659 -10.4142
-57.3123 -23.5078 -10.4058
-56.7945 -25.7103 -10.4290
-57.5140 -28.5618 -10.6982
-66.3482 -35.9683 -12.5225
-67.4678 -39.7668 -12.9429
-18.9586 -12.1100 -3.7034
-17.5461 -12.1140 -3.4966
-16.2725 -12.1177 -3.3147
-15.1152 -12.1210 -3.1539
-14.0564 -12.1240 -3.0109
-13.3847 -12.4077 -2.9501
-13.2342 -13.1801 -3.0090
-13.2371 -14.1624 -3.1128
-13.2401 -15.2234 -3.2296
-13.2434 -16.3761 -3.3612
-13.2470 -17.6360 -3.5100
-13.2510 -19.0229 -3.6791
-13.2554 -20.5610 -3.8721
-13.1274 -22.0579 -4.0528
-32.6880 -59.6874 -10.7196
-27.6644 -55.1083 -9.6919
-25.8861 -56.5243 -9.7518
-25.4292 -61.2237 -10.3793
-23.3320 -62.3872 -10.4103
-6.5115 -45.1675 -7.0837
-4.8701 -45.1722 -7.0488
-3.1353 -43.7052 -6.7955
-1.5670 -43.7097 -6.7818
-0.0020 -43.8066 -5.7855
1.5681 -43.8414 -5.7949
3.2389 -45.1905 -5.9870
4.8706 -45.1970 -6.0107
19.0622 -57.1103 -8.0229
18.1336 -48.4767 -6.9104
13.6305 -32.8085 -4.7537
15.1239 -33.0148 -4.8703
16.2731 -32.4064 -4.8757
23.9858 -43.7829 -6.7304
26.0694 -43.7888 -6.8901
28.2446 -43.7951 -7.0670
35.6371 -51.1397 -8.4796
35.5912 -47.3633 -8.0866
26.7086 -33.0116 -5.8160
27.2914 -31.3647 -5.7151
41.0747 -43.9243 -8.2976
44.1672 -43.9634 -8.6318
47.4113 -43.9263 -8.9882
38.8959 -33.5291 -7.1709
39.9778 -32.0387 -7.1842
21.9677 -15.1561 -3.7753
22.0963 -14.1036 -3.7249
22.3119 -13.1405 -3.6963
21.0705 -11.4127 -3.4366
22.1113 -10.9704 -3.5567
22.6805 -10.2567 -3.6039
26.5287 -10.8691 -4.1709
33.5718 -12.3686 -5.2306
34.2578 -11.2436 -5.2972
34.8910 -10.0808 -5.3622
34.9702 -8.7580 -5.3492
35.8320 -7.6194 -5.4629
31.6440 -5.5508 -4.8150
31.5105 -4.3687 -4.7917
31.3258 -3.2026 -4.7669
33.9570 -2.2441 -5.1775
33.2129 -1.0000 -5.0806
32.6384 0.1892 -5.0153
32.7052 1.3645 -5.0548
33.9034 2.6363 -5.2770
34.0967 3.8871 -5.3514
22.9883 3.4608 -3.6426
23.5416 4.4139 -3.7710
24.2471 5.4543 -3.9313
32.6608 8.5903 -5.3670
32.1427 9.7011 -5.3603
33.9049 11.5774 -5.7457
35.5543 13.5858 -6.1312
31.0671 13.1692 -5.4593
28.9534 13.5205 -5.1921
20.6784 10.5777 -3.7897
18.8767 10.5288 -3.5411
18.4928 11.2048 -3.5566
15.5378 10.1957 -3.0687
15.4484 10.9514 -3.1387
14.9954 11.4623 -3.1399
12.9405 10.6503 -2.7980
12.9254 11.4421 -2.8918
12.9092 12.2839 -2.9951
12.2980 12.5758 -2.9658
9.7106 10.6725 -2.4404
9.4358 11.1516 -2.4779
2.0188 2.5679 -0.5556
8.2606 11.3236 -2.3906
8.5941 12.7182 -2.6245
8.2641 13.2329 -2.6740
7.7336 13.4371 -2.6632
8.5578 16.1908 -3.1524
7.1890 14.8740 -2.8493
7.4235 16.8851 -3.1869
8.6978 21.8913 -4.0767
8.3276 23.3799 -4.3017
8.7673 27.7361 -5.0486
8.4637 30.5652 -5.5111
7.7495 32.4943 -5.8108
14.0959 70.2251 -12.4700
8.9517 54.7495 -9.6654
7.1648 56.5428 -9.9356
8.0998 89.7367 -15.7133
-21.8176 91.4466 -16.3397
-21.7233 78.4230 -14.1269
-20.1019 63.5752 -11.5600
-21.6371 60.7300 -11.1607
-23.3340 58.7141 -10.9200
-17.9588 40.8393 -7.6972
-17.1667 35.5102 -6.7919
-18.5433 35.0760 -6.8181
-19.1070 33.1921 -6.5669
-20.2173 32.3674 -6.5282
-21.4744 31.7743 -6.5440
-22.7531 31.1851 -6.5698
-24.0202 30.5490 -6.5954
-25.1294 29.6950 -6.5830
-26.6877 29.3276 -6.6899
-28.2348 28.8693 -6.7913
-34.3382 32.6711 -7.9451
-34.4319 30.4771 -7.6817
-38.5551 31.7283 -8.3121
-39.0285 29.8300 -8.1477
-42.1552 29.8810 -8.5383
-47.9857 31.4845 -9.4471
-49.5483 30.0187 -9.4982
-56.1810 31.3333 -10.5040
-64.6558 33.0710 -11.8092
-64.1005 29.9311 -11.4549
-57.2453 24.2643 -10.0238
-52.0567 19.8902 -8.9446
-51.9424 17.7356 -8.7701
-50.1524 15.1358 -8.3325
-50.7951 13.3592 -8.3154
-50.4684 11.3522 -8.1514
-50.3211 9.4346 -8.0293
-50.3073 7.5735 -7.9403
-58.6576 6.6871 -9.1698
-54.6938 4.2532 -8.4791
-53.3460 2.2261 -8.2119
-54.7920 0.3183 -8.3856
-54.5527 -1.6417 -8.3111
-55.6325 -3.6756 -8.4479
-58.1922 -5.9479 -8.8191
-57.2943 -7.9420 -8.6770
-55.3435 -9.7063 -8.3868
-56.4824 -12.0087 -8.5763
-60.0898 -15.0468 -9.1544
-61.1873 -17.6760 -9.3656
-59.6921 -19.5887 -9.1930
-57.1532 -21.0537 -8.8692
-57.4148 -23.5203 -8.9912
-57.2611 -25.8916 -9.0632
-56.1089 -27.8344 -8.9904
-22.3428 -12.1003 -3.6302
-20.5571 -12.1054 -3.3928
-18.9752 -12.1099 -3.1869
-17.5607 -12.1140 -3.0070
-16.4133 -12.2128 -2.8712
-15.6465 -12.5376 -2.8020
-15.2952 -13.1830 -2.8102
-14.9196 -13.8209 -2.8191
-14.5195 -14.4505 -2.8285
-14.0950 -15.0707 -2.8385
-13.6462 -15.6805 -2.8490
-13.4373 -16.6057 -2.9175
-13.2470 -17.6257 -3.0013
-13.2510 -19.0121 -3.1445
-13.2554 -20.5496 -3.3080
-13.2603 -22.2691 -3.4960
-13.2658 -24.2102 -3.7136
-29.1717 -58.0807 -8.7209
-26.3696 -57.5508 -8.4740
-24.8564 -59.8147 -8.6517
-23.5868 -63.0377 -8.9719
-22.1799 -66.4314 -9.3189
-25.3125 -85.9396 -11.9013
-23.1565 -90.4473 -12.3851
-6.7879 -47.0643 -6.2882
-4.8721 -45.1722 -6.0045
-3.1365 -43.7052 -5.7884
-1.5707 -43.8021 -5.7887
-0.0017 -43.8066 -4.7846
1.5647 -43.7186 -4.7791
3.1355 -43.7231 -4.7910
4.7148 -43.7276 -4.8104
18.0966 -61.4289 -7.0547
19.0721 -57.1103 -6.6472
18.2439 -48.7458 -5.7596
13.9385 -33.5321 -4.0289
15.1552 -33.0655 -4.0468
16.3077 -32.4577 -4.0535
23.9991 -43.7829 -5.5897
26.1575 -43.9119 -5.7418
28.2610 -43.7951 -5.8763
35.2375 -50.5364 -6.9723
35.5371 -47.2628 -6.7187
26.5142 -32.7510 -4.8077
27.7556 -31.8778 -4.8433
40.6308 -43.4209 -6.8445
44.0736 -43.8404 -7.1882
47.3623 -43.8498 -7.4989
39.2115 -33.7764 -6.0422
39.9771 -32.0135 -6.0095
59.1232 -43.9632 -8.6895
23.1187 -15.9367 -3.3291
22.6178 -14.4237 -3.1974
23.3976 -13.7669 -3.2534
20.9097 -11.3142 -2.8649
21.6577 -10.7337 -2.9291
23.5878 -10.6546 -3.1542
24.4013 -9.9849 -3.2314
25.3670 -9.3328 -3.3319
35.4269 -11.6096 -4.6223
35.6356 -10.2783 -4.6253
35.0281 -8.7553 -4.5292
38.6973 -8.2099 -4.9916
31.7423 -5.5526 -4.0901
32.2628 -4.4575 -4.1582
32.0372 -3.2600 -4.1356
33.2600 -2.1822 -4.3057
33.5968 -0.9956 -4.3673
32.6916 0.2051 -4.2725
32.7587 1.3823 -4.3098
35.3156 2.7629 -4.6830
34.1255 3.9067 -4.5666
23.1164 3.4912 -3.1257
23.5305 4.4232 -3.2189
23.9301 5.3946 -3.3161
23.6400 6.2292 -3.3227
39.0429 11.8031 -5.5733
36.5095 12.4851 -5.3000
35.2171 13.4748 -5.2060
35.2483 14.9598 -5.3135
28.6487 13.3932 -4.4101
20.5439 10.5198 -3.2342
18.9063 10.5555 -3.0486
19.2396 11.6679 -3.1826
15.5404 10.2061 -2.6415
15.4711 10.9764 -2.7068
15.3987 11.7797 -2.7782
14.4423 11.8951 -2.6921
12.9402 11.4634 -2.4973
12.9245 12.3068 -2.5879
12.3879 12.6761 -2.5795
12.1236 13.3330 -2.6320
10.4827 12.3965 -2.3791
2.0177 2.5680 -0.4801
9.4985 13.0280 -2.3776
8.9442 13.2437 -2.3635
8.3978 13.4543 -2.3520
8.8900 15.4546 -2.6508
8.5411 16.1677 -2.7251
8.1895 16.9527 -2.8122
7.4433 16.9389 -2.7693
10.8708 27.3738 -4.4168
9.6607 27.1358 -4.3268
8.9226 28.2410 -4.4558
8.6348 31.1979 -4.8767
7.2479 30.4048 -4.7145
6.3358 31.5787 -4.8629
9.0216 55.2015 -8.4521
7.0957 56.0209 -8.5384
8.0263 88.9572 -13.5119
-21.3745 89.6356 -13.8857
-24.5316 88.6074 -13.8359
-23.4982 74.3551 -11.7173
-21.9210 61.5590 -9.8024
-14.8965 37.5033 -6.0421
-15.6300 35.5627 -5.8046
-17.0560 35.3004 -5.8454
-18.6952 35.3828 -5.9525
-19.7344 34.3015 -5.8714
-19.6208 31.4306 -5.4826
-21.2222 31.4197 -5.5943
-24.1425 33.1094 -6.0277
-24.3476 30.9845 -5.7783
-25.6246 30.2994 -5.7994
-26.7425 29.4071 -5.7888
-34.4621 35.2603 -7.1544
-34.3261 32.6825 -6.8516
-35.0814 31.0746 -6.7483
-36.7343 30.2529 -6.8246
-37.6722 28.8162 -6.7734
-43.9502 31.1794 -7.6622
-47.6745 31.3078 -8.0739
-49.5814 30.0666 -8.1708
-51.5099 28.7564 -8.2739
-64.3438 32.9461 -10.0899
-60.4027 28.2364 -9.2609
-57.2873 24.3119 -8.6003
-52.2890 20.0058 -7.6974
-52.3404 17.8979 -7.5658
-50.1436 15.1582 -7.1269
-52.3102 13.7835 -7.3202
-50.7524 11.4409 -7.0017
-50.1962 9.4356 -6.8358
-50.2168 7.5841 -6.7592
-58.8146 6.7332 -7.8343
-52.9557 4.1433 -6.9895
-53.9111 2.2754 -7.0594
-54.3961 0.3419 -7.0757
-53.9408 -1.5976 -6.9786
-53.2181 -3.4907 -6.8566
-56.2712 -5.7247 -7.2293
-57.3289 -7.9193 -7.3536
-55.3086 -9.6735 -7.0926
-56.2509 -11.9322 -7.2212
-62.3202 -15.5750 -8.0198
-62.5449 -18.0374 -8.0795
-60.9544 -19.9726 -7.9155
-58.4281 -21.4939 -7.6385
-58.5242 -23.9449 -7.7141
-26.7632 -12.0876 -3.5623
-24.4059 -12.0944 -3.2857
-22.3648 -12.1002 -3.0505
-20.5998 -12.1194 -2.8517
-19.2995 -12.3061 -2.7164
-18.9954 -13.0928 -2.7236
-18.6631 -13.8760 -2.7314
-18.3022 -14.6547 -2.7399
-17.9126 -15.4279 -2.7491
-17.4940 -16.1946 -2.7589
-17.0460 -16.9537 -2.7695
-16.5686 -17.7041 -2.7807
-16.0615 -18.4445 -2.7926
-15.5247 -19.1738 -2.8053
-14.9580 -19.8907 -2.8186
-14.3616 -20.5939 -2.8326
-13.7354 -21.2821 -2.8473
-13.4552 -22.5842 -2.9449
-13.2658 -24.1974 -3.0812
-30.6723 -61.0369 -7.6042
-25.5491 -55.7319 -6.8055
-23.1716 -55.7326 -6.6823
-23.3653 -62.4153 -7.3607
-28.7037 -85.9299 -9.9842
-25.3244 -85.9396 -9.8543
-23.2080 -90.6065 -10.2698
-6.5172 -45.1675 -4.9921
-4.8741 -45.1722 -4.9664
-3.1377 -43.7052 -4.7872
-1.5532 -43.3000 -4.7324
-0.0014 -43.5713 -3.7682
1.5658 -43.7186 -3.7844
3.1373 -43.7231 -3.7943
4.7173 -43.7276 -3.8104
17.5379 -59.5016 -5.4230
19.0821 -57.1104 -5.2782
18.2439 -48.7204 -4.5738
13.9831 -33.6216 -3.2118
15.0991 -32.9253 -3.2061
16.2574 -32.3400 -3.2160
23.7874 -43.3726 -4.4128
26.0989 -43.7889 -4.5668
28.2772 -43.7952 -4.6913
35.6373 -51.0798 -5.6315
35.6343 -47.3635 -5.3858
26.5048 -32.7191 -3.8459
27.6372 -31.7216 -3.8634
41.1233 -43.9183 -5.5556
44.2275 -43.9636 -5.7913
53.5307 -49.5259 -6.8125
39.1930 -33.7356 -4.8601
40.2582 -32.2140 -4.8759
58.5097 -43.4721 -6.9369
63.7327 -43.8967 -7.4124
22.6872 -14.4551 -2.5936
22.7128 -13.3514 -2.5572
21.6513 -11.7038 -2.4051
22.5522 -11.1651 -2.4760
24.2491 -10.9407 -2.6357
23.2365 -9.4963 -2.5044
25.2594 -9.2805 -2.7037
35.3323 -11.5609 -3.7616
36.1483 -10.4083 -3.8334
37.1224 -9.2606 -3.9268
30.7995 -6.5194 -3.2542
31.7067 -5.5312 -3.3508
31.6661 -4.3599 -3.3516
32.7773 -3.3197 -3.4790
33.2544 -2.1661 -3.5441
33.9874 -0.9911 -3.6416
34.8712 0.2352 -3.7610
33.3164 1.4216 -3.6216
35.4696 2.7918 -3.8907
34.1542 3.9262 -3.7852
24.0939 3.6503 -2.7012
23.5195 4.4324 -2.6706
25.2765 5.7104 -2.9106
34.8802 9.2081 -4.0783
41.8303 12.6662 -4.9724
36.6517 12.5520 -4.4353
35.3098 13.5281 -4.3555
38.0847 16.1831 -4.7952
28.7955 13.4768 -3.7060
20.4120 10.4630 -2.6891
20.7438 11.5926 -2.8016
19.6682 11.9386 -2.7274
15.5430 10.2165 -2.2166
15.4737 10.9872 -2.2733
15.4014 11.7908 -2.3351
15.5005 12.7761 -2.4300
12.9550 11.4846 -2.1042
12.9398 12.3297 -2.1821
12.6956 12.9995 -2.2280
12.0041 13.2100 -2.1977
10.4623 12.3800 -2.0036
2.0165 2.5681 -0.4052
9.4805 13.0109 -2.0047
9.0915 13.4693 -2.0305
11.0521 17.7165 -2.6176
10.7293 18.6620 -2.7066
9.9285 18.8038 -2.6811
9.9019 20.5078 -2.8790
9.9691 22.6982 -3.1416
9.1390 23.0244 -3.1462
9.4603 26.5857 -3.5912
9.0617 28.6950 -3.8365
8.1348 29.4050 -3.8959
7.1960 30.2011 -3.9700
6.4946 32.3848 -4.2286
8.9591 54.8432 -7.1212
6.7883 53.6168 -6.9310
7.9317 87.9446 -11.3305
-22.1465 92.9213 -12.2014
-24.3135 87.8651 -11.6267
-20.1149 63.6825 -8.5020
-21.1067 59.3035 -7.9978
-14.8885 37.5030 -5.1156
-15.5341 35.3634 -4.8852
-16.8074 34.8048 -4.8758
-20.1569 38.1702 -5.4303
-18.5528 32.2657 -4.6683
-19.5163 31.2809 -4.6098
-20.7641 30.7594 -4.6245
-24.3965 33.4778 -5.1435
-25.9889 33.0935 -5.2052
-29.1060 34.4376 -5.5559
-26.7901 29.4787 -4.8880
-28.9845 29.6758 -5.0685
-34.7958 33.1528 -5.8462
-35.6816 31.6292 -5.7733
-36.9430 30.4477 -5.7687
-37.5936 28.7787 -5.6767
-46.7086 33.1637 -6.8334
-47.9625 31.5243 -6.8105
-49.6143 30.1142 -6.8495
-54.5752 30.4975 -7.3372
-61.8884 31.7220 -8.1152
-63.7377 29.8290 -8.1639
-61.8341 26.2734 -7.7475
-61.2934 23.4820 -7.5231
-51.9934 17.8054 -6.2599
-50.9985 15.4420 -6.0310
-52.0187 13.7322 -6.0502
-52.0756 11.7646 -5.9647
-50.5781 9.5317 -5.7122
-57.2024 8.6665 -6.3780
-57.5281 6.6134 -6.3404
-52.9466 4.1678 -5.7754
-54.1388 2.3106 -5.8519
-54.5787 0.3688 -5.8532
-52.3154 -1.5248 -5.5734
-53.3185 -3.4721 -5.6498
-56.7011 -5.7415 -5.9835
-56.1713 -7.7326 -5.9109
-55.2738 -9.6410 -5.8075
-56.0227 -11.8568 -5.8850
-57.2025 -14.2681 -6.0158
-62.7587 -18.0683 -6.6169
-61.2813 -20.0494 -6.4867
-60.2677 -22.1405 -6.4140
-58.7816 -24.0204 -6.2993
-26.7935 -12.0875 -2.8958
-24.6235 -12.1893 -2.6883
-23.6647 -12.7909 -2.6142
-23.4021 -13.7552 -2.6204
-23.1066 -14.7209 -2.6274
-22.7779 -15.6870 -2.6352
-19.7977 -14.7080 -2.3350
-22.0175 -17.6164 -2.6531
-21.5848 -18.5774 -2.6633
-21.1164 -19.5346 -2.6743
-20.6116 -20.4865 -2.6862
-19.2334 -20.5385 -2.5865
-19.4913 -22.3694 -2.7126
-18.8747 -23.2975 -2.7271
-18.2202 -24.2145 -2.7425
-22.4995 -32.2451 -3.5414
-30.3655 -47.0234 -5.0188
-31.6871 -53.1577 -5.5248
-32.6379 -59.5017 -6.0340
-30.2035 -60.0732 -5.9555
-27.7992 -60.6097 -5.8852
-25.4771 -61.2479 -5.8354
-23.4819 -62.6965 -5.8717
-28.7174 -85.9298 -7.9244
-25.3362 -85.9395 -7.8173
-23.2078 -90.5644 -8.1394
-6.5200 -45.1675 -3.9545
-4.8761 -45.1722 -3.9333
-3.1389 -43.7058 -3.7909
-1.5683 -43.7098 -3.7827
-0.0011 -43.8066 -2.7964
1.5712 -43.8414 -2.8015
3.2444 -45.1905 -2.8955
4.8785 -45.1971 -2.9088
18.0968 -61.3663 -4.1440
19.0919 -57.1104 -3.9144
18.2440 -48.6953 -3.3938
13.8858 -33.3702 -2.3692
15.0478 -32.7961 -2.3764
16.6244 -33.0521 -2.4489
24.0256 -43.7830 -3.3235
26.1869 -43.9120 -3.4219
28.2934 -43.7952 -3.5107
35.2789 -50.5366 -4.1760
35.5373 -47.2063 -4.0300
26.7411 -32.9905 -2.9163
27.4569 -31.4947 -2.8898
40.6842 -43.4211 -4.1456
44.1336 -43.8406 -4.3669
47.4291 -43.8500 -4.5697
38.7574 -33.3364 -3.6455
39.7387 -31.7741 -3.6579
59.1234 -43.8932 -5.3379
49.3478 -33.9605 -4.3793
24.8718 -15.8330 -2.1740
24.5686 -14.4288 -2.1192
22.8753 -12.3531 -1.9507
23.0522 -11.4005 -1.9469
23.7193 -10.6894 -1.9872
24.1383 -9.8525 -2.0095
24.6802 -9.0553 -2.0446
27.1913 -8.8836 -2.2451
36.6733 -10.5414 -3.0223
37.2586 -9.2765 -3.0690
30.4618 -6.4332 -2.5113
31.3513 -5.4542 -2.5902
31.8962 -4.3764 -2.6445
33.3026 -3.3571 -2.7742
33.7723 -2.1839 -2.8303
32.8180 -0.9415 -2.7702
34.9273 0.2520 -2.9733
33.2591 1.4348 -2.8588
34.8150 2.7567 -3.0252
24.6895 2.8498 -2.1713
24.5016 3.7237 -2.1835
25.0697 4.7365 -2.2667
33.8219 7.6572 -3.1062
34.6205 9.1563 -3.2337
33.5878 10.1869 -3.1946
36.7943 12.6191 -3.5680
35.4025 13.5813 -3.5047
37.2287 15.8382 -3.7674
31.6624 14.8349 -3.2797
31.0486 15.9316 -3.2967
22.0439 12.3310 -2.4026
20.4791 12.4420 -2.2948
15.5456 10.2269 -1.7937
15.4763 10.9979 -1.8418
15.4040 11.8019 -1.8940
15.6109 12.8765 -1.9869
12.9698 11.5057 -1.7120
13.2449 12.6290 -1.8171
12.5627 12.8717 -1.7953
11.8875 13.0899 -1.7740
13.9634 16.5327 -2.1816
2.0154 2.5681 -0.3306
9.4623 12.9933 -1.6350
11.9209 17.6710 -2.1773
11.0672 17.7503 -2.1450
10.5542 18.3671 -2.1802
10.3723 19.6544 -2.2951
10.3111 21.3662 -2.4578
10.0021 22.7847 -2.5855
8.7167 21.9712 -2.4626
8.0566 22.6518 -2.5109
8.9243 28.2731 -3.1032
8.5471 30.9099 -3.3632
7.6885 32.2826 -3.4860
6.4778 32.3154 -3.4671
9.0252 55.2717 -5.8983
10.2034 80.6246 -8.5670
8.1367 90.2531 -9.5592
2.1198 39.2633 -4.1495
-21.2850 89.3527 -9.6358
-20.9715 75.8268 -8.2377
-20.2637 64.1868 -7.0327
-21.5663 60.6264 -6.7072
-24.1820 60.9444 -6.8162
-26.1732 59.6148 -6.7490
-18.8520 39.0598 -4.4818
-18.1711 34.4288 -4.0092
-18.5150 32.2180 -3.8131
-19.5896 31.4164 -3.7845
-21.1267 31.3147 -3.8455
-23.9658 32.9062 -4.1263
-26.1912 33.3716 -4.2804
-27.2041 32.2075 -4.2335
-26.8244 29.5354 -3.9864
-28.7923 29.4987 -4.0970
-34.8130 33.1921 -4.7547
-36.2997 32.2002 -4.7694
-38.0349 31.3711 -4.8175
-37.8990 29.0353 -4.6367
-46.5134 33.0522 -5.5069
-47.7411 31.4060 -5.4792
-51.1913 31.0999 -5.7049
-59.6346 33.3573 -6.4633
-66.1216 33.9271 -6.9802
-60.1004 28.1582 -6.1887
-59.7024 25.3984 -6.0051
-58.1778 22.3179 -5.7238
-57.3817 19.6793 -5.5294
-50.9855 15.4632 -4.8182
-49.1793 13.0067 -4.5636
-49.8304 11.2815 -4.5461
-51.0009 9.6359 -4.5801
-51.1399 7.7724 -4.5263
-57.9956 6.6946 -5.0651
-54.4020 4.3080 -4.6940
-53.4922 2.3083 -4.5653
-55.2934 0.3997 -4.6734
-55.9194 -1.6035 -4.6862
-53.7346 -3.4739 -4.4704
-57.1356 -5.7586 -4.7248
-56.2363 -7.7149 -4.6282
-56.1999 -9.7758 -4.6090
-57.9793 -12.2432 -4.7445
-50.9179 -12.6760 -4.1630
-59.6211 -17.1359 -4.8771
-60.0997 -19.6333 -4.9257
-59.1158 -21.6879 -4.8614
-56.3053 -22.9801 -4.6530
-55.7013 -25.1003 -4.6328
-56.0091 -27.6969 -4.6961
-54.4830 -29.4195 -4.6128
-60.0174 -35.2446 -5.1402
-34.0107 -21.6490 -2.9520
-31.4711 -21.6562 -2.7736
-19.8130 -14.7080 -1.7767
-27.2678 -21.8009 -2.4933
-26.0412 -22.3969 -2.4335
-25.6625 -23.7240 -2.4568
-25.2455 -25.0758 -2.4825
-19.2334 -20.5254 -1.9480
-24.2883 -27.8576 -2.5414
-23.7436 -29.2898 -2.5749
-23.1516 -30.7507 -2.6112
-22.6706 -32.4722 -2.6696
-30.5367 -47.2626 -3.7702
-31.6298 -53.0333 -4.1136
-41.6859 -82.8687 -6.1148
-38.7721 -84.4912 -6.0988
-34.1291 -82.0072 -5.8017
-30.5120 -81.4275 -5.6566
-28.7309 -85.9298 -5.8724
-25.3480 -85.9395 -5.7880
-23.2077 -90.5226 -6.0193
-7.4005 -33.8695 -2.2274
-6.8223 -47.2418 -3.0551
-4.8781 -45.1722 -2.9043
-3.1400 -43.7052 -2.7985
-1.5720 -43.8021 -2.7980
-0.0008 -43.8066 -1.8071
1.5678 -43.7186 -1.8056
3.1409 -43.7231 -1.8116
4.7224 -43.7276 -1.8210
2.3553 -16.3068 -0.6839
19.1018 -57.1104 -2.5545
18.2441 -48.6702 -2.2183
18.8350 -45.2401 -2.1053
15.0980 -32.8879 -1.5659
22.0308 -43.7773 -2.1369
23.8136 -43.3727 -2.1751
26.1282 -43.7890 -2.2609
28.3096 -43.7952 -2.3332
35.6374 -51.0204 -2.8109
35.6770 -47.3636 -2.7047
26.7263 -32.9520 -1.9550
27.3283 -31.3274 -1.9359
41.1235 -43.8612 -2.8303
44.2875 -43.9638 -2.9705
53.5309 -49.4568 -3.5090
38.8661 -33.4056 -2.4964
39.8958 -31.8755 -2.5171
59.1576 -43.8836 -3.6746
63.8398 -43.8970 -3.9126
50.9677 -32.4167 -3.0883
22.6430 -13.2855 -1.3591
23.3127 -12.5768 -1.3887
25.0190 -12.3600 -1.4816
23.3816 -10.5251 -1.3787
23.3120 -9.5034 -1.3710
24.0037 -8.7950 -1.4101
36.8265 -12.0133 -2.1641
35.5098 -10.1896 -2.0903
37.2447 -9.2550 -2.1993
38.1497 -8.0385 -2.2627
31.0052 -5.3792 -1.8494
32.1287 -4.3931 -1.9297
31.0809 -3.1185 -1.8821
33.5787 -2.1556 -2.0524
33.5331 -0.9463 -2.0712
34.9160 0.2683 -2.1819
35.6951 1.5567 -2.2592
36.0979 2.8752 -2.3167
35.2420 4.0845 -2.2961
24.6224 3.7537 -1.6303
24.7062 4.6796 -1.6644
34.0049 7.7149 -2.3334
34.2263 9.0686 -2.3950
34.6949 10.5395 -2.4787
33.4806 11.4991 -2.4449
36.0493 13.8475 -2.6941
37.7689 16.0872 -2.8922
37.6966 17.6816 -2.9616
37.7121 19.3706 -3.0438
30.2530 16.9391 -2.5119
20.3562 12.3784 -1.7412
15.5481 10.2372 -1.3722
15.4789 11.0085 -1.4117
15.4066 11.8129 -1.4545
16.7087 13.7921 -1.6357
15.2793 13.5640 -1.5539
13.1058 12.5047 -1.3875
12.4330 12.7470 -1.3733
11.7736 12.9725 -1.3599
13.7796 16.3249 -1.6687
2.0143 2.5682 -0.2565
14.1572 19.4512 -1.9010
11.9374 17.7053 -1.6963
11.0822 17.7841 -1.6729
10.3852 18.0826 -1.6726
10.4680 19.8459 -1.8076
9.7032 20.1167 -1.8066
9.4811 21.6085 -1.9159
8.8896 22.4179 -1.9647
7.9487 22.3590 -1.9393
9.0668 28.7382 -2.4695
8.4979 30.7458 -2.6205
8.1592 34.2747 -2.9006
11.1315 55.5559 -4.6732
8.9218 54.6620 -4.5748
7.1457 56.4867 -4.7085
8.1169 90.0690 -7.4849
2.1189 39.2601 -3.2558
-21.5857 90.6612 -7.6594
-20.4761 74.0737 -6.3011
-20.2646 64.2228 -5.5065
-6.7437 18.9675 -1.6410
-24.1943 61.0075 -5.3321
-26.7035 60.8549 -5.3794
-19.2077 39.8183 -3.5643
-18.0109 34.1438 -3.0989
-18.4776 32.1707 -2.9645
-20.3468 32.6491 -3.0589
-21.3983 31.7356 -3.0275
-23.9009 32.8366 -3.1947
-26.9551 34.3658 -3.4154
-28.5112 33.7761 -3.4352
-27.1582 29.9223 -3.1203
-28.7680 29.4935 -3.1600
-30.0137 28.6360 -3.1593
-36.3871 32.3008 -3.6784
-38.4160 31.7091 -3.7372
-38.0223 29.1525 -3.5663
-42.0267 29.8885 -3.8073
-48.1332 31.6912 -4.2187
-51.8614 31.5357 -4.4046
-52.7132 29.5143 -4.3447
-62.2789 31.9884 -4.9887
-57.0045 26.7374 -4.4438
-57.0874 24.3152 -4.3368
-55.9631 21.4966 -4.1482
-55.4009 19.0276 -4.0119
-53.3018 16.1919 -3.7756
-49.2770 13.0566 -3.4183
-50.8866 11.5452 -3.4609
-20.1001 3.8073 -1.3419
-20.3284 3.0992 -1.3337
-20.5593 2.3830 -1.3270
-20.7935 1.6564 -1.3219
-21.0318 0.9174 -1.3184
-21.2748 0.1637 -1.3165
-23.6054 -0.6658 -1.4437
-23.8849 -1.5329 -1.4454
-24.1725 -2.4250 -1.4491
-24.4693 -3.3454 -1.4548
-49.9704 -8.6685 -2.9503
-49.7957 -10.4913 -2.9231
-49.4666 -12.2909 -2.8909
-60.0002 -17.2158 -3.4956
-60.2356 -19.6480 -3.5031
-60.1491 -22.0371 -3.4969
-55.8353 -22.7602 -3.2499
-59.1577 -26.6276 -3.4524
-58.5365 -28.9163 -3.4308
-54.7964 -29.5598 -3.2308
-58.8074 -34.5023 -3.4941
-34.2475 -21.7809 -2.0544
-33.0548 -22.7274 -2.0058
-19.8284 -14.7079 -1.2196
-32.5765 -26.0260 -2.0355
-32.2813 -27.7441 -2.0538
-31.9455 -29.5122 -2.0746
-31.5663 -31.3335 -2.0981
-19.2333 -20.5124 -1.3120
-38.5300 -44.1653 -2.7059
-34.9307 -43.0646 -2.5339
-33.5201 -44.4968 -2.5207
-31.9841 -45.7866 -2.5032
-30.0597 -46.4990 -2.4591
-31.5729 -52.9097 -2.7128
-33.2824 -60.6136 -3.0196
-44.0999 -87.6230 -4.2505
-27.9064 -60.7826 -2.8771
-34.1270 -81.9621 -3.7936
-32.2108 -85.9198 -3.8966
-28.7445 -85.9297 -3.8262
-25.3597 -85.9395 -3.7646
-23.2109 -90.4938 -3.9076
-7.4004 -33.8538 -1.4438
-6.5255 -45.1675 -1.8903
-4.8801 -45.1722 -1.8782
-3.1412 -43.7052 -1.8089
-1.5545 -43.3000 -1.7874
-0.0005 -43.7337 -0.8182
1.5696 -43.7381 -0.8199
3.1441 -43.7426 -0.8238
4.7270 -43.7472 -0.8300
2.3557 -16.3012 -0.3124
18.1397 -61.4491 -1.2585
19.1181 -57.1300 -1.1974
18.1768 -48.4656 -1.0422
18.8530 -45.2597 -1.0011
14.9321 -32.5092 -0.7415
22.0525 -43.7968 -1.0327
24.0627 -43.8026 -1.0703
26.1544 -43.8086 -1.1120
28.3384 -43.8148 -1.1582
35.3201 -50.5367 -1.3947
35.5375 -47.1502 -1.3619
26.1722 -32.2490 -0.9774
39.2097 -44.9192 -1.4322
40.7374 -43.4212 -1.4603
44.1933 -43.8407 -1.5596
47.4956 -43.8502 -1.6547
39.5486 -33.9675 -1.3638
40.8549 -32.6171 -1.3979
58.6499 -43.4725 -1.9957
63.8933 -43.8972 -2.1665
50.5029 -32.0929 -1.7098
22.7865 -13.3572 -0.7717
68.7047 -37.0283 -2.3312
69.6719 -34.3829 -2.3724
23.8430 -10.7205 -0.8160
24.5205 -9.9836 -0.8446
24.6096 -9.0047 -0.8543
38.2102 -12.4458 -1.3384
36.7198 -10.5189 -1.2995
37.2310 -9.2336 -1.3327
39.6131 -8.3279 -1.4358
30.6675 -5.3060 -1.1267
30.9277 -4.2143 -1.1530
30.7009 -3.0659 -1.1626
33.2201 -2.1170 -1.2790
33.9455 -0.9421 -1.3301
34.9047 0.2845 -1.3932
35.4021 1.5604 -1.4407
35.8051 2.8686 -1.4870
10.7407 1.2499 -0.4556
24.9194 3.8108 -1.0808
26.0840 4.9530 -1.1578
34.0367 7.7384 -1.5475
34.0800 9.0463 -1.5886
34.2070 10.4080 -1.6364
32.9748 11.3416 -1.6205
36.2891 13.9577 -1.8340
37.9485 16.1828 -1.9742
37.0384 17.3919 -1.9858
40.3297 20.7361 -2.2309
38.3046 21.4677 -2.1887
19.4639 11.8464 -1.1503
16.2238 10.6912 -0.9930
15.8690 11.2950 -1.0073
15.5116 11.9024 -1.0227
15.4606 12.7711 -1.0605
15.5110 13.7792 -1.1088
14.3709 13.7209 -1.0726
16.2119 16.6321 -1.2660
13.7701 15.1817 -1.1275
13.6010 16.1231 -1.1705
2.0132 2.5683 -0.1826
14.0877 19.3666 -1.3506
18.3534 27.2364 -1.8659
15.6964 25.2022 -1.6986
11.0589 19.2657 -1.2792
10.4558 19.8330 -1.2989
9.8403 20.4111 -1.3201
9.5451 21.7651 -1.3918
8.7240 22.0108 -1.3931
10.6457 29.9599 -1.8788
9.4819 30.0678 -1.8701
12.9713 46.9526 -2.8992
14.8989 62.6148 -3.8420
12.8716 64.2691 -3.9224
8.8109 54.0063 -3.2813
10.6116 83.9201 -5.0804
7.4737 82.9643 -5.0089
2.1180 39.2570 -2.3656
-21.7410 91.3603 -5.5927
-20.5924 74.5322 -4.5897
-23.2048 73.5788 -4.5623
-6.7390 18.9641 -1.1852
-10.8760 27.4388 -1.7300
-11.7840 26.8689 -1.7110
-12.4438 25.8103 -1.6618
-20.2482 38.4060 -2.5030
-19.7021 34.3217 -2.2669
-20.9944 33.7072 -2.2591
-22.5890 33.5208 -2.2828
-24.6706 33.9141 -2.3501
-27.3873 34.9379 -2.4673
-28.8069 34.1476 -2.4616
-26.5608 29.2828 -2.1586
-28.7283 29.4722 -2.2259
-34.7728 33.1995 -2.5743
-36.3953 32.3312 -2.5796
-36.1475 29.8589 -2.4576
-37.1433 28.5006 -2.4264
-39.6548 28.2246 -2.4931
-49.2342 32.4440 -2.9835
-50.8346 30.9394 -2.9734
-52.0688 29.1816 -2.9436
-53.3372 27.4239 -2.9180
-54.7447 25.7059 -2.9019
-55.4146 23.6311 -2.8493
-54.2958 20.8835 -2.7110
-53.7560 18.4894 -2.6092
-52.8484 16.0802 -2.4962
-49.3748 13.1065 -2.2716
-26.7287 6.0771 -1.1990
-20.0972 3.8163 -0.8798
-21.6296 3.3079 -0.9250
-22.1212 2.5744 -0.9250
-22.6032 1.8112 -0.9250
-23.0742 1.0173 -0.9250
-21.2716 0.1737 -0.8361
-23.9790 -0.6652 -0.9250
-24.4101 -1.5552 -0.9250
-24.8249 -2.4788 -0.9250
-25.2220 -3.4364 -0.9250
-49.1973 -8.5111 -1.7777
-49.0688 -10.3148 -1.7488
-48.8810 -12.1220 -1.7201
-49.3914 -14.1479 -1.7180
-30.0957 -9.8021 -1.0360
-28.0590 -10.2662 -0.9570
-28.0623 -11.4250 -0.9496
-28.0657 -12.6185 -0.9435
-28.0692 -13.8514 -0.9388
-28.0729 -15.1291 -0.9355
-28.0767 -16.4575 -0.9338
-28.0807 -17.8435 -0.9337
-28.0848 -19.2945 -0.9353
-19.8437 -14.7079 -0.6632
-19.2185 -15.3427 -0.6460
-52.4344 -45.0329 -1.7764
-50.8613 -46.9553 -1.7412
-31.7986 -31.5435 -1.1029
-19.2333 -20.4995 -0.6778
-40.8477 -46.7935 -1.4672
-35.5712 -43.8283 -1.3068
-33.1005 -43.9147 -1.2484
-33.1554 -47.4369 -1.2891
-31.8736 -49.2781 -1.2834
-34.2505 -57.3664 -1.4354
-32.5014 -59.1606 -1.4259
-27.0548 -58.8986 -1.3271
-25.0360 -60.0990 -1.3142
-32.2262 -85.9197 -1.8282
-28.7580 -85.9297 -1.7837
-25.3715 -85.9394 -1.7448
-24.3124 -94.7450 -1.8863
-7.4003 -33.8382 -0.6624
-6.5311 -45.1870 -0.8620
-4.8842 -45.1917 -0.8544
-3.1438 -43.7247 -0.8216
-1.5703 -43.7292 -0.8188
-0.0003 -53.0153 0.2022
2.1494 -59.8564 0.2269
4.7295 -43.7472 0.1611
2.3561 -16.2957 0.0586
18.4866 -62.5921 0.1879
21.1311 -63.1128 0.1761
18.2563 -48.6523 0.1240
22.1216 -53.0787 0.1209
15.1290 -32.9205 0.0650
22.0643 -43.7969 0.0718
35.8128 -59.9529 0.0509
29.7893 -46.0319 0.0179
38.5540 -55.1317 -0.0066
40.0684 -53.1301 -0.0362
25.2108 -31.0455 -0.0404
39.5837 -45.3191 -0.0901
42.8448 -45.6378 -0.1255
53.5637 -53.1008 -0.1908
47.5501 -43.8699 -0.1989
53.5841 -45.9889 -0.2568
57.2509 -45.6725 -0.3088
61.2734 -45.3812 -0.3670
50.4232 -32.0141 -0.3614
59.9161 -35.0896 -0.4645
32.8605 -14.7581 -0.3129
10.4309 -4.2417 -0.1056
25.2457 -9.2248 -0.2707
37.6379 -12.2408 -0.4266
37.8538 -10.8253 -0.4524
38.0364 -9.4150 -0.4786
33.8303 -7.0960 -0.4473
30.5200 -5.2660 -0.4234
32.0572 -4.3530 -0.4661
30.1690 -2.9986 -0.4593
34.8571 -2.2050 -0.5550
33.6207 -0.9173 -0.5594
35.3875 0.3050 -0.6149
34.9076 1.5549 -0.6331
35.9792 2.8994 -0.6808
37.0609 4.3301 -0.7313
34.5453 5.2991 -0.7107
35.9458 6.8426 -0.7708
34.0685 7.7619 -0.7614
34.3019 9.1217 -0.7990
33.7335 10.2803 -0.8190
35.6135 12.2667 -0.9013
35.3838 13.6271 -0.9336
37.3529 15.9476 -1.0278
37.7640 17.7519 -1.0842
39.9455 20.5594 -1.1970
19.5515 10.9680 -0.6119
19.7420 12.0263 -0.6457
16.3489 10.7826 -0.5592
15.9916 11.3913 -0.5725
15.6319 12.0039 -0.5864
15.5557 12.8590 -0.6121
13.8285 12.2931 -0.5714
14.5823 13.9320 -0.6338
15.3826 15.7914 -0.7042
15.1388 16.7010 -0.7314
13.4273 15.9268 -0.6859
2.0121 2.5684 -0.1089
14.1328 19.4397 -0.8130
17.9823 26.7005 -1.1024
15.7515 25.3042 -1.0325
11.2138 19.5459 -0.7890
10.6037 20.1239 -0.8044
9.9810 20.7134 -0.8206
9.6098 21.9235 -0.8615
8.7829 22.1703 -0.8648
12.4599 35.0821 -1.3595
15.2201 48.2867 -1.8603
15.6486 56.6698 -2.1720
14.9396 62.8141 -2.3966
13.6546 68.2085 -2.5924
8.7217 53.4825 -2.0261
7.0717 55.9487 -2.1140
7.4840 83.1123 -3.1339
2.1171 39.2538 -1.4780
-9.1638 72.4946 -2.7336
-11.4552 70.2400 -2.6540
-13.8613 69.2376 -2.6231
-22.1260 93.0256 -3.5360
-20.7698 75.2127 -2.8701
-23.4212 74.3027 -2.8484
-6.7340 18.9596 -0.7307
-10.2148 25.7842 -0.9996
-11.1886 25.5247 -0.9962
-12.6775 26.3090 -1.0346
-15.0513 28.5642 -1.1327
-15.7355 27.4269 -1.0976
-17.0672 27.4176 -1.1085
-18.2290 27.0665 -1.1065
-24.8422 34.1700 -1.4141
-27.4099 34.9879 -1.4674
-20.3351 24.1202 -1.0265
-21.1020 23.2795 -1.0067
-21.9105 22.4927 -0.9898
-23.1609 22.1281 -0.9926
-36.8107 32.7235 -1.4989
-27.6455 22.8529 -1.0710
-27.5717 21.1726 -1.0176
-31.8851 22.7129 -1.1222
-39.0378 25.7468 -1.3116
-40.8349 24.8758 -1.3108
-52.3942 29.3923 -1.6080
-45.5761 23.4576 -1.3381
-47.3820 22.2733 -1.3316
-46.7556 19.9624 -1.2583
-48.0309 18.4980 -1.2382
-48.5130 16.7101 -1.1983
-52.0567 15.8648 -1.2323
-48.2619 12.8344 -1.0950
-26.8643 6.1208 -0.5842
-20.0943 3.8253 -0.4188
-22.8374 3.5034 -0.4560
-23.0968 2.6988 -0.4418
-23.3599 1.8828 -0.4279
-23.9316 1.0663 -0.4196
-21.2684 0.1836 -0.3567
-26.2610 -0.7162 -0.4211
-26.5719 -1.6805 -0.4070
-26.8917 -2.6725 -0.3931
-26.1382 -3.5489 -0.3643
-48.6964 -8.4015 -0.6462
-48.6221 -10.1978 -0.6134
-48.4205 -11.9846 -0.5799
-34.2364 -9.7903 -0.3885
-30.1406 -9.8020 -0.3234
-28.0589 -10.2523 -0.2839
-28.0623 -11.4109 -0.2670
-27.9119 -12.5351 -0.2489
-27.9364 -13.7714 -0.2326
-27.9401 -15.0428 -0.2161
-27.9439 -16.3647 -0.1998
-27.9478 -17.7437 -0.1834
-27.9520 -19.1875 -0.1670
-19.8591 -14.7079 -0.1069
-19.2185 -15.3313 -0.0920
-48.5778 -41.6911 -0.2034
-48.0543 -44.3338 -0.1720
-31.8193 -31.5434 -0.0936
-19.2333 -20.4865 -0.0447
-40.6490 -46.5375 -0.0679
-35.9027 -44.2107 -0.0358
-35.6416 -47.2589 -0.0106
-34.0337 -48.6664 0.0148
-31.3652 -48.4658 0.0378
-30.3312 -50.7749 0.0614
-32.6080 -59.3238 0.0947
-26.7525 -58.2114 0.1312
-25.0224 -60.0371 0.1519
-31.2673 -83.3232 0.2313
-28.7715 -85.9297 0.2572
-25.3832 -85.9394 0.2734
-23.8738 -92.9937 0.3109
-7.4002 -33.8226 0.1177
-6.5339 -45.1870 0.1663
-6.4690 -59.8317 0.2242
-3.1450 -43.7247 0.1658
-1.9041 -53.0098 0.2021
0.0001 -43.3349 1.1414
1.5573 -43.3393 1.1412
3.1189 -43.3438 1.1413
4.6889 -43.3483 1.1418
2.3566 -16.2902 0.4293
9.3285 -51.3869 1.3554
11.3132 -51.6836 1.3648
21.0386 -81.9119 2.1661
17.8296 -60.3370 1.5984
17.8498 -53.2851 1.4145
17.8661 -47.5878 1.2663
18.7213 -44.8964 1.1980
15.1032 -32.8469 0.8792
21.8749 -43.3976 1.1657
23.8694 -43.4033 1.1705
25.9449 -43.4092 1.1759
28.1120 -43.4154 1.1818
30.3829 -43.4219 1.1884
35.2686 -46.7377 1.2869
25.2100 -31.0255 0.8600
38.6633 -44.2375 1.2352
40.8191 -43.4518 1.2232
43.8689 -43.4606 1.2344
47.1494 -43.4699 1.2470
53.2716 -45.6877 1.3252
56.4563 -45.0045 1.3214
58.7844 -43.5033 1.2949
63.4448 -43.5166 1.3152
79.3757 -50.3520 1.5480
59.9162 -35.0571 1.0987
74.2522 -39.9388 1.2794
24.1567 -11.8960 0.3907
32.9358 -14.7750 0.4993
34.5868 -14.0471 0.4906
36.1977 -13.2087 0.4796
37.1095 -12.0507 0.4580
13.5194 -3.8596 0.1550
32.8792 -8.1226 0.3490
20.5208 -4.2945 0.2008
21.0104 -3.6152 0.1886
32.2739 -4.3673 0.2641
30.6720 -3.0342 0.2271
34.5144 -2.1672 0.2292
36.1419 -0.9693 0.2127
35.6919 0.3242 0.1835
20.1742 0.9080 0.0888
13.7205 1.1121 0.0504
35.9928 4.2222 0.1058
35.2522 5.4241 0.0779
39.1473 7.4705 0.0579
35.1848 8.0330 0.0263
37.1704 9.9023 0.0003
36.2900 11.0770 -0.0267
35.5606 12.2659 -0.0529
35.9012 13.8442 -0.0808
36.3777 15.5496 -0.1102
20.0555 9.4378 -0.0767
19.5153 10.0544 -0.0905
17.7577 9.9711 -0.0972
17.6554 10.7648 -0.1118
16.4758 10.8754 -0.1190
16.1160 11.4891 -0.1313
15.7540 12.1068 -0.1436
15.6520 12.9479 -0.1584
13.9068 12.3713 -0.1556
14.7998 14.1492 -0.1822
14.9847 15.3928 -0.2023
15.2352 16.8178 -0.2250
13.2582 15.7355 -0.2140
2.0113 2.5689 -0.0354
14.1783 19.5132 -0.2725
17.4718 25.9567 -0.3665
15.8069 25.4068 -0.3624
11.3731 19.8338 -0.2854
10.7557 20.4228 -0.2961
2.1208 4.4035 -0.0643
1.9770 4.5126 -0.0663
8.8427 22.3319 -0.3298
18.1478 51.1215 -0.7585
16.5521 52.5373 -0.7826
15.8202 57.3176 -0.8567
19.3198 81.2672 -1.2182
17.6024 87.9680 -1.3216
8.9418 54.8558 -0.8256
7.1855 56.8726 -0.8570
8.0741 89.7005 -1.3526
2.1160 39.2465 -0.5919
-8.9644 70.9549 -1.0637
-10.9466 67.1558 -1.0040
-13.3670 66.8026 -0.9955
-12.0667 50.7587 -0.7535
-24.1234 87.4013 -1.2918
-8.5421 27.1133 -0.3987
-6.7289 18.9552 -0.2772
-10.1452 25.6217 -0.3723
-11.1769 25.5115 -0.3680
-12.3900 25.7261 -0.3681
-13.8493 26.2973 -0.3729
-15.6865 27.3565 -0.3841
-16.6123 26.7017 -0.3708
-17.6217 26.1797 -0.3590
-19.8216 27.2804 -0.3690
-19.5492 24.9690 -0.3325
-20.1226 23.8830 -0.3126
-20.9333 23.1082 -0.2966
-21.7891 22.3829 -0.2810
-22.7638 21.7636 -0.2664
-24.0956 21.4354 -0.2549
-27.0721 22.3954 -0.2577
-27.4130 21.0670 -0.2332
-30.3441 21.6328 -0.2289
-36.6318 24.1807 -0.2424
-39.0957 23.8379 -0.2239
-41.6467 23.3856 -0.2027
-45.2417 23.3094 -0.1824
-46.0050 21.6499 -0.1481
-46.6556 19.9435 -0.1131
-46.6448 17.9876 -0.0768
-46.7246 16.1173 -0.0413
-46.5986 14.2242 -0.0061
-46.1114 12.2849 0.0283
-27.0014 6.1650 0.0365
-20.0914 3.8343 0.0419
-45.6129 7.0188 0.1284
-48.7433 5.7185 0.1727
-23.7472 1.9251 0.1015
-23.9719 1.0793 0.1200
-21.2652 0.1934 0.1222
-34.2948 -0.9193 0.2226
-31.0919 -1.9519 0.2253
-26.8875 -2.6595 0.2154
-26.1651 -3.5403 0.2299
-48.2912 -8.3088 0.4626
-48.2008 -10.0866 0.5008
-6.5038 -1.6066 0.0730
-34.2937 -9.7901 0.4139
-30.1854 -9.8019 0.3908
-28.0589 -10.2385 0.3887
-28.0622 -11.3969 0.4151
-28.0269 -12.5726 0.4418
-28.0305 -13.8033 0.4703
-28.0341 -15.0787 0.5000
-28.0379 -16.4047 0.5311
-28.0419 -17.7881 0.5638
-28.0460 -19.2364 0.5983
-19.1382 -14.1630 0.4332
-19.2185 -15.3200 0.4614
-48.3830 -41.4946 1.2328
-46.7373 -43.0895 1.2644
-19.4255 -19.2446 0.5584
-19.2332 -20.4736 0.5879
-40.0399 -45.8123 1.3034
-36.2402 -44.6000 1.2582
-36.3238 -48.1359 1.3474
-33.9408 -48.5066 1.3481
-31.9457 -49.3360 1.3623
-30.5082 -51.0441 1.4011
-30.2508 -55.0069 1.5018
-28.7819 -57.1003 1.5512
-26.8184 -58.3258 1.5774
-24.8554 -59.6073 1.6056
-24.6075 -65.5444 1.7590
-25.8674 -77.2197 2.0655
-25.3949 -85.9394 2.2920
-22.2550 -86.6491 2.3049
-7.4000 -33.8071 0.8972
-15.7970 -87.0204 2.3049
-6.4842 -44.8242 1.1852
-4.8489 -44.8289 1.1837
-3.1174 -43.3260 1.1428
-1.5568 -43.3304 1.1419
0.0003 -29.4864 1.4417
1.0777 -29.9714 1.4656
2.1896 -30.4119 1.4885
3.3190 -30.6672 1.5034
2.3570 -16.2847 0.8003
5.6012 -30.8388 1.5203
6.7540 -30.8396 1.5264
7.9304 -30.8607 1.5347
9.1310 -30.8843 1.5445
14.4162 -43.0130 2.1649
16.0392 -42.6997 2.1649
17.6686 -42.3499 2.1649
14.8540 -32.2881 1.6657
20.9487 -41.5376 2.1649
22.6005 -41.0733 2.1649
24.2609 -40.5691 2.1649
20.3995 -31.4865 1.7031
27.6099 -39.4359 2.1649
29.2995 -38.8044 2.1649
25.2107 -31.0074 1.7606
16.2841 -18.6201 1.0777
34.1376 -36.3158 2.1461
18.8008 -18.6132 1.1252
20.2072 -18.6172 1.1536
21.7285 -18.6216 1.1853
23.3891 -18.6307 1.2212
42.8137 -31.6591 2.1429
27.3117 -18.7174 1.3122
27.3157 -17.3125 1.2614
27.3196 -15.9699 1.2140
27.3233 -14.6821 1.1696
23.9958 -11.8042 0.9905
27.3303 -12.2463 1.0890
27.3336 -11.0874 1.0523
10.3253 -3.7626 0.3844
13.6034 -4.4108 0.4900
27.3430 -7.7928 0.9540
27.3460 -6.7425 0.9247
21.3458 -4.4569 0.7000
27.3519 -4.6934 0.8706
27.3548 -3.6887 0.8456
27.3576 -2.6935 0.8218
27.3605 -1.7052 0.7991
27.4342 -0.7229 0.7796
20.8789 0.1994 0.5776
35.1670 1.5993 0.9477
20.6415 1.6827 0.5422
13.7843 1.6234 0.3531
10.5664 1.6308 0.2641
36.4492 6.9729 0.8896
36.9764 8.4596 0.8818
35.8010 9.5547 0.8348
35.2724 10.7835 0.8047
35.6720 12.3219 0.7968
35.9217 13.8699 0.7862
34.7894 14.8883 0.7467
20.1710 9.5025 0.4250
19.6266 10.1219 0.4063
19.0920 10.7304 0.3887
19.4139 11.8475 0.3892
16.6047 10.9697 0.3282
16.2425 11.5884 0.3169
16.7681 12.8958 0.3235
15.7494 13.0379 0.3009
13.9861 12.4505 0.2652
15.0239 14.3731 0.2832
14.6068 15.0142 0.2745
15.3328 16.9361 0.2879
13.0932 15.5490 0.2464
2.0107 2.5696 0.0380
14.2240 19.5871 0.2717
16.9601 25.2104 0.3283
15.8627 25.5102 0.3127
11.2295 19.5936 0.2267
2.3687 4.4999 0.0493
2.1196 4.4033 0.0458
1.9761 4.5126 0.0447
12.9657 32.7604 0.3097
17.8687 50.3588 0.4562
16.4927 52.3731 0.4564
18.8128 68.1908 0.5739
19.4809 81.9817 0.6689
16.9607 84.7981 0.6737
8.9701 55.0530 0.4277
2.1148 39.2384 0.2932
-8.6603 68.5834 0.5287
-10.2427 62.8703 0.4946
-10.4311 52.1570 0.4207
-9.4958 39.9647 0.3318
-10.8897 39.4749 0.3388
-8.7897 27.9135 0.2486
-6.7239 18.9508 0.1758
-6.9222 17.4911 0.1695
-11.2131 25.6077 0.2602
-12.5426 26.0569 0.2784
-13.3062 25.2797 0.2849
-15.4106 26.8902 0.3204
-16.2735 26.1718 0.3307
-17.2904 25.7023 0.3452
-19.7069 27.1385 0.3883
-19.5638 25.0026 0.3820
-20.0349 23.7936 0.3891
-20.7433 22.9131 0.4020
-21.4368 22.0356 0.4158
-22.3023 21.3370 0.4340
-23.4318 20.8597 0.4585
-26.6004 22.0216 0.5244
-27.3934 21.0683 0.5451
-29.6886 21.1826 0.5973
-36.6640 24.2226 0.7468
-38.5206 23.5084 0.7955
-40.8165 22.9414 0.8557
-43.5342 22.4527 0.9275
-48.4165 22.8099 1.0494
-46.6605 19.9694 1.0298
-46.2967 17.8767 1.0413
-46.1500 15.9420 1.0588
-46.0604 14.0825 1.0787
-46.0746 12.2974 1.1022
-27.1399 6.2096 0.6637
-20.0885 3.8433 0.5025
-45.4056 7.0084 1.1625
-48.5385 5.7173 1.2727
-23.7385 1.9355 0.6379
-24.0124 1.0923 0.6616
-21.2547 0.2033 0.6009
-34.3406 -0.9045 0.9966
-31.1297 -1.9397 0.9281
-26.8833 -2.6466 0.8238
-26.1919 -3.5316 0.8255
-47.8873 -8.2167 1.5532
-47.8576 -9.9920 1.5985
-6.4598 -1.5927 0.2223
-34.3513 -9.7900 1.2193
-30.2305 -9.8018 1.1073
-28.0589 -10.2246 1.0615
-28.0622 -11.3828 1.0973
-27.9747 -12.5349 1.1316
-27.9782 -13.7631 1.1719
-27.9818 -15.0359 1.2148
-27.9438 -16.3347 1.2586
-27.9896 -17.7396 1.3094
-27.9519 -19.1562 1.3599
-19.1382 -14.1520 0.9695
-19.2184 -15.3086 1.0151
-22.8490 -19.5821 1.2603
-37.4474 -34.5013 2.1605
-19.4067 -19.2134 1.1732
-19.2332 -20.4606 1.2208
-32.3493 -36.9905 2.1605
-30.6708 -37.7236 2.1605
-29.0020 -38.4112 2.1605
-27.3423 -39.0546 2.1605
-25.6912 -39.6552 2.1605
-24.0480 -40.2142 2.1605
-22.4125 -40.7328 2.1605
-20.7839 -41.2123 2.1605
-19.1617 -41.6531 2.1605
-17.5455 -42.0565 2.1605
-15.9346 -42.4231 2.1605
-14.3286 -42.7537 2.1605
-12.7267 -43.0488 2.1605
-11.1286 -43.3092 2.1605
-7.4000 -33.7919 1.6770
-7.9575 -43.8158 2.1649
-6.3640 -43.9747 2.1649
-4.7720 -44.1001 2.1649
-3.1186 -43.3260 2.1224
-1.5573 -43.3304 2.1198
0.0005 -29.9743 2.1430
1.0797 -30.0090 2.1462
2.1707 -30.1329 2.1577
3.2923 -30.4049 2.1818
2.3574 -16.2791 1.1718
5.5658 -30.6283 2.2135
6.7178 -30.6587 2.2268
7.8859 -30.6719 2.2411
9.0300 -30.5271 2.2461
10.1551 -30.2837 2.2461
11.2786 -30.0104 2.2461
7.7515 -18.5698 1.4041
7.7697 -16.8798 1.2908
8.5187 -16.8820 1.3072
10.2359 -18.5922 1.4596
11.1240 -18.5912 1.4817
12.0535 -18.5939 1.5065
19.0749 -27.2293 2.2461
14.0521 -18.5996 1.5644
15.1412 -18.6112 1.5989
16.2820 -18.6060 1.6356
17.5047 -18.6095 1.6771
16.9988 -16.8179 1.5571
20.2214 -18.6173 1.7747
21.7443 -18.6216 1.8323
23.4001 -18.6253 1.8968
25.2502 -18.6567 1.9723
27.3118 -18.7018 2.0591
27.3158 -17.2973 1.9909
27.3196 -15.9550 1.9278
27.3233 -14.6675 1.8693
23.9794 -11.7835 1.5927
27.3303 -12.2322 1.7645
27.3336 -11.0736 1.7176
27.3368 -9.9480 1.6739
27.3400 -8.8512 1.6332
27.3431 -7.7795 1.5952
21.5150 -5.2944 1.2273
22.0697 -4.5975 1.2323
20.0237 -3.4264 1.0955
27.3548 -3.6758 1.4681
27.3577 -2.6807 1.4417
27.3605 -1.6924 1.4174
27.3633 -0.7083 1.3949
21.7110 0.2175 1.0902
27.3689 1.2574 1.3553
27.3718 2.2442 1.3382
27.3746 3.2369 1.3228
27.3775 4.2382 1.3090
27.3804 5.2510 1.2969
27.3833 6.2779 1.2864
27.3863 7.3221 1.2777
24.8974 7.6237 1.1550
22.0631 7.6318 1.0191
19.7574 7.6384 0.9100
17.8406 7.6439 0.8205
20.2880 9.5680 0.9331
19.7393 10.1903 0.9093
19.2008 10.8018 0.8875
19.6538 12.0045 0.9131
16.7358 11.0656 0.7830
16.3711 11.6895 0.7728
17.0403 13.1152 0.8134
15.8482 13.1292 0.7667
18.0405 16.0708 0.8866
15.1061 14.4614 0.7561
14.5194 14.9340 0.7422
14.5777 16.1120 0.7634
12.9321 15.3669 0.6960
2.0100 2.5702 0.1116
17.0368 23.4739 0.9790
15.9439 23.7128 0.9526
15.3172 24.6462 0.9559
15.7543 27.5031 1.0323
2.3735 4.5114 0.1642
2.1185 4.4031 0.1558
1.9751 4.5126 0.1556
1.7612 4.4523 0.1500
15.9704 45.0304 1.4844
15.1631 48.1730 1.5576
16.0649 58.2572 1.8518
15.8248 66.6256 2.0864
13.8812 69.4323 2.1468
11.4827 70.5038 2.1571
9.0126 71.3934 2.1661
6.4611 71.8360 2.1661
2.1138 39.2331 1.1783
1.3452 74.9230 2.2461
-1.3424 74.8959 2.2461
-4.0228 74.7062 2.2461
-6.3780 70.9369 2.1429
-8.8287 69.9537 2.1278
-9.5702 58.7726 1.8039
-10.3530 51.7927 1.6077
-9.3981 39.5736 1.2449
-10.7653 39.0436 1.2475
-8.7984 27.9556 0.9092
-6.7189 18.9464 0.6286
-10.2490 25.9108 0.8789
-11.3083 25.8385 0.8980
-12.3938 25.7615 0.9193
-14.5233 27.6070 1.0139
-15.3556 26.8090 1.0155
-16.2038 26.0744 1.0211
-17.2021 25.5857 1.0382
-19.7664 27.2364 1.1479
-19.5536 25.0048 1.0972
-19.9988 23.7655 1.0884
-20.6268 22.7990 1.0927
-21.4287 22.0418 1.1084
-22.2586 21.3097 1.1276
-23.3235 20.7781 1.1603
-26.4362 21.9018 1.2949
-27.4479 21.1265 1.3268
-29.9189 21.3643 1.4305
-36.9392 24.4253 1.7506
-39.2632 23.9833 1.8480
-41.2373 23.2002 1.9311
-45.2771 23.3755 2.1133
-46.3645 21.8672 2.1605
-46.3671 19.8675 2.1605
-46.3002 17.9013 2.1605
-45.8775 15.8706 2.1470
-45.9707 14.0776 2.1605
-45.7148 12.2235 2.1605
-27.2800 6.2548 1.2981
-20.0856 3.8524 0.9635
-44.6208 6.9084 2.1605
-44.1574 5.2220 2.1605
-23.7360 1.9464 1.1748
-24.0530 1.1054 1.2057
-21.2865 0.2135 1.0818
-34.3867 -0.8897 1.7738
-31.1676 -1.9275 1.6335
-26.8791 -2.6335 1.4328
-26.2189 -3.5229 1.4230
-39.0557 -6.6829 2.1605
-38.2780 -7.9737 2.1605
-6.4910 -1.5973 0.3742
-34.4091 -9.7898 2.0284
-30.2757 -9.8016 1.8269
-28.0588 -10.2107 1.7351
-28.0621 -11.3688 1.7804
-27.9746 -12.5207 1.8231
-27.9781 -13.7487 1.8753
-27.9818 -15.0211 1.9314
-27.9437 -16.3197 1.9888
-27.9477 -17.6978 2.0540
-27.0371 -18.5141 2.0549
-19.1382 -14.1410 1.5065
-19.2184 -15.2972 1.5695
-22.6892 -19.4314 1.9257
-24.4471 -22.5085 2.1605
-19.3674 -19.1619 1.7858
-19.2332 -20.4477 1.8544
-21.3775 -24.4296 2.1605
-20.3414 -25.0041 2.1605
-19.2998 -25.5465 2.1605
-18.2530 -26.0572 2.1605
-17.2015 -26.5367 2.1605
-16.1457 -26.9853 2.1605
-15.0861 -27.4035 2.1605
-14.0229 -27.7917 2.1605
-12.9564 -28.1500 2.1605
-11.8869 -28.4790 2.1605
-10.8149 -28.7788 2.1605
-6.6266 -19.7630 1.4698
-6.3769 -21.5603 1.5902
-5.8927 -22.9219 1.6784
-6.4918 -29.6313 2.1561
-4.6714 -25.7109 1.8610
-4.3126 -29.7871 2.1467
-3.2324 -29.8602 2.1447
-2.1537 -29.9102 2.1430
-1.0769 -29.9560 2.1430
0.0005 -23.8832 2.2491
0.8594 -23.8696 2.2487
1.7178 -23.8322 2.2483
2.5754 -23.7707 2.2479
2.3446 -16.1825 1.5356
4.2867 -23.5771 2.2473
5.1397 -23.4443 2.2470
5.9898 -23.2851 2.2466
4.6282 -15.6383 1.5204
7.3303 -21.8485 2.1430
8.1339 -21.6317 2.1430
7.7605 -18.5816 1.8615
7.7738 -16.8798 1.7122
8.5233 -16.8820 1.7360
10.2396 -18.5887 1.9405
12.0895 -20.1934 2.1430
12.0603 -18.5939 2.0090
13.0269 -18.5850 2.0476
14.0517 -18.5879 2.0918
15.3138 -18.8117 2.1661
16.0684 -18.3502 2.1661
16.8143 -17.8638 2.1661
17.5510 -17.3524 2.1661
18.2776 -16.8159 2.1661
18.9935 -16.2540 2.1661
19.5941 -15.5841 2.1547
19.6877 -14.5351 2.0915
19.4021 -13.2745 1.9946
19.9192 -12.6023 1.9850
20.7046 -12.0804 2.0033
21.2731 -11.4083 2.0014
21.8770 -10.7389 2.0043
22.6818 -10.1399 2.0263
23.3759 -9.4583 2.0392
24.0092 -8.7250 2.0478
24.5517 -7.9364 2.0501
25.0889 -7.1259 2.0535
22.1222 -5.4331 1.7770
25.9544 -5.3943 2.0485
19.8003 -3.3788 1.5374
26.6569 -3.5694 2.0386
26.9354 -2.6266 2.0312
27.1829 -1.6686 2.0238
21.7675 -0.5532 1.6018
27.3662 0.2870 1.9928
27.3690 1.2703 1.9746
27.3718 2.2570 1.9589
27.3747 3.2498 1.9457
27.3775 4.2512 1.9351
27.1365 5.2171 1.9097
26.9907 6.2009 1.8937
26.5702 7.1168 1.8611
24.8582 7.6239 1.7406
22.0319 7.6319 1.5444
19.7322 7.6385 1.3868
17.8197 7.6440 1.2575
16.2005 7.6486 1.1498
14.8085 7.6526 1.0587
13.5962 7.6561 0.9809
12.5283 7.6591 0.9137
11.5781 7.6618 0.8552
10.7126 7.6552 0.8031
22.7359 17.5121 1.7334
15.9484 13.2218 1.2393
17.1079 15.2506 1.3583
16.2641 15.5804 1.3226
14.4662 14.8888 1.2083
14.6589 16.2118 1.2611
12.7778 15.1927 1.1359
2.0094 2.5709 0.1852
16.3317 22.5150 1.5665
15.2501 22.6935 1.5284
14.2254 22.9016 1.4964
13.9206 24.3148 1.5447
2.3723 4.5114 0.2792
2.1173 4.4029 0.2661
1.9741 4.5126 0.2668
1.7845 4.5131 0.2615
12.4013 34.9835 1.9905
11.9683 38.0409 2.1297
10.8188 39.2509 2.1661
9.4356 39.7439 2.1661
8.0272 40.1691 2.1661
6.5973 40.5248 2.1661
5.0947 40.3743 2.1430
3.6488 40.5843 2.1430
2.1075 39.1290 2.0592
0.7675 42.7489 2.2461
-0.7654 42.7400 2.2461
-2.2955 42.6545 2.2461
-3.8185 42.4929 2.2461
-5.3302 42.2558 2.2461
-6.5127 40.0162 2.1429
-7.9215 39.6492 2.1429
-9.3081 39.2142 2.1429
-10.6099 38.4999 2.1311
-10.9794 34.9034 1.9606
-6.7138 18.9420 1.0818
-10.4901 26.5342 1.5437
-11.1514 25.4935 1.5137
-12.6695 26.3486 1.5998
-13.9918 26.6112 1.6556
-15.5056 27.0858 1.7301
-16.2914 26.2302 1.7238
-17.3817 25.8678 1.7527
-23.9941 33.0813 2.3161
-19.7705 25.2974 1.8343
-20.2238 24.0479 1.8102
-21.0023 23.2290 1.8197
-21.6583 22.2928 1.8222
-22.4282 21.4868 1.8376
-23.8187 21.2344 1.9056
-27.3232 22.6535 2.1399
-28.1136 21.6557 2.1605
-28.5878 20.4304 2.1605
-29.0092 19.1982 2.1605
-29.3785 17.9617 2.1605
-29.6966 16.7234 2.1605
-29.9645 15.4859 2.1605
-30.1831 14.2512 2.1605
-30.3536 13.0216 2.1605
-30.4772 11.7990 2.1605
-30.5551 10.5853 2.1605
-30.5888 9.3822 2.1605
-30.5793 8.1914 2.1605
-27.4218 6.3005 1.9407
-20.0827 3.8614 1.4255
-30.3063 4.7065 2.1605
-30.1384 3.5784 2.1605
-23.7320 1.9573 1.7128
-24.0938 1.1186 1.7529
-21.3184 0.2238 1.5654
-29.1193 -0.7398 2.1605
-28.7844 -1.7666 2.1605
-28.4201 -2.7712 2.1605
-26.2460 -3.5142 2.0232
-27.6084 -4.7110 2.1605
-27.1635 -5.6455 2.1605
-26.6941 -6.5559 2.1605
-26.2014 -7.4419 2.1605
-25.6866 -8.3034 2.1605
-25.1507 -9.1400 2.1605
-24.5946 -9.9516 2.1605
-24.0195 -10.7383 2.1605
-23.4265 -11.4998 2.1605
-22.8162 -12.2361 2.1605
-22.1897 -12.9473 2.1605
-21.5478 -13.6332 2.1605
-19.8619 -13.5896 2.0540
-19.1382 -14.1300 2.0448
-18.5755 -14.7745 2.0540
-18.5508 -15.8759 2.1270
-18.1364 -16.6868 2.1605
-17.4188 -17.2227 2.1605
-16.6912 -17.7339 2.1605
-15.9540 -18.2206 2.1605
-15.2078 -18.6828 2.1605
-14.4534 -19.1205 2.1605
-13.6912 -19.5340 2.1605
-12.9217 -19.9233 2.1605
-12.1455 -20.2886 2.1605
-11.3630 -20.6300 2.1605
-10.5748 -20.9474 2.1605
-9.7023 -21.0695 2.1430
-8.9104 -21.3374 2.1430
-8.1143 -21.5820 2.1430
-7.3141 -21.8033 2.1430
-6.4653 -21.8488 2.1282
-5.7655 -22.4170 2.1663
-5.1294 -23.4024 2.2461
-4.2795 -23.5435 2.2467
-3.4270 -23.6600 2.2472
-2.5723 -23.7527 2.2478
-1.7159 -23.8213 2.2483
-0.8582 -23.8653 2.2488
0.0006 -19.2197 2.2476
0.6920 -19.2070 2.2471
1.3828 -19.1739 2.2466
1.9775 -18.2428 2.1430
2.3436 -16.1667 1.9061
3.2908 -18.0902 2.1430
