ply
format ascii 1.0
element vertex 2116
property float32 x
property float32 y
property float32 z
end_header
15.9473 10.5406 0.7793
14.8933 10.6308 0.7372
14.6181 11.2474 0.7346
12.6434 10.4711 0.6465
14.7702 13.1539 0.7703
15.3398 14.6811 0.8181
14.4026 14.8100 0.7877
16.9221 18.6983 0.9518
15.9471 18.9449 0.9255
15.4494 19.7505 0.9284
10.8827 14.9910 0.6797
10.4745 15.5747 0.6827
10.2823 16.5409 0.7026
15.1680 26.4736 1.0922
14.7258 27.9837 1.1237
13.3606 27.7625 1.0875
15.7505 35.9776 1.3776
16.0249 40.5001 1.5191
15.2980 43.1242 1.5876
16.4583 52.2752 1.8929
15.4210 55.9079 1.9951
14.5922 61.4198 2.1643
12.2043 61.0269 2.1276
10.1697 62.4218 2.1574
7.9616 63.0443 2.1643
5.6395 62.6726 2.1412
3.3888 62.8542 2.1412
1.1862 65.9436 2.2443
-1.1790 65.8811 2.2443
-3.5358 65.6921 2.2443
-5.8770 65.3787 2.2443
-6.4147 50.8322 1.7567
-9.4378 57.9626 2.0204
-9.5664 47.8587 1.6859
-9.7693 41.1366 1.4672
-9.5641 34.6867 1.2551
-10.7769 34.2408 1.2593
-8.2603 23.2921 0.8725
-9.1145 23.0413 0.8807
-9.3434 21.3475 0.8343
-10.2054 21.2110 0.8493
-6.7064 12.7469 0.5240
-11.8090 20.6151 0.8719
-12.8138 20.6174 0.8990
-15.0461 22.3765 1.0081
-15.7333 21.6766 1.0112
-16.4721 21.0615 1.0198
-17.4456 20.7286 1.0442
-28.3748 31.3583 1.6477
-19.4751 20.0291 1.1005
-19.9215 19.0691 1.0987
-20.4621 18.2257 1.1044
-21.1917 17.5534 1.1221
-21.8962 16.8499 1.1401
-22.7116 16.2140 1.1655
-24.1860 15.9885 1.2258
-27.1171 16.5596 1.3599
-29.7358 16.7245 1.4784
-38.0706 19.6486 1.8797
-40.3689 19.0327 1.9828
-44.1085 18.8923 2.1586
-44.2011 17.0822 2.1586
-44.2289 15.2927 2.1586
-44.1940 13.5258 2.1586
-44.0989 11.7837 2.1586
-43.9460 10.0682 2.1586
-43.7376 8.3809 2.1586
-43.4759 6.7232 2.1586
-43.1633 5.0965 2.1586
-29.8353 2.4410 1.5047
-26.0154 1.1906 1.3247
-23.0713 0.2269 1.1874
-20.7271 -0.5404 1.0795
-29.3801 -1.8230 1.5502
-24.8969 -2.4445 1.3323
-23.4965 -3.1622 1.2766
-22.9414 -3.9305 1.2670
-21.3486 -4.4519 1.1998
-27.3310 -6.7317 1.5649
-27.4056 -7.8037 1.6004
-25.7545 -8.3442 1.5358
-35.4077 -12.8939 2.1586
-34.5912 -14.0228 2.1586
-32.2138 -14.4266 2.0603
-29.3834 -14.4473 1.9286
-28.1282 -15.1078 1.8972
-28.1380 -16.4414 1.9529
-28.0150 -17.7490 2.0038
-27.8089 -19.0515 2.0530
-26.8992 -19.8845 2.0530
-26.5859 -21.1707 2.1013
-26.3246 -22.5543 2.1586
-6.7885 -6.2528 0.5786
-19.2249 -19.0285 1.7071
-19.2353 -20.4581 1.7833
-22.2472 -25.4333 2.1586
-19.4005 -23.8567 1.9755
-19.1476 -25.3547 2.0522
-18.6886 -26.6891 2.1151
-17.9972 -27.7746 2.1586
-16.9127 -28.2777 2.1586
-15.8206 -28.7484 2.1586
-14.7214 -29.1869 2.1586
-13.6156 -29.5934 2.1586
-12.5037 -29.9680 2.1586
-7.2123 -19.1997 1.3673
-10.2429 -30.5602 2.1543
-6.8390 -23.1316 1.6158
-7.9401 -30.8988 2.1412
-6.8138 -31.1145 2.1412
-5.6843 -31.2996 2.1412
-4.5565 -31.4871 2.1435
-3.4236 -31.6437 2.1457
-2.3346 -32.4444 2.1936
-1.1943 -33.2581 2.2443
0.0017 -24.9331 2.2459
0.8981 -24.9223 2.2453
1.7942 -24.8856 2.2447
2.2700 -20.9513 1.8941
3.4198 -23.6047 2.1412
4.2722 -23.5005 2.1412
4.6552 -21.2380 1.9458
5.9708 -23.2162 2.1412
5.6145 -18.9754 1.7637
6.2564 -18.6526 1.7493
8.1542 -21.6916 2.0551
9.0661 -21.7140 2.0807
10.0038 -21.7287 2.1089
11.0981 -21.9888 2.1643
11.9232 -21.6522 2.1643
12.7413 -21.2896 2.1643
13.5519 -20.9009 2.1643
14.3427 -20.4696 2.1625
15.1092 -19.9944 2.1588
15.6026 -19.1742 2.1196
15.4567 -17.6589 2.0025
2.0030 -2.1289 0.2482
17.0630 -16.8776 2.0270
17.7118 -16.3029 2.0221
18.1267 -15.5197 1.9932
18.9020 -15.0413 2.0060
19.6429 -14.5098 2.0158
20.2764 -13.8805 2.0158
20.8944 -13.2272 2.0158
21.5004 -12.5526 2.0162
22.1390 -11.8806 2.0212
22.7340 -11.1676 2.0236
23.2831 -10.4169 2.0236
23.8468 -9.6570 2.0266
24.4074 -8.8779 2.0309
24.9012 -8.0576 2.0315
25.3092 -7.1967 2.0270
21.9751 -5.4041 1.7299
25.7937 -5.3691 1.9984
1.7611 -0.3011 0.1345
1.9980 -0.2682 0.1505
26.5422 -2.5965 1.9750
26.6907 -1.6466 1.9643
26.7132 -0.6871 1.9468
26.6422 0.2712 1.9250
26.6313 1.2279 1.9102
26.2863 2.1595 1.8741
23.2343 2.7512 1.6485
17.9995 2.7895 1.2726
14.6597 2.8139 1.0342
12.3387 2.8309 0.8697
11.1331 2.9785 0.7852
19.3923 5.9415 1.3703
17.1086 5.9211 1.2130
16.7765 6.4890 1.1953
16.4488 7.0507 1.1794
24.0479 11.3457 1.7382
23.7481 12.2645 1.7332
18.5913 10.4626 1.3725
17.0243 10.4019 1.2735
16.2080 10.7200 1.2310
15.1386 10.8127 1.1696
14.6947 11.3130 1.1573
12.6328 10.4682 1.0165
15.3515 13.6789 1.2651
15.3979 14.7443 1.3027
14.4558 14.8720 1.2590
16.4161 18.1478 1.4760
15.3281 18.2179 1.4273
14.4909 18.5333 1.4020
14.2899 19.6928 1.4419
10.3578 15.4076 1.0943
10.2737 16.5337 1.1416
14.3198 25.0030 1.6818
13.8865 26.3987 1.7332
13.3439 27.7382 1.7812
12.9608 29.6159 1.8636
12.7355 32.1979 1.9891
12.5732 35.4552 2.1543
11.3778 36.1503 2.1643
10.0987 36.6239 2.1643
8.7971 37.0388 2.1643
7.4760 37.3937 2.1643
6.1384 37.6873 2.1643
4.7365 37.5145 2.1412
3.3902 37.6815 2.1412
2.0373 37.7859 2.1412
0.7137 39.6484 2.2443
-0.7080 39.6256 2.2443
-2.1264 39.5370 2.2443
-3.5381 39.3829 2.2443
-4.9396 39.1641 2.2443
-6.1151 37.5753 2.1689
-7.3447 36.7623 2.1410
-8.6341 36.3735 2.1410
-9.5151 34.5250 2.0574
-10.6226 33.7662 2.0407
-10.7854 30.4264 1.8682
-8.8954 22.4979 1.4059
-9.7071 22.1887 1.4138
-10.1421 21.0894 1.3726
-6.7335 12.8045 0.8529
-11.8859 20.7591 1.4178
-13.3171 21.4374 1.5043
-15.1784 22.5843 1.6315
-15.8214 21.8088 1.6254
-16.5604 21.1852 1.6326
-19.2099 22.8367 1.8239
-25.2255 27.8929 2.3143
-19.6626 20.2331 1.7484
-20.1261 19.2759 1.7395
-20.8264 18.5611 1.7542
-21.4463 17.7753 1.7649
-22.0847 17.0059 1.7797
-22.9983 16.4298 1.8188
-27.2234 18.0092 2.1172
-27.9628 17.0888 2.1428
-28.5365 16.0627 2.1586
-28.8564 14.9057 2.1586
-29.1304 13.7465 2.1586
-29.3592 12.5873 2.1586
-29.5435 11.4297 2.1586
-29.6841 10.2757 2.1586
-29.7820 9.1269 2.1586
-29.8380 7.9848 2.1586
-29.8530 6.8511 2.1586
-29.8281 5.7271 2.1586
-29.7643 4.6142 2.1586
-29.6625 3.5137 2.1586
-29.5241 2.4267 2.1586
-26.0504 1.2020 1.9160
-23.0987 0.2359 1.7111
-20.7492 -0.5332 1.5499
-28.4566 -1.7550 2.1460
-26.9087 -2.6319 2.0512
-24.7869 -3.3265 1.9122
-22.9588 -3.9248 1.7946
-21.3637 -4.4470 1.6941
-26.8009 -6.5909 2.1586
-26.3540 -7.4941 2.1586
-25.8820 -8.3754 2.1586
-25.3861 -9.2345 2.1586
-24.8671 -10.0709 2.1586
-24.3260 -10.8843 2.1586
-23.7637 -11.6745 2.1586
-23.1812 -12.4411 2.1586
-22.5794 -13.1839 2.1586
-21.9591 -13.9028 2.1586
-21.3211 -14.5974 2.1586
-20.6665 -15.2678 2.1586
-19.9957 -15.9137 2.1586
-18.8109 -16.1078 2.1029
-6.7906 -6.2513 0.7877
-17.8953 -17.7036 2.1586
-17.1682 -18.2507 2.1586
-16.4289 -18.7729 2.1586
-15.6779 -19.2702 2.1586
-14.9160 -19.7426 2.1586
-14.1437 -20.1900 2.1586
-13.3619 -20.6125 2.1586
-12.5709 -21.0099 2.1586
-11.7715 -21.3822 2.1586
-10.9642 -21.7296 2.1586
-10.0675 -21.8735 2.1412
-9.2527 -22.1684 2.1412
-7.1868 -19.1250 1.8250
-7.6054 -22.6836 2.1412
-6.8019 -22.9989 2.1501
-6.2238 -24.2124 2.2444
-5.3446 -24.3986 2.2450
-4.4613 -24.5587 2.2457
-3.5741 -24.6925 2.2463
-2.6837 -24.8003 2.2470
-1.7901 -24.8760 2.2471
-0.8946 -24.9174 2.2465
0.0017 -19.8909 2.2443
0.7172 -19.8857 2.2443
1.4327 -19.8586 2.2443
2.0488 -18.8996 2.1412
2.7297 -18.8318 2.1412
3.4090 -18.7432 2.1412
4.0863 -18.6335 2.1412
4.7609 -18.5030 2.1412
5.4325 -18.3514 2.1412
5.6306 -16.7791 1.9763
5.6436 -15.0060 1.7865
6.2585 -14.9825 1.8052
8.1644 -17.7250 2.1643
8.8196 -17.4661 2.1643
9.4618 -17.1741 2.1628
10.0219 -16.7376 2.1453
10.5896 -16.3242 2.1330
11.1501 -15.9054 2.1222
11.7577 -15.5514 2.1226
12.4137 -15.2474 2.1328
12.9787 -14.8199 2.1287
2.0035 -2.1283 0.3146
13.5710 -13.4159 2.0454
13.9598 -12.8419 2.0243
14.4174 -12.3364 2.0161
14.9179 -11.8633 2.0158
15.4072 -11.3734 2.0158
15.8830 -10.8654 2.0158
16.3446 -10.3394 2.0158
16.7914 -9.7957 2.0158
17.2226 -9.2347 2.0158
17.6376 -8.6565 2.0158
18.0357 -8.0615 2.0158
18.4160 -7.4501 2.0158
18.8009 -6.8309 2.0183
19.1715 -6.1958 2.0211
19.5200 -5.5428 2.0236
19.8240 -4.8673 2.0236
14.0319 -2.9154 1.4122
1.7548 -0.2993 0.1744
2.0041 -0.2682 0.1968
20.8203 -2.0288 2.0236
21.0108 -1.2883 2.0236
21.1765 -0.5367 2.0236
21.3167 0.2250 2.0236
21.4307 0.9962 2.0236
21.4749 1.7723 2.0196
21.4220 2.5446 2.0090
17.9576 2.7898 1.6817
14.6318 2.8141 1.3700
12.3188 2.8310 1.1549
10.6131 2.8435 0.9975
9.3005 2.8531 0.8777
8.3625 2.8975 0.7935
19.4362 7.5255 1.8571
17.6923 7.5908 1.7049
18.5165 8.7436 1.8024
17.4492 9.0187 1.7186
17.8783 10.0688 1.7848
17.3158 10.5874 1.7552
15.6705 10.3713 1.6159
13.5300 9.6697 1.4221
15.1126 11.6416 1.6225
12.6222 10.4654 1.3871
15.2934 13.6345 1.7244
15.0040 14.3745 1.7401
14.5070 14.9321 1.7351
14.0808 15.5737 1.7416
13.6535 16.2350 1.7518
13.2925 17.0082 1.7750
13.0610 18.0071 1.8217
12.9982 19.3434 1.9011
10.2651 16.5266 1.5813
12.9026 22.5373 2.1034
12.3471 23.4812 2.1419
11.6523 24.2307 2.1643
10.8059 24.7007 2.1643
9.9384 25.1351 2.1643
9.0514 25.5327 2.1643
8.1467 25.8925 2.1643
7.2259 26.2135 2.1643
6.2909 26.4949 2.1643
5.2867 26.4505 2.1412
4.3393 26.6482 2.1412
3.3836 26.8047 2.1412
2.4216 26.9197 2.1412
1.5254 28.2924 2.2443
0.5103 28.3249 2.2443
-0.5051 28.3133 2.2443
-1.5186 28.2577 2.2443
-2.5281 28.1582 2.2443
-3.5315 28.0152 2.2443
-4.5267 27.8293 2.2443
-5.5117 27.6008 2.2443
-6.2043 26.1497 2.1473
-7.1007 25.7763 2.1410
-7.9999 25.4412 2.1410
-8.3250 23.4962 2.0067
-8.9598 22.6712 1.9683
-9.8456 22.5158 1.9906
-10.3230 21.4756 1.9369
-6.7304 12.8047 1.1802
-11.7454 20.5236 1.9367
-13.7360 22.1225 2.1415
-15.3738 22.8863 2.2771
-16.2001 22.3420 2.2896
-15.9445 20.4078 2.1586
-16.5855 19.7273 2.1586
-17.1959 19.0245 2.1586
-17.7751 18.3011 2.1586
-18.3224 17.5585 2.1586
-18.8375 16.7985 2.1586
-19.3199 16.0227 2.1586
-19.7693 15.2327 2.1586
-20.1855 14.4300 2.1586
-20.5684 13.6163 2.1586
-20.9179 12.7930 2.1586
-21.2340 11.9617 2.1586
-21.5169 11.1239 2.1586
-21.7667 10.2809 2.1586
-21.9835 9.4343 2.1586
-22.1678 8.5854 2.1586
-22.3197 7.7355 2.1586
-22.4397 6.8858 2.1586
-22.5283 6.0376 2.1586
-22.5857 5.1921 2.1586
-22.6127 4.3505 2.1586
-22.6097 3.5138 2.1586
-22.5772 2.6830 2.1586
-22.5159 1.8592 2.1586
-22.4264 1.0433 2.1586
-22.3093 0.2362 2.1586
-20.7713 -0.5259 2.0229
-21.9951 -1.3482 2.1586
-21.7992 -2.1240 2.1586
-21.5786 -2.8877 2.1586
-21.3337 -3.6389 2.1586
-21.0653 -4.3768 2.1586
-20.7742 -5.1009 2.1586
-20.4610 -5.8105 2.1586
-20.1265 -6.5051 2.1586
-19.7713 -7.1843 2.1586
-19.3962 -7.8475 2.1586
-19.0019 -8.4945 2.1586
-18.5890 -9.1247 2.1586
-18.1582 -9.7377 2.1586
-17.7103 -10.3334 2.1586
-17.2458 -10.9112 2.1586
-16.7655 -11.4711 2.1586
-16.2700 -12.0125 2.1586
-15.7600 -12.5354 2.1586
-15.2361 -13.0395 2.1586
-6.7943 -6.2515 0.9978
-14.1491 -13.9904 2.1586
-13.5872 -14.4368 2.1586
-13.0139 -14.8637 2.1586
-12.4297 -15.2708 2.1586
-11.8353 -15.6581 2.1586
-11.2311 -16.0255 2.1586
-10.6179 -16.3727 2.1586
-9.9151 -16.5646 2.1412
-9.2904 -16.8689 2.1412
-8.6582 -17.1530 2.1412
-8.0191 -17.4167 2.1412
-7.3737 -17.6601 2.1412
-6.7702 -18.0101 2.1564
-6.3578 -18.9562 2.2443
-5.6645 -19.1469 2.2443
-4.9667 -19.3159 2.2443
-4.2648 -19.4633 2.2443
-3.5594 -19.5890 2.2443
-2.8511 -19.6930 2.2443
-2.1403 -19.7752 2.2443
-1.4276 -19.8356 2.2443
-0.7134 -19.8741 2.2443
0.0018 -16.5387 2.2443
0.5969 -16.5333 2.2443
1.1918 -16.5091 2.2443
1.7040 -15.7099 2.1412
2.2699 -15.6510 2.1412
2.8341 -15.5743 2.1412
3.3963 -15.4797 2.1412
3.9559 -15.3672 2.1412
4.5126 -15.2369 2.1412
5.0658 -15.0888 2.1412
5.6437 -14.9991 2.1521
5.6544 -13.5302 1.9655
5.6635 -12.2898 1.8101
5.7991 -11.4791 1.7165
6.0656 -11.0045 1.6731
6.5263 -10.8944 1.6868
8.8944 -13.7042 2.1643
9.4075 -13.4128 2.1643
9.8811 -13.0626 2.1574
10.3416 -12.6956 2.1503
10.6701 -12.1773 2.1194
2.0041 -2.1278 0.3814
11.2750 -11.1398 2.0608
11.6386 -10.7003 2.0483
11.9836 -10.2476 2.0353
12.3150 -9.7872 2.0228
12.6646 -9.3427 2.0158
13.0445 -8.9174 2.0158
13.4117 -8.4779 2.0158
13.7657 -8.0244 2.0158
14.1060 -7.5573 2.0158
14.4319 -7.0769 2.0158
14.7431 -6.5835 2.0158
15.0388 -6.0776 2.0158
15.3187 -5.5594 2.0158
15.5872 -5.0312 2.0165
10.2916 -2.9182 1.3107
16.0937 -3.9450 2.0204
16.3189 -3.3841 2.0221
1.7485 -0.2976 0.2141
2.0102 -0.2683 0.2436
16.8524 -1.6357 2.0236
16.9864 -1.0350 2.0236
17.0999 -0.4269 2.0236
17.1923 0.1880 2.0236
17.2631 0.8090 2.0236
17.3120 1.4353 2.0236
17.3385 2.0662 2.0236
17.3423 2.7008 2.0236
14.6039 2.8143 1.7060
12.2988 2.8312 1.4403
10.5983 2.8436 1.2459
9.2890 2.8532 1.0978
8.2475 2.8608 0.9813
7.3972 2.8671 0.8873
6.6675 2.8633 0.8076
6.4769 3.0611 0.7935
15.3853 7.9583 1.9095
14.9880 8.4474 1.8877
14.6278 8.9502 1.8729
14.2740 9.4533 1.8614
13.4542 9.6216 1.7904
13.6812 10.5453 1.8617
12.6116 10.4625 1.7587
13.2979 11.8618 1.9047
13.1061 12.5627 1.9329
12.7935 13.1749 1.9478
12.4379 13.7632 1.9603
12.1449 14.4479 1.9875
11.9289 15.2702 2.0336
11.7171 16.1613 2.0882
11.3950 16.9648 2.1313
10.2564 16.5194 2.0220
10.3402 18.0686 2.1590
9.7320 18.5150 2.1638
9.0854 18.9000 2.1643
8.4204 19.2549 2.1643
7.7402 19.5826 2.1643
7.0460 19.8824 2.1643
6.3389 20.1536 2.1643
5.5604 20.1779 2.1412
4.8394 20.3877 2.1412
4.1097 20.5675 2.1412
3.3726 20.7168 2.1412
2.6295 20.8354 2.1412
1.8819 20.9228 2.1412
1.1856 21.9890 2.2443
0.3969 22.0150 2.2443
-0.3920 22.0080 2.2443
-1.1797 21.9681 2.2443
-1.9646 21.8954 2.2443
-2.7453 21.7902 2.2443
-3.5202 21.6527 2.2443
-4.2879 21.4833 2.2443
-5.0470 21.2824 2.2443
-5.7961 21.0506 2.2443
-6.2503 19.8862 2.1469
-6.9250 19.5537 2.1410
-7.6033 19.2478 2.1410
-8.2673 18.9150 2.1410
-8.9156 18.5562 2.1410
-6.7274 12.8049 1.5086
-10.1613 17.7641 2.1410
-10.8453 17.4753 2.1586
-11.4260 17.0177 2.1586
-11.9861 16.5387 2.1586
-12.5251 16.0394 2.1586
-13.0420 15.5207 2.1586
-13.5364 14.9839 2.1586
-14.0075 14.4300 2.1586
-14.4550 13.8603 2.1586
-14.8782 13.2757 2.1586
-15.2770 12.6776 2.1586
-15.6508 12.0671 2.1586
-15.9994 11.4452 2.1586
-16.3226 10.8133 2.1586
-16.6203 10.1723 2.1586
-16.8923 9.5235 2.1586
-17.1387 8.8679 2.1586
-17.3593 8.2067 2.1586
-17.5542 7.5409 2.1586
-17.7236 6.8715 2.1586
-17.8675 6.1997 2.1586
-17.9861 5.5264 2.1586
-18.0797 4.8526 2.1586
-18.1484 4.1792 2.1586
-18.1927 3.5072 2.1586
-18.2126 2.8375 2.1586
-18.2087 2.1709 2.1586
-18.1813 1.5082 2.1586
-18.1308 0.8504 2.1586
-18.0575 0.1981 2.1586
-17.9619 -0.4480 2.1586
-17.8445 -1.0870 2.1586
-17.7057 -1.7184 2.1586
-17.5461 -2.3414 2.1586
-17.3660 -2.9556 2.1586
-17.1661 -3.5601 2.1586
-16.9467 -4.1545 2.1586
-16.7085 -4.7383 2.1586
-16.4519 -5.3110 2.1586
-16.1776 -5.8720 2.1586
-15.8860 -6.4209 2.1586
-15.5775 -6.9573 2.1586
-15.2530 -7.4808 2.1586
-14.9127 -7.9910 2.1586
-14.5573 -8.4875 2.1586
-14.1873 -8.9700 2.1586
-13.8033 -9.4382 2.1586
-13.4057 -9.8916 2.1586
-12.9952 -10.3302 2.1586
-12.5722 -10.7537 2.1586
-6.7980 -6.2516 1.2091
-11.6909 -11.5539 2.1586
-11.2337 -11.9303 2.1586
-10.7661 -12.2906 2.1586
-10.2054 -12.5324 2.1412
-9.7226 -12.8574 2.1412
-9.2309 -13.1658 2.1412
-8.7310 -13.4576 2.1412
-8.2233 -13.7327 2.1412
-7.7083 -13.9909 2.1412
-7.1865 -14.2320 2.1412
-6.6584 -14.4560 2.1412
-6.4193 -15.3688 2.2443
-5.8539 -15.5673 2.2443
-5.2834 -15.7477 2.2443
-4.7083 -15.9097 2.2443
-4.1290 -16.0533 2.2443
-3.5460 -16.1784 2.2443
-2.9599 -16.2850 2.2443
-2.3710 -16.3731 2.2443
-1.7799 -16.4425 2.2443
-1.1871 -16.4933 2.2443
-0.5931 -16.5253 2.2443
0.0018 -14.1409 2.2443
0.5108 -14.1357 2.2443
1.0196 -14.1140 2.2443
1.5277 -14.0760 2.2443
1.9412 -13.3776 2.1412
2.4233 -13.3101 2.1412
2.9035 -13.2271 2.1412
3.3813 -13.1286 2.1412
3.8562 -13.0145 2.1412
4.3279 -12.8850 2.1412
4.7959 -12.7401 2.1412
5.2597 -12.5799 2.1412
5.6635 -12.2842 2.1204
5.6713 -11.2208 1.9671
5.6781 -10.2966 1.8360
5.6743 -9.4674 1.7198
7.5819 -11.6762 2.1643
8.0160 -11.4231 2.1643
8.4427 -11.1553 2.1643
8.8615 -10.8729 2.1643
9.2720 -10.5760 2.1643
2.0047 -2.1272 0.4485
10.0661 -9.9397 2.1643
10.4487 -9.6006 2.1643
10.6921 -9.1376 2.1385
10.9160 -8.6699 2.1126
11.0764 -8.1656 2.0785
11.2022 -7.6526 2.0422
11.4050 -7.2040 2.0235
11.6545 -6.7884 2.0158
11.9348 -6.3888 2.0158
12.2024 -5.9783 2.0158
12.4569 -5.5573 2.0158
10.2056 -4.1201 1.6202
12.9249 -4.6853 2.0158
13.1375 -4.2351 2.0158
13.3353 -3.7759 2.0158
13.5179 -3.3082 2.0158
13.6849 -2.8325 2.0158
1.7486 -0.2969 0.2548
2.0164 -0.2683 0.2910
14.1204 -1.3651 2.0205
14.2269 -0.8614 2.0213
14.3149 -0.3519 2.0219
14.3840 0.1628 2.0224
14.4339 0.6819 2.0228
14.4642 1.2047 2.0230
14.4746 1.7304 2.0230
14.4648 2.2582 2.0229
14.4066 2.7818 2.0187
12.2789 2.8313 1.7263
10.5834 2.8437 1.4949
9.2774 2.8533 1.3185
8.2383 2.8609 1.1797
7.3897 2.8671 1.0678
6.6821 2.8723 0.9758
6.0815 2.8767 0.8989
5.6400 2.9198 0.8452
13.0303 7.3495 1.9833
12.8106 7.8438 1.9837
12.7150 8.4264 2.0069
12.5951 9.0129 2.0302
12.4436 9.5971 2.0526
12.2611 10.1775 2.0741
12.0039 10.7134 2.0872
11.7589 11.2773 2.1067
11.4508 11.7981 2.1192
11.1100 12.2997 2.1299
10.7542 12.7994 2.1420
10.3695 13.2800 2.1528
9.9442 13.7218 2.1595
9.4909 14.1358 2.1643
8.9997 14.5012 2.1643
8.4933 14.8473 2.1643
7.9726 15.1736 2.1643
7.4382 15.4793 2.1643
6.8912 15.7637 2.1643
6.3323 16.0262 2.1643
5.7010 16.0927 2.1412
5.1275 16.3075 2.1412
4.5452 16.4992 2.1412
3.9551 16.6672 2.1412
3.3582 16.8112 2.1412
2.2877 14.0566 1.7777
2.1483 17.0262 2.1412
1.6115 17.9198 2.2443
0.9688 17.9675 2.2443
0.3246 17.9891 2.2443
-0.3199 17.9844 2.2443
-0.9634 17.9536 2.2443
-1.6048 17.8966 2.2443
-2.2431 17.8137 2.2443
-2.8769 17.7050 2.2443
-3.5053 17.5709 2.2443
-4.1271 17.4116 2.2443
-4.7412 17.2275 2.2443
-5.3466 17.0191 2.2443
-5.9423 16.7868 2.2443
-6.2766 15.8966 2.1581
-6.7737 15.5051 2.1410
-6.7782 14.1142 1.9857
-6.7243 12.8051 1.8386
-8.3385 14.5844 2.1410
-8.8322 14.2384 2.1410
-9.3106 13.8741 2.1410
-9.7732 13.4921 2.1410
-10.2193 13.0934 2.1410
-10.7359 12.7830 2.1586
-11.1505 12.3496 2.1586
-11.5468 11.9017 2.1586
-11.9243 11.4404 2.1586
-12.2827 10.9663 2.1586
-12.6214 10.4805 2.1586
-12.9403 9.9837 2.1586
-13.2390 9.4770 2.1586
-13.5173 8.9612 2.1586
-13.7749 8.4372 2.1586
-14.0119 7.9059 2.1586
-14.2279 7.3681 2.1586
-14.4231 6.8248 2.1586
-14.5972 6.2768 2.1586
-14.7504 5.7250 2.1586
-14.8827 5.1702 2.1586
-14.9941 4.6132 2.1586
-15.0848 4.0548 2.1586
-15.1549 3.4959 2.1586
-15.2046 2.9371 2.1586
-15.2340 2.3793 2.1586
-15.2434 1.8232 2.1586
-15.2329 1.2695 2.1586
-15.2030 0.7189 2.1586
-15.1538 0.1720 2.1586
-15.0856 -0.3705 2.1586
-14.9989 -0.9080 2.1586
-14.8938 -1.4398 2.1586
-14.7709 -1.9655 2.1586
-14.6304 -2.4844 2.1586
-14.4727 -2.9959 2.1586
-14.2982 -3.4997 2.1586
-14.1073 -3.9952 2.1586
-13.9004 -4.4818 2.1586
-13.6780 -4.9593 2.1586
-13.4404 -5.4271 2.1586
-13.1881 -5.8848 2.1586
-12.9215 -6.3320 2.1586
-12.6410 -6.7685 2.1586
-12.3472 -7.1937 2.1586
-12.0404 -7.6074 2.1586
-11.7211 -8.0092 2.1586
-11.3897 -8.3989 2.1586
-11.0467 -8.7762 2.1586
-10.6925 -9.1408 2.1586
-6.8018 -6.2517 1.4217
-9.8712 -9.7505 2.1410
-9.4894 -10.0728 2.1410
-9.0982 -10.3816 2.1410
-8.6982 -10.6767 2.1410
-8.2902 -10.9583 2.1411
-7.8738 -11.2254 2.1411
-7.4500 -11.4783 2.1411
-7.0190 -11.7167 2.1411
-6.5814 -11.9407 2.1411
-6.4331 -12.7351 2.2443
-5.9618 -12.9389 2.2443
-5.4849 -13.1270 2.2443
-5.0029 -13.2994 2.2443
-4.5161 -13.4560 2.2443
-4.0251 -13.5967 2.2443
-3.5303 -13.7214 2.2443
-3.0322 -13.8299 2.2443
-2.5311 -13.9224 2.2443
-2.0277 -13.9987 2.2443
-1.5222 -14.0587 2.2443
-1.0151 -14.1024 2.2443
-0.5070 -14.1298 2.2443
0.0018 -12.3392 2.2443
0.4462 -12.3341 2.2443
0.8902 -12.3146 2.2443
1.3336 -12.2806 2.2443
1.6943 -11.6702 2.1412
2.1149 -11.6102 2.1412
2.5336 -11.5363 2.1412
2.9501 -11.4488 2.1412
3.3639 -11.3475 2.1412
3.7747 -11.2326 2.1412
4.1820 -11.1042 2.1412
4.5855 -10.9622 2.1412
4.9848 -10.8068 2.1412
5.3794 -10.6381 2.1412
5.6781 -10.2917 2.1075
5.6841 -9.4792 1.9780
5.6894 -8.7574 1.8652
5.6941 -8.1103 1.7662
5.8265 -7.6946 1.7165
6.0877 -7.4655 1.7092
6.1528 -7.0143 1.6516
2.0053 -2.1266 0.5161
8.7466 -8.6318 2.1643
9.0755 -8.3339 2.1643
9.3952 -8.0243 2.1643
9.6613 -7.6684 2.1545
9.7199 -7.1607 2.1026
9.8220 -6.7050 2.0650
9.9729 -6.2948 2.0415
9.9598 -5.7967 1.9886
10.0867 -5.3950 1.9676
10.2913 -5.0375 1.9644
10.4823 -4.6719 1.9610
10.7537 -4.3368 1.9746
11.0202 -3.9903 1.9891
11.2723 -3.6292 2.0027
11.5088 -3.2541 2.0155
11.6619 -2.8493 2.0158
11.7993 -2.4376 2.0158
1.7552 -0.2973 0.2968
2.0227 -0.2683 0.3389
12.1260 -1.1676 2.0158
12.1769 -0.7326 2.0111
12.2416 -0.2962 2.0112
12.2872 0.1438 2.0107
12.3061 0.5861 2.0084
12.3266 1.0314 2.0090
12.3439 1.4804 2.0116
12.2175 1.9121 1.9934
12.2259 2.3655 1.9999
12.1967 2.8171 2.0030
10.5684 2.8439 1.7448
9.2658 2.8534 1.5400
8.2290 2.8610 1.3789
7.3822 2.8672 1.2490
6.6758 2.8723 1.1421
6.0763 2.8767 1.0529
5.6401 2.9221 0.9914
11.7156 6.6130 2.0927
11.6516 7.1392 2.1187
11.5271 7.6443 2.1376
11.3293 8.1122 2.1467
11.0691 8.5421 2.1475
10.8090 8.9773 2.1517
10.5342 9.4068 2.1565
10.2162 9.8029 2.1559
9.9028 10.2082 2.1598
9.5755 10.6060 2.1643
9.2123 10.9694 2.1643
8.8345 11.3192 2.1643
8.4425 11.6548 2.1643
8.0369 11.9753 2.1643
7.6182 12.2802 2.1643
7.1872 12.5691 2.1643
6.7444 12.8411 2.1643
6.2906 13.0959 2.1643
5.7642 13.1905 2.1412
5.2954 13.4068 2.1412
4.8179 13.6046 2.1412
4.3324 13.7834 2.1412
3.8398 13.9429 2.1412
3.3408 14.0828 2.1412
2.8363 14.2028 2.1412
2.2849 14.0428 2.1023
1.8143 14.3821 2.1412
1.3610 15.1363 2.2443
0.8183 15.1764 2.2443
0.2744 15.1948 2.2443
-0.2698 15.1915 2.2443
-0.8132 15.1664 2.2443
-1.3550 15.1197 2.2443
-1.8942 15.0515 2.2443
-2.4299 14.9619 2.2443
-2.9613 14.8511 2.2443
-3.4873 14.7194 2.2443
-4.0072 14.5671 2.2443
-4.5200 14.3945 2.2443
-5.0249 14.2019 2.2443
-5.5212 13.9898 2.2443
-6.0079 13.7587 2.2443
-6.2920 13.1081 2.1777
-6.6303 12.6321 2.1410
-7.0632 12.3599 2.1410
-7.4844 12.0716 2.1410
-7.8932 11.7677 2.1410
-8.2890 11.4489 2.1410
-8.6712 11.1157 2.1410
-9.0395 10.7689 2.1410
-9.3931 10.4089 2.1410
-9.7319 10.0367 2.1410
-10.0552 9.6527 2.1410
-10.4482 9.3340 2.1586
-10.7421 8.9255 2.1586
-11.0196 8.5074 2.1586
-11.2802 8.0804 2.1586
-11.5239 7.6452 2.1586
-11.7503 7.2026 2.1586
-11.9594 6.7532 2.1586
-12.1510 6.2979 2.1586
-12.3249 5.8373 2.1586
-12.4812 5.3722 2.1586
-12.6198 4.9033 2.1586
-12.7407 4.4313 2.1586
-12.8438 3.9568 2.1586
-12.9293 3.4806 2.1586
-12.9973 3.0033 2.1586
-13.0477 2.5256 2.1586
-13.0808 2.0482 2.1586
-13.0967 1.5716 2.1586
-13.0956 1.0964 2.1586
-13.0776 0.6234 2.1586
-13.0429 0.1530 2.1586
-12.9918 -0.3141 2.1586
-12.9245 -0.7774 2.1586
-12.8413 -1.2365 2.1586
-12.7425 -1.6907 2.1586
-12.6282 -2.1395 2.1586
-12.4989 -2.5825 2.1586
-12.3548 -3.0192 2.1586
-12.1963 -3.4492 2.1586
-12.0236 -3.8720 2.1586
-11.8372 -4.2871 2.1586
-11.6373 -4.6943 2.1586
-11.4244 -5.0931 2.1586
-11.1987 -5.4831 2.1586
-10.9607 -5.8641 2.1586
-10.7106 -6.2356 2.1586
-10.3637 -6.5434 2.1410
-10.0931 -6.8922 2.1410
-9.8117 -7.2308 2.1410
-9.5199 -7.5587 2.1410
-9.2181 -7.8759 2.1410
-6.8056 -6.2518 1.6359
-8.5862 -8.4768 2.1410
-8.2568 -8.7601 2.1410
-7.9190 -9.0317 2.1410
-7.5731 -9.2913 2.1410
-7.2196 -9.5388 2.1410
-6.8588 -9.7740 2.1410
-6.4911 -9.9968 2.1410
-6.4120 -10.6992 2.2443
-6.0136 -10.9062 2.2443
-5.6091 -11.0996 2.2443
-5.1991 -11.2794 2.2443
-4.7840 -11.4455 2.2443
-4.3642 -11.5976 2.2443
-3.9401 -11.7359 2.2443
-3.5121 -11.8600 2.2443
-3.0807 -11.9701 2.2443
-2.6462 -12.0659 2.2443
-2.2090 -12.1474 2.2443
-1.7697 -12.2146 2.2443
-1.3285 -12.2674 2.2443
-0.8859 -12.3058 2.2443
-0.4423 -12.3297 2.2443
0.0019 -10.9345 2.2443
0.3957 -10.9297 2.2443
0.7894 -10.9120 2.2443
1.1823 -10.8812 2.2443
1.5743 -10.8375 2.2443
1.8746 -10.2857 2.1412
2.2454 -10.2192 2.1412
2.6142 -10.1406 2.1412
2.9806 -10.0496 2.1412
3.3441 -9.9465 2.1412
3.7044 -9.8313 2.1412
4.0611 -9.7040 2.1412
4.4139 -9.5647 2.1412
4.7624 -9.4136 2.1412
5.1063 -9.2507 2.1412
5.4451 -9.0761 2.1412
5.6894 -8.7530 2.1082
5.6941 -8.1062 1.9968
5.6984 -7.5216 1.8983
5.7023 -6.9892 1.8109
5.6961 -6.4901 1.7299
2.0058 -2.1260 0.5843
7.7264 -7.6205 2.1643
8.0145 -7.3552 2.1643
8.2942 -7.0795 2.1643
8.5532 -6.7844 2.1613
8.6817 -6.3916 2.1287
8.8217 -6.0178 2.1030
8.9526 -5.6465 2.0787
9.0466 -5.2611 2.0496
9.1426 -4.8859 2.0244
9.2394 -4.5185 2.0027
9.3250 -4.1520 1.9817
9.4035 -3.7883 1.9623
9.4708 -3.4253 1.9434
9.5988 -3.0864 1.9396
9.7517 -2.7533 1.9432
9.8806 -2.4101 1.9442
9.9976 -2.0613 1.9451
1.7620 -0.2978 0.3394
2.0291 -0.2684 0.3875
10.2533 -0.9833 1.9437
10.3652 -0.6196 1.9530
10.5461 -0.2511 1.9775
10.7093 0.1294 2.0011
10.8393 0.5204 2.0209
10.9929 0.9240 2.0476
11.1727 1.3443 2.0819
11.2035 1.7577 2.0911
11.2069 2.1727 2.0981
11.1902 2.5890 2.1041
10.5533 2.8440 1.9958
9.2542 2.8535 1.7627
8.2197 2.8610 1.5792
7.3746 2.8672 1.4312
6.6696 2.8724 1.3094
6.0710 2.8768 1.2077
5.6401 2.9245 1.1387
10.5448 5.9566 2.1643
10.3544 6.3489 2.1643
10.1489 6.7348 2.1643
9.9284 7.1136 2.1643
9.6897 7.4822 2.1635
9.4433 7.8476 2.1643
9.1794 8.2015 2.1643
8.9015 8.5458 2.1643
8.6100 8.8801 2.1643
8.3052 9.2035 2.1643
7.9877 9.5157 2.1643
7.6577 9.8160 2.1643
7.3158 10.1038 2.1643
6.9624 10.3786 2.1643
6.5980 10.6400 2.1643
6.2231 10.8874 2.1643
5.8384 11.1204 2.1643
5.3863 11.2175 2.1412
4.9878 11.4181 2.1412
4.5814 11.6032 2.1412
4.1676 11.7723 2.1412
3.7471 11.9253 2.1412
3.3207 12.0618 2.1412
2.8889 12.1815 2.1412
2.4525 12.2841 2.1412
2.0121 12.3696 2.1412
1.6442 13.0365 2.2443
1.1768 13.0895 2.2443
0.7076 13.1240 2.2443
0.2374 13.1401 2.2443
-0.2329 13.1376 2.2443
-0.7027 13.1166 2.2443
-1.1712 13.0771 2.2443
-1.6375 13.0193 2.2443
-2.1010 12.9432 2.2443
-2.5608 12.8490 2.2443
-3.0161 12.7369 2.2443
-3.4664 12.6072 2.2443
-3.9107 12.4601 2.2443
-4.3485 12.2960 2.2443
-4.7790 12.1150 2.2443
-5.2016 11.9177 2.2443
-5.6156 11.7045 2.2443
-6.0204 11.4756 2.2443
-6.3038 11.0363 2.2053
-6.4871 10.4681 2.1410
-6.8435 10.2079 2.1410
-7.1890 9.9347 2.1410
-7.5231 9.6489 2.1410
-7.8453 9.3512 2.1410
-8.1552 9.0421 2.1410
-8.4524 8.7221 2.1410
-8.7366 8.3918 2.1410
-9.0074 8.0518 2.1410
-9.2646 7.7027 2.1410
-9.5078 7.3451 2.1410
-9.7367 6.9795 2.1410
-9.9513 6.6067 2.1410
-10.1512 6.2271 2.1410
-10.3363 5.8414 2.1410
-10.5930 5.4952 2.1586
-10.7495 5.0959 2.1586
-10.8907 4.6923 2.1586
-11.0166 4.2851 2.1586
-11.1271 3.8747 2.1586
-11.2223 3.4619 2.1586
-11.3022 3.0472 2.1586
-11.3668 2.6311 2.1586
-11.4162 2.2143 2.1586
-11.4503 1.7974 2.1586
-11.4695 1.3808 2.1586
-11.4736 0.9651 2.1586
-11.4630 0.5509 2.1586
-11.4377 0.1386 2.1586
-11.3980 -0.2712 2.1586
-11.3439 -0.6780 2.1586
-11.2758 -1.0814 2.1586
-11.1938 -1.4808 2.1586
-11.0981 -1.8760 2.1586
-10.9890 -2.2662 2.1586
-10.8668 -2.6513 2.1586
-7.2747 -2.0545 1.4633
-10.5839 -3.4041 2.1586
-10.3387 -3.7403 2.1410
-10.1680 -4.0975 2.1410
-9.9856 -4.4476 2.1410
-9.7919 -4.7902 2.1410
-9.5872 -5.1252 2.1410
-9.3717 -5.4520 2.1410
-9.1458 -5.7705 2.1410
-8.9098 -6.0802 2.1410
-8.6641 -6.3811 2.1410
-8.4090 -6.6727 2.1410
-8.1448 -6.9549 2.1410
-6.8095 -6.2519 1.8521
-7.5906 -7.4900 2.1410
-7.3013 -7.7424 2.1410
-7.0043 -7.9846 2.1410
-6.6999 -8.2161 2.1410
-6.4542 -8.5238 2.1630
-6.3633 -9.0640 2.2443
-6.0234 -9.2725 2.2443
-5.6773 -9.4693 2.2443
-5.3254 -9.6542 2.2443
-4.9680 -9.8271 2.2443
-4.6055 -9.9878 2.2443
-4.2384 -10.1363 2.2443
-3.8669 -10.2723 2.2443
-3.4915 -10.3959 2.2443
-3.1125 -10.5069 2.2443
-2.7303 -10.6053 2.2443
-2.3454 -10.6909 2.2443
-1.9580 -10.7638 2.2443
-1.5685 -10.8238 2.2443
-1.1775 -10.8709 2.2443
-0.7851 -10.9050 2.2443
-0.3919 -10.9263 2.2443
0.0019 -9.8076 2.2443
0.3553 -9.8031 2.2443
0.7085 -9.7869 2.2443
1.0610 -9.7589 2.2443
1.4126 -9.7192 2.2443
1.6819 -9.2236 2.1412
2.0144 -9.1633 2.1412
2.3451 -9.0920 2.1412
2.6734 -9.0096 2.1412
2.9991 -8.9161 2.1412
3.3218 -8.8117 2.1412
3.6412 -8.6965 2.1412
3.9570 -8.5704 2.1412
4.2688 -8.4337 2.1412
4.5762 -8.2864 2.1412
4.8790 -8.1286 2.1412
5.1768 -7.9604 2.1412
5.4692 -7.7820 2.1412
5.6984 -7.5176 2.1198
5.7023 -6.9855 2.0226
5.7059 -6.4977 1.9359
2.0064 -2.1255 0.6530
5.7123 -5.6307 1.7883
5.7053 -5.2328 1.7223
5.8829 -5.0182 1.7165
7.6578 -6.0702 2.1643
7.8896 -5.8045 2.1643
6.1911 -4.2203 1.6516
6.3545 -4.0048 1.6516
6.5107 -3.7833 1.6516
8.6221 -4.6038 2.1383
8.6648 -4.2336 2.1042
8.6809 -3.8614 2.0676
8.7284 -3.5126 2.0419
8.7908 -3.1757 2.0229
8.8295 -2.8354 2.0015
8.8870 -2.5055 1.9872
8.9705 -2.1845 1.9814
9.0621 -1.8648 1.9798
1.7858 -0.3011 0.3864
2.0355 -0.2684 0.4368
9.3114 -0.8893 1.9841
9.4349 -0.5603 1.9990
9.6082 -0.2250 2.0267
9.8003 0.1223 2.0606
9.9873 0.4834 2.0960
10.1666 0.8585 2.1324
10.2898 1.2421 2.1598
10.2899 1.6184 2.1643
10.2553 1.9922 2.1643
10.2069 2.3656 2.1643
10.1448 2.7379 2.1643
9.2424 2.8536 1.9866
8.2104 2.8611 1.7807
7.3670 2.8673 1.6145
6.6633 2.8724 1.4778
6.0657 2.8768 1.3636
5.6401 2.9269 1.2872
9.3252 5.2717 2.1643
9.1539 5.6168 2.1643
8.9693 5.9561 2.1643
8.7717 6.2889 2.1643
8.5613 6.6148 2.1643
8.3382 6.9332 2.1643
8.1028 7.2436 2.1643
7.8553 7.5455 2.1643
7.5960 7.8383 2.1643
7.3253 8.1216 2.1643
7.0435 8.3949 2.1643
6.7509 8.6575 2.1643
6.4480 8.9093 2.1643
6.1352 9.1495 2.1643
5.8129 9.3779 2.1643
5.4232 9.4917 2.1412
5.0870 9.6930 2.1412
4.7429 9.8814 2.1412
4.3914 10.0565 2.1412
4.0330 10.2180 2.1412
3.6683 10.3656 2.1412
3.2979 10.4991 2.1412
2.9223 10.6182 2.1412
2.5421 10.7226 2.1412
2.1580 10.8122 2.1412
1.7705 10.8868 2.1412
1.4467 11.4733 2.2443
1.0355 11.5197 2.2443
0.6227 11.5500 2.2443
0.2091 11.5642 2.2443
-0.2047 11.5623 2.2443
-0.6180 11.5442 2.2443
-1.0302 11.5101 2.2443
-1.4406 11.4600 2.2443
-1.8485 11.3940 2.2443
-2.2534 11.3122 2.2443
-2.6544 11.2148 2.2443
-3.0511 11.1021 2.2443
-3.4427 10.9741 2.2443
-3.8287 10.8312 2.2443
-4.2084 10.6737 2.2443
-4.5814 10.5018 2.2443
-4.9470 10.3159 2.2443
-5.3047 10.1163 2.2443
-5.6540 9.9035 2.2443
-5.9943 9.6777 2.2443
-6.3156 9.4252 2.2409
-6.3404 8.7665 2.1410
-6.6367 8.5166 2.1410
-6.9229 8.2562 2.1410
-7.1984 7.9856 2.1410
-7.4629 7.7054 2.1410
-7.7161 7.4160 2.1410
-7.9577 7.1178 2.1410
-8.1874 6.8115 2.1410
-8.4050 6.4975 2.1410
-8.6102 6.1763 2.1410
-8.8028 5.8485 2.1410
-8.9827 5.5145 2.1410
-9.1496 5.1750 2.1410
-9.3035 4.8304 2.1410
-9.4442 4.4813 2.1410
-9.5716 4.1281 2.1410
-9.6856 3.7715 2.1410
-9.7863 3.4119 2.1410
-9.8736 3.0499 2.1410
-9.9474 2.6860 2.1410
-10.0078 2.3206 2.1410
-10.0549 1.9543 2.1410
-10.0886 1.5876 2.1410
-10.1090 1.2210 2.1410
-10.1163 0.8549 2.1410
-10.1105 0.4898 2.1410
-10.0917 0.1263 2.1410
-10.0602 -0.2354 2.1410
-10.0159 -0.5947 2.1410
-9.9592 -0.9512 2.1410
-9.8901 -1.3045 2.1410
-9.8088 -1.6542 2.1410
-9.7156 -1.9998 2.1410
-9.6106 -2.3410 2.1410
-7.0354 -1.9840 1.5865
-9.3664 -3.0087 2.1410
-9.2275 -3.3345 2.1410
-9.0779 -3.6544 2.1410
-8.9177 -3.9682 2.1410
-8.7472 -4.2755 2.1410
-8.5667 -4.5759 2.1410
-8.3764 -4.8693 2.1410
-8.1767 -5.1554 2.1410
-7.9678 -5.4337 2.1410
-7.7500 -5.7042 2.1410
-7.5236 -5.9665 2.1410
-7.2889 -6.2205 2.1410
-6.8133 -6.2521 2.0703
-6.7959 -6.7023 2.1410
-6.5382 -6.9298 2.1410
-6.4383 -7.3359 2.1973
-6.2914 -7.7115 2.2443
-6.0001 -7.9204 2.2443
-5.7023 -8.1189 2.2443
-5.3986 -8.3071 2.2443
-5.0891 -8.4848 2.2443
-4.7743 -8.6517 2.2443
-4.4544 -8.8078 2.2443
-4.1299 -8.9530 2.2443
-3.8011 -9.0871 2.2443
-3.4682 -9.2100 2.2443
-3.1317 -9.3217 2.2443
-2.7920 -9.4219 2.2443
-2.4493 -9.5108 2.2443
-2.1041 -9.5881 2.2443
-1.7566 -9.6539 2.2443
-1.4072 -9.7081 2.2443
-1.0563 -9.7505 2.2443
-0.7043 -9.7813 2.2443
-0.3514 -9.8004 2.2443
0.0019 -8.8827 2.2443
0.3221 -8.8785 2.2443
0.6421 -8.8636 2.2443
0.9614 -8.8379 2.2443
1.2799 -8.8015 2.2443
1.5972 -8.7544 2.2443
1.8249 -8.2972 2.1412
2.1243 -8.2319 2.1412
2.4215 -8.1566 2.1412
2.7162 -8.0713 2.1412
3.0082 -7.9760 2.1412
3.2971 -7.8708 2.1412
3.5826 -7.7558 2.1412
3.8644 -7.6311 2.1412
4.1422 -7.4967 2.1412
4.4156 -7.3529 2.1412
4.6845 -7.1996 2.1412
4.9483 -7.0371 2.1412
5.2069 -6.8655 2.1412
5.4599 -6.6848 2.1412
5.7059 -6.4941 2.1408
2.0070 -2.1249 0.7225
5.7123 -5.6274 1.9783
5.7151 -5.2386 1.9090
5.7178 -4.8743 1.8463
5.7203 -4.5314 1.7896
5.7128 -4.2001 1.7351
5.8101 -3.9577 1.7165
5.9621 -3.7547 1.7165
6.1163 -3.5512 1.7190
6.1187 -3.2643 1.6817
6.1450 -2.9997 1.6542
6.2670 -2.7849 1.6550
8.0594 -3.2398 2.0910
8.1249 -2.9316 2.0741
8.2029 -2.6307 2.0633
8.2905 -2.3338 2.0576
8.3715 -2.0352 2.0529
8.4462 -1.7346 2.0492
1.8109 -0.3046 0.4353
2.0421 -0.2685 0.4869
8.7588 -0.8330 2.0744
8.8772 -0.5236 2.0910
9.0207 -0.2077 2.1160
9.1023 0.1172 2.1290
9.1637 0.4471 2.1399
9.2224 0.7824 2.1530
9.2612 1.1216 2.1643
9.2396 1.4569 2.1643
9.2059 1.7920 2.1643
9.1599 2.1265 2.1643
9.1015 2.4600 2.1643
9.0309 2.7919 2.1643
8.2010 2.8612 1.9836
7.3594 2.8673 1.7992
6.6570 2.8725 1.6475
6.0604 2.8768 1.5206
5.6401 2.9294 1.4371
8.3502 4.7242 2.1643
8.1947 5.0319 2.1643
8.0274 5.3343 2.1643
7.8486 5.6308 2.1643
7.6585 5.9209 2.1643
7.4572 6.2043 2.1643
7.2450 6.4804 2.1643
7.0222 6.7489 2.1643
6.7889 7.0091 2.1643
6.5456 7.2608 2.1643
6.2926 7.5035 2.1643
6.0300 7.7367 2.1643
5.6970 7.8752 2.1412
5.4197 8.0861 2.1412
5.1342 8.2865 2.1412
4.8409 8.4761 2.1412
4.5402 8.6545 2.1412
4.2325 8.8215 2.1412
3.9184 8.9767 2.1412
3.5982 9.1198 2.1412
3.2726 9.2506 2.1412
2.9419 9.3688 2.1412
2.6066 9.4743 2.1412
2.2674 9.5668 2.1412
1.9251 9.6480 2.1416
1.6551 10.1800 2.2443
1.2903 10.2353 2.2443
0.9236 10.2765 2.2443
0.5555 10.3034 2.2443
0.1867 10.3162 2.2443
-0.1823 10.3146 2.2443
-0.5509 10.2989 2.2443
-0.9185 10.2689 2.2443
-1.2846 10.2247 2.2443
-1.6485 10.1665 2.2443
-2.0097 10.0943 2.2443
-2.3677 10.0083 2.2443
-2.7218 9.9087 2.2443
-3.0715 9.7956 2.2443
-3.4163 9.6693 2.2443
-3.7557 9.5300 2.2443
-4.0891 9.3779 2.2443
-4.4162 9.2134 2.2443
-4.7363 9.0367 2.2443
-5.0490 8.8481 2.2443
-5.3538 8.6481 2.2443
-5.6505 8.4369 2.2443
-5.9384 8.2149 2.2443
-6.2173 7.9826 2.2443
-6.3296 7.5528 2.1899
-6.4360 7.1439 2.1410
-6.6740 6.8949 2.1410
-6.9021 6.6376 2.1410
-7.1199 6.3724 2.1410
-7.3273 6.0998 2.1410
-7.5239 5.8202 2.1410
-7.7096 5.5342 2.1410
-7.8842 5.2420 2.1410
-8.0474 4.9442 2.1410
-8.1992 4.6413 2.1410
-8.3394 4.3336 2.1410
-8.4678 4.0218 2.1410
-8.5845 3.7062 2.1410
-8.6893 3.3873 2.1410
-8.7821 3.0655 2.1410
-8.8629 2.7415 2.1410
-8.9318 2.4154 2.1410
-8.9886 2.0880 2.1410
-9.0335 1.7595 2.1410
-9.0664 1.4304 2.1410
-9.0874 1.1012 2.1410
-9.0965 0.7724 2.1410
-9.0939 0.4442 2.1410
-9.0796 0.1172 2.1410
-9.0537 -0.2083 2.1410
-9.0164 -0.5318 2.1410
-8.9678 -0.8530 2.1410
-8.9080 -1.1715 2.1410
-8.8372 -1.4868 2.1410
-8.7556 -1.7987 2.1410
-8.6633 -2.1068 2.1410
-7.0281 -1.9791 1.7578
-8.4474 -2.7101 2.1410
-8.3243 -3.0047 2.1410
-8.1913 -3.2941 2.1410
-8.0487 -3.5781 2.1410
-7.8966 -3.8563 2.1410
-7.7354 -4.1285 2.1410
-7.5653 -4.3945 2.1410
-7.3865 -4.6538 2.1410
-7.1993 -4.9063 2.1410
-7.0039 -5.1518 2.1410
-6.8006 -5.3899 2.1410
-6.5897 -5.6205 2.1410
-6.4352 -5.9018 2.1624
-6.4310 -6.3391 2.2402
-6.1993 -6.5672 2.2443
-5.9492 -6.7752 2.2443
-5.6926 -6.9743 2.2443
-5.4298 -7.1643 2.2443
-5.1611 -7.3450 2.2443
-4.8868 -7.5163 2.2443
-4.6072 -7.6781 2.2443
-4.3227 -7.8301 2.2443
-4.0335 -7.9723 2.2443
-3.7400 -8.1045 2.2443
-3.4424 -8.2267 2.2443
-3.1412 -8.3387 2.2443
-2.8367 -8.4404 2.2443
-2.5291 -8.5318 2.2443
-2.2188 -8.6127 2.2443
-1.9061 -8.6832 2.2443
-1.5913 -8.7431 2.2443
-1.2748 -8.7924 2.2443
-0.9569 -8.8310 2.2443
-0.6379 -8.8590 2.2443
-0.3182 -8.8762 2.2443
0.0019 -8.1092 2.2443
0.2944 -8.1053 2.2443
0.5865 -8.0914 2.2443
0.8782 -8.0677 2.2443
1.1690 -8.0342 2.2443
1.4586 -7.9908 2.2443
1.6665 -7.5731 2.1412
1.9397 -7.5131 2.1412
2.2110 -7.4438 2.1412
2.4799 -7.3654 2.1412
2.7462 -7.2778 2.1412
3.0097 -7.1811 2.1412
3.2700 -7.0755 2.1412
3.5268 -6.9609 2.1412
3.7799 -6.8376 2.1412
4.0290 -6.7056 2.1412
4.2737 -6.5649 2.1412
4.5138 -6.4159 2.1412
4.7491 -6.2585 2.1412
4.9791 -6.0929 2.1412
5.2037 -5.9192 2.1412
2.0076 -2.1243 0.7927
5.6355 -5.5484 2.1412
5.7152 -5.2353 2.0946
5.7178 -4.8712 2.0262
5.7203 -4.5284 1.9643
5.7227 -4.2044 1.9081
5.7250 -3.8969 1.8571
5.7271 -3.6039 1.8108
5.7292 -3.3237 1.7687
5.7213 -3.0496 1.7276
5.8026 -2.8299 1.7165
5.9138 -2.6253 1.7165
7.5636 -3.0372 2.1573
7.6441 -2.7548 2.1457
7.7271 -2.4748 2.1376
7.8002 -2.1926 2.1296
7.8641 -1.9086 2.1219
7.9258 -1.6245 2.1163
1.8705 -0.3139 0.4949
2.0208 -0.2649 0.5305
8.1981 -0.7764 2.1383
8.2571 -0.4838 2.1425
8.3245 -0.1884 2.1515
6.4212 0.0852 1.6552
6.4158 0.3156 1.6516
6.4162 0.5469 1.6516
6.4081 0.7786 1.6516
6.3917 1.0104 1.6516
6.3669 1.2419 1.6516
6.3336 1.4729 1.6516
8.2447 2.2318 2.1643
8.1788 2.5318 2.1643
8.1018 2.8299 2.1643
7.3517 2.8674 1.9855
6.6506 2.8725 1.8186
6.0550 2.8769 1.6791
5.6401 2.9318 1.5886
7.5522 4.2761 2.1643
7.4100 4.5534 2.1643
7.2572 4.8258 2.1643
7.0942 5.0928 2.1643
6.9209 5.3540 2.1643
6.7378 5.6091 2.1643
6.5448 5.8575 2.1643
6.3424 6.0988 2.1643
6.1307 6.3328 2.1643
5.9100 6.5590 2.1643
5.6199 6.7047 2.1412
5.3847 6.9119 2.1412
5.1414 7.1103 2.1412
4.8905 7.2996 2.1412
4.6322 7.4795 2.1412
4.3671 7.6496 2.1412
4.0953 7.8097 2.1412
3.8174 7.9594 2.1412
3.5338 8.0986 2.1412
3.2448 8.2269 2.1412
2.9509 8.3442 2.1412
2.6525 8.4502 2.1412
2.3501 8.5448 2.1412
2.0442 8.6277 2.1412
1.7365 8.7054 2.1428
1.4921 9.1799 2.2443
1.1633 9.2296 2.2443
0.8327 9.2665 2.2443
0.5009 9.2908 2.2443
0.1685 9.3023 2.2443
-0.1641 9.3011 2.2443
-0.4964 9.2871 2.2443
-0.8278 9.2604 2.2443
-1.1578 9.2210 2.2443
-1.4860 9.1690 2.2443
-1.8117 9.1045 2.2443
-2.1346 9.0276 2.2443
-2.4541 8.9385 2.2443
-2.7697 8.8373 2.2443
-3.0809 8.7243 2.2443
-3.3874 8.5995 2.2443
-3.6886 8.4633 2.2443
-3.9840 8.3159 2.2443
-4.2734 8.1576 2.2443
-4.5562 7.9886 2.2443
-4.8320 7.8092 2.2443
-5.1005 7.6197 2.2443
-5.3613 7.4206 2.2443
-5.6141 7.2120 2.2443
-5.8584 6.9944 2.2443
-6.0940 6.7681 2.2443
-6.3206 6.5336 2.2443
-6.3434 6.1039 2.1775
-6.4352 5.7632 2.1410
-6.6240 5.5179 2.1410
-6.8032 5.2662 2.1410
-6.9725 5.0086 2.1410
-7.1320 4.7454 2.1410
-7.2812 4.4770 2.1410
-7.4202 4.2038 2.1410
-7.5488 3.9263 2.1410
-7.6668 3.6448 2.1410
-7.7742 3.3598 2.1410
-7.8709 3.0717 2.1410
-7.9569 2.7809 2.1410
-8.0320 2.4878 2.1410
-8.0963 2.1929 2.1410
-8.1498 1.8965 2.1410
-8.1924 1.5990 2.1410
-8.2242 1.3009 2.1410
-8.2451 1.0025 2.1410
-8.2554 0.7042 2.1410
-8.2550 0.4065 2.1410
-8.2439 0.1097 2.1410
-8.2224 -0.1859 2.1410
-8.1904 -0.4798 2.1410
-8.1481 -0.7718 2.1410
-8.0956 -1.0614 2.1410
-8.0330 -1.3483 2.1410
-7.9606 -1.6322 2.1410
-7.8783 -1.9127 2.1410
-7.0207 -1.9742 1.9304
-7.0216 -2.2498 1.9561
-7.5749 -2.7310 2.1410
-7.4553 -2.9950 2.1410
-7.3270 -3.2542 2.1410
-7.1900 -3.5081 2.1410
-7.0445 -3.7567 2.1410
-6.8909 -3.9996 2.1410
-6.7292 -4.2366 2.1410
-6.5598 -4.4675 2.1410
-6.4281 -4.7252 2.1562
-6.4219 -5.0866 2.2181
-6.2970 -5.3677 2.2443
-6.0894 -5.5816 2.2443
-5.8749 -5.7878 2.2443
-5.6539 -5.9863 2.2443
-5.4265 -6.1769 2.2443
-5.1931 -6.3593 2.2443
-4.9539 -6.5334 2.2443
-4.7093 -6.6991 2.2443
-4.4595 -6.8561 2.2443
-4.2048 -7.0044 2.2443
-3.9454 -7.1438 2.2443
-3.6818 -7.2743 2.2443
-3.4141 -7.3956 2.2443
-3.1427 -7.5077 2.2443
-2.8679 -7.6104 2.2443
-2.5900 -7.7037 2.2443
-2.3093 -7.7876 2.2443
-2.0260 -7.8618 2.2443
-1.7405 -7.9265 2.2443
-1.4531 -7.9814 2.2443
-1.1641 -8.0266 2.2443
-0.8738 -8.0620 2.2443
-0.5824 -8.0876 2.2443
-0.2905 -8.1034 2.2443
0.0019 -7.4522 2.2443
0.2708 -7.4484 2.2443
0.5394 -7.4356 2.2443
0.8075 -7.4136 2.2443
1.0748 -7.3825 2.2443
1.3410 -7.3424 2.2443
1.6058 -7.2932 2.2443
1.7989 -6.9642 2.1602
2.0322 -6.8387 2.1412
2.2792 -6.7661 2.1412
2.5239 -6.6852 2.1412
2.7658 -6.5959 2.1412
3.0047 -6.4983 2.1412
3.2404 -6.3925 2.1412
3.4726 -6.2786 2.1412
3.7011 -6.1567 2.1412
3.9255 -6.0269 2.1412
4.1456 -5.8893 2.1412
4.3611 -5.7441 2.1412
4.5718 -5.5914 2.1412
4.7775 -5.4313 2.1412
2.0082 -2.1237 0.8638
5.1725 -5.0895 2.1412
5.3614 -4.9082 2.1412
5.5443 -4.7202 2.1412
5.7204 -4.5253 2.1410
5.7227 -4.2014 2.0801
5.7250 -3.8940 2.0249
5.7271 -3.6011 1.9747
5.7292 -3.3210 1.9291
5.7312 -3.0522 1.8878
5.7330 -2.7933 1.8503
5.7349 -2.5433 1.8164
5.7367 -2.3010 1.7858
5.7384 -2.0655 1.7583
5.7302 -1.8328 1.7307
5.7572 -1.6159 1.7165
5.8244 -1.4111 1.7165
5.8845 -1.2037 1.7165
2.0471 -0.3427 0.5918
5.9826 -0.7817 1.7165
7.5841 -0.7152 2.1623
7.6292 -0.4439 2.1643
7.6577 -0.1702 2.1643
6.1479 0.0840 1.7333
6.1446 0.3047 1.7304
6.1462 0.5263 1.7311
6.1478 0.7494 1.7341
6.1495 0.9745 1.7393
6.1512 1.2023 1.7470
6.0111 1.4004 1.7165
5.9702 1.6185 1.7165
5.9214 1.8355 1.7165
5.8645 2.0509 1.7165
5.7997 2.2645 1.7165
5.7618 2.4911 1.7270
5.7736 2.7457 1.7552
5.6402 2.9343 1.7419
6.8865 3.9022 2.1643
6.7556 4.1543 2.1643
6.6152 4.4019 2.1643
6.4654 4.6445 2.1643
6.3065 4.8818 2.1643
6.1386 5.1133 2.1643
5.9619 5.3388 2.1643
5.7150 5.4986 2.1412
5.5234 5.7085 2.1412
5.3238 5.9115 2.1412
5.1165 6.1070 2.1412
4.9017 6.2949 2.1412
4.6797 6.4747 2.1412
4.4508 6.6463 2.1412
4.2153 6.8092 2.1412
3.9736 6.9633 2.1412
3.7260 7.1083 2.1412
3.4729 7.2439 2.1412
3.2146 7.3699 2.1412
2.9515 7.4860 2.1412
2.6840 7.5922 2.1412
2.4125 7.6882 2.1412
2.1373 7.7738 2.1412
1.8591 7.8489 2.1412
1.6540 8.2943 2.2443
1.3569 8.3506 2.2443
1.0579 8.3956 2.2443
0.7573 8.4291 2.2443
0.4557 8.4512 2.2443
0.1534 8.4617 2.2443
-0.1490 8.4606 2.2443
-0.4512 8.4481 2.2443
-0.7526 8.4240 2.2443
-1.0527 8.3885 2.2443
-1.3512 8.3416 2.2443
-1.6475 8.2834 2.2443
-1.9412 8.2139 2.2443
-2.2319 8.1334 2.2443
-2.5192 8.0420 2.2443
-2.8025 7.9398 2.2443
-3.0816 7.8270 2.2443
-3.3559 7.7039 2.2443
-3.6251 7.5705 2.2443
-3.8889 7.4272 2.2443
-4.1467 7.2743 2.2443
-4.3983 7.1119 2.2443
-4.6433 6.9403 2.2443
-4.8814 6.7599 2.2443
-5.1122 6.5709 2.2443
-5.3355 6.3737 2.2443
-5.5509 6.1685 2.2443
-5.7582 5.9558 2.2443
-5.9571 5.7358 2.2443
-6.1474 5.5089 2.2443
-6.3288 5.2755 2.2443
-6.3486 4.9177 2.1916
-6.3634 4.5743 2.1430
-6.5041 4.3309 2.1410
-6.6414 4.0868 2.1410
-6.7695 3.8384 2.1410
-6.8881 3.5858 2.1410
-6.9971 3.3296 2.1410
-7.0965 3.0701 2.1410
-7.1862 2.8076 2.1410
-7.2661 2.5426 2.1410
-7.3361 2.2754 2.1410
-7.3963 2.0064 2.1410
-7.4466 1.7360 2.1410
-7.4871 1.4644 2.1410
-7.5176 1.1922 2.1410
-7.5383 0.9196 2.1410
-7.5492 0.6471 2.1410
-7.5503 0.3748 2.1410
-7.5416 0.1034 2.1410
-7.5234 -0.1671 2.1410
-7.4955 -0.4361 2.1410
-7.4583 -0.7035 2.1410
-7.4116 -0.9687 2.1410
-7.3558 -1.2317 2.1410
-7.2908 -1.4919 2.1410
-7.2168 -1.7492 2.1410
-7.0132 -1.9692 2.1048
-7.0141 -2.2445 2.1324
-6.9425 -2.5001 2.1410
-6.8341 -2.7425 2.1410
-6.7176 -2.9806 2.1410
-6.5930 -3.2140 2.1410
-6.4607 -3.4425 2.1410
-6.4164 -3.7213 2.1734
-6.4142 -4.0353 2.2245
-6.3091 -4.2938 2.2443
-6.1398 -4.5103 2.2443
-5.9634 -4.7205 2.2443
-5.7802 -4.9242 2.2443
-5.5903 -5.1212 2.2443
-5.3941 -5.3112 2.2443
-5.1917 -5.4941 2.2443
-4.9835 -5.6697 2.2443
-4.7696 -5.8379 2.2443
-4.5504 -5.9984 2.2443
-4.3261 -6.1512 2.2443
-4.0970 -6.2961 2.2443
-3.8633 -6.4329 2.2443
-3.6253 -6.5615 2.2443
-3.3833 -6.6819 2.2443
-3.1375 -6.7938 2.2443
-2.8883 -6.8972 2.2443
-2.6359 -6.9920 2.2443
-2.3805 -7.0782 2.2443
-2.1226 -7.1556 2.2443
-1.8623 -7.2241 2.2443
-1.5999 -7.2837 2.2443
-1.3357 -7.3344 2.2443
-1.0700 -7.3761 2.2443
-0.8031 -7.4088 2.2443
-0.5353 -7.4323 2.2443
-0.2669 -7.4468 2.2443
0.0019 -6.8866 2.2443
0.2505 -6.8830 2.2443
0.4988 -6.8710 2.2443
0.7466 -6.8506 2.2443
0.9937 -6.8217 2.2443
1.2397 -6.7843 2.2443
1.4844 -6.7386 2.2443
1.6482 -6.3775 2.1412
1.8784 -6.3180 2.1412
2.1067 -6.2506 2.1412
2.3326 -6.1754 2.1412
2.5560 -6.0925 2.1412
2.7766 -6.0019 2.1412
2.9942 -5.9037 2.1412
3.2085 -5.7980 2.1412
3.4193 -5.6849 2.1412
3.6263 -5.5645 2.1412
3.8292 -5.4370 2.1412
4.0279 -5.3023 2.1412
4.2221 -5.1607 2.1412
4.4115 -5.0123 2.1412
2.0088 -2.1230 0.9359
4.7752 -4.6957 2.1412
4.9490 -4.5278 2.1412
5.1171 -4.3537 2.1412
5.2794 -4.1736 2.1412
5.4355 -3.9877 2.1412
5.5853 -3.7961 2.1412
5.7272 -3.5982 2.1406
5.7292 -3.3182 2.0915
5.7312 -3.0495 2.0470
5.7331 -2.7907 2.0067
5.7349 -2.5407 1.9702
5.7367 -2.2985 1.9373
5.7384 -2.0630 1.9078
5.7401 -1.8335 1.8814
5.7417 -1.6090 1.8580
5.7433 -1.3890 1.8374
5.7449 -1.1727 1.8194
2.0472 -0.3418 0.6427
5.7480 -0.7487 1.7911
5.7495 -0.5398 1.7806
5.7511 -0.3323 1.7725
5.7526 -0.1255 1.7666
5.7541 0.0810 1.7631
5.7556 0.2878 1.7618
5.7571 0.4954 1.7629
5.7587 0.7043 1.7662
5.7602 0.9152 1.7718
5.7618 1.1286 1.7799
5.7634 1.3451 1.7904
5.7650 1.5653 1.8035
5.7666 1.7899 1.8192
5.7683 2.0197 1.8376
5.7700 2.2554 1.8590
5.7718 2.4979 1.8835
5.7736 2.7482 1.9113
5.6402 2.9368 1.8972
6.3220 3.5852 2.1643
6.2009 3.8161 2.1643
6.0712 4.0428 2.1643
5.9329 4.2648 2.1643
5.7863 4.4819 2.1643
5.5714 4.6436 2.1412
5.4103 4.8476 2.1412
5.2415 5.0458 2.1412
5.0652 5.2377 2.1412
4.8816 5.4232 2.1412
4.6909 5.6019 2.1412
4.4935 5.7734 2.1412
4.2895 5.9377 2.1412
4.0793 6.0944 2.1412
3.8632 6.2431 2.1412
3.6414 6.3838 2.1412
3.4142 6.5161 2.1412
3.1820 6.6398 2.1412
2.9451 6.7548 2.1412
2.7039 6.8608 2.1412
2.4587 6.9577 2.1412
2.2099 7.0452 2.1412
1.9579 7.1233 2.1412
1.7210 7.2685 2.1640
1.5150 7.5998 2.2443
1.2429 7.6512 2.2443
0.9690 7.6922 2.2443
0.6938 7.7228 2.2443
0.4175 7.7430 2.2443
0.1406 7.7526 2.2443
-0.1363 7.7518 2.2443
-0.4131 7.7404 2.2443
-0.6891 7.7185 2.2443
-0.9640 7.6862 2.2443
-1.2374 7.6435 2.2443
-1.5089 7.5905 2.2443
-1.7780 7.5273 2.2443
-2.0444 7.4540 2.2443
-2.3077 7.3707 2.2443
-2.5675 7.2776 2.2443
-2.8234 7.1748 2.2443
-3.0750 7.0625 2.2443
-3.3220 6.9409 2.2443
-3.5640 6.8103 2.2443
-3.8007 6.6707 2.2443
-4.0317 6.5225 2.2443
-4.2568 6.3659 2.2443
-4.4756 6.2012 2.2443
-4.6878 6.0287 2.2443
-4.8931 5.8485 2.2443
-5.0914 5.6611 2.2443
-5.2822 5.4667 2.2443
-5.4654 5.2655 2.2443
-5.6407 5.0581 2.2443
-5.8080 4.8446 2.2443
-5.9670 4.6254 2.2443
-6.1176 4.4008 2.2443
-6.2596 4.1712 2.2443
-6.3559 3.9143 2.2314
-6.3585 3.6084 2.1897
-6.3694 3.3188 2.1553
-6.4283 3.0619 2.1410
-6.5207 2.8240 2.1410
-6.6042 2.5832 2.1410
-6.6787 2.3400 2.1410
-6.7443 2.0948 2.1410
-6.8008 1.8478 2.1410
-6.8482 1.5994 2.1410
-6.8865 1.3499 2.1410
-6.9158 1.0996 2.1410
-6.9360 0.8490 2.1410
-6.9472 0.5983 2.1410
-6.9493 0.3479 2.1410
-6.9426 0.0980 2.1410
-6.9269 -0.1510 2.1410
-6.9025 -0.3988 2.1410
-6.8692 -0.6451 2.1410
-6.8274 -0.8896 2.1410
-6.7770 -1.1320 2.1410
-6.7182 -1.3720 2.1410
-6.6511 -1.6093 2.1410
-6.5758 -1.8436 2.1410
-6.4924 -2.0748 2.1410
-6.4133 -2.3068 2.1451
-6.4071 -2.5684 2.1767
-6.4054 -2.8393 2.2135
-6.3749 -3.1048 2.2443
-6.2478 -3.3263 2.2443
-6.1133 -3.5427 2.2443
-5.9715 -3.7541 2.2443
-5.8228 -3.9600 2.2443
-5.6672 -4.1604 2.2443
-5.5050 -4.3549 2.2443
-5.3365 -4.5435 2.2443
-5.1618 -4.7259 2.2443
-4.9811 -4.9019 2.2443
-4.7947 -5.0713 2.2443
-4.6028 -5.2340 2.2443
-4.4057 -5.3898 2.2443
-4.2036 -5.5386 2.2443
-3.9967 -5.6802 2.2443
-3.7853 -5.8145 2.2443
-3.5697 -5.9414 2.2443
-3.3500 -6.0607 2.2443
-3.1266 -6.1723 2.2443
-2.8996 -6.2761 2.2443
-2.6694 -6.3720 2.2443
-2.4362 -6.4600 2.2443
-2.2003 -6.5399 2.2443
-1.9619 -6.6116 2.2443
-1.7213 -6.6752 2.2443
-1.4788 -6.7305 2.2443
-1.2346 -6.7775 2.2443
-0.9890 -6.8162 2.2443
-0.7423 -6.8464 2.2443
-0.4947 -6.8683 2.2443
-0.2466 -6.8817 2.2443
0.0019 -6.3941 2.2443
0.2328 -6.3908 2.2443
0.4634 -6.3795 2.2443
0.6936 -6.3604 2.2443
0.9231 -6.3334 2.2443
1.1516 -6.2985 2.2443
1.3788 -6.2559 2.2443
1.6046 -6.2054 2.2443
1.7446 -5.8649 2.1412
1.9565 -5.8020 2.1412
2.1661 -5.7319 2.1412
2.3735 -5.6546 2.1412
2.5782 -5.5701 2.1412
2.7800 -5.4786 2.1412
2.9788 -5.3801 2.1412
3.1742 -5.2747 2.1412
3.3661 -5.1626 2.1412
3.5542 -5.0437 2.1412
3.7383 -4.9183 2.1412
3.9182 -4.7865 2.1412
4.0936 -4.6484 2.1412
2.0095 -2.1224 1.0090
4.4302 -4.3537 2.1412
4.5910 -4.1975 2.1412
4.7464 -4.0356 2.1412
4.8964 -3.8681 2.1412
5.0406 -3.6953 2.1412
5.1789 -3.5172 2.1412
5.3111 -3.3342 2.1412
5.4371 -3.1463 2.1412
5.5565 -2.9539 2.1412
5.7305 -2.7867 2.1643
5.7349 -2.5381 2.1262
5.7367 -2.2959 2.0910
5.7384 -2.0604 2.0594
5.7401 -1.8309 2.0312
5.7417 -1.6065 2.0061
5.7433 -1.3866 1.9841
5.7449 -1.1703 1.9650
2.0472 -0.3409 0.6942
5.7480 -0.7463 1.9350
5.7496 -0.5374 1.9240
5.7511 -0.3299 1.9154
5.7526 -0.1231 1.9094
5.7541 0.0834 1.9059
5.7556 0.2902 1.9048
5.7571 0.4977 1.9062
5.7587 0.7067 1.9100
5.7602 0.9176 1.9164
5.7618 1.1310 1.9254
5.7634 1.3475 1.9371
5.7650 1.5677 1.9515
5.7666 1.7924 1.9687
5.7683 2.0222 1.9890
5.7700 2.2579 2.0124
5.7718 2.5005 2.0393
5.7736 2.7508 2.0696
5.6402 2.9394 2.0546
5.8369 3.3128 2.1643
5.6633 3.4879 2.1412
5.5441 3.6945 2.1412
5.4172 3.8967 2.1412
5.2827 4.0945 2.1412
5.1407 4.2874 2.1412
4.9915 4.4751 2.1412
4.8353 4.6574 2.1412
4.6721 4.8339 2.1412
4.5023 5.0045 2.1412
4.3261 5.1688 2.1412
4.1436 5.3265 2.1412
3.9552 5.4775 2.1412
3.7611 5.6215 2.1412
3.5615 5.7582 2.1412
3.3568 5.8874 2.1412
3.1472 6.0090 2.1412
2.9330 6.1226 2.1412
