ply
format ascii 1.0
element vertex 2010
property float32 x
property float32 y
property float32 z
end_header
-28.5316 8.7299 -4.5289
-7.2939 1.9484 -1.1473
-27.8594 6.3803 -4.3482
-27.7799 5.3206 -4.3082
-27.6551 4.2741 -4.2673
-27.6835 3.2661 -4.2559
-30.8702 2.5226 -4.7344
-41.8245 1.9099 -6.4073
-42.2471 0.4111 -6.4732
-46.0436 -1.2054 -7.0654
-27.6326 -1.7176 -4.2519
-27.2242 -2.6761 -4.2061
-23.7325 -3.1967 -3.6863
-23.4431 -4.0194 -3.6657
-20.7828 -4.3366 -3.2757
-20.7680 -5.1179 -3.3040
-20.0831 -5.7213 -3.2293
-20.2767 -6.5722 -3.2999
-24.3992 -8.8886 -4.0246
-23.6690 -9.5986 -3.9628
-23.7107 -10.6222 -4.0354
-23.0677 -11.3456 -3.9969
-19.7601 -10.6164 -3.4913
-19.3635 -11.3177 -3.4943
-18.9665 -12.0195 -3.5018
-18.8188 -12.8959 -3.5612
-19.8478 -14.6757 -3.8568
-53.3395 -42.4854 -10.6644
-6.7380 -5.7743 -1.3890
-53.1225 -48.9412 -11.3157
-56.7922 -56.2244 -12.5300
-56.1597 -59.7423 -12.8661
-57.9054 -66.2118 -13.8128
-55.7070 -68.5160 -13.8770
-37.5468 -90.0016 -15.3957
-34.1608 -90.9494 -15.3442
-30.3340 -90.5134 -15.0825
-6.7030 -26.0869 -4.2582
6.5836 -30.0659 -4.1581
7.2681 -28.2872 -3.9444
8.3537 -28.2592 -3.9783
10.3838 -30.9859 -4.4100
9.5957 -25.5492 -3.6813
9.1813 -22.0095 -3.2151
11.3774 -24.7343 -3.6684
8.3309 -16.5210 -2.4916
8.7402 -15.8862 -2.4401
9.1676 -15.3321 -2.4024
9.2996 -14.3557 -2.2987
10.2394 -14.6271 -2.3976
16.7558 -22.1942 -3.7313
12.5390 -15.4239 -2.6649
12.5349 -14.3348 -2.5507
13.7176 -14.5945 -2.6804
15.3993 -15.2474 -2.8973
13.1253 -12.0939 -2.3838
11.0914 -9.5065 -1.9491
11.4455 -9.1179 -1.9505
11.5025 -8.5065 -1.9048
11.5573 -7.9212 -1.8635
13.8726 -8.7931 -2.1819
13.9756 -8.1702 -2.1481
14.2529 -7.6593 -2.1444
14.3990 -7.0837 -2.1242
26.5943 -11.9171 -3.8528
15.9944 -6.4881 -2.2791
28.0856 -10.2347 -3.9420
32.3104 -10.4763 -4.4734
30.9403 -8.8178 -4.2316
31.0055 -7.6443 -4.1947
36.2870 -7.5757 -4.8627
37.5252 -6.4380 -4.9877
38.0799 -5.1336 -5.0268
41.1815 -1.0828 -5.3672
21.9038 0.2107 -2.8500
18.0345 0.8215 -2.3456
18.1792 1.4835 -2.3666
18.1486 2.1391 -2.3678
15.8874 2.4535 -2.0801
15.3983 2.9474 -2.0258
14.6505 3.3535 -1.9394
14.8753 3.9718 -1.9841
17.1050 5.2316 -2.3020
18.8127 6.5009 -2.5582
18.6719 7.2122 -2.5692
17.6598 7.5603 -2.4626
17.5812 8.2854 -2.4883
16.6739 8.6021 -2.3991
15.7948 8.8803 -2.3141
16.2417 9.9149 -2.4273
15.6422 10.3372 -2.3888
16.3751 11.6868 -2.5602
15.6597 12.0472 -2.5115
24.9728 20.6795 -4.1171
21.2355 18.9095 -3.6067
10.1425 9.7060 -1.7788
9.3584 9.6222 -1.6991
8.5020 9.3936 -1.6023
8.1731 9.7089 -1.6035
8.4776 10.8371 -1.7369
8.1179 11.1819 -1.7429
7.6236 11.3352 -1.7216
13.8599 22.2953 -3.3061
6.8228 11.9079 -1.7271
6.2389 11.8557 -1.6848
14.4948 30.1192 -4.2011
14.5359 33.2033 -4.5529
14.0558 35.5240 -4.7963
13.2596 37.3790 -4.9768
13.7034 43.5270 -5.7237
10.7378 38.9317 -5.0635
8.6037 36.2165 -4.6657
7.2150 36.0820 -4.6107
6.5297 40.0859 -5.0879
5.8133 46.0428 -5.8126
2.0038 37.1870 -4.6634
-6.7406 24.4408 -3.1798
-18.8325 59.8221 -7.8690
-19.9030 56.1102 -7.4735
-22.1025 55.8638 -7.5454
-26.8139 61.2515 -8.4025
-22.1800 46.0905 -6.4317
-23.7640 45.1600 -6.4210
-24.7611 43.2176 -6.2716
-26.3547 42.3962 -6.2904
-20.3749 30.2955 -4.6042
-21.1959 29.1968 -4.5537
-23.0316 29.4426 -4.7220
-23.9436 28.4433 -4.7009
-26.3201 29.0813 -4.9640
-27.6436 28.4237 -5.0229
-22.6366 21.6628 -3.9733
-22.8805 20.3748 -3.8893
-20.6912 17.1345 -3.4141
-22.0441 16.9591 -3.5385
-22.3176 15.9282 -3.4923
-22.4246 14.8196 -3.4276
-24.9012 15.2014 -3.7248
-25.5499 14.3651 -3.7468
-25.9421 13.3838 -3.7361
-27.4329 12.9284 -3.8864
-27.8991 11.9440 -3.8941
-28.6493 11.0663 -3.9460
-28.0987 9.7099 -3.8247
-29.6335 9.0636 -3.9921
-7.2929 1.9473 -0.9737
-28.0243 6.4148 -3.7136
-27.5270 5.2690 -3.6252
-27.7346 4.2832 -3.6349
-27.7628 3.2723 -3.6259
-30.8711 2.5192 -4.0230
-31.3529 1.4282 -4.0821
-42.5217 0.4090 -5.5384
-44.4800 -1.1695 -5.8032
-27.6190 -1.7199 -3.6141
-27.0800 -2.6651 -3.5586
-22.4342 -3.0244 -2.9645
-22.7334 -3.9003 -3.0247
-21.2504 -4.4366 -2.8506
-21.2388 -5.2364 -2.8763
-20.1792 -5.7510 -2.7626
-19.7631 -6.4081 -2.7389
-24.3890 -8.8878 -3.4265
-25.2523 -10.2437 -3.6017
-23.7939 -10.6624 -3.4504
-23.2602 -11.4432 -3.4346
-19.9928 -10.7440 -3.0108
-19.0031 -11.1094 -2.9234
-18.9780 -12.0294 -2.9875
-18.8384 -12.9119 -3.0400
-50.4879 -37.3382 -8.3676
-52.9721 -42.2004 -9.0344
-6.7365 -5.7740 -1.1848
-53.0523 -48.8845 -9.6427
-56.2234 -55.6702 -10.5860
-59.1343 -62.9163 -11.5630
-58.1578 -66.5103 -11.8423
-55.6205 -68.4195 -11.8287
-54.8148 -72.6080 -12.2144
-37.6923 -90.3610 -13.2047
-33.6544 -89.6115 -12.9162
-30.9043 -92.2259 -13.1301
-6.7020 -26.0858 -3.6384
14.0919 -77.6071 -8.8555
6.5969 -30.1301 -3.4617
7.2452 -28.2015 -3.2667
8.3271 -28.1728 -3.2944
7.5005 -22.3848 -2.6461
8.3838 -22.3253 -2.6714
9.2858 -22.2629 -2.7005
10.6562 -23.1694 -2.8532
11.5747 -22.9567 -2.8743
8.7388 -15.8859 -2.0255
9.1662 -15.3318 -1.9939
9.5817 -14.7932 -1.9657
10.0275 -14.3263 -1.9485
20.0945 -26.6204 -3.7128
13.4574 -16.5562 -2.3726
12.7344 -14.5651 -2.1492
12.4027 -13.1977 -2.0097
16.5672 -16.4064 -2.5843
13.1272 -12.0977 -1.9763
11.3488 -9.7288 -1.6528
11.4196 -9.0989 -1.6125
11.4771 -8.4893 -1.5745
18.1620 -12.4505 -2.4253
20.3930 -12.9288 -2.6559
14.7286 -8.6123 -1.8740
21.0012 -11.2884 -2.6151
20.9690 -10.3185 -2.5595
20.8871 -9.3623 -2.5031
20.7701 -8.4279 -2.4475
20.9962 -7.6538 -2.4365
21.5866 -7.0018 -2.4703
30.8716 -8.8019 -3.4889
31.2173 -7.7001 -3.4889
38.4139 -8.0242 -4.2514
37.7064 -6.4733 -4.1379
38.8606 -1.0261 -4.1769
38.8440 0.3692 -4.1669
18.0294 0.8192 -1.9328
18.1740 1.4810 -1.9494
18.6456 2.1955 -2.0039
17.7228 2.7350 -1.9108
20.9186 4.0016 -2.2657
14.6084 3.3421 -1.5916
18.5590 4.9532 -2.0368
16.9845 5.1928 -1.8802
19.0437 6.5785 -2.1295
18.7300 7.2324 -2.1187
17.7126 7.5808 -2.0300
17.2232 8.1145 -2.0029
17.5773 9.0660 -2.0775
16.0257 9.0081 -1.9282
16.3658 9.9885 -2.0080
15.7598 10.4128 -1.9755
16.2899 11.6238 -2.0900
15.7694 12.1293 -2.0749
24.8348 20.5617 -3.3582
21.1031 18.7885 -2.9392
19.0451 18.2225 -2.7385
8.9492 9.2001 -1.3318
8.6175 9.5199 -1.3309
8.2844 9.8396 -1.3317
7.9491 10.1600 -1.3341
8.1799 11.2657 -1.4384
7.6810 11.4191 -1.4204
7.1926 11.5687 -1.4047
13.2413 23.1073 -2.7440
15.4397 29.3361 -3.4128
14.9530 31.0676 -3.5468
13.8204 31.5651 -3.5422
13.8581 35.0203 -3.8691
13.0844 36.8810 -4.0178
11.6314 36.9414 -3.9742
11.1920 40.5737 -4.3169
8.5479 35.9777 -3.7913
7.1691 35.8488 -3.7469
6.9097 42.4142 -4.4030
5.7696 45.6922 -4.7177
2.0038 37.1857 -3.8137
-15.9407 97.8579 -10.1608
-6.7405 24.4375 -2.6011
-17.7393 56.3427 -6.0638
-19.9271 56.1711 -6.1219
-22.0415 55.7026 -6.1570
-20.6177 47.0915 -5.2872
-12.3693 25.7003 -2.9357
-12.9088 24.5281 -2.8552
-13.9355 24.3194 -2.8897
-26.6009 42.7866 -5.1990
-20.3814 30.3011 -3.7720
-21.5359 29.6610 -3.7899
-22.9532 29.3381 -3.8555
-24.0703 28.5896 -3.8726
-26.3432 29.1024 -4.0722
-27.7693 28.5484 -4.1365
-23.4001 22.3898 -3.3679
-23.5368 20.9556 -3.2813
-22.0885 18.2883 -2.9899
-21.9238 16.8633 -2.8877
-23.3236 16.6429 -2.9955
-25.0690 16.5637 -3.1458
-25.2750 15.4262 -3.1046
-24.6238 13.8412 -2.9660
-24.5095 12.6416 -2.9001
-27.3849 12.9023 -3.1883
-27.8501 11.9197 -3.1956
-28.4747 10.9954 -3.2249
-29.6621 10.2466 -3.3209
-29.4431 9.0018 -3.2633
-7.2919 1.9462 -0.8012
-28.1902 6.4495 -3.0752
-27.2800 5.2186 -2.9584
-28.4961 4.3976 -3.0763
-30.5723 3.5999 -3.2898
-31.2792 2.5489 -3.3594
-27.9044 1.2679 -2.9951
-32.9272 0.3130 -3.5366
-41.5213 -1.0964 -4.4685
-27.6054 -1.7221 -2.9806
-26.9382 -2.6541 -2.9217
-22.4433 -3.0282 -2.4485
-22.7428 -3.9045 -2.4989
-21.7365 -4.5406 -2.4086
-20.0836 -4.9539 -2.2473
-20.2456 -5.7723 -2.2908
-19.9370 -6.4668 -2.2843
-24.4670 -8.9191 -2.8425
-21.8955 -8.8847 -2.5831
-24.1096 -10.8068 -2.8926
-23.4548 -11.5418 -2.8661
-20.1685 -10.8410 -2.5141
-19.3871 -11.3364 -2.4694
-18.9895 -12.0392 -2.4757
-51.6224 -35.3890 -6.9006
-50.3981 -37.2788 -6.9206
-53.0139 -42.2412 -7.4929
-6.7349 -5.7736 -0.9818
-53.0465 -48.8872 -7.9934
-56.7619 -56.2122 -8.8621
-55.6574 -59.2260 -9.0262
-58.4391 -66.8418 -9.8709
-56.1102 -69.0316 -9.9003
-56.2026 -74.4567 -10.3921
-56.4448 -80.6452 -10.9758
-36.8326 -88.3106 -10.7171
-34.0750 -90.7421 -10.8627
-30.7762 -91.8540 -10.8620
-6.7010 -26.0847 -3.0223
0.0005 -88.9085 -7.9673
3.1920 -88.8126 -7.9633
14.0886 -77.5983 -7.0602
20.2155 -92.3417 -8.4587
8.2334 -32.0520 -2.9598
8.3009 -28.0873 -2.6181
10.1858 -30.4027 -2.8644
8.4788 -22.5809 -2.1533
9.3922 -22.5208 -2.1766
10.7728 -23.4259 -2.2982
11.7089 -23.2259 -2.3162
12.4590 -22.6515 -2.2999
9.1649 -15.3316 -1.5875
9.5803 -14.7931 -1.5647
10.2928 -14.7075 -1.5919
15.1503 -20.0733 -2.2275
16.0670 -19.7695 -2.2535
12.8872 -14.7421 -1.7298
15.1936 -16.1700 -1.9575
16.7073 -16.5479 -2.0716
13.1223 -12.0952 -1.5698
11.3203 -9.7061 -1.3097
11.3940 -9.0802 -1.2776
16.0794 -11.8958 -1.7511
18.2650 -12.5236 -1.9356
18.6607 -11.8330 -1.9279
19.3179 -11.2984 -1.9492
19.4616 -10.4634 -1.9211
19.5080 -9.6020 -1.8869
19.5794 -8.7785 -1.8586
19.7018 -7.9968 -1.8383
19.8482 -7.2377 -1.8230
20.2462 -6.5694 -1.8331
21.1658 -6.0371 -1.8917
31.4310 -7.7565 -2.7769
37.6799 -7.8752 -3.2952
38.3296 -6.5847 -3.3223
37.4249 -2.3389 -3.1834
37.4031 -0.9918 -3.1698
37.3882 0.3512 -3.1609
37.3799 1.6943 -3.1567
18.1688 1.4785 -1.5346
18.3731 2.1614 -1.5541
17.4753 2.6948 -1.4823
20.9657 4.0083 -1.7857
19.8769 4.5452 -1.7022
18.5447 4.9472 -1.5990
19.4635 5.9484 -1.6921
18.5858 6.4181 -1.6315
18.7882 7.2526 -1.6677
17.7654 7.6012 -1.5969
16.6668 7.8504 -1.5196
14.9749 7.7219 -1.3870
16.9066 9.5011 -1.5935
16.4911 10.0629 -1.5844
15.8788 10.4893 -1.5579
16.2060 11.5617 -1.6268
15.8801 12.2123 -1.6343
24.3214 20.1331 -2.5714
9.7435 8.6733 -1.0606
9.4075 8.9998 -1.0569
9.0719 9.3247 -1.0545
8.7357 9.6490 -1.0534
8.3982 9.9733 -1.0537
8.0586 10.2985 -1.0554
8.1614 11.2387 -1.1195
7.7391 11.5039 -1.1162
7.2464 11.6538 -1.1035
6.7629 11.8004 -1.0924
15.7978 30.0128 -2.7214
14.7153 30.5699 -2.7196
15.1884 34.6854 -3.0325
13.6668 34.5329 -2.9719
12.7545 35.9469 -3.0499
11.6297 36.9318 -3.0939
11.8661 43.0128 -3.5632
8.4930 35.7429 -2.9323
7.5941 37.9701 -3.0893
7.1467 43.8640 -3.5443
6.0917 48.2383 -3.8765
2.0039 37.1836 -2.9679
-1.2022 67.0068 -5.3413
-3.6015 66.8418 -5.3356
-15.9626 97.9809 -7.9193
-6.7405 24.4342 -2.0251
-8.8170 28.0006 -2.3469
-9.4457 26.6226 -2.2600
-10.0643 25.4310 -2.1899
-10.4899 23.9563 -2.0959
-11.1647 23.1946 -2.0649
-12.2878 23.3451 -2.1184
-13.4237 23.4232 -2.1702
-14.7484 23.7191 -2.2479
-20.0409 29.7907 -2.8931
-21.6934 29.8737 -2.9788
-23.1663 29.6062 -3.0372
-24.1978 28.7368 -3.0394
-26.6384 29.4239 -3.2159
-27.0016 27.7547 -3.1422
-23.4163 22.4017 -2.6338
-23.4156 20.8441 -2.5521
-24.0542 19.9122 -2.5464
-21.5720 16.5897 -2.2229
-24.0328 17.1456 -2.4158
-24.0978 15.9188 -2.3676
-25.6584 15.6568 -2.4686
-24.0304 13.5045 -2.2682
-24.6002 12.6853 -2.2818
-27.3372 12.8764 -2.4961
-29.5321 12.6359 -2.6586
-28.6929 11.0762 -2.5507
-29.6851 10.2510 -2.6098
-29.2560 8.9412 -2.5474
-7.2910 1.9451 -0.6296
-25.3983 5.8078 -2.1785
-34.2952 6.5567 -2.9256
-26.6347 4.1073 -2.2628
-29.5108 3.4716 -2.5002
-28.5717 2.3251 -2.4171
-28.2236 1.2793 -2.3872
-32.8421 0.3085 -2.7810
-43.1367 -1.1439 -3.6615
-29.3942 -1.8370 -2.5043
-28.9210 -2.8527 -2.4762
-22.4524 -3.0319 -1.9345
-22.7522 -3.9087 -1.9752
-24.2747 -5.0735 -2.1261
-20.1485 -4.9723 -1.7828
-20.3122 -5.7937 -1.8182
-20.1132 -6.5263 -1.8238
-25.4331 -9.2743 -2.3394
-24.3474 -9.8825 -2.2750
-23.2824 -10.4389 -2.2133
-23.3465 -11.4915 -2.2613
-20.3464 -10.9391 -2.0112
-19.3988 -11.3458 -1.9600
-48.8572 -30.9814 -5.0543
-50.9482 -34.9337 -5.4061
-55.5390 -41.0891 -6.0559
-53.0055 -42.2419 -5.9507
-6.7333 -5.7733 -0.7799
-53.1745 -49.0131 -6.3685
-56.0595 -55.5253 -6.9585
-60.4517 -64.3375 -7.7965
-58.2374 -66.6208 -7.8250
-55.9964 -68.9014 -7.8615
-55.6371 -73.7176 -8.1876
-11.0005 -15.7190 -1.7028
-10.3068 -15.9152 -1.6847
-9.5786 -17.4151 -1.7695
-37.4710 -89.8516 -8.6892
-34.2556 -91.2335 -8.7044
-30.3859 -90.6993 -8.5492
-6.7000 -26.0836 -2.4095
-6.6466 -92.3703 -8.2982
-3.1912 -88.8195 -7.9644
0.0004 -88.9085 -5.9527
3.1915 -88.8126 -5.9496
14.0664 -77.4854 -5.2655
20.2131 -92.3417 -6.3168
8.4648 -32.9567 -2.2723
9.3565 -31.6631 -2.2032
25.9231 -77.3851 -5.4415
10.0114 -26.6659 -1.8974
9.7110 -23.2883 -1.6791
10.8241 -23.5402 -1.7223
11.6779 -23.1673 -1.7225
14.1991 -25.8186 -1.9538
16.6312 -27.8254 -2.1466
18.2403 -28.1689 -2.2190
19.4132 -27.7435 -2.2356
15.1049 -20.0161 -1.6529
16.0183 -19.7125 -1.6714
13.0431 -14.9228 -1.3019
15.2560 -16.2388 -1.4609
16.8494 -16.6913 -1.5521
13.1174 -12.0927 -1.1652
17.2513 -14.7939 -1.4812
16.2185 -12.9272 -1.3489
17.9683 -13.2957 -1.4506
18.1911 -12.4754 -1.4283
18.1134 -11.4884 -1.3856
18.1579 -10.6223 -1.3558
18.2382 -9.8079 -1.3314
18.4271 -9.0723 -1.3173
18.6410 -8.3601 -1.3069
18.8437 -7.6508 -1.2977
19.0411 -6.9456 -1.2899
19.4519 -6.3140 -1.2981
20.0313 -5.7159 -1.3186
20.8702 -5.1527 -1.3571
37.8963 -7.9248 -2.4374
36.9962 -6.3598 -2.3568
37.1113 -5.0156 -2.3445
36.0969 -3.5645 -2.2645
36.0741 -2.2585 -2.2501
36.0560 -0.9601 -2.2390
36.0425 0.3345 -2.2311
36.0336 1.6293 -2.2263
36.0292 2.9279 -2.2247
35.3930 4.1596 -2.1869
32.9377 5.0755 -2.0393
21.0770 4.0272 -1.3093
20.0847 4.5905 -1.2536
18.5306 4.9413 -1.1636
19.7058 6.0202 -1.2467
18.4432 6.3667 -1.1772
18.1463 7.0028 -1.1703
18.7101 8.0032 -1.2211
16.9966 8.0036 -1.1243
15.1765 7.8240 -1.0191
17.4496 9.8040 -1.1916
16.6179 10.1381 -1.1559
15.9990 10.5666 -1.1357
16.1233 11.5005 -1.1702
15.9919 12.2961 -1.1891
23.5029 19.4522 -1.7942
23.4915 20.9079 -1.8453
9.5379 9.1230 -0.7727
9.1974 9.4523 -0.7705
8.8567 9.7812 -0.7693
8.5147 10.1102 -0.7691
8.1707 10.4404 -0.7700
8.3057 11.4359 -0.8194
7.7978 11.5896 -0.8084
7.3008 11.7397 -0.7988
6.8132 11.8867 -0.7904
15.2090 28.8907 -1.8809
15.7824 32.7830 -2.0932
16.7051 38.1445 -2.3927
15.1634 38.3101 -2.3647
12.8463 36.2016 -2.2023
11.8891 37.7511 -2.2670
12.1255 43.9485 -2.6092
9.2460 38.9075 -2.2871
7.7129 38.5597 -2.2475
7.1244 43.7226 -2.5306
5.8598 46.3972 -2.6704
8.1224 90.2699 -5.1739
2.0040 37.1814 -2.1252
-6.7404 24.4310 -1.4513
-8.7956 27.9294 -1.6784
-9.3463 26.3391 -1.6036
-9.9126 25.0446 -1.5472
-10.4594 23.8836 -1.4996
-10.9055 22.6531 -1.4479
-11.5145 21.8730 -1.4255
-12.6218 22.0210 -1.4660
-13.7993 22.1897 -1.5117
-15.4852 23.0155 -1.6075
-21.4034 29.4702 -2.1144
-23.5195 30.0533 -2.2196
-26.0527 30.9350 -2.3569
-24.3825 26.9280 -2.1213
-26.4280 27.1608 -2.2176
-23.2697 22.2578 -1.8884
-19.6281 17.4696 -1.5444
-20.5738 17.0282 -1.5734
-22.2254 17.0890 -1.6556
-11.3303 8.0818 -0.8239
-10.8945 7.1953 -0.7748
-12.0513 7.3522 -0.8399
-24.9474 14.0167 -1.7069
-25.6221 13.2090 -1.7240
-12.3503 5.8157 -0.8186
-12.3439 5.2801 -0.8073
-12.1681 4.6957 -0.7864
-29.6454 10.2338 -1.8962
-29.5753 9.0353 -1.8750
-7.2900 1.9440 -0.4587
-25.4435 5.8152 -1.5914
-26.7500 5.1111 -1.6653
-26.7957 4.1291 -1.6626
-28.7055 3.3737 -1.7776
-28.0574 2.2801 -1.7362
-28.5488 1.2908 -1.7677
-32.7576 0.3040 -2.0321
-43.4848 -1.1579 -2.7061
-39.4358 -2.4690 -2.4651
-28.6860 -2.8328 -1.8034
-22.4615 -3.0357 -1.4220
-22.7615 -3.9128 -1.4530
-24.3676 -5.0957 -1.5706
-20.2136 -4.9906 -1.3171
-20.3790 -5.8151 -1.3443
-20.2917 -6.5866 -1.3568
-24.6050 -8.9752 -1.6701
-24.1526 -9.8063 -1.6665
-24.8701 -11.1538 -1.7470
-23.3450 -11.4936 -1.6719
-26.8803 -14.4555 -1.9659
-54.6004 -31.9411 -4.0841
-50.8571 -32.2563 -3.8973
-50.0670 -34.3362 -3.9377
-50.9968 -37.7357 -4.1239
-53.6074 -42.7292 -4.4658
-6.7318 -5.7729 -0.5789
-14.7467 -13.5948 -1.3119
-15.4578 -15.3129 -1.4260
-58.9411 -62.7391 -5.6521
-58.7380 -67.2033 -5.8708
-13.7498 -16.9211 -1.4366
-56.0031 -74.2128 -6.1358
-10.7511 -15.3647 -1.2395
-10.3755 -16.0234 -1.2636
-9.9969 -16.7260 -1.2917
-9.5695 -17.4007 -1.3181
-37.5489 -90.0490 -6.4975
-16.9271 -57.2843 -3.9883
-6.6989 -26.0825 -1.7992
-13.1202 -59.9407 -4.1021
-6.6460 -92.3703 -6.1997
-3.1910 -88.8195 -5.9505
0.0002 -88.8160 -3.9400
3.1910 -88.8126 -3.9419
14.0197 -77.2375 -3.4752
19.7565 -90.2670 -4.0873
22.8029 -88.7917 -4.0510
26.2339 -88.7881 -4.0867
25.7305 -76.8194 -3.5715
8.6038 -22.9194 -1.0777
9.6946 -23.2517 -1.1073
11.2570 -24.4848 -1.1826
11.8070 -23.4264 -1.1491
14.1179 -25.6742 -1.2810
15.4531 -25.8578 -1.3143
16.5871 -25.6193 -1.3286
17.1916 -24.5719 -1.3025
19.1269 -25.3494 -1.3759
15.9701 -19.6560 -1.0945
14.6011 -16.7077 -0.9563
15.3186 -16.3081 -0.9616
17.5170 -17.3554 -1.0567
13.1125 -12.0902 -0.7620
17.6684 -15.1542 -0.9914
16.1095 -12.8427 -0.8746
17.5401 -12.9813 -0.9233
17.2756 -11.8499 -0.8833
17.2647 -10.9524 -0.8590
17.3147 -10.1313 -0.8398
17.3698 -9.3431 -0.8226
17.5076 -8.6217 -0.8108
17.7598 -7.9670 -0.8056
18.0209 -7.3189 -0.8018
18.3128 -6.6822 -0.8004
18.5911 -6.0368 -0.7993
19.1138 -5.4563 -0.8094
19.7301 -4.8735 -0.8241
20.3356 -4.2549 -0.8388
21.0596 -3.6226 -0.8590
21.9749 -2.9724 -0.8876
34.8385 -3.4442 -1.3951
34.8208 -2.1839 -1.3842
34.8058 -0.9307 -1.3752
34.7936 0.3191 -1.3681
34.7842 1.5689 -1.3629
34.7774 2.8223 -1.3596
32.3418 3.7974 -1.2632
32.6301 5.0245 -1.2749
23.7702 4.5391 -0.9303
20.2962 4.6365 -0.7967
18.5165 4.9355 -0.7301
19.9535 6.0935 -0.7913
18.3031 6.3162 -0.7311
18.7659 7.2396 -0.7562
17.6012 7.5268 -0.7166
17.2833 8.1366 -0.7120
16.7996 8.6586 -0.7014
16.3248 9.1700 -0.6920
17.1690 10.4721 -0.7402
17.3518 11.4578 -0.7623
16.0417 11.4401 -0.7195
16.1050 12.3808 -0.7389
23.7852 19.6825 -1.1188
21.0896 18.7670 -1.0193
9.6714 9.2493 -0.4814
9.3262 9.5832 -0.4794
8.9807 9.9167 -0.4781
8.6341 10.2506 -0.4774
8.5468 10.9194 -0.4924
17.4946 24.0846 -1.0539
7.8572 11.6765 -0.4969
7.3559 11.8268 -0.4904
6.8641 11.9740 -0.4848
15.3856 29.2226 -1.1572
18.0317 37.4505 -1.4532
18.3272 41.8436 -1.5938
16.8264 42.5066 -1.5920
19.9219 56.1346 -2.0707
11.7894 37.4306 -1.3621
15.1823 55.0216 -1.9784
13.1442 55.3055 -1.9680
8.9632 44.8057 -1.5803
7.2636 44.5725 -1.5606
5.9957 47.4683 -1.6522
8.1150 90.1796 -3.1252
2.0040 37.1792 -1.2848
-9.5974 47.9776 -1.6935
-10.0764 42.3982 -1.5101
-6.7402 24.4274 -0.8792
-8.7882 27.9023 -1.0166
-9.1343 25.7386 -0.9507
-9.7197 24.5541 -0.9209
-10.2624 23.4309 -0.8938
-10.8549 22.5452 -0.8763
-11.5412 21.9210 -0.8696
-12.5350 21.8669 -0.8869
-13.4290 21.5913 -0.8971
-14.4517 21.4766 -0.9158
-21.3613 29.4081 -1.2897
-23.8884 30.5203 -1.3794
-25.0362 29.7237 -1.3876
-24.6127 27.1781 -1.3135
-25.5576 26.2622 -1.3172
-23.1053 22.0969 -1.1533
-19.6478 17.4842 -0.9522
-20.5949 17.0426 -0.9715
-10.9370 8.4079 -0.5033
-10.6334 7.5832 -0.4783
-10.7197 7.0785 -0.4724
-11.0232 6.7235 -0.4767
-25.1117 14.1057 -1.0679
-25.7920 13.2933 -1.0804
-11.8356 5.5719 -0.4892
-11.5416 4.9355 -0.4714
-11.5703 4.4637 -0.4678
-11.9638 4.1286 -0.4795
-29.0432 8.8694 -1.1557
-7.2890 1.9429 -0.2884
-25.4887 5.8227 -1.0040
-26.7997 5.1176 -1.0524
-26.9582 4.1511 -1.0569
-29.6274 3.4787 -1.1611
-30.2277 2.4531 -1.1858
-28.8807 1.3026 -1.1355
-32.6739 0.2996 -1.2891
-42.7851 -1.1441 -1.6962
-39.4257 -2.4727 -1.5725
-12.3118 -1.2171 -0.4947
-12.9137 -1.7467 -0.5233
-22.7709 -3.9170 -0.9319
-23.0832 -4.8297 -0.9553
-14.0312 -3.4658 -0.5879
-26.4784 -7.5586 -1.1248
-23.6207 -7.6699 -1.0187
-24.8807 -9.0787 -1.0908
-24.8050 -10.0742 -1.1070
-25.0776 -11.2498 -1.1409
-23.3434 -11.4957 -1.0843
-26.8846 -14.4611 -1.2768
-54.1539 -31.6869 -2.6339
-31.4158 -19.9297 -1.5674
-30.2644 -20.7595 -1.5515
-28.5949 -21.1630 -1.5090
-54.4286 -43.3914 -2.9623
-6.7302 -5.7725 -0.3785
-14.5002 -13.3698 -0.8446
-13.9235 -13.7951 -0.8418
-13.2771 -14.1348 -0.8353
-12.7531 -14.5932 -0.8370
-12.1753 -14.9854 -0.8360
-11.5656 -15.3283 -0.8335
-11.1707 -15.9665 -0.8478
-10.4326 -16.1136 -0.8371
-9.7101 -16.2481 -0.8271
-9.4173 -17.1262 -0.8557
-9.2020 -18.2580 -0.8968
-26.3849 -57.3900 -2.7754
-23.9268 -57.3874 -2.7362
-21.5415 -57.3848 -2.7013
-19.5748 -58.4423 -2.7197
-17.7219 -59.9805 -2.7631
-6.6978 -26.0811 -1.1908
-13.7910 -63.0122 -2.8551
-6.4961 -90.2950 -4.0153
-3.1908 -88.8195 -3.9426
0.0001 -88.9085 -1.9396
3.1905 -88.8126 -1.9383
19.7542 -90.2670 -2.0040
22.8239 -88.8842 -1.9862
26.2307 -88.7881 -1.9993
25.9155 -77.3812 -1.7577
8.5238 -22.7093 -0.5210
9.6019 -23.0323 -0.5343
11.2682 -24.5124 -0.5757
11.9388 -23.6909 -0.5640
16.3026 -29.6511 -0.7165
15.3856 -25.7482 -0.6324
16.6935 -25.7871 -0.6448
17.2999 -24.7302 -0.6304
18.1713 -24.0862 -0.6270
15.9222 -19.5999 -0.5220
15.3680 -17.5879 -0.4801
16.6008 -17.6758 -0.4955
16.8532 -16.7004 -0.4819
13.1076 -12.0877 -0.3598
17.8489 -15.3117 -0.4714
16.0023 -12.7595 -0.4075
16.7782 -12.4198 -0.4126
16.5754 -11.3719 -0.3944
16.5539 -10.5037 -0.3818
16.5897 -9.7092 -0.3714
16.7217 -8.9966 -0.3639
16.8938 -8.3216 -0.3580
17.0981 -7.6723 -0.3532
17.3744 -7.0584 -0.3504
17.6497 -6.4423 -0.3479
17.9360 -5.8261 -0.3460
18.3170 -5.2309 -0.3463
18.7176 -4.6256 -0.3472
19.1542 -4.0099 -0.3490
19.5535 -3.3658 -0.3504
19.9626 -2.7024 -0.3522
20.1391 -1.9933 -0.3503
20.3007 -1.2755 -0.3485
20.6301 -0.5540 -0.3500
21.2795 0.1927 -0.3571
33.9558 1.5278 -0.5644
33.9547 2.7518 -0.5596
32.6447 3.8293 -0.5342
32.6382 5.0221 -0.5309
32.6378 6.2287 -0.5284
21.1663 4.8329 -0.3415
18.5024 4.9296 -0.2979
20.5669 6.2785 -0.3310
18.1653 6.2665 -0.2925
17.2532 6.6540 -0.2785
18.0611 7.7213 -0.2926
17.5793 8.2738 -0.2863
17.0842 8.8032 -0.2802
16.5988 9.3218 -0.2746
18.1869 11.0906 -0.3040
17.2597 11.3947 -0.2921
17.6578 12.5902 -0.3032
16.2195 12.4666 -0.2831
16.7157 13.8302 -0.2973
21.2709 18.9253 -0.3863
9.8086 9.3790 -0.1824
9.3916 9.6489 -0.1793
9.1052 10.0526 -0.1790
8.8142 10.4629 -0.1790
8.5179 10.8810 -0.1793
8.2153 11.3084 -0.1799
7.9175 11.7644 -0.1811
7.4117 11.9150 -0.1779
19.6797 34.3257 -0.4981
19.2524 36.5625 -0.5167
18.1844 37.7633 -0.5209
17.0732 38.9761 -0.5258
16.2616 41.0751 -0.5429
20.4075 57.4965 -0.7462
17.8596 56.6967 -0.7238
18.8720 68.3861 -0.8604
17.0117 71.5707 -0.8892
7.2621 44.5586 -0.5428
12.1421 96.1204 -1.1626
2.0039 37.1750 -0.4457
-11.4139 90.3581 -1.0944
-9.3614 57.4404 -0.7009
-9.5954 47.9615 -0.5907
-10.0414 42.2461 -0.5262
-6.7402 24.4245 -0.3082
-8.7339 27.7268 -0.3551
-9.0051 25.3712 -0.3305
-9.4116 23.7729 -0.3155
-9.8542 22.4961 -0.3048
-10.6106 22.0349 -0.3054
-11.5314 21.8995 -0.3110
-12.5606 21.9087 -0.3196
-13.2965 21.3754 -0.3209
-12.8731 19.1280 -0.2962
-13.2579 18.2496 -0.2921
-13.9045 17.7621 -0.2945
-11.1013 13.1779 -0.2269
-11.8146 13.0441 -0.2339
-13.2471 13.6102 -0.2547
-13.5460 12.9528 -0.2537
-32.7233 29.1148 -0.5987
-20.6159 17.0570 -0.3694
-10.4224 8.0108 -0.1833
-10.4451 7.4475 -0.1807
-10.6289 7.0171 -0.1813
-10.9843 6.6983 -0.1851
-11.8302 6.6437 -0.1973
-11.8482 6.1051 -0.1959
-11.3734 5.3529 -0.1867
-11.3599 4.8564 -0.1855
-11.4743 4.4253 -0.1867
-11.6782 4.0286 -0.1896
-12.9639 3.9575 -0.2103
-7.2881 1.9418 -0.1183
-18.9892 4.3358 -0.3089
-19.1409 3.6529 -0.3125
-19.7637 3.0410 -0.3241
-18.7059 2.1943 -0.3086
-18.5769 1.5055 -0.3087
-19.1152 0.8601 -0.3203
-40.6391 0.3682 -0.6874
-41.4131 -1.1120 -0.7080
-39.4157 -2.4765 -0.6820
-12.0474 -1.1923 -0.2112
-12.0143 -1.6264 -0.2136
-11.9813 -2.0623 -0.2163
-26.4847 -5.5444 -0.4861
-13.2240 -3.2679 -0.2471
-13.0706 -3.7326 -0.2489
-25.2695 -8.2083 -0.4909
-24.9725 -9.1151 -0.4956
-24.4256 -9.9230 -0.4958
-25.2882 -11.3474 -0.5258
-23.3419 -11.4978 -0.4977
-27.2320 -14.6514 -0.5963
-31.5562 -18.4684 -0.7107
-30.1261 -19.1154 -0.6988
-28.8803 -19.8139 -0.6911
-27.7220 -20.5208 -0.6855
-27.3718 -21.8251 -0.7006
-6.7286 -5.7722 -0.1787
-14.3091 -13.1957 -0.3947
-13.7546 -13.6300 -0.3951
-13.1827 -14.0364 -0.3953
-12.7006 -14.5352 -0.3985
-12.1755 -14.9878 -0.4008
-11.4067 -15.1197 -0.3951
-11.0821 -15.8419 -0.4053
-10.6386 -16.4340 -0.4123
-10.0248 -16.7769 -0.4134
-9.2572 -16.8371 -0.4081
-9.2355 -18.3268 -0.4375
-27.9523 -60.8064 -1.4317
-38.3589 -92.0129 -2.1395
-34.6798 -92.3948 -2.1243
-30.7039 -91.6795 -2.0866
-19.2887 -65.2907 -1.4727
-6.6965 -26.0785 -0.5837
-6.4955 -90.2950 -1.9742
-3.1905 -88.8195 -1.9388
-0.0001 -98.1171 0.0695
2.5578 -23.6556 0.0177
26.2333 -88.8075 0.0860
25.4435 -75.9811 0.0789
12.3257 -29.5697 0.0356
11.5443 -25.1162 0.0328
14.4617 -28.7009 0.0406
15.8152 -28.7683 0.0443
15.3187 -25.6397 0.0430
16.8012 -25.9570 0.0474
17.4096 -24.8904 0.0497
18.4330 -24.4367 0.0533
14.5614 -17.9274 0.0428
15.3846 -17.6095 0.0460
16.8926 -17.9893 0.0515
16.2439 -16.0992 0.0506
13.1027 -12.0852 0.0418
16.7470 -14.3688 0.0546
15.8965 -12.6774 0.0531
15.9896 -11.8383 0.0548
15.8273 -10.8608 0.0557
15.7787 -10.0139 0.0570
15.9042 -9.3101 0.0590
16.0677 -8.6468 0.0612
16.2530 -8.0079 0.0637
16.4610 -7.3884 0.0663
16.6927 -6.7835 0.0692
16.9919 -6.2042 0.0724
17.3044 -5.6230 0.0759
17.6335 -5.0378 0.0796
17.9620 -4.4409 0.0835
18.2625 -3.8252 0.0875
18.5085 -3.1880 0.0913
18.7603 -2.5418 0.0953
19.0061 -1.8832 0.0995
19.1246 -1.2038 0.1032
19.3225 -0.5210 0.1076
19.6231 0.1756 0.1127
19.7314 0.8856 0.1169
19.9882 1.6176 0.1222
20.3943 2.3900 0.1287
21.3751 3.2866 0.1394
22.0614 4.2077 0.1486
20.9833 4.7887 0.1462
18.4884 4.9237 0.1332
19.3866 5.9159 0.1445
19.0385 6.5654 0.1470
17.6880 6.8196 0.1415
18.5454 7.9261 0.1538
17.8855 8.4157 0.1539
17.3784 8.9527 0.1553
16.8819 9.4787 0.1568
19.8308 12.0905 0.1916
18.2626 12.0544 0.1838
17.4170 12.4162 0.1827
17.3677 13.3466 0.1902
16.5572 13.6967 0.1895
23.5996 20.9937 0.2827
20.9729 20.0511 0.2635
9.2927 9.5459 0.1226
9.0086 9.9446 0.1251
8.7200 10.3496 0.1277
8.4259 10.7620 0.1305
20.3029 27.9432 0.3334
23.2083 34.4803 0.4053
7.4683 12.0045 0.1392
19.7707 34.4803 0.3948
19.4699 36.9710 0.4185
18.7757 38.9865 0.4368
17.1710 39.1946 0.4350
16.1698 40.8386 0.4494
20.5010 57.7532 0.6307
17.9824 57.0802 0.6191
19.0953 69.1876 0.7459
17.5233 73.7151 0.7906
7.2034 44.1939 0.4701
2.0039 37.1708 0.3927
-10.1847 80.6167 0.8536
-9.2575 56.7959 0.6029
-9.7544 48.7507 0.5192
-9.9306 41.7750 0.4467
-6.7402 24.4216 0.2624
-8.6249 27.3775 0.2958
-8.9029 25.0803 0.2727
-9.1727 23.1666 0.2537
-9.1988 20.9973 0.2318
-9.6618 20.0620 0.2235
-10.2678 19.4974 0.2193
-10.9474 19.0923 0.2172
-11.5313 18.5353 0.2134
-12.1445 18.0430 0.2105
-12.7158 17.5010 0.2071
-10.7720 13.7586 0.1654
-10.9316 12.9745 0.1586
-11.2466 12.4151 0.1547
-11.1790 11.4836 0.1460
-11.3000 10.8034 0.1404
-11.5728 10.2950 0.1371
-10.2067 8.4432 0.1155
-10.1925 7.8326 0.1102
-10.3588 7.3846 0.1073
-10.5939 6.9925 0.1052
-11.0200 6.7186 0.1050
-11.9643 6.7175 0.1095
-11.2785 5.8102 0.0993
-11.0953 5.2207 0.0940
-11.2049 4.7888 0.0914
-11.3800 4.3875 0.0895
-11.7245 4.0432 0.0889
-37.1608 11.3398 0.2721
-7.2871 1.9407 0.0515
-15.0731 3.4399 0.1030
-15.5891 2.9733 0.1029
-16.3273 2.5105 0.1043
-17.3198 2.0297 0.1070
-17.5177 1.4177 0.1048
-18.1569 0.8149 0.1051
-19.0052 0.1701 0.1066
-40.0881 -1.0809 0.2178
-40.9015 -2.5744 0.2153
-11.8623 -1.1753 0.0605
-11.8295 -1.6027 0.0585
-11.7743 -2.0280 0.0565
-11.4732 -2.4031 0.0534
-10.5093 -2.5982 0.0475
-10.1408 -2.8971 0.0444
-9.9355 -3.2285 0.0423
-9.7337 -3.5540 0.0402
-9.5180 -3.8678 0.0382
-9.4390 -4.2366 0.0368
-9.3587 -4.6110 0.0354
-32.8614 -17.6843 0.1209
-31.1010 -18.2059 0.1112
-29.6456 -18.8144 0.1031
-28.6229 -19.6412 0.0969
-27.6092 -20.4410 0.0910
-16.8502 -13.4380 0.0541
-6.7271 -5.7718 0.0210
-13.9226 -12.8413 0.0425
-13.4025 -13.2831 0.0400
-13.0505 -13.8977 0.0381
-12.6948 -14.5307 0.0363
-12.1543 -14.9638 0.0341
-11.3870 -15.0957 0.0314
-10.8819 -15.5578 0.0296
-10.7254 -16.5701 0.0289
-10.0043 -16.7448 0.0267
-9.6542 -17.5613 0.0257
-9.2693 -18.3959 0.0248
-27.9137 -60.7296 0.0755
-37.7477 -90.5575 0.1041
-34.3715 -91.5841 0.0977
-30.6606 -91.5605 0.0909
-19.2866 -65.2907 0.0606
-6.6951 -26.0760 0.0228
-6.7442 -46.6371 0.0353
-6.4964 -90.3145 0.0648
-3.3658 -93.7054 0.0665
-0.0001 -74.4819 1.7304
3.1759 -88.4333 2.0564
6.7339 -93.6295 2.1825
10.0821 -93.2538 2.1825
8.9608 -61.9735 1.4586
6.7391 -37.1409 0.8804
8.1257 -37.1394 0.8881
9.5341 -37.1379 0.8974
10.9686 -37.1364 0.9082
12.4337 -37.1348 0.9206
13.9343 -37.1332 0.9348
10.0872 -24.2025 0.6198
14.8200 -32.2469 0.8415
14.7900 -29.3563 0.7820
16.3621 -29.7670 0.8109
15.2524 -25.5321 0.7127
16.9103 -26.1291 0.7488
17.3708 -24.8383 0.7323
18.7025 -24.7974 0.7537
14.5770 -17.9491 0.5637
15.4012 -17.6312 0.5734
16.5671 -17.6453 0.5957
16.5472 -16.4025 0.5764
13.0979 -12.0827 0.4431
15.8272 -13.5820 0.5214
15.5000 -12.3635 0.4984
15.2644 -11.3035 0.4802
15.1382 -10.3900 0.4668
15.1699 -9.6295 0.4595
15.2790 -8.9460 0.4555
15.4565 -8.3199 0.4543
15.6502 -7.7129 0.4544
15.8654 -7.1230 0.4557
16.1143 -6.5504 0.4586
16.3807 -5.9830 0.4627
16.6493 -5.4121 0.4674
16.9354 -4.8403 0.4733
17.2169 -4.2586 0.4796
17.4700 -3.6612 0.4857
17.6648 -3.0446 0.4909
17.8734 -2.4236 0.4972
18.0435 -1.7899 0.5030
18.1408 -1.1438 0.5074
18.2659 -0.4945 0.5133
18.3522 0.1622 0.5188
18.4649 0.8267 0.5258
18.5191 1.4967 0.5318
18.5124 2.1674 0.5367
18.2857 2.8095 0.5360
17.7584 3.3850 0.5269
17.5160 3.9954 0.5267
17.4538 4.6462 0.5326
17.4273 5.3159 0.5404
17.4443 6.0136 0.5504
17.5525 6.7652 0.5642
17.7004 7.5627 0.5804
17.9630 8.4499 0.6018
17.6831 9.1074 0.6061
17.1749 9.6410 0.6032
18.8791 11.5078 0.6805
18.0112 11.8861 0.6674
17.1826 12.2468 0.6556
17.2013 13.2164 0.6771
16.4016 13.5656 0.6673
18.1264 16.1222 0.7637
18.5809 17.7614 0.8125
9.1959 9.4450 0.4183
8.9141 9.8388 0.4229
8.6277 10.2386 0.4280
8.3359 10.6455 0.4337
20.6886 28.4703 1.1326
24.6480 36.6143 1.4249
22.4195 36.0321 1.3740
19.8627 34.6363 1.2962
20.6547 39.2161 1.4426
18.9960 39.4392 1.4282
17.2699 39.4158 1.4071
16.0791 40.6047 1.4308
19.3854 54.6043 1.9019
12.5732 39.9058 1.3756
16.3402 59.1982 2.0220
14.3572 60.3897 2.0463
12.4513 62.2227 2.0942
7.4281 45.5680 1.5250
8.1677 64.6451 2.1538
5.8387 64.8643 2.1538
2.0038 37.1665 1.2313
1.2121 67.5057 2.2338
-1.2124 67.5105 2.2338
-3.6363 67.4413 2.2338
-6.0580 67.2981 2.2338
-8.0839 63.9799 2.1305
-9.4246 57.8140 1.9336
-9.9660 49.8023 1.6748
-10.1032 42.4956 1.4386
-6.7402 24.4186 0.8331
-8.6207 27.3607 0.9420
-8.8427 24.9076 0.8663
-9.0715 22.9081 0.8060
-8.9542 20.4363 0.7283
-9.5038 19.7316 0.7133
-9.9945 18.9759 0.6967
-10.3051 17.9698 0.6711
-10.6170 17.0633 0.6492
-11.2821 16.7594 0.6507
-11.2681 15.5063 0.6154
-10.4354 13.3268 0.5416
-10.6502 12.6387 0.5269
-10.9420 12.0771 0.5176
-11.0707 11.3706 0.5021
-11.1935 10.6998 0.4880
-11.4279 10.1643 0.4800
-9.9708 8.2466 0.4043
-10.1027 7.7622 0.3963
-10.2771 7.3249 0.3908
-10.6027 6.9969 0.3915
-11.0537 6.7377 0.3970
-11.7053 6.5706 0.4096
-10.8572 5.5918 0.3707
-10.9688 5.1598 0.3660
-11.1179 4.7503 0.3631
-11.3586 4.3779 0.3636
-11.7712 4.0579 0.3698
-13.1442 4.0095 0.4058
-7.2861 1.9396 0.2214
-14.7615 3.3671 0.4419
-13.8636 2.6427 0.4095
-14.0086 2.1524 0.4087
-14.9822 1.7541 0.4324
-15.8620 1.2820 0.4534
-15.9887 0.7158 0.4531
-16.1743 0.1430 0.4551
-38.6684 -1.0469 1.0815
-39.2868 -2.4771 1.0936
-11.6825 -1.1588 0.3241
-11.4028 -1.5461 0.3156
-11.1620 -1.9238 0.3087
-10.8152 -2.2665 0.2993
-10.4054 -2.5737 0.2884
-10.0437 -2.8705 0.2793
-9.8412 -3.1990 0.2750
-9.6130 -3.5110 0.2702
-9.3796 -3.8127 0.2657
-9.3007 -4.1756 0.2659
-9.2069 -4.5374 0.2661
-27.8149 -14.9720 0.8139
-14.8041 -8.6679 0.4394
-14.1666 -8.9926 0.4272
-12.7015 -8.7175 0.3900
-12.1270 -8.9801 0.3799
-11.5744 -9.2322 0.3706
-6.7255 -5.7714 0.2207
-13.7913 -12.7223 0.4648
-13.2765 -13.1603 0.4607
-12.9240 -13.7650 0.4630
-12.5873 -14.4097 0.4669
-12.2378 -15.0687 0.4716
-11.3674 -15.0718 0.4566
-11.0465 -15.7952 0.4642
-11.3846 -17.5909 0.5026
-10.7593 -18.0107 0.5013
-9.3823 -17.0688 0.4637
-8.6604 -17.1897 0.4567
-27.8617 -60.6236 1.5782
-35.0384 -84.0676 2.1481
-24.0035 -63.9654 1.6071
-29.0650 -86.8052 2.1481
-19.0166 -64.3838 1.5720
-6.6937 -26.0735 0.6291
-21.0007 -95.9846 2.2925
-17.5666 -96.8111 2.2925
-6.7434 -46.6366 1.0967
-6.8095 -62.9814 1.4731
-5.0068 -69.6124 1.6220
-2.6083 -72.6203 1.6883
-0.0002 -48.7928 2.2338
1.7121 -47.6802 2.1845
3.3369 -46.4033 2.1307
4.9981 -46.2352 2.1307
5.7958 -40.0894 1.8568
6.7383 -37.1409 1.7315
8.1247 -37.1394 1.7454
9.5329 -37.1379 1.7619
10.9672 -37.1364 1.7813
12.4322 -37.1348 1.8036
13.9326 -37.1332 1.8291
12.3172 -29.5565 1.4789
13.9569 -30.3725 1.5463
15.5397 -30.8483 1.6006
16.0605 -29.2222 1.5480
15.1866 -25.4253 1.3775
16.4631 -25.4416 1.4124
14.6952 -21.0155 1.1978
14.9174 -19.7816 1.1599
14.5926 -17.9710 1.0863
15.4180 -17.6530 1.1026
15.6119 -16.6305 1.0758
15.5592 -15.4255 1.0361
13.0930 -12.0802 0.8447
14.9566 -12.8371 0.9373
14.7471 -11.7650 0.8997
14.5522 -10.7781 0.8662
14.5338 -9.9772 0.8458
14.6012 -9.2705 0.8324
14.7249 -8.6235 0.8238
14.8990 -8.0217 0.8196
15.1047 -7.4459 0.8183
15.3221 -6.8810 0.8189
15.5514 -6.3234 0.8212
15.7963 -5.7714 0.8255
16.0477 -5.2184 0.8311
16.3093 -4.6632 0.8384
16.5854 -4.1043 0.8474
16.8008 -3.5229 0.8543
16.9806 -2.9286 0.8606
17.1155 -2.3228 0.8657
17.1906 -1.7072 0.8688
17.2767 -1.0913 0.8737
17.2784 -0.4697 0.8754
17.2647 0.1506 0.8775
17.2870 0.7720 0.8825
17.2259 1.3903 0.8845
17.1023 2.0004 0.8843
16.8292 2.5838 0.8774
16.6486 3.1716 0.8763
16.5417 3.7712 0.8802
16.4823 4.3857 0.8877
16.4507 5.0161 0.8981
16.6010 5.7210 0.9198
16.7408 6.4504 0.9428
16.8641 7.2034 0.9667
17.0110 8.0000 0.9940
17.2679 8.8913 1.0300
17.4787 9.8093 1.0661
18.0031 10.9714 1.1246
17.7664 11.7222 1.1385
17.7323 12.6361 1.1678
17.0380 13.0886 1.1553
17.1042 14.1441 1.1966
16.9124 15.0399 1.2232
16.8050 16.0613 1.2593
9.1009 9.3460 0.7083
8.8214 9.7350 0.7149
8.5372 10.1297 0.7224
8.5295 10.8913 0.7559
17.7673 24.4469 1.6545
17.1491 25.4714 1.6841
16.7384 26.8982 1.7406
16.2904 28.4034 1.8018
16.0688 30.5053 1.9002
15.9065 33.0210 2.0229
15.2576 34.8189 2.1008
14.1618 35.7588 2.1280
12.9530 36.4815 2.1442
11.6752 37.0513 2.1538
10.3284 37.4142 2.1538
8.9716 37.7327 2.1538
7.6062 38.0061 2.1538
6.2333 38.2345 2.1538
4.8024 38.0059 2.1307
3.4336 38.1424 2.1307
1.9990 37.0742 2.0660
0.7206 40.1328 2.2338
-0.7209 40.1345 2.2338
-2.1618 40.0891 2.2338
-3.6008 39.9965 2.2338
-5.0366 39.8568 2.2338
-6.4268 39.4196 2.2197
-7.5278 37.6135 2.1305
-8.8799 37.3461 2.1305
-6.7402 24.4157 1.4046
-8.7105 27.6424 1.6057
-8.7799 24.7276 1.4522
-9.0771 22.9195 1.3627
-8.9434 20.4091 1.2302
-9.4108 19.5360 1.1955
-9.8639 18.7255 1.1651
-10.2347 17.8447 1.1307
-10.5899 17.0176 1.0998
-9.8232 14.5903 0.9634
-10.1717 13.9956 0.9458
-10.3692 13.2404 0.9175
-10.5624 12.5326 0.8923
-10.8134 11.9332 0.8749
-10.9395 11.2341 0.8499
-11.1018 10.6104 0.8304
-9.9173 8.8193 0.7159
-9.8977 8.1848 0.6911
-10.0189 7.6964 0.6780
-10.2502 7.3043 0.6737
-10.5749 6.9771 0.6762
-11.0935 6.7606 0.6915
-10.8608 6.0952 0.6610
-10.7767 5.5489 0.6414
-10.8775 5.1155 0.6341
-11.0327 4.7125 0.6309
-11.3252 4.3637 0.6363
-11.8183 4.0728 0.6533
-10.8807 3.3178 0.5925
-7.2852 1.9385 0.3914
-10.3230 2.3535 0.5479
-11.4699 2.1851 0.6022
-13.3843 2.0550 0.6960
-13.7376 1.6069 0.7085
-14.8178 1.1960 0.7588
-15.9043 0.7103 0.8098
-16.0886 0.1404 0.8156
-13.6121 -0.3700 0.6878
-12.0047 -0.7582 0.6055
-11.5552 -1.1475 0.5825
-11.2626 -1.5284 0.5681
-11.0270 -1.9017 0.5574
-10.6899 -2.2415 0.5421
-10.3034 -2.5497 0.5250
-9.9483 -2.8444 0.5100
-9.7311 -3.1643 0.5027
-9.4872 -3.4662 0.4945
-9.2490 -3.7607 0.4872
-9.1552 -4.1114 0.4881
-9.0516 -4.4620 0.4892
-8.9463 -4.8166 0.4909
-14.2563 -8.3490 0.7957
-13.2307 -8.4002 0.7525
-12.4352 -8.5364 0.7220
-11.9136 -8.8238 0.7075
-11.4629 -9.1449 0.6978
-6.7240 -5.7711 0.4205
-12.3618 -11.4055 0.7959
-11.8828 -11.7807 0.7897
-12.8617 -13.7007 0.8846
-12.5192 -14.3338 0.8936
-12.0969 -14.8974 0.8989
-11.4949 -15.2429 0.8922
-10.8482 -15.5137 0.8828
-10.1278 -15.6509 0.8675
-10.1290 -16.9577 0.9174
-9.2677 -16.8624 0.8920
-8.5891 -17.0502 0.8835
-19.4133 -42.2461 2.1481
-17.9113 -42.9796 2.1481
-16.3797 -43.6542 2.1481
-14.8209 -44.2688 2.1481
-13.2372 -44.8218 2.1481
-6.6924 -26.0710 1.2360
-9.9241 -45.3634 2.1305
-8.2956 -45.7227 2.1305
-6.6532 -46.0171 2.1305
-5.2419 -48.4874 2.2338
-3.4994 -48.6586 2.2338
-1.7512 -48.7604 2.2338
-0.0002 -32.6691 2.2338
1.1720 -32.6454 2.2338
2.2342 -31.0733 2.1307
3.3469 -30.9648 2.1307
4.4543 -30.8136 2.1307
5.5546 -30.6201 2.1307
6.7182 -30.7138 2.1538
7.8111 -30.4336 2.1538
8.8917 -30.1120 2.1538
9.9323 -29.6713 2.1481
10.8801 -29.0013 2.1284
11.6911 -28.0576 2.0907
12.0505 -26.2274 1.9874
12.3840 -24.5870 1.8977
12.8204 -23.3298 1.8373
13.1159 -21.9615 1.7678
13.4302 -20.7574 1.7110
13.7767 -19.7046 1.6663
14.1041 -18.7057 1.6261
14.4132 -17.7526 1.5898
14.6261 -16.7488 1.5485
14.6860 -15.6467 1.4970
14.5866 -14.4636 1.4356
13.0881 -12.0777 1.2470
14.1030 -12.1066 1.3039
13.9572 -11.1369 1.2551
13.9483 -10.3328 1.2226
13.9883 -9.6045 1.1976
14.0583 -8.9276 1.1779
14.2212 -8.3304 1.1682
14.3823 -7.7453 1.1604
14.6071 -7.2024 1.1595
14.8252 -6.6597 1.1597
15.0470 -6.1202 1.1618
15.2734 -5.5822 1.1658
15.5032 -5.0432 1.1715
15.7408 -4.5025 1.1792
15.9770 -3.9556 1.1884
16.1678 -3.3920 1.1956
16.3364 -2.8194 1.2027
16.4006 -2.2276 1.2037
16.4509 -1.6356 1.2052
16.4846 -1.0431 1.2071
16.4826 -0.4499 1.2079
16.4591 0.1418 1.2087
16.3946 0.7303 1.2080
16.2663 1.3110 1.2041
16.1011 1.8815 1.1990
15.9183 2.4422 1.1940
15.8713 3.0217 1.2007
15.8200 3.6049 1.2086
15.8078 4.2044 1.2212
15.8249 4.8235 1.2380
15.9175 5.4836 1.2626
16.0179 6.1699 1.2902
16.1220 6.8845 1.3205
16.2414 7.6361 1.3548
16.3927 8.4386 1.3947
16.6361 9.3342 1.4460
16.9545 10.3302 1.5080
17.1299 11.2999 1.5618
16.9724 12.0922 1.5890
16.6250 12.7689 1.6014
16.3456 13.5145 1.6231
16.0913 14.3074 1.6507
15.8454 15.1417 1.6830
15.6940 16.1142 1.7301
8.7304 9.6332 1.0015
8.4484 10.0230 1.0113
8.5251 10.8842 1.0682
15.7011 21.6009 2.0660
15.0800 22.3953 2.0915
14.3889 23.1196 2.1121
13.7048 23.8923 2.1388
12.8963 24.4795 2.1508
11.8841 24.6678 2.1306
11.0617 25.2405 2.1463
10.1749 25.6887 2.1538
9.2387 26.0174 2.1538
8.2927 26.3141 2.1538
7.3379 26.5786 2.1538
6.3754 26.8105 2.1538
5.3481 26.7203 2.1307
4.3835 26.8850 2.1307
3.4142 27.0171 2.1307
2.4413 27.1165 2.1307
1.5367 28.4983 2.2338
0.5123 28.5337 2.2338
-0.5126 28.5346 2.2338
-1.5371 28.5009 2.2338
-2.5601 28.4329 2.2338
-3.5805 28.3304 2.2338
-4.5971 28.1936 2.2338
-5.6090 28.0226 2.2338
-6.4170 26.9845 2.1669
-6.7144 24.3190 1.9698
-8.2077 26.0435 2.1305
-9.0211 25.4039 2.1018
-9.0057 22.7365 1.9050
-8.9264 20.3679 1.7308
-9.3016 19.3069 1.6663
-9.7034 18.4185 1.6170
-10.1350 17.6685 1.5803
-10.5601 16.9674 1.5486
-9.7278 14.4466 1.3479
-10.0204 13.7855 1.3172
-10.2812 13.1261 1.2868
-10.4955 12.4514 1.2550
-10.6656 11.7683 1.2221
-10.8573 11.1479 1.1954
-11.0309 10.5410 1.1702
-9.7347 8.6554 0.9973
-9.8558 8.1486 0.9773
-9.9991 7.6798 0.9618
-10.2131 7.2764 0.9548
-10.5894 6.9853 0.9640
-11.2221 6.8374 0.9966
-10.6925 5.9993 0.9280
-10.7047 5.5105 0.9093
-10.8163 5.0854 0.9008
-10.9914 4.6936 0.8988
-11.2956 4.3509 0.9083
-11.6062 3.9984 0.9191
-10.7329 3.2715 0.8382
-7.2842 1.9374 0.5618
-10.1468 2.3122 0.7738
-10.0701 1.9173 0.7604
-9.9949 1.5335 0.7483
-10.5855 1.2370 0.7869
-12.3089 0.9921 0.9095
-13.7642 0.6132 1.0123
-12.5457 0.1082 0.9196
-12.3168 -0.3361 0.9009
-11.9211 -0.7543 0.8713
-11.4766 -1.1409 0.8392
-11.1505 -1.5144 0.8168
-10.8949 -1.8802 0.8006
-10.5566 -2.2147 0.7792
-10.1857 -2.5217 0.7562
-9.8486 -2.8170 0.7365
-9.6189 -3.1289 0.7255
-9.3965 -3.4342 0.7159
-9.1785 -3.7331 0.7074
-9.0856 -4.0812 0.7095
-8.9870 -4.4312 0.7122
-8.8872 -4.7859 0.7158
-9.5203 -5.5766 0.7808
-12.8070 -8.1329 1.0713
-12.1751 -8.3595 1.0407
-11.7072 -8.6725 1.0246
-11.3804 -9.0807 1.0218
-6.7224 -5.7707 0.6206
-11.7780 -10.8686 1.1205
-11.7435 -11.6443 1.1542
-12.1746 -12.9708 1.2394
-12.5408 -14.3606 1.3261
-12.1994 -15.0257 1.3440
-11.0990 -14.7199 1.2782
-10.6992 -15.3027 1.2927
-10.1782 -15.7309 1.2953
-9.7470 -16.3203 1.3124
-9.1913 -16.7254 1.3160
-8.8944 -17.6584 1.3618
-13.0361 -28.3718 2.1481
-12.0217 -28.8503 2.1481
-10.9888 -29.2899 2.1481
-9.8573 -29.4465 2.1305
-8.8009 -29.8034 2.1305
-6.6686 -25.9814 1.8378
-6.6488 -30.3949 2.1305
-5.8257 -32.1128 2.2338
-4.6714 -32.3135 2.2338
-3.5099 -32.4698 2.2338
-2.3430 -32.5812 2.2338
-1.1724 -32.6478 2.2338
-0.0002 -24.5361 2.2338
0.8801 -24.5189 2.2338
1.6933 -23.5542 2.1503
2.5137 -23.2591 2.1307
3.3457 -23.1477 2.1307
4.1727 -23.0049 2.1307
4.9934 -22.8310 2.1307
5.8695 -22.8715 2.1538
6.6827 -22.6339 2.1538
7.4859 -22.3658 2.1538
8.2780 -22.0679 2.1538
9.0577 -21.7405 2.1538
9.8150 -21.3646 2.1518
10.5384 -20.9253 2.1461
11.2497 -20.4743 2.1419
11.8593 -19.8600 2.1229
12.4633 -19.2656 2.1081
12.8385 -18.3654 2.0610
13.1532 -17.4471 2.0119
13.4049 -16.5132 1.9609
13.5410 -15.5086 1.9005
13.5645 -14.4541 1.8322
13.4735 -13.3621 1.7563
13.0832 -12.0752 1.6502
13.3171 -11.4339 1.6292
13.3283 -10.6370 1.5852
13.3584 -9.8977 1.5479
13.4563 -9.2411 1.5222
13.5705 -8.6197 1.5016
13.6955 -8.0243 1.4850
13.8888 -7.4813 1.4783
14.0598 -6.9344 1.4716
14.3176 -6.4334 1.4760
14.5731 -5.9292 1.4820
14.7826 -5.4046 1.4853
14.9876 -4.8772 1.4900
15.1962 -4.3485 1.4969
15.3897 -3.8120 1.5043
15.5607 -3.2664 1.5113
15.6994 -2.7112 1.5171
15.7620 -2.1426 1.5176
15.8066 -1.5733 1.5183
15.8247 -1.0031 1.5184
15.8033 -0.4331 1.5167
15.7390 0.1338 1.5128
15.6088 0.6936 1.5045
15.4540 1.2438 1.4957
15.2957 1.7856 1.4883
15.2255 2.3342 1.4914
15.1766 2.8878 1.4986
15.1363 3.4474 1.5085
15.1317 4.0228 1.5242
15.1628 4.6199 1.5458
15.1998 5.2345 1.5704
15.3030 5.8927 1.6046
15.4089 6.5781 1.6422
15.5233 7.2965 1.6841
15.5918 8.0244 1.7244
15.7571 8.8391 1.7795
15.9318 9.7050 1.8403
16.0346 10.5752 1.8977
15.8721 11.3062 1.9281
15.7374 12.0849 1.9661
15.5442 12.8497 2.0011
15.1046 13.4278 2.0080
14.8380 14.1768 2.0417
14.6745 15.0650 2.0949
14.4990 15.9959 2.1531
13.8848 16.4701 2.1509
8.5208 10.8771 1.3812
12.5763 17.2996 2.1402
11.8963 17.6648 2.1332
11.2022 17.9971 2.1254
10.5927 18.4644 2.1361
9.9357 18.8575 2.1407
9.3012 19.3041 2.1538
8.5958 19.6116 2.1538
7.8808 19.8945 2.1538
7.1569 20.1526 2.1538
6.4251 20.3856 2.1538
5.6252 20.3726 2.1307
4.8879 20.5529 2.1307
4.1451 20.7078 2.1307
3.3978 20.8372 2.1307
2.6466 20.9410 2.1307
1.8925 21.0190 2.1307
1.1913 22.0908 2.2338
0.3972 22.1185 2.2338
-0.3975 22.1190 2.2338
-1.1917 22.0924 2.2338
-1.9846 22.0386 2.2338
-2.7754 21.9578 2.2338
-3.5632 21.8501 2.2338
-4.3471 21.7154 2.2338
-5.1262 21.5539 2.2338
-5.8997 21.3658 2.2338
-6.4144 20.3510 2.1492
-7.0831 19.9439 2.1305
-7.7998 19.6894 2.1305
-8.5078 19.4103 2.1305
-9.1078 18.9022 2.1077
-9.5361 18.0986 2.0533
-9.9486 17.3414 2.0049
-10.3579 16.6403 1.9638
-9.5941 14.2462 1.7191
-9.8016 13.4826 1.6666
-10.0156 12.7851 1.6221
-10.2994 12.2170 1.5941
-10.4872 11.5697 1.5559
-10.7849 11.0718 1.5382
-9.6732 9.2420 1.3297
-9.7568 8.6735 1.2958
-9.8740 8.1623 1.2698
-9.9840 7.6668 1.2459
-10.1809 7.2521 1.2354
-10.6299 7.0106 1.2566
-10.6153 6.4663 1.2247
-10.5858 5.9381 1.1941
-10.6927 5.5030 1.1812
-10.8006 5.0766 1.1703
-10.9574 4.6777 1.1663
-11.2721 4.3405 1.1804
-11.3260 3.9005 1.1687
-10.5887 3.2263 1.0780
-7.2832 1.9363 0.7326
-9.9931 2.2760 0.9946
-9.9197 1.8875 0.9781
-9.8220 1.5058 0.9608
-10.0397 1.1721 0.9756
-10.6161 0.8545 1.0260
-11.5668 0.5140 1.1134
-12.2483 0.1042 1.1756
-12.1334 -0.3325 1.1628
-11.8139 -0.7488 1.1320
-11.3987 -1.1345 1.0933
-11.0767 -1.5056 1.0650
-10.7691 -1.8597 1.0392
-10.4308 -2.1895 1.0117
-10.0924 -2.4998 0.9851
-9.7926 -2.8021 0.9633
-9.5983 -3.1233 0.9529
-9.3766 -3.4280 0.9408
-9.1593 -3.7264 0.9302
-9.0901 -4.0844 0.9359
-8.9931 -4.4353 0.9401
-8.8932 -4.7903 0.9454
-9.5089 -5.5712 1.0297
-12.3813 -7.8642 1.3683
-11.9249 -8.1893 1.3474
-11.5072 -8.5260 1.3318
-11.2987 -9.0171 1.3423
-6.7208 -5.7703 0.8213
-11.3215 -10.4491 1.4265
-11.5967 -11.5006 1.5101
-11.8286 -12.6041 1.5961
-12.7658 -14.6205 1.7899
-12.1929 -15.0199 1.7819
-11.4588 -15.1992 1.7512
-10.6577 -15.2454 1.7094
-10.1559 -15.6984 1.7164
-9.5460 -15.9858 1.7075
-9.0347 -16.4425 1.7189
-10.5555 -20.9587 2.1481
-9.7242 -21.1663 2.1305
-8.9653 -21.5179 2.1305
-8.1931 -21.8409 2.1305
-7.4088 -22.1347 2.1305
-6.6136 -22.3988 2.1305
-6.0900 -23.7297 2.2338
-5.2369 -23.9431 2.2338
-4.3760 -24.1242 2.2338
-3.5086 -24.2727 2.2338
-2.6361 -24.3883 2.2338
-1.7596 -24.4708 2.2338
-0.8805 -24.5202 2.2338
-0.0002 -19.6293 2.2338
0.7040 -19.6157 2.2338
1.4072 -19.5758 2.2338
2.0109 -18.6092 2.1307
2.6766 -18.5210 2.1307
3.3385 -18.4080 2.1307
3.9954 -18.2704 2.1307
4.6465 -18.1083 2.1307
5.2909 -17.9221 2.1307
5.9918 -17.9040 2.1538
6.6267 -17.6679 2.1538
7.2519 -17.4084 2.1538
7.8667 -17.1259 2.1538
8.4702 -16.8208 2.1538
9.0615 -16.4938 2.1538
9.6397 -16.1452 2.1538
10.2042 -15.7756 2.1538
10.7541 -15.3857 2.1538
11.2886 -14.9760 2.1538
11.7312 -14.4535 2.1399
12.0623 -13.8171 2.1106
12.2840 -13.0916 2.0680
12.4691 -12.3679 2.0253
12.5730 -11.6062 1.9755
12.6213 -10.8384 1.9230
12.6717 -10.1148 1.8764
12.7568 -9.4537 1.8398
12.8558 -8.8305 1.8095
12.9880 -8.2514 1.7875
13.1256 -7.6920 1.7697
13.3100 -7.1712 1.7611
13.4968 -6.6584 1.7554
13.7145 -6.1641 1.7563
13.9529 -5.6785 1.7620
14.2149 -5.1987 1.7729
14.4657 -4.7091 1.7846
14.6755 -4.2012 1.7933
14.8515 -3.6804 1.8002
14.9723 -3.1446 1.8027
15.0586 -2.6023 1.8033
15.1023 -2.0547 1.8013
15.1266 -1.5073 1.7993
15.1006 -0.9589 1.7936
15.0327 -0.4137 1.7853
14.9553 0.1255 1.7782
14.8417 0.6578 1.7690
14.7651 1.1867 1.7665
14.6754 1.7116 1.7646
14.6037 2.2372 1.7671
14.5176 2.7607 1.7702
14.4536 3.2902 1.7782
14.4503 3.8400 1.7962
14.4512 4.4014 1.8174
14.4581 4.9774 1.8422
14.5052 5.5838 1.8751
14.5618 6.2147 1.9127
14.6301 6.8749 1.9555
14.7061 7.5667 2.0033
14.8180 8.3104 2.0606
14.7040 8.9552 2.0908
14.5036 9.5635 2.1124
14.1740 10.0947 2.1184
13.8748 10.6527 2.1320
13.5810 11.2248 2.1499
13.1782 11.7133 2.1538
12.7355 12.1660 2.1538
12.2778 12.6026 2.1538
11.8056 13.0225 2.1538
11.3196 13.4253 2.1538
8.5164 10.8701 1.6952
10.3084 14.1781 2.1538
9.7846 14.5272 2.1538
9.2494 14.8577 2.1538
8.7034 15.1692 2.1538
8.1474 15.4614 2.1538
7.5820 15.7341 2.1538
7.0079 15.9868 2.1538
6.4257 16.2194 2.1538
5.8361 16.4316 2.1538
5.1837 16.4451 2.1307
4.5879 16.6142 2.1307
3.9869 16.7625 2.1307
3.3813 16.8899 2.1307
2.7718 16.9964 2.1307
2.1591 17.0818 2.1307
1.6187 17.9756 2.2338
0.9719 18.0206 2.2338
0.3240 18.0433 2.2338
-0.3243 18.0436 2.2338
-0.9722 18.0216 2.2338
-1.6191 17.9773 2.2338
-2.2642 17.9107 2.2338
-2.9067 17.8219 2.2338
-3.5459 17.7109 2.2338
-4.1811 17.5779 2.2338
-4.8116 17.4230 2.2338
-5.4366 17.2464 2.2338
-6.0554 17.0482 2.2338
-6.4104 16.1801 2.1477
-6.9355 15.8212 2.1305
-7.5040 15.5716 2.1305
-8.0638 15.3023 2.1305
-8.6144 15.0136 2.1305
-6.6337 10.6557 1.5438
-9.4559 14.0388 2.0801
-9.5953 13.1969 2.0034
-9.7285 12.4169 1.9351
-10.0523 11.9221 1.9112
-10.3139 11.3768 1.8802
-10.6191 10.8999 1.8613
-9.6507 9.2190 1.6307
-9.7849 8.6970 1.5978
-9.8986 8.1811 1.5656
-9.9295 7.6235 1.5244
-10.1386 7.2205 1.5139
-10.6353 7.0127 1.5475
-10.5239 6.4093 1.4950
-10.6210 5.9565 1.4755
-10.7265 5.5190 1.4598
-10.7849 5.0679 1.4401
-10.9121 4.6570 1.4318
-11.2514 4.3312 1.4530
-11.0301 3.7973 1.4039
-10.4262 3.1755 1.3098
-7.2822 1.9352 0.9042
-9.8396 2.2399 1.2092
-9.7440 1.8530 1.1868
-9.6504 1.4784 1.1664
-9.8151 1.1448 1.1789
-10.2335 0.8225 1.2229
-11.2993 0.5009 1.3453
-12.1341 0.1019 1.4411
-11.9414 -0.3285 1.4166
-11.6279 -0.7383 1.3796
-11.3216 -1.1281 1.3451
-10.9585 -1.4908 1.3055
-10.6133 -1.8340 1.2695
-10.3580 -2.1754 1.2457
-10.0237 -2.4839 1.2136
-9.7272 -2.7845 1.1873
-9.5673 -3.1144 1.1790
-9.3567 -3.4218 1.1657
-9.1400 -3.7197 1.1530
-9.0626 -4.0731 1.1593
-8.9993 -4.4395 1.1692
-8.8993 -4.7947 1.1763
-9.4831 -5.5573 1.2773
-11.5412 -7.3321 1.5868
-11.3616 -7.8040 1.5976
-11.0666 -8.2010 1.5945
-11.0191 -8.7955 1.6301
-6.7192 -5.7699 1.0228
-11.1146 -10.2597 1.7448
-11.4190 -11.3261 1.8532
-11.7460 -12.5180 1.9758
-13.1766 -15.0932 2.3038
-12.6390 -15.5716 2.3038
-11.6280 -15.4258 2.2169
-11.1804 -15.9952 2.2376
-10.1007 -15.6152 2.1305
-9.5416 -15.9805 2.1305
-8.9690 -16.3249 2.1305
-8.3834 -16.6480 2.1305
-7.7859 -16.9493 2.1305
-7.1772 -17.2282 2.1305
-6.5779 -17.5371 2.1369
-6.2170 -18.5759 2.2338
-5.5490 -18.7955 2.2338
-4.8731 -18.9900 2.2338
-4.1901 -19.1592 2.2338
-3.5010 -19.3027 2.2338
-2.8069 -19.4204 2.2338
-2.1088 -19.5120 2.2338
-1.4076 -19.5774 2.2338
-0.7044 -19.6166 2.2338
-0.0002 -16.3440 2.2338
0.5861 -16.3328 2.2338
1.1715 -16.2998 2.2338
1.6860 -15.6041 2.1456
2.2286 -15.4226 2.1307
2.7798 -15.3292 2.1307
3.3269 -15.2154 2.1307
3.8694 -15.0814 2.1307
4.4063 -14.9274 2.1307
4.9369 -14.7537 2.1307
