ply
format ascii 1.0
element vertex 2179
property float32 x
property float32 y
property float32 z
end_header
8.2245 0.9662 2.1417
6.1580 0.9486 1.6112
6.1576 1.1762 1.6209
6.1571 1.4069 1.6328
6.1567 1.6414 1.6470
6.1562 1.8804 1.6637
7.8892 2.7229 2.1567
6.1553 2.3750 1.7047
7.6755 3.2827 2.1567
7.5537 3.5565 2.1567
6.1538 3.1720 1.7882
6.1533 3.4567 1.8227
6.1527 3.7531 1.8610
6.1521 4.0627 1.9035
6.1515 4.3873 1.9506
6.1509 4.7288 2.0028
6.1737 5.1091 2.0684
6.2425 5.5554 2.1567
5.9750 5.7145 2.1336
5.7665 5.9258 2.1336
5.5507 6.1294 2.1336
5.3275 6.3252 2.1336
5.0975 6.5128 2.1336
4.8608 6.6920 2.1336
4.6178 6.8626 2.1336
4.3688 7.0244 2.1336
4.1142 7.1770 2.1336
3.8541 7.3204 2.1336
3.5891 7.4544 2.1336
3.3194 7.5787 2.1336
3.0454 7.6932 2.1336
2.7675 7.7978 2.1336
2.4859 7.8923 2.1336
2.2011 7.9766 2.1336
2.0059 8.4395 2.2367
1.7018 8.5062 2.2367
1.3955 8.5618 2.2367
1.0873 8.6063 2.2367
0.7777 8.6398 2.2367
0.4672 8.6620 2.2367
0.1560 8.6730 2.2367
-0.1553 8.6728 2.2367
-0.4665 8.6615 2.2367
-0.7770 8.6388 2.2367
-1.0864 8.6051 2.2367
-1.3945 8.5602 2.2367
-1.7007 8.5042 2.2367
-2.0047 8.4372 2.2367
-2.3061 8.3593 2.2367
-2.6044 8.2707 2.2367
-2.8994 8.1713 2.2367
-3.1905 8.0614 2.2367
-3.4775 7.9411 2.2367
-3.7599 7.8105 2.2367
-4.0375 7.6699 2.2367
-4.3097 7.5194 2.2367
-4.5764 7.3592 2.2367
-4.8371 7.1895 2.2367
-5.0915 7.0105 2.2367
-5.3392 6.8225 2.2367
-5.5800 6.6258 2.2367
-5.8135 6.4205 2.2367
-5.9096 6.0734 2.1886
-5.9692 5.7096 2.1336
-6.1898 5.5091 2.1406
-6.3618 5.2654 2.1336
-6.5459 5.0330 2.1336
-6.7214 4.7942 2.1336
-6.8882 4.5492 2.1336
-7.0461 4.2985 2.1336
-7.1948 4.0422 2.1336
-7.3343 3.7808 2.1336
-7.4641 3.5146 2.1336
-7.5843 3.2440 2.1336
-7.6946 2.9692 2.1335
-7.7947 2.6905 2.1334
-7.8851 2.4087 2.1334
-7.9653 2.1238 2.1334
-8.0352 1.8362 2.1334
-6.6895 1.2779 1.7631
-6.6890 1.0305 1.7523
-6.6886 0.7858 1.7439
-6.6881 0.5432 1.7379
-6.6877 0.3021 1.7341
-6.6872 0.0618 1.7325
-6.6867 -0.1784 1.7332
-8.2165 -0.5148 2.1334
-8.1915 -0.8093 2.1334
-8.1560 -1.1027 2.1334
-8.1100 -1.3946 2.1334
-8.0536 -1.6846 2.1334
-7.9868 -1.9724 2.1334
-7.9097 -2.2575 2.1334
-7.8225 -2.5397 2.1334
-7.7253 -2.8185 2.1334
-7.6181 -3.0936 2.1334
-7.5012 -3.3647 2.1334
-7.3747 -3.6314 2.1334
-7.2387 -3.8933 2.1334
-6.5710 -3.8446 1.9763
-6.3404 -4.0220 1.9494
-6.7758 -4.6475 2.1334
-6.6038 -4.8872 2.1334
-6.4234 -5.1207 2.1334
-6.2348 -5.3474 2.1334
-6.0382 -5.5673 2.1334
-5.8951 -5.8406 2.1558
-5.8872 -6.2674 2.2340
-5.6647 -6.4819 2.2367
-5.4279 -6.6806 2.2367
-5.1842 -6.8707 2.2367
-4.9338 -7.0519 2.2367
-4.6771 -7.2240 2.2367
-4.4145 -7.3869 2.2367
-4.1462 -7.5402 2.2367
-3.8726 -7.6839 2.2367
-3.5940 -7.8176 2.2367
-3.3109 -7.9413 2.2367
-3.0235 -8.0548 2.2367
-2.7323 -8.1579 2.2367
-2.4375 -8.2506 2.2367
-2.1397 -8.3326 2.2367
-1.8391 -8.4040 2.2367
-1.5362 -8.4645 2.2367
-1.2312 -8.5142 2.2367
-0.9247 -8.5530 2.2367
-0.6170 -8.5807 2.2367
-0.3085 -8.5975 2.2367
0.0003 -7.8709 2.2367
0.2830 -7.8660 2.2367
0.5652 -7.8510 2.2367
0.8468 -7.8259 2.2367
1.1273 -7.7907 2.2367
1.4064 -7.7456 2.2367
1.6837 -7.6904 2.2367
1.9588 -7.6254 2.2367
2.1641 -7.3226 2.1692
2.3860 -7.1219 2.1336
2.6403 -7.0322 2.1336
2.8913 -6.9333 2.1336
3.1386 -6.8255 2.1336
3.3819 -6.7089 2.1336
3.6209 -6.5837 2.1336
3.8553 -6.4500 2.1336
4.0848 -6.3080 2.1336
4.3090 -6.1579 2.1336
4.5278 -5.9998 2.1336
4.7407 -5.8339 2.1336
4.9477 -5.6606 2.1336
5.1483 -5.4799 2.1336
5.3423 -5.2921 2.1336
5.5294 -5.0974 2.1336
5.7095 -4.8962 2.1336
5.8824 -4.6886 2.1336
5.9576 -4.4083 2.1018
6.1093 -4.1898 2.1006
6.1860 -3.9235 2.0770
6.1796 -3.6151 2.0297
6.1667 -3.3163 1.9847
6.1669 -3.0362 1.9482
6.1664 -2.7655 1.9152
6.8501 -2.7813 2.0948
6.1644 -2.2487 1.8590
7.0352 -2.2837 2.0952
6.1706 -1.7608 1.8175
6.1626 -1.5216 1.7976
7.2491 -1.5160 2.0970
6.1618 -1.0593 1.7701
7.3385 -0.9919 2.0962
7.3848 -0.7294 2.1003
6.1605 -0.3858 1.7468
7.5074 -0.2001 2.1250
6.1597 0.0570 1.7428
7.5920 0.3431 2.1498
6.1588 0.5003 1.7477
7.5606 0.8884 2.1529
6.1580 0.9487 1.7618
6.1576 1.1763 1.7724
6.1571 1.4071 1.7854
6.1567 1.6415 1.8010
6.1562 1.8805 1.8192
7.2144 2.4902 2.1567
6.1553 2.3751 1.8642
7.0188 3.0020 2.1567
6.9074 3.2524 2.1567
6.1538 3.1722 1.9555
6.1533 3.4569 1.9933
6.1527 3.7533 2.0352
6.1521 4.0629 2.0817
6.1525 4.3881 2.1336
5.9917 4.6066 2.1336
5.8230 4.8191 2.1336
5.6468 5.0254 2.1336
5.4633 5.2253 2.1336
5.2727 5.4184 2.1336
5.0753 5.6046 2.1336
4.8712 5.7836 2.1336
4.6608 5.9551 2.1336
4.4444 6.1189 2.1336
4.2222 6.2749 2.1336
3.9946 6.4227 2.1336
3.7617 6.5623 2.1336
3.5239 6.6933 2.1336
3.2816 6.8158 2.1336
3.0350 6.9294 2.1336
2.7845 7.0341 2.1336
2.5303 7.1297 2.1336
2.2729 7.2161 2.1336
2.1098 7.6455 2.2367
1.8341 7.7164 2.2367
1.5560 7.7774 2.2367
1.2759 7.8282 2.2367
0.9941 7.8689 2.2367
0.7111 7.8995 2.2367
0.4272 7.9198 2.2367
0.1427 7.9300 2.2367
-0.1420 7.9298 2.2367
-0.4265 7.9194 2.2367
-0.7104 7.8987 2.2367
-0.9933 7.8679 2.2367
-1.2750 7.8268 2.2367
-1.5550 7.7757 2.2367
-1.8329 7.7145 2.2367
-2.1085 7.6433 2.2367
-2.3813 7.5623 2.2367
-2.6510 7.4715 2.2367
-2.9172 7.3711 2.2367
-3.1796 7.2611 2.2367
-3.4379 7.1418 2.2367
-3.6917 7.0132 2.2367
-3.9407 6.8756 2.2367
-4.1845 6.7292 2.2367
-4.4229 6.5741 2.2367
-4.6555 6.4105 2.2367
-4.8821 6.2387 2.2367
-5.1023 6.0588 2.2367
-5.3159 5.8712 2.2367
-5.5226 5.6760 2.2367
-5.7222 5.4735 2.2367
-5.8977 5.2493 2.2304
-5.9149 4.8957 2.1693
-5.9859 4.6026 2.1336
-6.1837 4.4109 2.1465
-6.2991 4.1603 2.1336
-6.4435 3.9310 2.1336
-6.5795 3.6967 2.1336
-6.7070 3.4577 2.1336
-6.8259 3.2143 2.1335
-6.9358 2.9668 2.1335
-7.0367 2.7155 2.1334
-7.1287 2.4608 2.1334
-7.2114 2.2031 2.1334
-7.2848 1.9425 2.1334
-7.3488 1.6795 2.1334
-7.4034 1.4145 2.1334
-6.7741 1.0438 1.9403
-7.4837 0.8794 2.1334
-7.5094 0.6101 2.1334
-7.5254 0.3401 2.1334
-6.7723 0.0627 1.9183
-7.5284 -0.2007 2.1334
-7.5153 -0.4707 2.1334
-7.4926 -0.7401 2.1334
-7.4602 -1.0085 2.1334
-7.4182 -1.2755 2.1334
-7.3666 -1.5407 2.1334
-7.3056 -1.8040 2.1334
-7.2352 -2.0648 2.1334
-7.1556 -2.3230 2.1334
-7.0667 -2.5780 2.1334
-6.9687 -2.8297 2.1334
-6.8619 -3.0777 2.1334
-6.7461 -3.3217 2.1334
-6.6218 -3.5614 2.1334
-6.4890 -3.7964 2.1334
-6.3328 -4.0170 2.1284
-6.1985 -4.2514 2.1334
-6.0413 -4.4708 2.1334
-5.9007 -4.7038 2.1423
-5.8895 -5.0511 2.2029
-5.7913 -5.3395 2.2367
-5.5954 -5.5435 2.2367
-5.3923 -5.7404 2.2367
-5.1824 -5.9299 2.2367
-4.9658 -6.1117 2.2367
-4.7428 -6.2856 2.2367
-4.5138 -6.4514 2.2367
-4.2790 -6.6090 2.2367
-4.0387 -6.7580 2.2367
-3.7932 -6.8983 2.2367
-3.5429 -7.0297 2.2367
-3.2881 -7.1521 2.2367
-3.0291 -7.2653 2.2367
-2.7662 -7.3691 2.2367
-2.4997 -7.4635 2.2367
-2.2301 -7.5483 2.2367
-1.9576 -7.6234 2.2367
-1.6826 -7.6887 2.2367
-1.4054 -7.7441 2.2367
-1.1264 -7.7895 2.2367
-0.8460 -7.8250 2.2367
-0.5645 -7.8504 2.2367
-0.2823 -7.8657 2.2367
0.0003 -7.2462 2.2367
0.2605 -7.2417 2.2367
0.5204 -7.2278 2.2367
0.7796 -7.2047 2.2367
1.0379 -7.1723 2.2367
1.2948 -7.1307 2.2367
1.5501 -7.0799 2.2367
1.8033 -7.0200 2.2367
2.0544 -6.9511 2.2367
2.1966 -6.5565 2.1336
2.4308 -6.4738 2.1336
2.6618 -6.3827 2.1336
2.8895 -6.2835 2.1336
3.1135 -6.1761 2.1336
3.3335 -6.0608 2.1336
3.5492 -5.9377 2.1336
3.7604 -5.8069 2.1336
3.9668 -5.6687 2.1336
4.1682 -5.5231 2.1336
4.3642 -5.3704 2.1336
4.5546 -5.2107 2.1336
4.7393 -5.0443 2.1336
4.9178 -4.8714 2.1336
5.0901 -4.6922 2.1336
5.2558 -4.5069 2.1336
5.4149 -4.3158 2.1336
5.5669 -4.1191 2.1336
5.7119 -3.9170 2.1336
5.8495 -3.7099 2.1336
5.9796 -3.4979 2.1336
6.0100 -3.2319 2.1014
6.1204 -3.0131 2.1005
6.1664 -2.7654 2.0806
6.1890 -2.5127 2.0562
6.1644 -2.2485 2.0197
6.4848 -2.1049 2.0982
6.1712 -1.7608 1.9748
6.1626 -1.5215 1.9530
6.6881 -1.3985 2.1020
6.1618 -1.0592 1.9232
6.7729 -0.9153 2.1020
6.8023 -0.6717 2.1020
6.1605 -0.3857 1.8979
6.9126 -0.1841 2.1260
6.1597 0.0572 1.8936
6.9984 0.3164 2.1532
6.1588 0.5005 1.8990
6.9695 0.8191 2.1563
6.1580 0.9489 1.9144
6.1576 1.1765 1.9259
6.1571 1.4072 1.9401
6.1567 1.6417 1.9570
6.1562 1.8807 1.9768
6.6392 2.2918 2.1567
6.1553 2.3753 2.0257
6.1783 2.6427 2.0629
6.3565 2.9931 2.1567
6.2457 3.2197 2.1567
6.0611 3.4053 2.1336
5.9356 3.6210 2.1336
5.8024 3.8320 2.1336
5.6616 4.0382 2.1336
5.5136 4.2391 2.1336
5.3584 4.4347 2.1336
5.1962 4.6245 2.1336
5.0273 4.8084 2.1336
4.8519 4.9861 2.1336
4.6701 5.1574 2.1336
4.4824 5.3220 2.1336
4.2888 5.4798 2.1336
4.0896 5.6305 2.1336
3.8851 5.7740 2.1336
3.6756 5.9100 2.1336
3.4613 6.0384 2.1336
3.2426 6.1590 2.1336
3.0196 6.2717 2.1336
2.7927 6.3762 2.1336
2.5621 6.4725 2.1336
2.3283 6.5605 2.1336
2.1335 6.7735 2.1765
1.9413 7.0351 2.2367
1.6876 7.1003 2.2367
1.4317 7.1564 2.2367
1.1740 7.2031 2.2367
0.9148 7.2406 2.2367
0.6543 7.2688 2.2367
0.3931 7.2875 2.2367
0.1313 7.2968 2.2367
-0.1306 7.2967 2.2367
-0.3924 7.2871 2.2367
-0.6536 7.2681 2.2367
-0.9140 7.2397 2.2367
-1.1731 7.2020 2.2367
-1.4308 7.1550 2.2367
-1.6865 7.0987 2.2367
-1.9401 7.0332 2.2367
-2.1911 6.9587 2.2367
-2.4393 6.8752 2.2367
-2.6843 6.7828 2.2367
-2.9258 6.6816 2.2367
-3.1634 6.5719 2.2367
-3.3970 6.4536 2.2367
-3.6261 6.3271 2.2367
-3.8505 6.1923 2.2367
-4.0699 6.0496 2.2367
-4.2840 5.8992 2.2367
-4.4926 5.7411 2.2367
-4.6953 5.5756 2.2367
-4.8918 5.4030 2.2367
-5.0821 5.2234 2.2367
-5.2657 5.0371 2.2367
-5.4425 4.8444 2.2367
-5.6123 4.6454 2.2367
-5.7747 4.4405 2.2367
-5.8958 4.2057 2.2239
-5.9105 3.9039 2.1754
-5.9297 3.6178 2.1335
-6.0550 3.4022 2.1335
-6.1724 3.1822 2.1335
-6.2818 2.9583 2.1335
-6.3830 2.7305 2.1334
-6.4761 2.4993 2.1334
-6.5608 2.2650 2.1334
-6.6370 2.0278 2.1334
-6.7047 1.7880 2.1334
-6.7637 1.5460 2.1334
-6.8139 1.3020 2.1334
-6.7741 1.0439 2.1082
-6.8880 0.8096 2.1334
-6.9117 0.5617 2.1334
-6.9265 0.3132 2.1334
-6.7723 0.0629 2.0842
-6.9294 -0.1845 2.1334
-6.9174 -0.4331 2.1334
-6.8965 -0.6811 2.1334
-6.8668 -0.9281 2.1334
-6.8282 -1.1739 2.1334
-6.7809 -1.4181 2.1334
-6.7248 -1.6604 2.1334
-6.6600 -1.9005 2.1334
-6.5867 -2.1381 2.1334
-6.5050 -2.3730 2.1334
-6.4149 -2.6047 2.1334
-6.3165 -2.8330 2.1334
-6.2101 -3.0576 2.1334
-6.1055 -3.2836 2.1369
-5.9734 -3.4947 2.1334
-5.8995 -3.7420 2.1539
-5.8914 -4.0406 2.2027
-5.8306 -4.3147 2.2367
-5.6714 -4.5208 2.2367
-5.5050 -4.7212 2.2367
-5.3315 -4.9154 2.2367
-5.1511 -5.1032 2.2367
-4.9642 -5.2845 2.2367
-4.7709 -5.4589 2.2367
-4.5715 -5.6263 2.2367
-4.3663 -5.7865 2.2367
-4.1555 -5.9392 2.2367
-3.9393 -6.0842 2.2367
-3.7181 -6.2214 2.2367
-3.4922 -6.3506 2.2367
-3.2618 -6.4717 2.2367
-3.0272 -6.5844 2.2367
-2.7887 -6.6886 2.2367
-2.5467 -6.7842 2.2367
-2.3014 -6.8711 2.2367
-2.0531 -6.9492 2.2367
-1.8022 -7.0183 2.2367
-1.5490 -7.0784 2.2367
-1.2939 -7.1294 2.2367
-1.0370 -7.1713 2.2367
-0.7789 -7.2039 2.2367
-0.5197 -7.2273 2.2367
-0.2599 -7.2414 2.2367
0.0003 -6.7064 2.2367
0.2412 -6.7022 2.2367
0.4817 -6.6894 2.2367
0.7216 -6.6680 2.2367
0.9606 -6.6380 2.2367
1.1984 -6.5995 2.2367
1.4346 -6.5525 2.2367
1.6691 -6.4970 2.2367
1.9014 -6.4332 2.2367
2.1313 -6.3611 2.2367
2.2497 -5.9914 2.1336
2.4636 -5.9071 2.1336
2.6742 -5.8152 2.1336
2.8815 -5.7158 2.1336
3.0851 -5.6091 2.1336
3.2848 -5.4951 2.1336
3.4802 -5.3740 2.1336
3.6712 -5.2460 2.1336
3.8576 -5.1113 2.1336
4.0389 -4.9699 2.1336
4.2152 -4.8221 2.1336
4.3860 -4.6681 2.1336
4.5512 -4.5081 2.1336
4.7106 -4.3422 2.1336
4.8639 -4.1707 2.1336
5.0111 -3.9938 2.1336
5.1518 -3.8117 2.1336
5.2859 -3.6247 2.1336
5.4132 -3.4330 2.1336
5.5336 -3.2368 2.1336
5.6468 -3.0364 2.1336
5.7529 -2.8320 2.1336
5.8515 -2.6240 2.1336
5.9426 -2.4125 2.1336
5.9368 -2.1653 2.1020
6.0097 -1.9505 2.1014
6.0759 -1.7335 2.1012
6.1375 -1.5151 2.1020
6.1887 -1.2939 2.1020
6.1618 -1.0590 2.0784
6.1849 -0.8357 2.0745
6.1845 -0.6105 2.0654
6.1605 -0.3855 2.0512
6.1836 -0.1645 2.0553
6.1597 0.0573 2.0465
6.1828 0.2797 2.0559
6.1588 0.5007 2.0524
6.1820 0.7267 2.0672
6.1580 0.9490 2.0690
6.1576 1.1766 2.0815
6.3329 1.4475 2.1567
6.2776 1.6741 2.1567
6.1476 1.8782 2.1336
6.0769 2.0978 2.1336
5.9983 2.3148 2.1336
5.9120 2.5289 2.1336
5.8180 2.7397 2.1336
5.7165 2.9470 2.1336
5.6076 3.1506 2.1336
5.4914 3.3502 2.1336
5.3681 3.5454 2.1336
5.2379 3.7361 2.1336
5.1009 3.9220 2.1336
4.9572 4.1029 2.1336
4.8072 4.2785 2.1336
4.6509 4.4486 2.1336
4.4886 4.6129 2.1336
4.3205 4.7714 2.1336
4.1467 4.9237 2.1336
3.9676 5.0696 2.1336
3.7833 5.2090 2.1336
3.5942 5.3417 2.1336
3.4004 5.4675 2.1336
3.2021 5.5863 2.1336
2.9997 5.6978 2.1336
2.7934 5.8020 2.1336
2.5835 5.8987 2.1336
2.3702 5.9878 2.1336
2.1539 6.0692 2.1336
2.0282 6.4395 2.2367
1.7959 6.5082 2.2367
1.5612 6.5686 2.2367
1.3245 6.6204 2.2367
1.0861 6.6637 2.2367
0.8463 6.6984 2.2367
0.6053 6.7244 2.2367
0.3636 6.7417 2.2367
0.1215 6.7503 2.2367
-0.1208 6.7502 2.2367
-0.3630 6.7414 2.2367
-0.6046 6.7238 2.2367
-0.8455 6.6976 2.2367
-1.0852 6.6627 2.2367
-1.3236 6.6192 2.2367
-1.5602 6.5672 2.2367
-1.7948 6.5066 2.2367
-2.0270 6.4377 2.2367
-2.2566 6.3605 2.2367
-2.4832 6.2750 2.2367
-2.7066 6.1815 2.2367
-2.9265 6.0799 2.2367
-3.1426 5.9706 2.2367
-3.3546 5.8535 2.2367
-3.5622 5.7289 2.2367
-3.7652 5.5970 2.2367
-3.9633 5.4578 2.2367
-4.1563 5.3116 2.2367
-4.3438 5.1585 2.2367
-4.5257 4.9988 2.2367
-4.7018 4.8327 2.2367
-4.8717 4.6604 2.2367
-5.0353 4.4821 2.2367
-5.1924 4.2981 2.2367
-5.3428 4.1085 2.2367
-5.4862 3.9137 2.2367
-5.6225 3.7139 2.2367
-5.7516 3.5093 2.2367
-5.8731 3.3002 2.2367
-5.9019 3.0430 2.2048
-5.9088 2.7828 2.1689
-5.9157 2.5308 2.1370
-5.9920 2.3127 2.1334
-6.0705 2.0959 2.1334
-6.1411 1.8764 2.1334
-6.2037 1.6546 2.1334
-6.2584 1.4306 2.1334
-6.3049 1.2049 2.1334
-6.3433 0.9777 2.1334
-6.3736 0.7493 2.1334
-6.3956 0.5199 2.1334
-6.4093 0.2900 2.1334
-6.4149 0.0597 2.1334
-6.4121 -0.1706 2.1334
-6.4011 -0.4006 2.1334
-6.3818 -0.6301 2.1334
-6.3543 -0.8587 2.1334
-6.3187 -1.0861 2.1334
-6.2749 -1.3121 2.1334
-6.2231 -1.5364 2.1334
-6.1632 -1.7586 2.1334
-6.1077 -1.9825 2.1378
-6.0198 -2.1958 2.1334
-5.9365 -2.4103 2.1334
-5.9016 -2.6467 2.1539
-5.8936 -2.9016 2.1878
-5.8931 -3.1691 2.2287
-5.7957 -3.3905 2.2367
-5.6697 -3.5961 2.2367
-5.5364 -3.7970 2.2367
-5.3960 -3.9929 2.2367
-5.2487 -4.1838 2.2367
-5.0947 -4.3692 2.2367
-4.9342 -4.5489 2.2367
-4.7673 -4.7228 2.2367
-4.5943 -4.8906 2.2367
-4.4155 -5.0521 2.2367
-4.2310 -5.2070 2.2367
-4.0410 -5.3553 2.2367
-3.8459 -5.4966 2.2367
-3.6459 -5.6309 2.2367
-3.4412 -5.7579 2.2367
-3.2321 -5.8775 2.2367
-3.0188 -5.9895 2.2367
-2.8017 -6.0938 2.2367
-2.5810 -6.1903 2.2367
-2.3570 -6.2788 2.2367
-2.1300 -6.3593 2.2367
-1.9002 -6.4315 2.2367
-1.6680 -6.4955 2.2367
-1.4337 -6.5512 2.2367
-1.1975 -6.5984 2.2367
-0.9598 -6.6371 2.2367
-0.7208 -6.6673 2.2367
-0.4810 -6.6890 2.2367
-0.2405 -6.7020 2.2367
0.0003 -6.2350 2.2367
0.2242 -6.2311 2.2367
0.4478 -6.2191 2.2367
0.6709 -6.1992 2.2367
0.8931 -6.1713 2.2367
1.1142 -6.1355 2.2367
1.3338 -6.0917 2.2367
1.5518 -6.0402 2.2367
1.7678 -5.9808 2.2367
1.9815 -5.9138 2.2367
2.1578 -5.7462 2.2011
2.2904 -5.4916 2.1336
2.4862 -5.4062 2.1336
2.6789 -5.3138 2.1336
2.8682 -5.2145 2.1336
3.0538 -5.1085 2.1336
3.2355 -4.9960 2.1336
3.4131 -4.8769 2.1336
3.5863 -4.7516 2.1336
3.7549 -4.6202 2.1336
3.9187 -4.4828 2.1336
4.0775 -4.3396 2.1336
4.2310 -4.1908 2.1336
4.3792 -4.0365 2.1336
4.5217 -3.8771 2.1336
4.6584 -3.7126 2.1336
4.7892 -3.5433 2.1336
4.9138 -3.3694 2.1336
5.0322 -3.1912 2.1336
5.1440 -3.0088 2.1336
5.2493 -2.8225 2.1336
5.3478 -2.6325 2.1336
5.4395 -2.4390 2.1336
5.5241 -2.2425 2.1336
5.6017 -2.0429 2.1336
5.6721 -1.8407 2.1336
5.7351 -1.6361 2.1336
5.7908 -1.4293 2.1336
5.8391 -1.2207 2.1336
5.8798 -1.0104 2.1336
5.9129 -0.7988 2.1336
5.9385 -0.5861 2.1336
5.9564 -0.3726 2.1336
5.9495 -0.1581 2.1275
5.9691 0.0557 2.1336
5.9640 0.2700 2.1336
5.9511 0.4839 2.1336
5.9305 0.6973 2.1336
5.9023 0.9098 2.1336
5.8665 1.1212 2.1336
5.8231 1.3312 2.1336
5.7722 1.5395 2.1336
5.7138 1.7458 2.1336
5.6481 1.9500 2.1336
5.5750 2.1516 2.1336
5.4947 2.3506 2.1336
5.4074 2.5465 2.1336
5.3130 2.7392 2.1336
5.2117 2.9283 2.1336
5.1037 3.1138 2.1336
4.9891 3.2952 2.1336
4.8681 3.4724 2.1336
4.7407 3.6452 2.1336
4.6072 3.8133 2.1336
4.4677 3.9764 2.1336
4.3224 4.1345 2.1336
4.1716 4.2873 2.1336
4.0153 4.4345 2.1336
3.8538 4.5760 2.1336
3.6873 4.7116 2.1336
3.5161 4.8412 2.1336
3.3403 4.9645 2.1336
3.1601 5.0814 2.1336
2.9759 5.1917 2.1336
2.7877 5.2954 2.1336
2.5960 5.3922 2.1336
0.8579 1.9590 0.7624
2.2027 5.5648 2.1336
2.0984 5.9129 2.2367
1.8849 5.9846 2.2367
1.6690 6.0484 2.2367
1.4509 6.1045 2.2367
1.2309 6.1527 2.2367
1.0093 6.1929 2.2367
0.7865 6.2251 2.2367
0.5626 6.2493 2.2367
0.3380 6.2654 2.2367
0.1129 6.2734 2.2367
-0.1122 6.2733 2.2367
-0.3373 6.2651 2.2367
-0.5619 6.2488 2.2367
-0.7857 6.2245 2.2367
-1.0085 6.1920 2.2367
-1.2300 6.1516 2.2367
-1.4499 6.1033 2.2367
-1.6679 6.0470 2.2367
-1.8838 5.9830 2.2367
-2.0971 5.9113 2.2367
-2.3078 5.8319 2.2367
-0.8577 1.9590 0.7627
-0.9275 1.9269 0.7627
-2.9206 5.5490 2.2367
-3.1177 5.4403 2.2367
-3.3106 5.3245 2.2367
-3.4993 5.2019 2.2367
-3.6834 5.0725 2.2367
-3.8628 4.9367 2.2367
-4.0371 4.7945 2.2367
-4.2062 4.6461 2.2367
-4.3698 4.4917 2.2367
-4.5278 4.3316 2.2367
-4.6799 4.1659 2.2367
-4.8259 3.9949 2.2367
-4.9657 3.8187 2.2367
-5.0991 3.6377 2.2367
-5.2258 3.4520 2.2367
-5.3458 3.2618 2.2367
-5.4588 3.0675 2.2367
-5.5648 2.8693 2.2367
-5.6636 2.6675 2.2367
-5.7550 2.4622 2.2367
-5.8390 2.2538 2.2367
-5.9029 2.0382 2.2319
-5.9024 1.8037 2.2061
-5.9020 1.5742 2.1836
-5.9060 1.3503 2.1660
-5.9094 1.1295 2.1512
-5.9121 0.9114 2.1392
-5.9244 0.6966 2.1334
-5.9449 0.4835 2.1334
-5.9578 0.2697 2.1334
-5.9629 0.0557 2.1334
-5.9604 -0.1584 2.1334
-5.9502 -0.3723 2.1334
-5.9324 -0.5855 2.1334
-5.9100 -0.7985 2.1346
-5.9068 -1.0152 2.1455
-5.9030 -1.2342 2.1590
-5.8984 -1.4561 2.1753
-5.8959 -1.6822 2.1954
-5.8954 -1.9134 2.2197
-5.8670 -2.1399 2.2367
-5.7858 -2.3489 2.2367
-5.6972 -2.5549 2.2367
-5.6012 -2.7576 2.2367
-5.4981 -2.9566 2.2367
-5.3879 -3.1518 2.2367
-5.2708 -3.3429 2.2367
-5.1470 -3.5297 2.2367
-5.0165 -3.7120 2.2367
-4.8796 -3.8894 2.2367
-4.7364 -4.0618 2.2367
-4.5872 -4.2289 2.2367
-4.4321 -4.3906 2.2367
-4.2713 -4.5466 2.2367
-4.1050 -4.6967 2.2367
-3.9335 -4.8408 2.2367
-3.7569 -4.9787 2.2367
-3.5755 -5.1101 2.2367
-3.3896 -5.2349 2.2367
-3.1993 -5.3530 2.2367
-3.0049 -5.4642 2.2367
-2.8066 -5.5684 2.2367
-2.6048 -5.6654 2.2367
-2.3996 -5.7551 2.2367
-2.1913 -5.8374 2.2367
-1.9802 -5.9122 2.2367
-1.7666 -5.9794 2.2367
-1.5508 -6.0389 2.2367
-1.3329 -6.0906 2.2367
-1.1133 -6.1345 2.2367
-0.8923 -6.1706 2.2367
-0.6702 -6.1986 2.2367
-0.4471 -6.2187 2.2367
-0.2236 -6.2309 2.2367
0.0003 -5.8192 2.2367
0.2093 -5.8155 2.2367
0.4180 -5.8044 2.2367
0.6262 -5.7858 2.2367
0.8336 -5.7598 2.2367
1.0399 -5.7263 2.2367
1.2449 -5.6855 2.2367
1.4483 -5.6373 2.2367
1.6499 -5.5819 2.2367
1.8494 -5.5194 2.2367
2.0465 -5.4497 2.2367
2.1625 -5.1849 2.1584
2.3205 -5.0455 2.1336
2.5003 -4.9593 2.1336
2.6769 -4.8666 2.1336
2.8502 -4.7677 2.1336
3.0197 -4.6626 2.1336
3.1854 -4.5515 2.1336
3.3470 -4.4345 2.1336
3.5044 -4.3118 2.1336
3.6572 -4.1835 2.1336
3.8054 -4.0499 2.1336
3.9487 -3.9110 2.1336
4.0870 -3.7670 2.1336
4.2199 -3.6182 2.1336
4.3475 -3.4647 2.1336
4.4695 -3.3066 2.1336
4.5858 -3.1444 2.1336
4.6962 -2.9780 2.1336
4.8006 -2.8077 2.1336
4.8988 -2.6338 2.1336
4.9907 -2.4565 2.1336
5.0762 -2.2760 2.1336
5.1552 -2.0925 2.1336
5.2275 -1.9063 2.1336
5.2932 -1.7176 2.1336
5.3520 -1.5267 2.1336
5.4039 -1.3337 2.1336
5.4489 -1.1390 2.1336
5.4869 -0.9427 2.1336
5.5178 -0.7453 2.1336
5.5416 -0.5468 2.1336
5.5582 -0.3475 2.1336
5.5677 -0.1478 2.1336
5.5700 0.0521 2.1336
5.5652 0.2521 2.1336
5.5531 0.4517 2.1336
5.5339 0.6508 2.1336
5.5076 0.8491 2.1336
5.4741 1.0463 2.1336
5.4336 1.2422 2.1336
5.3860 1.4366 2.1336
5.3315 1.6292 2.1336
5.2702 1.8196 2.1336
5.2019 2.0078 2.1336
5.1270 2.1934 2.1336
5.0455 2.3762 2.1336
4.9574 2.5560 2.1336
4.8629 2.7325 2.1336
4.7621 2.9055 2.1336
4.6551 3.0747 2.1336
4.5422 3.2401 2.1336
4.4233 3.4013 2.1336
4.2987 3.5581 2.1336
4.1685 3.7103 2.1336
4.0330 3.8578 2.1336
3.8922 4.0003 2.1336
3.7464 4.1376 2.1336
3.5957 4.2696 2.1336
3.4404 4.3961 2.1336
3.2806 4.5170 2.1336
3.1165 4.6320 2.1336
2.9484 4.7411 2.1336
2.7765 4.8440 2.1336
2.6010 4.9407 2.1336
0.8657 1.7982 0.7626
0.8006 1.8281 0.7626
0.7345 1.8556 0.7625
0.6675 1.8808 0.7625
0.5995 1.9036 0.7625
0.5309 1.9238 0.7625
0.4615 1.9417 0.7625
0.3915 1.9570 0.7625
0.9417 5.7781 2.2367
0.7338 5.8081 2.2367
0.5249 5.8307 2.2367
0.3154 5.8457 2.2367
0.1054 5.8532 2.2367
-0.1047 5.8531 2.2367
-0.3147 5.8455 2.2367
-0.5242 5.8303 2.2367
-0.7330 5.8076 2.2367
-0.9409 5.7773 2.2367
-0.3913 1.9570 0.7626
-0.4612 1.9417 0.7626
-0.5306 1.9238 0.7627
-0.5993 1.9036 0.7627
-0.6672 1.8808 0.7627
-0.7343 1.8556 0.7628
-0.8004 1.8281 0.7628
-0.8655 1.7982 0.7628
-0.9294 1.7659 0.7629
-2.9088 5.0761 2.2367
-3.0889 4.9681 2.2367
-3.2650 4.8537 2.2367
-3.4368 4.7330 2.2367
-3.6041 4.6063 2.2367
-3.7668 4.4736 2.2367
-3.9246 4.3352 2.2367
-4.0773 4.1912 2.2367
-4.2247 4.0418 2.2367
-4.3667 3.8872 2.2367
-4.5030 3.7277 2.2367
-4.6334 3.5633 2.2367
-4.7578 3.3944 2.2367
-4.8761 3.2212 2.2367
-4.9881 3.0438 2.2367
-5.0936 2.8625 2.2367
-5.1925 2.6776 2.2367
-5.2848 2.4892 2.2367
-5.3701 2.2977 2.2367
-5.4486 2.1032 2.2367
-5.5200 1.9061 2.2367
-5.5842 1.7066 2.2367
-5.6413 1.5049 2.2367
-5.6910 1.3013 2.2367
-5.7335 1.0960 2.2367
-5.7685 0.8894 2.2367
-5.7961 0.6817 2.2367
-5.8162 0.4731 2.2367
-5.8288 0.2640 2.2367
-5.8339 0.0546 2.2367
-5.8314 -0.1548 2.2367
-5.8215 -0.3640 2.2367
-5.8041 -0.5727 2.2367
-5.7792 -0.7806 2.2367
-5.7468 -0.9875 2.2367
-5.7071 -1.1931 2.2367
-5.6600 -1.3971 2.2367
-5.6056 -1.5992 2.2367
-5.5440 -1.7993 2.2367
-5.4753 -1.9969 2.2367
-5.3996 -2.1920 2.2367
-5.3169 -2.3843 2.2367
-5.2274 -2.5734 2.2367
-5.1312 -2.7592 2.2367
-5.0284 -2.9414 2.2367
-4.9191 -3.1198 2.2367
-4.8036 -3.2941 2.2367
-4.6818 -3.4642 2.2367
-4.5541 -3.6298 2.2367
-4.4205 -3.7907 2.2367
-4.2812 -3.9467 2.2367
-4.1365 -4.0976 2.2367
-3.9864 -4.2433 2.2367
-3.8313 -4.3834 2.2367
-3.6712 -4.5179 2.2367
-3.5064 -4.6466 2.2367
-3.3371 -4.7692 2.2367
-3.1636 -4.8858 2.2367
-2.9860 -4.9960 2.2367
-2.8045 -5.0998 2.2367
-2.6195 -5.1970 2.2367
-2.4311 -5.2876 2.2367
-2.2396 -5.3713 2.2367
-2.0452 -5.4481 2.2367
-1.8482 -5.5180 2.2367
-1.6489 -5.5807 2.2367
-1.4474 -5.6362 2.2367
-1.2440 -5.6845 2.2367
-1.0391 -5.7255 2.2367
-0.8328 -5.7591 2.2367
-0.6255 -5.7853 2.2367
-0.4173 -5.8041 2.2367
-0.2086 -5.8154 2.2367
0.0003 -5.4495 2.2367
0.1960 -5.4460 2.2367
0.3915 -5.4356 2.2367
0.5865 -5.4182 2.2367
0.7807 -5.3938 2.2367
0.9739 -5.3624 2.2367
1.1659 -5.3242 2.2367
1.3563 -5.2791 2.2367
1.5451 -5.2272 2.2367
1.7319 -5.1686 2.2367
1.9165 -5.1033 2.2367
2.0986 -5.0315 2.2367
2.1731 -4.7248 2.1336
2.3474 -4.6558 2.1390
2.5069 -4.5572 2.1336
2.6691 -4.4646 2.1336
2.8278 -4.3661 2.1336
2.9830 -4.2621 2.1336
3.1343 -4.1525 2.1336
3.2817 -4.0376 2.1336
3.4248 -3.9175 2.1336
3.5635 -3.7923 2.1336
3.6977 -3.6622 2.1336
3.8271 -3.5274 2.1336
3.9517 -3.3880 2.1336
4.0711 -3.2442 2.1336
4.1853 -3.0962 2.1336
4.2942 -2.9442 2.1336
4.3976 -2.7884 2.1336
4.4953 -2.6290 2.1336
4.5872 -2.4662 2.1336
4.6732 -2.3001 2.1336
4.7533 -2.1311 2.1336
4.8272 -1.9593 2.1336
4.8949 -1.7849 2.1336
4.9563 -1.6082 2.1336
5.0114 -1.4294 2.1336
5.0600 -1.2487 2.1336
5.1021 -1.0663 2.1336
5.1376 -0.8826 2.1336
5.1665 -0.6977 2.1336
5.1887 -0.5118 2.1336
5.2043 -0.3253 2.1336
5.2132 -0.1383 2.1336
5.2153 0.0489 2.1336
5.2107 0.2361 2.1336
5.1994 0.4231 2.1336
5.1814 0.6095 2.1336
5.1567 0.7951 2.1336
5.1253 0.9798 2.1336
5.0874 1.1632 2.1336
5.0428 1.3452 2.1336
4.9918 1.5255 2.1336
4.9343 1.7038 2.1336
4.8704 1.8799 2.1336
4.8002 2.0537 2.1336
4.7238 2.2248 2.1336
4.6413 2.3931 2.1336
4.5528 2.5584 2.1336
4.4584 2.7203 2.1336
4.3583 2.8788 2.1336
4.2525 3.0336 2.1336
4.1412 3.1845 2.1336
4.0245 3.3313 2.1336
3.9027 3.4738 2.1336
3.7757 3.6118 2.1336
3.6439 3.7452 2.1336
3.5074 3.8738 2.1336
3.3663 3.9974 2.1336
3.2209 4.1158 2.1336
3.0713 4.2289 2.1336
2.9177 4.3366 2.1336
2.7603 4.4387 2.1336
2.5994 4.5351 2.1336
0.8705 1.6536 0.7627
0.8106 1.6837 0.7627
0.7497 1.7117 0.7627
0.6878 1.7376 0.7627
0.6250 1.7611 0.7627
0.5614 1.7824 0.7626
0.4971 1.8014 0.7626
0.4321 1.8181 0.7626
0.3666 1.8324 0.7626
0.3006 1.8444 0.7626
0.2342 1.8540 0.7626
0.1676 1.8612 0.7626
0.1007 1.8660 0.7626
0.0336 1.8684 0.7626
-0.0334 1.8684 0.7627
-0.1004 1.8660 0.7627
-0.1673 1.8612 0.7627
-0.2340 1.8540 0.7627
-0.3004 1.8444 0.7627
-0.3664 1.8324 0.7627
-0.4319 1.8181 0.7628
-0.4968 1.8014 0.7628
-0.5612 1.7824 0.7628
-0.6247 1.7611 0.7628
-0.6875 1.7376 0.7629
-0.7494 1.7118 0.7629
-0.8104 1.6837 0.7630
-0.8702 1.6536 0.7630
-0.9290 1.6213 0.7630
-2.8918 4.6513 2.2367
-3.0567 4.5442 2.2367
-3.2176 4.4313 2.2367
-3.3743 4.3127 2.2367
-3.5266 4.1885 2.2367
-3.6743 4.0589 2.2367
-3.8173 3.9241 2.2367
-3.9553 3.7843 2.2367
-4.0883 3.6396 2.2367
-4.2159 3.4902 2.2367
-4.3380 3.3363 2.2367
-4.4546 3.1782 2.2367
-4.5653 3.0160 2.2367
-4.6702 2.8500 2.2367
-4.7690 2.6802 2.2367
-4.8617 2.5071 2.2367
-4.9480 2.3308 2.2367
-5.0280 2.1514 2.2367
-5.1015 1.9694 2.2367
-5.1684 1.7848 2.2367
-5.2286 1.5980 2.2367
-5.2820 1.4092 2.2367
-5.3286 1.2185 2.2367
-5.3684 1.0264 2.2367
-5.4012 0.8329 2.2367
-5.4271 0.6384 2.2367
-5.4459 0.4432 2.2367
-5.4577 0.2474 2.2367
-5.4625 0.0513 2.2367
-5.4603 -0.1448 2.2367
-5.4510 -0.3407 2.2367
-5.4347 -0.5362 2.2367
-5.4115 -0.7308 2.2367
-5.3812 -0.9246 2.2367
-5.3440 -1.1170 2.2367
-5.3000 -1.3081 2.2367
-5.2491 -1.4973 2.2367
-5.1914 -1.6847 2.2367
-5.1271 -1.8698 2.2367
-5.0563 -2.0525 2.2367
-4.9789 -2.2325 2.2367
-4.8951 -2.4096 2.2367
-4.8050 -2.5836 2.2367
-4.7088 -2.7543 2.2367
-4.6065 -2.9213 2.2367
-4.4983 -3.0846 2.2367
-4.3843 -3.2439 2.2367
-4.2647 -3.3990 2.2367
-4.1396 -3.5497 2.2367
-4.0092 -3.6958 2.2367
-3.8736 -3.8371 2.2367
-3.7331 -3.9735 2.2367
-3.5878 -4.1048 2.2367
-3.4379 -4.2307 2.2367
-3.2836 -4.3512 2.2367
-3.1251 -4.4661 2.2367
-2.9626 -4.5753 2.2367
-2.7963 -4.6785 2.2367
-2.6264 -4.7757 2.2367
-2.4531 -4.8668 2.2367
-2.2767 -4.9516 2.2367
-2.0973 -5.0300 2.2367
-1.9153 -5.1020 2.2367
-1.7308 -5.1674 2.2367
-1.5441 -5.2261 2.2367
-1.3554 -5.2781 2.2367
-1.1650 -5.3233 2.2367
-0.9731 -5.3617 2.2367
-0.7799 -5.3932 2.2367
-0.5857 -5.4177 2.2367
-0.3908 -5.4353 2.2367
-0.1954 -5.4459 2.2367
0.0003 -5.1182 2.2367
0.1841 -5.1150 2.2367
0.3677 -5.1052 2.2367
0.5508 -5.0888 2.2367
0.7332 -5.0659 2.2367
0.9147 -5.0364 2.2367
1.0950 -5.0005 2.2367
1.2739 -4.9581 2.2367
1.4512 -4.9094 2.2367
1.6267 -4.8543 2.2367
1.8000 -4.7930 2.2367
1.9711 -4.7255 2.2367
2.1396 -4.6519 2.2367
2.1991 -4.3616 2.1336
2.3545 -4.2801 2.1336
2.5068 -4.1930 2.1336
2.6559 -4.1006 2.1336
2.8017 -4.0028 2.1336
2.9438 -3.8999 2.1336
3.0821 -3.7920 2.1336
3.2166 -3.6791 2.1336
3.3468 -3.5615 2.1336
3.4728 -3.4393 2.1336
3.5944 -3.3127 2.1336
3.7113 -3.1818 2.1336
3.8235 -3.0467 2.1336
3.9307 -2.9077 2.1336
4.0330 -2.7650 2.1336
4.1300 -2.6186 2.1336
4.2217 -2.4689 2.1336
4.3081 -2.3160 2.1336
4.3888 -2.1600 2.1336
4.4640 -2.0012 2.1336
4.5334 -1.8399 2.1336
4.5970 -1.6761 2.1336
4.6546 -1.5101 2.1336
4.7063 -1.3422 2.1336
4.7519 -1.1725 2.1336
4.7914 -1.0013 2.1336
4.8247 -0.8287 2.1336
4.8519 -0.6551 2.1336
4.8727 -0.4805 2.1336
4.8873 -0.3053 2.1336
4.8956 -0.1297 2.1336
4.8976 0.0461 2.1336
4.8933 0.2219 2.1336
4.8826 0.3974 2.1336
4.8657 0.5725 2.1336
4.8424 0.7468 2.1336
4.8130 0.9202 2.1336
4.7773 1.0925 2.1336
4.7354 1.2633 2.1336
4.6875 1.4326 2.1336
4.6335 1.6000 2.1336
4.5734 1.7654 2.1336
4.5075 1.9286 2.1336
4.4358 2.0893 2.1336
4.3583 2.2473 2.1336
4.2752 2.4025 2.1336
4.1865 2.5545 2.1336
4.0925 2.7033 2.1336
3.9931 2.8487 2.1336
3.8886 2.9903 2.1336
3.7790 3.1282 2.1336
3.6646 3.2620 2.1336
3.5454 3.3916 2.1336
3.4216 3.5168 2.1336
3.2934 3.6375 2.1336
3.1609 3.7536 2.1336
3.0243 3.8648 2.1336
2.8839 3.9710 2.1336
2.7396 4.0721 2.1336
2.5919 4.1679 2.1336
0.8727 1.5226 0.7629
0.8175 1.5529 0.7628
0.7612 1.5812 0.7628
0.7040 1.6076 0.7628
0.6459 1.6318 0.7628
0.5869 1.6539 0.7628
0.5272 1.6739 0.7628
0.4668 1.6918 0.7628
0.4058 1.7074 0.7627
0.3443 1.7209 0.7627
0.2823 1.7321 0.7627
0.2200 1.7411 0.7627
0.1574 1.7479 0.7627
0.0945 1.7524 0.7627
0.0316 1.7547 0.7628
-0.0314 1.7547 0.7628
-0.0943 1.7524 0.7628
-0.1571 1.7479 0.7628
-0.2197 1.7411 0.7628
-0.2821 1.7321 0.7628
-0.3440 1.7209 0.7628
-0.4056 1.7074 0.7629
-0.4666 1.6917 0.7629
-0.5270 1.6739 0.7629
-0.5867 1.6539 0.7629
-0.6457 1.6318 0.7630
-0.7038 1.6076 0.7630
-0.7610 1.5812 0.7630
-0.8172 1.5529 0.7631
-0.8724 1.5226 0.7631
-0.9265 1.4903 0.7632
-0.9794 1.4560 0.7632
-3.0213 4.1611 2.2367
-3.1684 4.0497 2.2367
-3.3115 3.9331 2.2367
-3.4502 3.8115 2.2367
-3.5845 3.6849 2.2367
-3.7141 3.5536 2.2367
-3.8390 3.4178 2.2367
-3.9588 3.2775 2.2367
-4.0735 3.1331 2.2367
-4.1830 2.9846 2.2367
-4.2870 2.8323 2.2367
-4.3855 2.6764 2.2367
-4.4783 2.5170 2.2367
-4.5653 2.3544 2.2367
-4.6465 2.1889 2.2367
-4.7216 2.0205 2.2367
-4.7906 1.8495 2.2367
-4.8534 1.6762 2.2367
-4.9100 1.5008 2.2367
-4.9602 1.3235 2.2367
-5.0040 1.1444 2.2367
-5.0414 0.9640 2.2367
-5.0722 0.7823 2.2367
-5.0965 0.5997 2.2367
-5.1143 0.4163 2.2367
-5.1254 0.2324 2.2367
-5.1300 0.0483 2.2367
-5.1279 -0.1359 2.2367
-5.1192 -0.3199 2.2367
-5.1039 -0.5034 2.2367
-5.0821 -0.6862 2.2367
-5.0537 -0.8682 2.2367
-5.0188 -1.0489 2.2367
-4.9774 -1.2283 2.2367
-4.9297 -1.4061 2.2367
-4.8756 -1.5821 2.2367
-4.8152 -1.7559 2.2367
-4.7487 -1.9275 2.2367
-4.6760 -2.0966 2.2367
-4.5973 -2.2630 2.2367
-4.5128 -2.4264 2.2367
-4.4224 -2.5866 2.2367
-4.3263 -2.7436 2.2367
-4.2247 -2.8969 2.2367
-4.1177 -3.0465 2.2367
-4.0054 -3.1922 2.2367
-3.8879 -3.3337 2.2367
-3.7654 -3.4710 2.2367
-3.6381 -3.6037 2.2367
-3.5062 -3.7318 2.2367
-3.3697 -3.8551 2.2367
-3.2290 -3.9735 2.2367
-3.0840 -4.0866 2.2367
-2.9352 -4.1946 2.2367
-2.7825 -4.2971 2.2367
-2.6263 -4.3941 2.2367
-2.4667 -4.4854 2.2367
-2.3040 -4.5709 2.2367
-2.1383 -4.6506 2.2367
-1.9699 -4.7242 2.2367
-1.7989 -4.7918 2.2367
-1.6256 -4.8533 2.2367
-1.4503 -4.9084 2.2367
-1.2731 -4.9573 2.2367
-1.0942 -4.9998 2.2367
-0.9139 -5.0358 2.2367
-0.7325 -5.0654 2.2367
-0.5501 -5.0884 2.2367
-0.3670 -5.1049 2.2367
-0.1835 -5.1149 2.2367
0.0003 -4.8194 2.2367
0.1734 -4.8164 2.2367
0.3463 -4.8072 2.2367
0.5187 -4.7917 2.2367
0.6905 -4.7701 2.2367
0.8614 -4.7424 2.2367
1.0311 -4.7086 2.2367
1.1996 -4.6687 2.2367
1.3666 -4.6227 2.2367
1.5318 -4.5709 2.2367
1.6950 -4.5131 2.2367
1.8561 -4.4496 2.2367
2.0147 -4.3803 2.2367
2.1550 -4.2738 2.2203
2.2171 -4.0301 2.1336
2.3605 -3.9481 2.1336
2.5009 -3.8611 2.1336
2.6381 -3.7690 2.1336
2.7719 -3.6721 2.1336
2.9022 -3.5704 2.1336
3.0287 -3.4642 2.1336
3.1514 -3.3534 2.1336
3.2700 -3.2384 2.1336
3.3845 -3.1191 2.1336
3.4945 -2.9958 2.1336
3.6002 -2.8686 2.1336
3.7011 -2.7378 2.1336
3.7974 -2.6033 2.1336
3.8887 -2.4655 2.1336
3.9751 -2.3245 2.1336
4.0563 -2.1805 2.1336
4.1324 -2.0337 2.1336
4.2031 -1.8842 2.1336
4.2684 -1.7322 2.1336
4.3283 -1.5780 2.1336
4.3826 -1.4217 2.1336
4.4312 -1.2636 2.1336
4.4741 -1.1038 2.1336
4.5113 -0.9426 2.1336
4.5426 -0.7801 2.1336
4.5681 -0.6166 2.1336
4.5878 -0.4523 2.1336
4.6015 -0.2873 2.1336
4.6093 -0.1220 2.1336
4.6111 0.0435 2.1336
4.6070 0.2090 2.1336
4.5970 0.3743 2.1336
4.5810 0.5391 2.1336
4.5591 0.7032 2.1336
4.5313 0.8665 2.1336
4.4977 1.0286 2.1336
4.4583 1.1895 2.1336
4.4131 1.3489 2.1336
4.3622 1.5065 2.1336
4.3057 1.6622 2.1336
4.2437 1.8158 2.1336
4.1761 1.9671 2.1336
4.1031 2.1159 2.1336
4.0249 2.2619 2.1336
3.9414 2.4051 2.1336
3.8528 2.5451 2.1336
3.7593 2.6819 2.1336
3.6608 2.8153 2.1336
3.5577 2.9450 2.1336
3.4499 3.0710 2.1336
3.3377 3.1930 2.1336
3.2212 3.3109 2.1336
3.1005 3.4246 2.1336
2.9758 3.5338 2.1336
2.8472 3.6385 2.1336
2.7149 3.7384 2.1336
2.5791 3.8336 2.1336
0.8725 1.4032 0.7630
0.8217 1.4336 0.7630
0.7697 1.4621 0.7629
0.7167 1.4888 0.7629
0.6628 1.5136 0.7629
0.6081 1.5364 0.7629
0.5526 1.5572 0.7629
0.4964 1.5761 0.7629
0.4395 1.5929 0.7629
0.3821 1.6076 0.7628
0.3242 1.6203 0.7628
0.2658 1.6309 0.7628
0.2071 1.6394 0.7628
0.1482 1.6457 0.7628
0.0890 1.6500 0.7629
0.0298 1.6521 0.7629
-0.0295 1.6521 0.7629
-0.0888 1.6500 0.7629
-0.1479 1.6457 0.7629
-0.2069 1.6394 0.7629
-0.2656 1.6309 0.7629
-0.3239 1.6203 0.7629
-0.3818 1.6076 0.7630
-0.4393 1.5929 0.7630
-0.4961 1.5761 0.7630
-0.5524 1.5572 0.7630
-0.6079 1.5364 0.7631
-0.6626 1.5136 0.7631
-0.7165 1.4888 0.7631
-0.7695 1.4621 0.7632
-0.8214 1.4336 0.7632
-0.8723 1.4032 0.7632
-0.9221 1.3709 0.7633
-0.9707 1.3370 0.7633
-2.9828 3.8127 2.2367
-3.1175 3.7029 2.2367
-3.2482 3.5884 2.2367
-3.3746 3.4693 2.2367
-3.4966 3.3457 2.2367
-3.6142 3.2178 2.2367
-3.7270 3.0858 2.2367
-3.8350 2.9498 2.2367
-3.9381 2.8100 2.2367
-4.0361 2.6666 2.2367
-4.1288 2.5199 2.2367
-4.2162 2.3698 2.2367
-4.2982 2.2168 2.2367
-4.3746 2.0609 2.2367
-4.4453 1.9024 2.2367
-4.5103 1.7415 2.2367
-4.5695 1.5783 2.2367
-4.6228 1.4131 2.2367
-4.6701 1.2462 2.2367
-4.7113 1.0776 2.2367
-4.7465 0.9078 2.2367
-4.7756 0.7367 2.2367
-4.7985 0.5648 2.2367
-4.8152 0.3921 2.2367
-4.8258 0.2190 2.2367
-4.8301 0.0456 2.2367
-4.8281 -0.1278 2.2367
-4.8200 -0.3010 2.2367
-4.8056 -0.4738 2.2367
-4.7851 -0.6460 2.2367
-4.7583 -0.8173 2.2367
-4.7255 -0.9875 2.2367
-4.6866 -1.1564 2.2367
-4.6417 -1.3238 2.2367
-4.5907 -1.4895 2.2367
-4.5339 -1.6532 2.2367
-4.4713 -1.8148 2.2367
-4.4029 -1.9740 2.2367
-4.3288 -2.1307 2.2367
-4.2492 -2.2845 2.2367
-4.1641 -2.4355 2.2367
-4.0737 -2.5832 2.2367
-3.9780 -2.7276 2.2367
-3.8772 -2.8685 2.2367
-3.7715 -3.0057 2.2367
-3.6609 -3.1390 2.2367
-3.5456 -3.2682 2.2367
-3.4258 -3.3932 2.2367
-3.3015 -3.5139 2.2367
-3.1730 -3.6300 2.2367
-3.0405 -3.7414 2.2367
-2.9040 -3.8480 2.2367
-2.7638 -3.9496 2.2367
-2.6201 -4.0462 2.2367
-2.4730 -4.1375 2.2367
-2.3228 -4.2235 2.2367
-2.1695 -4.3040 2.2367
-2.0135 -4.3791 2.2367
-1.8549 -4.4484 2.2367
-1.6939 -4.5121 2.2367
-1.5308 -4.5699 2.2367
-1.3656 -4.6219 2.2367
-1.1987 -4.6679 2.2367
-1.0303 -4.7079 2.2367
-0.8606 -4.7418 2.2367
-0.6897 -4.7697 2.2367
-0.5180 -4.7914 2.2367
-0.3456 -4.8069 2.2367
-0.1727 -4.8163 2.2367
0.0003 -4.5483 2.2367
0.1637 -4.5454 2.2367
0.3268 -4.5367 2.2367
0.4896 -4.5222 2.2367
0.6517 -4.5018 2.2367
0.8129 -4.4756 2.2367
0.9732 -4.4436 2.2367
1.1322 -4.4060 2.2367
1.2897 -4.3626 2.2367
1.4456 -4.3137 2.2367
1.5997 -4.2592 2.2367
1.7517 -4.1992 2.2367
1.9014 -4.1338 2.2367
2.0488 -4.0630 2.2367
2.1543 -3.9158 2.1968
2.2277 -3.7259 2.1336
2.3602 -3.6437 2.1336
2.4897 -3.5568 2.1336
2.6160 -3.4654 2.1336
2.7389 -3.3694 2.1336
2.8583 -3.2691 2.1336
2.9741 -3.1646 2.1336
3.0860 -3.0560 2.1336
3.1940 -2.9434 2.1336
3.2979 -2.8271 2.1336
3.3975 -2.7071 2.1336
3.4928 -2.5835 2.1336
3.5836 -2.4567 2.1336
3.6698 -2.3266 2.1336
3.7513 -2.1935 2.1336
3.8280 -2.0576 2.1336
3.8997 -1.9190 2.1336
3.9664 -1.7779 2.1336
4.0281 -1.6345 2.1336
4.0845 -1.4890 2.1336
4.1357 -1.3415 2.1336
4.1816 -1.1923 2.1336
4.2221 -1.0415 2.1336
4.2571 -0.8894 2.1336
4.2867 -0.7361 2.1336
4.3108 -0.5818 2.1336
4.3293 -0.4267 2.1336
4.3422 -0.2710 2.1336
4.3495 -0.1150 2.1336
4.3512 0.0412 2.1336
4.3474 0.1974 2.1336
4.3379 0.3533 2.1336
4.3228 0.5088 2.1336
4.3021 0.6637 2.1336
4.2759 0.8177 2.1336
4.2441 0.9708 2.1336
4.2069 1.1225 2.1336
4.1643 1.2729 2.1336
4.1162 1.4217 2.1336
4.0629 1.5686 2.1336
4.0043 1.7135 2.1336
3.9405 1.8563 2.1336
3.8717 1.9966 2.1336
3.7978 2.1344 2.1336
3.7190 2.2695 2.1336
3.6355 2.4017 2.1336
3.5472 2.5307 2.1336
3.4543 2.6566 2.1336
3.3570 2.7790 2.1336
3.2553 2.8978 2.1336
3.1494 3.0129 2.1336
3.0394 3.1242 2.1336
2.9255 3.2314 2.1336
2.8078 3.3344 2.1336
2.6865 3.4332 2.1336
0.9162 1.2617 0.7631
0.8704 1.2937 0.7631
0.8234 1.3241 0.7631
0.7754 1.3528 0.7630
0.7263 1.3798 0.7630
0.6764 1.4050 0.7630
0.6255 1.4284 0.7630
0.5739 1.4499 0.7630
0.5215 1.4695 0.7630
0.4684 1.4873 0.7630
0.4147 1.5032 0.7629
0.3606 1.5171 0.7629
0.3059 1.5290 0.7629
0.2508 1.5390 0.7629
0.1955 1.5470 0.7629
0.1398 1.5530 0.7629
0.0840 1.5571 0.7629
0.0281 1.5591 0.7630
-0.0279 1.5591 0.7630
-0.0838 1.5571 0.7630
-0.1396 1.5530 0.7630
-0.1952 1.5470 0.7630
-0.2506 1.5390 0.7630
-0.3057 1.5290 0.7630
-0.3603 1.5171 0.7631
-0.4145 1.5032 0.7631
-0.4682 1.4873 0.7631
-0.5212 1.4695 0.7631
-0.5736 1.4499 0.7632
-0.6253 1.4284 0.7632
-0.6761 1.4050 0.7632
-0.7261 1.3798 0.7632
-0.7751 1.3528 0.7633
-0.8232 1.3241 0.7633
-0.8701 1.2937 0.7634
-0.9160 1.2617 0.7634
-0.9607 1.2280 0.7634
-2.9416 3.4941 2.2367
-3.0649 3.3861 2.2367
-3.1842 3.2737 2.2367
-3.2994 3.1571 2.2367
-3.4103 3.0364 2.2367
-3.5168 2.9119 2.2367
-3.6187 2.7835 2.2367
-3.7160 2.6517 2.2367
-3.8084 2.5164 2.2367
-3.8960 2.3779 2.2367
-3.9785 2.2363 2.2367
-4.0558 2.0919 2.2367
-4.1279 1.9449 2.2367
-4.1947 1.7953 2.2367
-4.2561 1.6434 2.2367
-4.3119 1.4895 2.2367
-4.3622 1.3336 2.2367
-4.4069 1.1761 2.2367
-4.4458 1.0170 2.2367
-4.4790 0.8567 2.2367
-4.5065 0.6953 2.2367
-4.5281 0.5331 2.2367
-4.5439 0.3701 2.2367
-4.5539 0.2068 2.2367
-4.5580 0.0431 2.2367
-4.5562 -0.1205 2.2367
-4.5485 -0.2840 2.2367
-4.5350 -0.4470 2.2367
-4.5156 -0.6095 2.2367
-4.4904 -0.7711 2.2367
-4.4594 -0.9318 2.2367
-4.4227 -1.0912 2.2367
-4.3803 -1.2492 2.2367
-4.3323 -1.4055 2.2367
-4.2787 -1.5600 2.2367
-4.2196 -1.7125 2.2367
-4.1550 -1.8628 2.2367
-4.0852 -2.0106 2.2367
-4.0100 -2.1558 2.2367
-3.9298 -2.2983 2.2367
-3.8444 -2.4377 2.2367
-3.7542 -2.5740 2.2367
-3.6591 -2.7070 2.2367
-3.5593 -2.8365 2.2367
-3.4549 -2.9623 2.2367
-3.3461 -3.0842 2.2367
-3.2330 -3.2022 2.2367
-3.1158 -3.3161 2.2367
-2.9945 -3.4257 2.2367
-2.8694 -3.5308 2.2367
-2.7407 -3.6314 2.2367
-2.6084 -3.7274 2.2367
-2.4727 -3.8185 2.2367
-2.3339 -3.9047 2.2367
-2.1921 -3.9859 2.2367
-2.0475 -4.0619 2.2367
-1.9003 -4.1327 2.2367
-1.7506 -4.1982 2.2367
-1.5986 -4.2582 2.2367
-1.4447 -4.3128 2.2367
-1.2888 -4.3619 2.2367
-1.1313 -4.4053 2.2367
-0.9724 -4.4431 2.2367
-0.8122 -4.4751 2.2367
-0.6509 -4.5014 2.2367
-0.4889 -4.5218 2.2367
-0.3261 -4.5365 2.2367
-0.1630 -4.5453 2.2367
0.0003 -4.3009 2.2367
0.1548 -4.2982 2.2367
0.3091 -4.2900 2.2367
0.4630 -4.2762 2.2367
0.6163 -4.2569 2.2367
0.7688 -4.2321 2.2367
0.9203 -4.2019 2.2367
1.0706 -4.1663 2.2367
1.2196 -4.1253 2.2367
1.3670 -4.0790 2.2367
1.5127 -4.0275 2.2367
0.9047 -2.1687 1.2216
1.7981 -3.9089 2.2367
1.9374 -3.8419 2.2367
2.0742 -3.7701 2.2367
2.1541 -3.6027 2.1818
2.2319 -3.4454 2.1336
2.3543 -3.3633 2.1336
2.4737 -3.2768 2.1336
2.5899 -3.1860 2.1336
2.7029 -3.0912 2.1336
2.8123 -2.9923 2.1336
2.9182 -2.8896 2.1336
3.0202 -2.7832 2.1336
3.1185 -2.6731 2.1336
3.2127 -2.5596 2.1336
3.3028 -2.4428 2.1336
3.3886 -2.3228 2.1336
3.4701 -2.1999 2.1336
3.5471 -2.0740 2.1336
3.6196 -1.9455 2.1336
3.6875 -1.8144 2.1336
3.7505 -1.6810 2.1336
3.8088 -1.5454 2.1336
3.8622 -1.4078 2.1336
3.9105 -1.2684 2.1336
3.9539 -1.1273 2.1336
3.9922 -0.9847 2.1336
4.0253 -0.8408 2.1336
4.0533 -0.6959 2.1336
4.0760 -0.5500 2.1336
4.0935 -0.4033 2.1336
4.1057 -0.2562 2.1336
4.1126 -0.1086 2.1336
4.1142 0.0391 2.1336
4.1105 0.1867 2.1336
4.1015 0.3342 2.1336
4.0872 0.4812 2.1336
4.0677 0.6276 2.1336
4.0428 0.7733 2.1336
4.0128 0.9180 2.1336
3.9776 1.0615 2.1336
3.9373 1.2036 2.1336
3.8919 1.3443 2.1336
3.8414 1.4832 2.1336
3.7860 1.6202 2.1336
3.7257 1.7552 2.1336
3.6606 1.8879 2.1336
3.5907 2.0182 2.1336
3.5162 2.1458 2.1336
3.4372 2.2708 2.1336
3.3537 2.3928 2.1336
3.2659 2.5118 2.1336
3.1739 2.6275 2.1336
3.0777 2.7399 2.1336
2.9776 2.8487 2.1336
2.8736 2.9539 2.1336
2.7659 3.0552 2.1336
2.6546 3.1526 2.1336
0.9086 1.1611 0.7632
0.8663 1.1930 0.7632
0.8230 1.2233 0.7632
0.7786 1.2521 0.7631
0.7331 1.2792 0.7631
0.6868 1.3047 0.7631
0.6395 1.3285 0.7631
0.5914 1.3506 0.7631
0.5426 1.3709 0.7631
0.4931 1.3895 0.7630
0.4429 1.4063 0.7630
0.3922 1.4213 0.7630
0.3409 1.4345 0.7630
0.2892 1.4458 0.7630
0.2372 1.4552 0.7630
0.1848 1.4628 0.7630
0.1322 1.4685 0.7630
0.0794 1.4723 0.7630
0.0266 1.4742 0.7630
-0.0263 1.4742 0.7630
-0.0792 1.4723 0.7631
-0.1320 1.4685 0.7631
-0.1846 1.4628 0.7631
-0.2369 1.4552 0.7631
-0.2890 1.4458 0.7631
-0.3407 1.4345 0.7631
-0.3919 1.4213 0.7632
-0.4427 1.4063 0.7632
-0.4928 1.3895 0.7632
-0.5424 1.3710 0.7632
-0.5912 1.3506 0.7633
-0.6393 1.3285 0.7633
-0.6865 1.3047 0.7633
-0.7329 1.2792 0.7633
-0.7783 1.2521 0.7634
-0.8227 1.2233 0.7634
-0.8661 1.1930 0.7635
-0.9083 1.1611 0.7635
-0.9494 1.1278 0.7635
-2.8977 3.2016 2.2367
-3.0105 3.0953 2.2367
-3.1194 2.9851 2.2367
-3.2243 2.8710 2.2367
-3.3250 2.7532 2.2367
-3.4214 2.6319 2.2367
-3.5134 2.5072 2.2367
-3.6008 2.3793 2.2367
-3.6836 2.2484 2.2367
-3.7616 2.1146 2.2367
-3.8348 1.9780 2.2367
-3.9029 1.8390 2.2367
-3.9661 1.6976 2.2367
-4.0241 1.5540 2.2367
-4.0770 1.4084 2.2367
-4.1245 1.2611 2.2367
-4.1668 1.1121 2.2367
-4.2036 0.9618 2.2367
-4.2351 0.8102 2.2367
-4.2610 0.6576 2.2367
-4.2815 0.5042 2.2367
-4.2965 0.3501 2.2367
-4.3059 0.1956 2.2367
-4.3098 0.0409 2.2367
-4.3081 -0.1138 2.2367
-4.3008 -0.2684 2.2367
-4.2881 -0.4226 2.2367
-4.2698 -0.5762 2.2367
-4.2460 -0.7290 2.2367
-4.2167 -0.8809 2.2367
-4.1820 -1.0317 2.2367
-4.1419 -1.1811 2.2367
-4.0965 -1.3289 2.2367
-4.0458 -1.4750 2.2367
-3.9900 -1.6192 2.2367
-3.9290 -1.7613 2.2367
-3.8629 -1.9011 2.2367
-3.7919 -2.0384 2.2367
-3.7160 -2.1731 2.2367
-3.6353 -2.3050 2.2367
-3.5499 -2.4339 2.2367
-3.4600 -2.5596 2.2367
-3.3657 -2.6821 2.2367
-3.2670 -2.8011 2.2367
-3.1641 -2.9164 2.2367
-3.0572 -3.0280 2.2367
-2.9463 -3.1357 2.2367
-2.8317 -3.2393 2.2367
-2.7134 -3.3387 2.2367
-2.5916 -3.4339 2.2367
-2.4665 -3.5246 2.2367
-2.3383 -3.6108 2.2367
-2.2070 -3.6923 2.2367
-2.0729 -3.7690 2.2367
-1.9362 -3.8409 2.2367
-1.7969 -3.9079 2.2367
-0.9044 -2.1689 1.2220
-1.5117 -4.0266 2.2367
-1.3661 -4.0783 2.2367
-1.2187 -4.1246 2.2367
-1.0698 -4.1657 2.2367
-0.9195 -4.2014 2.2367
-0.7680 -4.2317 2.2367
-0.6155 -4.2565 2.2367
-0.4623 -4.2759 2.2367
-0.3084 -4.2898 2.2367
-0.1541 -4.2981 2.2367
0.0003 -4.0741 2.2367
0.1467 -4.0715 2.2367
0.2928 -4.0637 2.2367
0.4386 -4.0506 2.2367
0.5838 -4.0324 2.2367
0.3979 -2.1903 1.2221
0.4762 -2.1743 1.2218
0.5539 -2.1553 1.2215
0.6308 -2.1335 1.2212
0.7068 -2.1089 1.2208
0.7819 -2.0815 1.2204
0.8558 -2.0515 1.2199
1.7033 -3.7026 2.2367
1.8352 -3.6392 2.2367
1.9648 -3.5712 2.2367
2.0919 -3.4985 2.2367
2.1552 -3.3269 2.1750
2.2302 -3.1858 2.1336
2.3453 -3.1065 2.1355
2.4534 -3.0179 2.1336
0.9185 -1.0504 0.7654
2.6640 -2.8344 2.1336
2.7642 -2.7371 2.1336
2.8609 -2.6362 2.1336
2.9540 -2.5320 2.1336
3.0432 -2.4245 2.1336
3.1285 -2.3138 2.1336
3.2098 -2.2002 2.1336
3.2870 -2.0837 2.1336
3.3600 -1.9645 2.1336
3.4286 -1.8427 2.1336
3.4928 -1.7186 2.1336
3.5526 -1.5922 2.1336
3.6077 -1.4637 2.1336
3.6583 -1.3334 2.1336
3.7041 -1.2013 2.1336
3.7452 -1.0676 2.1336
3.7814 -0.9326 2.1336
3.8128 -0.7963 2.1336
3.8392 -0.6590 2.1336
3.8607 -0.5208 2.1336
3.8773 -0.3819 2.1336
3.8888 -0.2425 2.1336
3.8954 -0.1028 2.1336
3.8969 0.0371 2.1336
3.8934 0.1770 2.1336
3.8848 0.3166 2.1336
3.8713 0.4559 2.1336
3.8527 0.5946 2.1336
3.8292 0.7325 2.1336
3.8008 0.8696 2.1336
3.7674 1.0055 2.1336
3.7292 1.1401 2.1336
3.6862 1.2733 2.1336
3.6384 1.4049 2.1336
3.5859 1.5347 2.1336
3.5287 1.6625 2.1336
3.4671 1.7882 2.1336
3.4009 1.9116 2.1336
3.3303 2.0325 2.1336
3.2555 2.1508 2.1336
3.1764 2.2664 2.1336
3.0932 2.3791 2.1336
3.0060 2.4887 2.1336
2.9150 2.5951 2.1336
2.8201 2.6981 2.1336
2.7216 2.7977 2.1336
2.6196 2.8937 2.1336
0.8995 1.0683 0.7633
0.8606 1.0998 0.7633
0.8206 1.1300 0.7633
0.7795 1.1588 0.7632
0.7374 1.1860 0.7632
0.6944 1.2117 0.7632
0.6505 1.2358 0.7632
0.6058 1.2584 0.7632
0.5602 1.2793 0.7631
0.5140 1.2986 0.7631
0.4670 1.3162 0.7631
0.4195 1.3321 0.7631
0.3715 1.3463 0.7631
0.3229 1.3588 0.7631
0.2740 1.3695 0.7631
0.2247 1.3784 0.7631
0.1751 1.3856 0.7631
0.1252 1.3910 0.7631
0.0753 1.3946 0.7631
0.0252 1.3964 0.7631
-0.0249 1.3964 0.7631
-0.0750 1.3946 0.7631
-0.1250 1.3910 0.7631
-0.1748 1.3856 0.7632
-0.2244 1.3784 0.7632
-0.2737 1.3695 0.7632
-0.3227 1.3588 0.7632
-0.3712 1.3463 0.7632
-0.4193 1.3321 0.7632
-0.4668 1.3162 0.7633
-0.5137 1.2986 0.7633
-0.5600 1.2793 0.7633
-0.6055 1.2584 0.7633
-0.6503 1.2358 0.7634
-0.6942 1.2117 0.7634
-0.7372 1.1860 0.7634
-0.7793 1.1588 0.7635
-0.8203 1.1300 0.7635
-0.8604 1.0999 0.7635
-0.8992 1.0683 0.7636
-0.9370 1.0353 0.7636
-0.9735 1.0010 0.7637
-2.9545 2.8274 2.2367
-3.0539 2.7193 2.2367
-3.1492 2.6078 2.2367
-3.2406 2.4929 2.2367
-3.3277 2.3748 2.2367
-3.4105 2.2537 2.2367
-3.4889 2.1297 2.2367
-3.5628 2.0030 2.2367
-3.6321 1.8736 2.2367
-3.6967 1.7419 2.2367
-3.7565 1.6080 2.2367
-3.8115 1.4720 2.2367
-3.8616 1.3342 2.2367
-3.9066 1.1946 2.2367
-3.9466 1.0535 2.2367
-3.9816 0.9111 2.2367
-4.0114 0.7675 2.2367
-4.0360 0.6230 2.2367
-4.0554 0.4777 2.2367
-4.0696 0.3317 2.2367
-4.0785 0.1854 2.2367
-4.0822 0.0389 2.2367
-4.0806 -0.1077 2.2367
-4.0738 -0.2541 2.2367
-4.0617 -0.4001 2.2367
-4.0444 -0.5457 2.2367
-4.0218 -0.6905 2.2367
-3.9941 -0.8343 2.2367
-3.9613 -0.9771 2.2367
-3.9233 -1.1186 2.2367
-3.8803 -1.2587 2.2367
-3.8324 -1.3971 2.2367
-3.7794 -1.5337 2.2367
-3.7217 -1.6683 2.2367
-3.6591 -1.8007 2.2367
-3.5918 -1.9308 2.2367
-3.5199 -2.0584 2.2367
-3.4435 -2.1833 2.2367
-3.3627 -2.3054 2.2367
-3.2775 -2.4245 2.2367
-3.1882 -2.5405 2.2367
-3.0947 -2.6532 2.2367
-2.9973 -2.7625 2.2367
-2.8960 -2.8682 2.2367
-0.9554 -1.0168 0.7657
-0.9183 -1.0504 0.7657
-2.5703 -3.1626 2.2367
-2.4550 -3.2527 2.2367
-2.3365 -3.3386 2.2367
-2.2150 -3.4203 2.2367
-2.0907 -3.4975 2.2367
-1.9636 -3.5702 2.2367
-1.8341 -3.6383 2.2367
-0.9283 -2.0189 1.2198
-0.8555 -2.0516 1.2203
-0.7815 -2.0817 1.2207
-0.7065 -2.1091 1.2211
-0.6304 -2.1336 1.2214
-0.5536 -2.1554 1.2217
-0.4759 -2.1743 1.2220
-0.3975 -2.1904 1.2222
-0.5831 -4.0321 2.2367
-0.4379 -4.0504 2.2367
-0.2921 -4.0635 2.2367
-0.1460 -4.0714 2.2367
0.0002 -2.1099 1.2210
0.0760 -2.1085 1.2209
0.1516 -2.1043 1.2209
0.2271 -2.0974 1.2207
0.3023 -2.0876 1.2206
0.3770 -2.0751 1.2204
0.4512 -2.0599 1.2201
0.5248 -2.0420 1.2199
0.5977 -2.0214 1.2196
0.6697 -1.9981 1.2192
0.7408 -1.9722 1.2188
0.8109 -1.9437 1.2184
0.8799 -1.9127 1.2179
1.7411 -3.4525 2.2367
1.8641 -3.3879 2.2367
1.9847 -3.3190 2.2367
2.1027 -3.2457 2.2367
2.1551 -3.0784 2.1733
0.7976 -1.0564 0.7654
0.8350 -1.0271 0.7654
0.8713 -0.9964 0.7654
0.9066 -0.9645 0.7653
2.6224 -2.5966 2.1336
2.7142 -2.5009 2.1336
2.8024 -2.4020 2.1336
2.8871 -2.3000 2.1336
2.9680 -2.1950 2.1336
3.0451 -2.0872 2.1336
3.1184 -1.9766 2.1336
3.1876 -1.8635 2.1336
3.2527 -1.7480 2.1336
3.3136 -1.6303 2.1336
3.3703 -1.5104 2.1336
3.4226 -1.3885 2.1336
3.4705 -1.2648 2.1336
3.5140 -1.1395 2.1336
3.5529 -1.0127 2.1336
3.5873 -0.8846 2.1336
3.6170 -0.7553 2.1336
3.6421 -0.6250 2.1336
3.6625 -0.4939 2.1336
3.6782 -0.3622 2.1336
3.6891 -0.2299 2.1336
3.6953 -0.0974 2.1336
3.6967 0.0353 2.1336
3.6934 0.1680 2.1336
3.6853 0.3005 2.1336
3.6724 0.4326 2.1336
3.6548 0.5642 2.1336
3.6325 0.6950 2.1336
3.6055 0.8250 2.1336
3.5739 0.9539 2.1336
3.5376 1.0817 2.1336
3.4968 1.2080 2.1336
3.4514 1.3328 2.1336
3.4016 1.4559 2.1336
3.3474 1.5771 2.1336
3.2889 1.6964 2.1336
3.2261 1.8134 2.1336
3.1592 1.9281 2.1336
3.0881 2.0404 2.1336
3.0131 2.1500 2.1336
2.9342 2.2569 2.1336
2.8515 2.3608 2.1336
2.7651 2.4618 2.1336
2.6751 2.5595 2.1336
2.5817 2.6540 2.1336
0.8891 0.9822 0.7634
0.8533 1.0134 0.7634
0.8164 1.0434 0.7633
0.7784 1.0720 0.7633
0.7395 1.0993 0.7633
0.6996 1.1251 0.7633
0.6588 1.1495 0.7633
0.6171 1.1724 0.7632
0.5746 1.1938 0.7632
0.5315 1.2137 0.7632
0.4876 1.2319 0.7632
0.4431 1.2487 0.7632
0.3980 1.2638 0.7632
0.3524 1.2772 0.7632
0.3064 1.2890 0.7632
0.2599 1.2992 0.7632
0.2131 1.3077 0.7632
0.1661 1.3145 0.7632
0.1188 1.3196 0.7632
0.0714 1.3230 0.7632
0.0239 1.3247 0.7632
-0.0237 1.3247 0.7632
-0.0712 1.3230 0.7632
-0.1186 1.3196 0.7632
-0.1658 1.3145 0.7632
-0.2129 1.3077 0.7632
-0.2597 1.2992 0.7633
-0.3061 1.2890 0.7633
-0.3522 1.2772 0.7633
-0.3978 1.2638 0.7633
-0.4428 1.2486 0.7633
-0.4873 1.2319 0.7634
-0.5312 1.2137 0.7634
-0.5744 1.1938 0.7634
-0.6169 1.1724 0.7634
-0.6585 1.1495 0.7635
-0.6994 1.1251 0.7635
-0.7393 1.0993 0.7635
-0.7782 1.0720 0.7636
-0.8162 1.0434 0.7636
-0.8531 1.0134 0.7636
-0.8889 0.9822 0.7637
-0.9235 0.9496 0.7637
-0.9570 0.9159 0.7637
-2.8969 2.5797 2.2367
-2.9874 2.4739 2.2367
-3.0740 2.3649 2.2367
-3.1567 2.2529 2.2367
-3.2352 2.1380 2.2367
-3.3096 2.0204 2.2367
-3.3797 1.9002 2.2367
-3.4455 1.7775 2.2367
-3.5068 1.6526 2.2367
-3.5635 1.5255 2.2367
-3.6157 1.3965 2.2367
-3.6632 1.2657 2.2367
-3.7060 1.1333 2.2367
-3.7439 0.9995 2.2367
-3.7771 0.8644 2.2367
