ply
format ascii 1.0
element vertex 2088
property float32 x
property float32 y
property float32 z
end_header
-28.2691 -3.8293 -0.4791
-20.9596 -3.6096 -0.3572
-18.9873 -3.9766 -0.3258
-86.9132 -21.4859 -1.5035
-27.8761 -7.9633 -0.4868
-24.4964 -7.9594 -0.4325
-23.8481 -8.7069 -0.4263
-19.5735 -7.9536 -0.3547
-6.4324 -2.8870 -0.1184
-27.9247 -13.7580 -0.5227
-28.2194 -15.1855 -0.5381
-23.8421 -13.9561 -0.4639
-7.8339 -4.9715 -0.1558
-20.4477 -14.0308 -0.4164
-25.7530 -19.0661 -0.5381
-25.0509 -19.9774 -0.5381
-20.4437 -17.5400 -0.4524
-18.9717 -17.4978 -0.4335
-21.1994 -21.0099 -0.5013
-21.9283 -23.3513 -0.5381
-21.0742 -24.1213 -0.5381
-20.1932 -24.8603 -0.5381
-19.1248 -25.3531 -0.5336
-22.2090 -31.7513 -0.6511
-20.5509 -31.7494 -0.6356
-20.4244 -34.1847 -0.6693
-19.4691 -35.4140 -0.6793
-18.9485 -37.6047 -0.7079
-18.9443 -41.2148 -0.7627
-19.6936 -47.2442 -0.8607
-27.5385 -73.3759 -1.3181
-24.5705 -73.3724 -1.3016
-20.5645 -69.6155 -1.2212
-7.3478 -28.6177 -0.4972
-10.3319 -47.2164 -0.8134
-14.5540 -80.1984 -1.3720
-10.1373 -70.1001 -1.1924
-8.6713 -80.1922 -1.3582
6.2891 -87.4307 0.4968
2.6095 -18.0450 0.1032
27.3637 -92.6323 0.5454
24.5285 -73.2472 0.4359
6.1698 -16.4394 0.0990
6.6491 -15.9510 0.0974
7.1140 -15.4772 0.0959
7.9720 -15.8211 0.0997
8.4974 -15.4566 0.0992
9.6313 -16.1200 0.1056
10.2119 -15.7766 0.1056
10.4390 -14.9243 0.1022
12.0097 -15.9208 0.1119
9.7834 -12.0446 0.0870
9.1857 -10.5139 0.0782
10.4247 -11.1012 0.0853
11.6828 -11.5784 0.0921
12.0962 -11.1565 0.0920
12.5106 -10.7337 0.0921
16.5442 -13.1936 0.1182
17.8449 -13.2114 0.1240
16.9451 -11.6274 0.1147
20.7559 -13.1721 0.1371
22.2077 -12.9994 0.1434
20.2948 -10.9211 0.1284
21.5823 -10.6332 0.1340
21.0008 -9.4255 0.1281
21.6267 -8.7880 0.1298
36.9949 -13.5067 0.2190
39.4091 -12.8047 0.2303
45.7283 -13.0630 0.2642
46.4538 -11.4839 0.2657
50.9518 -10.6709 0.2889
12.8985 -2.2213 0.0726
51.8562 -7.0244 0.2902
49.9400 -4.9469 0.2782
49.2470 -3.0983 0.2735
49.1197 -1.3230 0.2722
42.6582 0.3829 0.2363
21.2256 0.9533 0.1176
20.6990 1.6758 0.1150
35.0860 4.1128 0.1955
35.7331 5.4953 0.2001
37.5268 7.1586 0.2114
40.2136 9.1785 0.2282
90.3693 31.1671 0.5286
86.9360 33.5209 0.5152
46.1571 19.7285 0.2775
73.8619 34.7568 0.4513
64.1236 33.0359 0.3988
60.4635 33.9503 0.3834
51.4238 31.3541 0.3330
43.6341 28.8027 0.2891
49.8285 35.5236 0.3384
50.5377 38.8390 0.3525
51.4816 42.5893 0.3696
47.7933 42.5182 0.3539
46.1770 44.1497 0.3535
45.3092 46.5460 0.3595
45.5442 50.2786 0.3756
49.1834 58.3777 0.4227
48.1060 61.4465 0.4323
47.1963 64.9602 0.4449
28.4964 42.3387 0.2829
30.7521 49.4326 0.3228
24.8189 43.2860 0.2768
24.5191 46.5609 0.2920
32.4767 67.4387 0.4155
20.4709 46.7290 0.2833
27.4629 69.3634 0.4145
24.9704 70.3469 0.4149
22.3399 70.9147 0.4134
13.8089 50.0354 0.2888
3.1313 13.1731 0.0754
10.0024 49.9923 0.2839
8.1478 49.9902 0.2822
6.3150 49.9881 0.2809
4.5023 50.0246 0.2802
3.7748 70.0225 0.3914
1.3117 73.0551 0.4080
-1.2252 68.2444 0.3814
-3.6163 67.0827 0.3756
-6.2976 69.9733 0.3930
-8.8266 69.8701 0.3942
-12.3594 75.8299 0.4303
-14.7526 73.7342 0.4214
-16.5728 69.7195 0.4019
-18.7327 67.8765 0.3951
-9.2227 29.2760 0.1724
-19.9159 56.1076 0.3345
-22.6664 57.2489 0.3462
-22.9229 52.3262 0.3214
-25.5325 53.0190 0.3313
-30.8723 58.6256 0.3733
-32.7596 57.1355 0.3713
-33.8481 54.4096 0.3614
-33.6155 49.9444 0.3398
-20.5587 28.2966 0.1975
-19.2077 24.5343 0.1761
-20.6688 24.5326 0.1814
-19.0161 20.9929 0.1603
-20.4882 21.0475 0.1663
-55.4857 53.0499 0.4349
-19.0114 16.9131 0.1442
-8.1397 6.7337 0.0599
-28.2986 21.7479 0.2026
-23.8778 17.0229 0.1665
-31.7404 20.9517 0.2161
-27.5511 16.7984 0.1834
-86.1278 33.2093 0.5261
-86.1255 29.7035 0.5195
-92.2108 28.1415 0.5500
-90.3048 24.0525 0.5333
-91.4807 20.8799 0.5357
-92.7126 17.6859 0.5391
-20.4676 3.1477 0.1183
-27.5355 3.2277 0.1585
-37.8009 3.0604 0.2168
-23.8584 0.2142 0.1365
-18.9913 -0.5115 0.1087
-28.2714 -1.7787 0.1621
-28.2702 -2.8004 0.1626
-28.2691 -3.8293 0.1634
-20.9597 -3.6096 0.1218
-18.9873 -3.9765 0.1111
-86.8979 -21.4821 0.5128
-27.8762 -7.9633 0.1661
-24.4964 -7.9594 0.1476
-23.8481 -8.7069 0.1455
-19.5735 -7.9536 0.1211
-6.4317 -2.8867 0.0404
-27.9247 -13.7580 0.1784
-6.1635 -3.3167 0.0401
-23.8421 -13.9561 0.1583
-7.8327 -4.9708 0.0532
-20.4477 -14.0308 0.1421
-28.2493 -20.9143 0.2014
-54.9285 -43.8040 0.4025
-20.4437 -17.5400 0.1543
-18.9717 -17.4979 0.1478
-21.1993 -21.0099 0.1709
-23.8288 -25.3751 0.1993
-27.7459 -31.7578 0.2414
-20.5948 -25.3548 0.1869
-19.1248 -25.3531 0.1817
-24.3063 -34.7499 0.2425
-20.5509 -31.7494 0.2162
-21.1601 -35.4160 0.2358
-19.4690 -35.4140 0.2309
-36.3497 -72.1389 0.4613
-33.8917 -73.7344 0.4632
-30.5878 -73.3794 0.4536
-27.7893 -74.0445 0.4511
-24.7942 -74.0410 0.4451
-11.2368 -38.0395 0.2260
-9.7664 -38.0377 0.2237
-16.4030 -74.9616 0.4368
-14.5554 -80.2069 0.4638
-11.5983 -80.2035 0.4609
-8.7458 -80.8822 0.4624
0.0002 -79.2937 2.2363
2.7154 -75.5928 2.1330
5.4278 -75.4555 2.1330
8.1463 -75.3359 2.1363
2.6092 -18.0428 0.5139
13.5337 -74.5756 2.1363
16.2039 -74.0508 2.1363
18.8540 -73.4307 2.1363
21.4805 -72.7159 2.1363
24.0799 -71.9071 2.1363
6.2109 -16.5488 0.4979
6.6927 -16.0554 0.4899
7.1600 -15.5771 0.4828
8.0410 -15.9579 0.5031
8.3075 -15.1111 0.4855
9.7365 -16.2960 0.5344
10.3236 -15.9490 0.5347
11.3744 -16.2614 0.5585
12.9188 -17.1260 0.6036
9.9222 -12.2154 0.4428
9.2341 -10.5693 0.3948
10.4847 -11.1650 0.4308
11.8103 -11.7047 0.4676
12.2283 -11.2783 0.4678
12.6475 -10.8511 0.4686
16.6446 -13.2735 0.5985
18.0064 -13.3309 0.6298
17.2190 -11.8153 0.5870
18.1642 -11.5273 0.6046
20.0532 -11.7382 0.6530
20.0578 -10.7935 0.6400
21.8886 -10.7840 0.6856
21.2454 -9.5353 0.6542
21.8822 -8.8917 0.6635
35.5743 -12.9881 1.0637
39.8694 -12.9542 1.1773
46.0521 -13.1554 1.3450
46.7982 -11.5689 1.3536
51.6927 -10.8260 1.4829
12.8972 -2.2211 0.3674
32.4417 -4.3945 0.9191
32.4404 -3.2134 0.9151
32.4390 -2.0409 0.9124
32.4376 -0.8736 0.9108
25.3303 0.2274 0.7110
19.9196 0.8946 0.5596
25.9583 2.1016 0.7309
32.4322 3.8018 0.9164
32.4309 4.9875 0.9207
32.4295 6.1863 0.9264
32.4281 7.4015 0.9333
32.4266 8.6368 0.9416
26.5205 8.0937 0.7780
32.4237 11.1825 0.9623
32.4221 12.5014 0.9749
32.4206 13.8572 0.9892
32.4189 15.2552 1.0052
63.3282 32.6261 1.9987
59.2365 33.2613 1.9061
52.0983 31.7653 1.7120
43.5681 28.7591 1.4647
52.3118 37.2940 1.8026
50.6250 38.9061 1.7915
63.3300 52.3911 2.3062
48.1976 42.8778 1.8102
46.3157 44.2822 1.7981
48.0534 49.3650 1.9333
46.0329 50.8180 1.9243
49.3732 58.6029 2.1506
47.2356 60.3346 2.1506
45.0367 61.9876 2.1506
28.4963 42.3384 1.4326
30.7520 49.4324 1.6343
24.8189 43.2860 1.4008
24.5190 46.5604 1.4774
33.2327 69.0084 2.1506
20.4710 46.7290 1.4327
27.5420 69.5630 2.1011
24.9138 70.1871 2.0918
21.8699 69.4222 2.0444
13.8090 50.0354 1.4581
3.1310 13.1714 0.3803
8.3382 41.6738 1.1941
8.1394 49.9380 1.4218
5.1914 41.0936 1.1640
3.6984 41.0918 1.1596
3.7188 68.9816 1.9418
1.2519 69.7189 1.9603
-1.2353 68.8140 1.9350
-3.6386 67.4999 1.9008
-6.2014 68.9052 1.9456
-8.5850 67.9586 1.9265
-10.9813 67.3759 1.9202
-13.5715 67.8317 1.9461
-16.5190 69.4940 2.0098
-18.6070 67.4214 1.9681
-9.2205 29.2694 0.8637
-20.6808 58.2627 1.7401
-21.9345 55.4007 1.6773
-23.3495 53.3003 1.6383
-24.9362 51.7810 1.6183
-26.8726 51.0306 1.6242
-28.9924 50.5655 1.6416
-31.0482 49.9091 1.6557
-33.3355 49.5287 1.6819
-18.6227 25.6321 0.8927
-18.6206 23.7845 0.8512
-18.6186 22.0993 0.8144
-18.6168 20.5522 0.7816
-18.6152 19.1234 0.7523
-18.6136 17.7966 0.7260
-18.6122 16.5580 0.7024
-8.1273 6.7235 0.2974
-21.1135 16.2262 0.7510
-22.7575 16.2243 0.7883
-24.5754 16.2222 0.8307
-26.6020 16.2198 0.8790
-28.8816 16.2172 0.9346
-27.2800 14.0545 0.8660
-27.3663 12.8776 0.8535
-76.0726 32.5152 2.3350
-77.1832 29.7606 2.3350
-27.7767 9.5799 0.8294
-28.5573 8.7153 0.8429
-79.9140 21.2851 2.3350
-80.6200 18.4013 2.3350
-20.1055 3.8354 0.5780
-20.1046 3.0919 0.5745
-20.1038 2.3566 0.5717
-20.1029 1.6276 0.5697
-20.1021 0.9028 0.5684
-18.5933 0.1669 0.5253
-18.5926 -0.5008 0.5254
-18.5918 -1.1697 0.5263
-18.5910 -1.8416 0.5278
-18.5902 -2.5182 0.5300
-18.5894 -3.2014 0.5330
-18.5886 -3.8930 0.5366
-18.5878 -4.5951 0.5410
-18.5870 -5.3097 0.5462
-18.5861 -6.0390 0.5522
-18.5853 -6.7855 0.5591
-18.5844 -7.5517 0.5669
-6.4311 -2.8864 0.1992
-27.2873 -13.4439 0.8596
-6.1629 -3.3164 0.1978
-22.9585 -13.4389 0.7518
-7.8104 -4.9566 0.2614
-20.0851 -13.7820 0.6883
-20.0839 -14.8690 0.7061
-20.0825 -16.0153 0.7258
-19.6069 -16.8221 0.7300
-18.5734 -17.1305 0.7139
-18.5719 -18.4059 0.7388
-18.5703 -19.7754 0.7664
-18.5686 -21.2535 0.7973
-18.5667 -22.8581 0.8319
-18.5647 -24.6107 0.8708
-21.9896 -31.4378 1.0837
-20.3479 -31.4359 1.0577
-20.0623 -33.5787 1.1047
-19.1438 -34.8225 1.1222
-18.5506 -36.8154 1.1641
-18.5465 -40.3497 1.2539
-19.7155 -47.2973 1.4468
-22.1413 -58.9957 1.7790
-24.2552 -72.4316 2.1563
-11.2368 -38.0395 1.1196
-9.7664 -38.0377 1.1084
-10.3391 -47.2503 1.3650
-12.3012 -67.7859 1.9440
-10.1293 -70.0460 1.9969
-8.1285 -75.1745 2.1332
-5.6875 -79.0716 2.2363
-2.8459 -79.2335 2.2363
0.0002 -44.0567 2.2363
1.5818 -44.0311 2.2363
3.0157 -41.9224 2.1331
4.5188 -41.7886 2.1331
2.6090 -18.0406 0.9250
7.5880 -41.8121 2.1563
9.0846 -41.5156 2.1562
10.5698 -41.1656 2.1562
12.0415 -40.7626 2.1562
13.4979 -40.3068 2.1563
14.9371 -39.7992 2.1562
6.7369 -16.1614 0.8881
7.2066 -15.6784 0.8751
7.6636 -15.2089 0.8637
7.9252 -14.4157 0.8342
9.8442 -16.4762 0.9732
9.8345 -15.1933 0.9176
12.0045 -17.1622 1.0618
13.5248 -17.9293 1.1385
10.0652 -12.3914 0.8092
11.3452 -12.9855 0.8740
10.5455 -11.2297 0.7808
11.9409 -11.8341 0.8520
12.3636 -11.4030 0.8523
12.7876 -10.9712 0.8538
16.7463 -13.3546 1.0853
17.2914 -12.8015 1.0901
17.5022 -12.0096 1.0754
18.7653 -11.9087 1.1259
22.1749 -12.9801 1.3016
23.2172 -12.4936 1.3355
24.3526 -11.9980 1.3751
21.4961 -9.6477 1.1934
22.1442 -8.9982 1.2106
14.6518 -5.3493 0.7899
16.4851 -5.3563 0.8778
18.7412 -5.3537 0.9870
21.6430 -5.3503 1.1289
25.5258 -5.3458 1.3205
12.8959 -2.2209 0.6626
32.4417 -4.3945 1.6575
32.4404 -3.2134 1.6504
32.4390 -2.0408 1.6455
32.4376 -0.8736 1.6427
20.1829 0.1812 1.0217
32.4350 1.4567 1.6435
21.3537 1.7288 1.0845
32.4322 3.8018 1.6529
32.4309 4.9875 1.6609
32.4295 6.1863 1.6711
32.4281 7.4016 1.6836
32.4266 8.6368 1.6985
32.4252 9.8957 1.7159
32.4237 11.1825 1.7359
32.4221 12.5014 1.7587
32.4206 13.8572 1.7845
32.4189 15.2552 1.8134
29.8572 15.3822 1.6999
38.5256 21.6322 2.2363
37.7241 23.0011 2.2363
36.8738 24.3402 2.2363
35.9759 25.6478 2.2363
35.0316 26.9223 2.2363
34.0422 28.1621 2.2363
31.9557 28.4285 2.1649
30.4583 29.1210 2.1330
29.3926 30.1949 2.1330
28.2891 31.2296 2.1330
27.1491 32.2241 2.1330
26.1886 33.4510 2.1506
24.9702 34.3685 2.1506
23.7196 35.2414 2.1506
22.4385 36.0687 2.1506
21.1284 36.8495 2.1506
19.7913 37.5826 2.1506
18.4286 38.2672 2.1506
17.0423 38.9023 2.1506
15.6342 39.4871 2.1506
10.2784 28.9560 1.5560
12.7596 40.5029 2.1506
11.1797 40.5082 2.1283
3.1306 13.1697 0.6856
5.7274 28.6253 1.4787
4.6512 28.5361 1.4646
3.5871 28.3938 1.4498
2.5318 28.1297 1.4309
2.1833 40.4978 2.0548
0.7621 42.4384 2.1506
-0.7617 42.4357 2.1506
-2.2843 42.3782 2.1506
-3.8038 42.2661 2.1506
-5.3182 42.0994 2.1506
-6.8255 41.8785 2.1506
-8.3238 41.6037 2.1506
-9.8112 41.2752 2.1506
-11.2857 40.8935 2.1506
-9.2183 29.2627 1.5554
-14.1885 39.9727 2.1506
-15.6131 39.4348 2.1506
-17.0174 38.8462 2.1506
-18.3995 38.2075 2.1506
-19.7578 37.5198 2.1506
-22.5061 39.2530 2.2950
-23.8990 38.4171 2.2950
-25.2608 37.5317 2.2950
-18.6227 25.6323 1.6073
-18.6206 23.7846 1.5325
-18.6186 22.0994 1.4662
-18.6168 20.5523 1.4071
-18.6152 19.1235 1.3543
-18.6136 17.7966 1.3069
-18.6122 16.5581 1.2643
-8.1146 6.7130 0.5345
-21.1135 16.2262 1.3516
-22.7574 16.2243 1.4187
-24.5752 16.2222 1.4949
-26.6018 16.2198 1.5818
-27.1501 15.2450 1.5809
-26.8837 13.8504 1.5355
-26.6179 12.5255 1.4938
-27.2154 11.6326 1.5030
-26.6844 10.2891 1.4524
-26.4683 9.1286 1.4219
-28.0140 8.5496 1.4876
-29.7193 7.9158 1.5621
-41.9389 9.5724 2.1850
-20.1055 3.8354 1.0397
-20.1046 3.0919 1.0333
-20.1038 2.3566 1.0283
-20.1029 1.6276 1.0246
-20.1021 0.9028 1.0223
-18.5933 0.1669 0.9447
-18.5926 -0.5007 0.9450
-18.5918 -1.1697 0.9465
-18.5910 -1.8416 0.9492
-18.5902 -2.5182 0.9532
-18.5894 -3.2014 0.9585
-18.5886 -3.8930 0.9650
-18.5878 -4.5951 0.9729
-18.5870 -5.3097 0.9823
-18.5861 -6.0390 0.9931
-18.5853 -6.7855 1.0054
-18.5844 -7.5517 1.0194
-6.4304 -2.8861 0.3582
-27.2873 -13.4439 1.5458
-6.1624 -3.3161 0.3556
-22.9585 -13.4389 1.3518
-7.8104 -4.9567 0.4701
-20.0851 -13.7820 1.2378
-20.0839 -14.8690 1.2698
-20.0825 -16.0153 1.3052
-19.6068 -16.8221 1.3127
-18.5734 -17.1305 1.2839
-18.5719 -18.4060 1.3286
-18.5703 -19.7754 1.3783
-18.5686 -21.2535 1.4339
-18.5667 -22.8581 1.4962
-18.5647 -24.6107 1.5662
-21.9895 -31.4378 1.9491
-20.3478 -31.4359 1.9023
-20.0623 -33.5788 1.9870
-19.1437 -34.8225 2.0186
-18.5506 -36.8155 2.0940
-17.7193 -38.5502 2.1550
-16.3248 -39.1632 2.1550
-14.9178 -39.7488 2.1563
-13.4821 -40.2608 2.1563
-8.3474 -28.2585 1.4963
-7.3209 -28.5134 1.4949
-8.9800 -41.0394 2.1332
-6.2967 -34.6984 1.7906
-6.0131 -41.5827 2.1332
-4.7352 -43.7930 2.2363
-3.1603 -43.9376 2.2363
-1.5812 -44.0254 2.2363
0.0002 -30.4805 2.2363
1.0944 -30.4622 2.2363
2.1827 -30.3408 2.2316
3.1263 -28.9108 2.1332
2.6087 -18.0384 1.3369
5.1930 -28.6148 2.1332
6.2845 -28.7189 2.1563
7.3026 -28.4409 2.1536
8.1807 -27.6928 2.1177
8.4900 -25.3523 1.9607
8.8322 -23.5330 1.8432
6.7818 -16.2690 1.2925
7.2539 -15.7813 1.2735
7.7133 -15.3074 1.2568
8.7212 -15.8634 1.3272
9.2556 -15.4910 1.3230
10.8822 -16.8119 1.4681
11.4595 -16.3831 1.4656
12.1741 -16.1386 1.4818
10.2127 -12.5730 1.1873
13.6997 -15.6804 1.5262
10.6071 -11.2953 1.1357
12.0747 -11.9666 1.2459
12.5021 -11.5307 1.2464
12.9312 -11.0944 1.2486
16.8494 -13.4368 1.5792
17.3984 -12.8807 1.5862
17.7956 -12.2108 1.5814
8.8701 -5.6291 0.7697
9.2523 -5.4158 0.7855
9.9677 -5.3638 0.8293
10.8850 -5.3627 0.8890
11.9460 -5.3615 0.9592
13.1910 -5.3601 1.0430
14.6766 -5.3584 1.1445
16.4852 -5.3563 1.2697
18.7413 -5.3537 1.4276
21.6431 -5.3503 1.6329
25.5260 -5.3458 1.9101
12.8946 -2.2206 0.9583
26.8104 -3.6316 1.9815
27.1401 -2.6883 1.9973
27.3881 -1.7230 2.0097
24.4429 -0.6583 1.7906
19.2486 0.1729 1.4096
27.4974 1.2350 2.0156
27.4358 2.2213 2.0156
27.3389 3.2048 2.0156
27.2067 4.1841 2.0156
27.0394 5.1581 2.0156
26.8275 6.1233 2.0149
26.5409 7.0692 2.0111
26.2269 8.0041 2.0078
25.9229 8.9405 2.0078
25.5853 9.8653 2.0078
25.0638 10.7128 1.9958
24.2048 11.3899 1.9587
23.8965 12.3113 1.9683
21.3691 11.9988 1.7943
25.1436 15.3305 2.1562
24.2666 16.0182 2.1290
22.4657 16.0161 2.0202
20.8380 16.0143 1.9243
18.5782 15.3692 1.7655
17.2743 15.3677 1.6930
16.8640 16.1236 1.7085
21.3016 21.8830 2.2363
20.5020 22.6330 2.2363
19.6759 23.3540 2.2363
18.8246 24.0447 2.2363
17.9489 24.7044 2.2363
17.0501 25.3321 2.2363
16.1294 25.9272 2.2363
7.8605 13.7092 1.1574
8.9654 17.0249 1.4092
8.0468 16.7093 1.3583
6.1443 14.0255 1.1215
11.2314 28.3669 2.2347
10.0703 28.3696 2.2051
8.9435 28.3893 2.1803
7.8392 28.4039 2.1585
3.1302 13.1680 0.9915
5.7249 28.6123 2.1377
4.6808 28.7173 2.1317
3.6493 28.8854 2.1332
2.6099 28.9966 2.1332
1.5673 29.0704 2.1332
0.5228 29.1066 2.1332
-0.4844 26.9911 1.9782
-1.5667 29.0665 2.1332
-2.6090 28.9902 2.1332
-3.6500 28.8940 2.1345
-3.8166 23.4176 1.7390
-4.4763 22.3733 1.6724
-5.0623 21.2971 1.6046
-5.5525 20.1195 1.5300
-5.9207 18.7949 1.4445
-9.8386 27.7181 2.1563
-10.8267 27.3457 2.1563
-11.8007 26.9381 2.1563
-12.7521 26.4804 2.1550
-13.6937 26.0043 2.1550
-14.6176 25.4947 2.1550
-15.5226 24.9523 2.1550
-16.4075 24.3779 2.1550
-17.2711 23.7720 2.1550
-18.1124 23.1356 2.1550
-18.6186 22.0995 2.1195
-18.6168 20.5524 2.0341
-18.6152 19.1236 1.9577
-18.6136 17.7967 1.8891
-18.6122 16.5582 1.8275
-8.1019 6.7026 0.7714
-21.1134 16.2262 1.9537
-22.7573 16.2243 2.0506
-24.5752 16.2222 2.1606
-25.4244 15.5019 2.1850
-25.9634 14.5787 2.1850
-26.4689 13.6368 2.1850
-26.8239 12.6225 2.1756
-27.3769 11.7016 2.1850
-27.7783 10.7110 2.1850
-28.1439 9.7066 2.1850
-28.4732 8.6898 2.1850
-28.7658 7.6618 2.1850
-29.0214 6.6241 2.1850
-20.1055 3.8354 1.5024
-20.1046 3.0919 1.4931
-20.1038 2.3566 1.4859
-20.1029 1.6276 1.4806
-20.1021 0.9029 1.4772
-18.5933 0.1670 1.3651
-18.5926 -0.5007 1.3655
-18.5918 -1.1696 1.3676
-18.5910 -1.8415 1.3716
-18.5902 -2.5182 1.3773
-18.5894 -3.2014 1.3849
-18.5886 -3.8930 1.3944
-18.5878 -4.5951 1.4058
-18.5870 -5.3097 1.4193
-18.5861 -6.0390 1.4349
-18.5853 -6.7855 1.4527
-18.5844 -7.5517 1.4729
-6.4297 -2.8858 0.5175
-26.3434 -12.9789 2.1563
-6.1619 -3.3159 0.5138
-20.3326 -11.9018 1.7299
-7.8105 -4.9567 0.6792
-20.0851 -13.7821 1.7885
-20.0839 -14.8691 1.8347
-20.0825 -16.0153 1.8859
-19.6068 -16.8221 1.8968
-18.5734 -17.1305 1.8551
-18.5719 -18.4060 1.9197
-18.5703 -19.7755 1.9917
-18.5686 -21.2535 2.0720
-18.5071 -22.7847 2.1550
-17.6776 -23.4348 2.1550
-16.8254 -24.0549 2.1550
-15.9515 -24.6439 2.1550
-15.0570 -25.2013 2.1550
-14.1430 -25.7263 2.1550
-13.2108 -26.2182 2.1550
-7.8405 -17.0580 1.3780
-7.2974 -17.5064 1.3921
-10.2269 -27.2500 2.1363
-9.2284 -27.5585 2.1330
-6.6603 -22.5473 1.7254
-7.2280 -28.1516 2.1330
-6.2130 -28.3940 2.1330
-5.4412 -29.9843 2.2363
-4.3615 -30.1616 2.2363
-3.2762 -30.3000 2.2363
-2.1864 -30.3993 2.2363
-1.0939 -30.4595 2.2363
0.0002 -23.2823 2.2363
0.8360 -23.2680 2.2363
1.6707 -23.2239 2.2363
2.3880 -22.0826 2.1332
2.5974 -17.9602 1.7428
3.9665 -21.8559 2.1332
4.7486 -21.7003 2.1332
5.5247 -21.5166 2.1332
6.3527 -21.5047 2.1531
7.0547 -21.0663 2.1331
7.5529 -20.1243 2.0638
6.8274 -16.3785 1.7037
7.3021 -15.8859 1.6786
7.7638 -15.4075 1.6563
8.7988 -16.0046 1.7533
9.3377 -15.6284 1.7477
9.8499 -15.2170 1.7400
10.4114 -14.8845 1.7436
11.0512 -14.6499 1.7614
10.3651 -12.7605 1.5779
12.3091 -14.0887 1.7956
10.6696 -11.3618 1.4959
13.5828 -13.4612 1.8353
6.0938 -5.6203 0.7956
6.2463 -5.3590 0.7898
6.7308 -5.3675 0.8261
7.2493 -5.3669 0.8655
7.8206 -5.3663 0.9101
8.4549 -5.3655 0.9608
9.1650 -5.3647 1.0189
9.9678 -5.3638 1.0860
10.8850 -5.3627 1.1642
11.9461 -5.3615 1.2562
13.1911 -5.3601 1.3660
14.6767 -5.3584 1.4989
16.4853 -5.3563 1.6628
18.7414 -5.3537 1.8698
20.5840 -5.0884 2.0340
20.7287 -4.3411 2.0315
12.8933 -2.2204 1.2550
20.9042 -2.8316 2.0234
20.9928 -2.0794 2.0234
21.0544 -1.3245 2.0234
19.2765 -0.5191 1.8496
21.0388 0.1889 2.0180
20.9576 0.9413 2.0121
20.8662 1.6894 2.0078
20.7924 2.4374 2.0078
20.6917 3.1822 2.0078
20.5644 3.9229 2.0078
20.4105 4.6586 2.0078
20.2302 5.3883 2.0078
20.0240 6.1111 2.0078
19.7918 6.8259 2.0078
19.5341 7.5320 2.0078
19.2512 8.2284 2.0078
18.9761 8.9295 2.0113
18.6806 9.6241 2.0153
18.3661 10.3126 2.0200
19.1578 11.6808 2.1519
18.7571 12.3814 2.1554
18.3074 13.0516 2.1562
17.8270 13.7003 2.1562
17.3235 14.3312 2.1562
16.7978 14.9437 2.1562
16.2504 15.5368 2.1563
15.5829 16.0082 2.1426
14.1965 15.6721 2.0281
13.2168 15.6874 1.9674
12.5300 16.0047 1.9495
11.6274 16.0036 1.8973
10.3381 15.3597 1.7759
6.1547 9.8933 1.1176
6.1481 10.7227 1.1856
6.1470 11.6728 1.2655
6.1458 12.7616 1.3588
6.1443 14.0254 1.4688
8.5816 21.6743 2.2363
7.7993 21.9719 2.2367
7.0063 22.2401 2.2370
6.2055 22.4843 2.2377
3.1298 13.1662 1.2984
3.5758 17.8710 1.7486
3.7538 23.0303 2.2388
2.9250 23.1521 2.2391
2.0921 23.2430 2.2392
1.2562 23.2984 2.2389
0.4189 23.3230 2.2384
-0.4184 23.3179 2.2380
-1.2549 23.2825 2.2376
-2.0893 23.2167 2.2371
-2.9207 23.1212 2.2366
-3.7480 22.9968 2.2363
-4.4057 22.0207 2.1554
-5.1395 21.6220 2.1332
-5.9121 21.4227 2.1332
-6.6770 21.1960 2.1332
-6.2891 17.7182 1.8048
-6.1235 15.4666 1.5969
-6.1057 13.9380 1.4608
-6.4036 13.2976 1.4169
-10.4645 19.8721 2.1563
-11.0670 19.3022 2.1363
-11.7523 18.8918 2.1363
-12.5315 18.6191 2.1550
-13.1913 18.1566 2.1550
-13.8340 17.6707 2.1550
-14.4588 17.1621 2.1550
-15.0650 16.6313 2.1550
-15.6518 16.0793 2.1550
-16.2183 15.5065 2.1550
-16.7638 14.9138 2.1550
-8.0892 6.6921 1.0084
-17.7894 13.6717 2.1550
-18.2681 13.0239 2.1550
-18.7232 12.3593 2.1550
-19.1542 11.6789 2.1550
-19.5605 10.9834 2.1550
-20.2191 10.4169 2.1850
-20.5794 9.6841 2.1850
-20.9131 8.9389 2.1850
-21.2199 8.1822 2.1850
-21.4993 7.4150 2.1850
-21.7511 6.6383 2.1850
-21.6856 5.7761 2.1563
-21.8785 4.9938 2.1563
-20.1055 3.8355 1.9667
-20.1046 3.0919 1.9545
-20.1038 2.3567 1.9450
-20.1029 1.6276 1.9381
-20.1021 0.9029 1.9337
-18.5933 0.1670 1.7868
-18.5926 -0.5007 1.7874
-18.5918 -1.1696 1.7902
-18.5910 -1.8415 1.7954
-18.5902 -2.5182 1.8029
-18.5894 -3.2014 1.8128
-18.5886 -3.8930 1.8252
-18.5878 -4.5951 1.8402
-18.5870 -5.3096 1.8578
-18.5861 -6.0390 1.8782
-18.5853 -6.7855 1.9015
-18.5844 -7.5517 1.9279
-6.4290 -2.8855 0.6773
-20.1259 -9.9156 2.1563
-6.1619 -3.3159 0.6725
-19.3514 -11.3275 2.1550
-7.8105 -4.9567 0.8890
-18.4890 -12.6868 2.1550
-18.0218 -13.3424 2.1550
-17.5314 -13.9808 2.1550
-17.0184 -14.6013 2.1550
-16.4834 -15.2029 2.1550
-15.9273 -15.7850 2.1550
-15.3506 -16.3468 2.1550
-14.7541 -16.8875 2.1550
-14.1386 -17.4065 2.1550
-13.5049 -17.9032 2.1550
-12.8537 -18.3767 2.1550
-12.0800 -18.6628 2.1363
-11.4025 -19.0848 2.1363
-10.7103 -19.4823 2.1363
-10.0043 -19.8547 2.1363
-7.9788 -17.3588 1.8356
-8.5414 -20.4910 2.1330
-7.8005 -20.7849 2.1330
-7.0496 -21.0521 2.1330
-6.2896 -21.2922 2.1330
-5.7886 -22.5458 2.2363
-4.9757 -22.7397 2.2363
-4.1564 -22.9044 2.2363
-3.3316 -23.0396 2.2363
-2.5025 -23.1450 2.2363
-1.6701 -23.2207 2.2363
-0.8355 -23.2665 2.2363
0.0002 -18.8188 2.2363
0.6757 -18.8072 2.2363
1.3505 -18.7713 2.2363
2.0235 -18.7113 2.2363
2.5697 -17.7685 2.1332
3.2060 -17.6653 2.1332
3.8382 -17.5393 2.1332
4.4654 -17.3908 2.1332
5.0870 -17.2198 2.1332
5.7020 -17.0266 2.1332
6.3780 -16.9935 2.1563
6.8739 -16.4898 2.1222
7.3510 -15.9923 2.0908
7.8152 -15.5093 2.0629
8.1320 -14.7916 2.0050
8.4315 -14.1116 1.9525
8.8663 -13.6974 1.9380
9.3089 -13.3083 1.9289
9.7732 -12.9558 1.9274
10.2560 -12.6261 1.9319
10.7324 -12.2839 1.9372
10.7332 -11.4294 1.8620
11.6836 -11.5789 1.9534
6.0938 -5.6203 0.9844
6.2569 -5.3681 0.9789
6.7308 -5.3675 1.0222
7.2494 -5.3669 1.0710
7.8207 -5.3663 1.1262
8.4549 -5.3655 1.1889
9.1651 -5.3647 1.2609
9.9678 -5.3638 1.3439
10.8851 -5.3627 1.4406
11.9461 -5.3615 1.5545
13.1912 -5.3601 1.6904
14.6768 -5.3584 1.8548
16.4102 -5.3318 2.0483
16.6281 -4.7500 2.0529
16.8031 -4.1538 2.0547
16.9411 -3.5479 2.0546
12.8920 -2.2201 1.5528
17.0089 -2.3039 2.0374
17.0406 -1.6879 2.0326
17.0149 -1.0704 2.0236
16.9715 -0.4570 2.0152
16.9371 0.1521 2.0104
16.8992 0.7590 2.0078
16.8612 1.3652 2.0078
16.8015 1.9696 2.0078
16.7202 2.5714 2.0078
16.6172 3.1700 2.0078
16.4929 3.7645 2.0078
16.3472 4.3541 2.0078
16.1805 4.9381 2.0078
15.9929 5.5158 2.0078
15.7846 6.0863 2.0078
15.6425 6.6859 2.0190
15.5040 7.2957 2.0336
15.4542 7.9619 2.0633
15.3426 8.6149 2.0883
15.1537 9.2395 2.1064
14.8734 9.8179 2.1151
14.4523 10.3032 2.1065
14.1498 10.8743 2.1180
13.8989 11.4981 2.1409
13.5301 12.0367 2.1493
13.1313 12.5548 2.1563
12.6721 13.0179 2.1562
12.1965 13.4643 2.1562
11.7052 13.8932 2.1563
6.1514 7.8572 1.1844
6.1507 8.4657 1.2420
6.1499 9.1372 1.3073
6.1491 9.8843 1.3818
6.1481 10.7227 1.4672
6.1470 11.6728 1.5660
6.1458 12.7616 1.6814
6.1443 14.0253 1.8177
6.6151 16.7075 2.1332
6.0110 16.9339 2.1332
5.3992 17.1383 2.1332
4.7804 17.3207 2.1332
3.1119 13.0910 1.5975
3.5252 17.6182 2.1332
3.0307 18.5934 2.2367
2.3617 18.6930 2.2371
1.6894 18.7685 2.2374
1.0147 18.8199 2.2378
0.3386 18.8471 2.2383
-0.3382 18.8504 2.2387
-1.0148 18.8294 2.2392
-1.6900 18.7793 2.2391
-2.3624 18.7020 2.2386
-3.0315 18.6007 2.2381
-3.6963 18.4754 2.2376
-4.3561 18.3265 2.2372
-5.0100 18.1541 2.2367
-5.6571 17.9584 2.2363
-6.0075 16.9252 2.1332
-6.6110 16.6981 2.1332
-6.2772 14.3294 1.8582
-6.1197 12.7080 1.6754
-6.8840 13.0728 1.7551
-8.9317 15.5781 2.1332
-9.4849 15.2470 2.1332
-10.0403 14.9178 2.1363
-10.5690 14.5473 2.1363
-11.0840 14.1581 2.1363
-11.5847 13.7507 2.1363
-12.0705 13.3256 2.1363
-12.6508 12.9964 2.1550
-13.1088 12.5335 2.1550
-8.2096 7.3036 1.3057
-8.0765 6.6816 1.2456
-8.5893 6.6012 1.2873
-14.7660 10.5271 2.1550
-15.1340 9.9901 2.1550
-15.4824 9.4401 2.1550
-15.8109 8.8780 2.1550
-16.1190 8.3046 2.1550
-16.4063 7.7204 2.1550
-16.6725 7.1263 2.1550
-16.9171 6.5231 2.1550
-17.1400 5.9115 2.1550
-17.3408 5.2923 2.1550
-17.5192 4.6663 2.1550
-17.6751 4.0344 2.1550
-17.8082 3.3972 2.1550
-17.9183 2.7557 2.1550
-18.0054 2.1107 2.1550
-18.0693 1.4630 2.1550
-18.1099 0.8134 2.1550
-18.1271 0.1628 2.1550
-18.1210 -0.4880 2.1550
-18.0916 -1.1381 2.1550
-18.0389 -1.7868 2.1550
-17.9629 -2.4332 2.1550
-17.8639 -3.0764 2.1550
-17.7418 -3.7156 2.1550
-17.5968 -4.3501 2.1550
-17.4292 -4.9789 2.1550
-17.2392 -5.6013 2.1550
-17.0270 -6.2165 2.1550
-16.7928 -6.8237 2.1550
-6.4283 -2.8851 0.8377
-16.2599 -8.0109 2.1550
-6.1621 -3.3160 0.8319
-15.6433 -9.1569 2.1550
-7.8105 -4.9567 1.0998
-14.9461 -10.2558 2.1550
-14.5684 -10.7857 2.1550
-14.1719 -11.3018 2.1550
-13.7572 -11.8033 2.1550
-13.3247 -12.2896 2.1550
-12.8751 -12.7602 2.1550
-12.4089 -13.2143 2.1550
-11.8229 -13.5326 2.1363
-11.3296 -13.9484 2.1363
-10.8218 -14.3463 2.1363
-10.3000 -14.7257 2.1363
-9.7501 -15.0633 2.1330
-7.0053 -11.7251 1.6236
-8.6445 -15.7245 2.1330
-8.0746 -16.0250 2.1330
-7.4943 -16.3048 2.1330
-6.9043 -16.5637 2.1330
-6.3054 -16.8012 2.1330
-5.8780 -17.5536 2.2002
-5.3301 -18.0442 2.2363
-4.6790 -18.2243 2.2363
-4.0219 -18.3809 2.2363
-3.3596 -18.5139 2.2363
-2.6929 -18.6231 2.2363
-2.0227 -18.7082 2.2363
-1.3499 -18.7693 2.2363
-0.6753 -18.8061 2.2363
0.0002 -15.7778 2.2363
0.5666 -15.7680 2.2363
1.1323 -15.7378 2.2363
1.6965 -15.6874 2.2363
2.1724 -15.0211 2.1509
2.6879 -14.8103 2.1332
3.2179 -14.7047 2.1332
3.7437 -14.5800 2.1332
4.2648 -14.4366 2.1332
4.7804 -14.2746 2.1332
5.2899 -14.0942 2.1332
5.7925 -13.8956 2.1332
6.3146 -13.7374 2.1423
6.6466 -13.1904 2.0928
6.8456 -12.4516 2.0132
7.1852 -12.0256 1.9847
7.5413 -11.6504 1.9662
7.9044 -11.3003 1.9537
8.3305 -11.0432 1.9597
8.6620 -10.6638 1.9463
9.0241 -10.3286 1.9430
9.3860 -9.9948 1.9423
9.7374 -9.6501 1.9420
6.0938 -5.6203 1.1743
6.2569 -5.3681 1.1678
6.7308 -5.3675 1.2194
7.2494 -5.3669 1.2776
7.8207 -5.3663 1.3434
8.4549 -5.3655 1.4183
9.1651 -5.3647 1.5041
9.9679 -5.3638 1.6032
10.8851 -5.3627 1.7186
11.9462 -5.3615 1.8544
13.1912 -5.3601 2.0165
13.6289 -4.9757 2.0547
13.8009 -4.4840 2.0550
13.9792 -3.9932 2.0588
14.1271 -3.4922 2.0608
14.2111 -2.9761 2.0561
12.8254 -2.2086 1.8429
14.2642 -1.9321 2.0383
14.2573 -1.4122 2.0287
14.2134 -0.8941 2.0166
14.1648 -0.3814 2.0064
14.0808 0.1265 1.9939
14.0249 0.6299 1.9879
14.0206 1.1352 1.9917
13.9610 1.6366 1.9903
13.8724 2.1335 1.9873
13.7719 2.6272 1.9851
13.6957 3.1260 1.9890
13.6132 3.6259 1.9947
13.5310 4.1295 2.0031
13.4413 4.6357 2.0131
13.3512 5.1480 2.0260
13.2203 5.6507 2.0356
13.0281 6.1306 2.0386
12.8197 6.6046 2.0418
12.6304 7.0920 2.0509
12.4326 7.5804 2.0617
12.2544 8.0890 2.0790
6.1657 4.3956 1.0721
6.1550 4.7302 1.0991
11.5377 9.5448 2.1201
6.1542 5.4749 1.1663
10.8528 10.3763 2.1260
10.5243 10.8115 2.1363
6.1527 6.7922 1.2976
6.1756 7.3299 1.3571
6.1514 7.8572 1.4130
6.1507 8.4656 1.4817
6.1499 9.1372 1.5596
6.1491 9.8842 1.6484
6.1481 10.7226 1.7502
6.1470 11.6727 1.8681
6.1458 12.7615 2.0059
6.0446 13.7976 2.1332
5.5453 14.0055 2.1332
5.0389 14.1952 2.1332
4.5260 14.3667 2.1332
4.0073 14.5196 2.1332
3.1089 13.0780 1.9038
2.9552 14.7691 2.1332
2.4300 14.9078 2.1392
1.9792 15.6652 2.2363
1.4157 15.7273 2.2366
0.8503 15.7690 2.2368
0.2837 15.7911 2.2370
-0.2833 15.7926 2.2373
-0.8501 15.7736 2.2376
-1.4159 15.7340 2.2378
-1.9797 15.6726 2.2378
-2.5406 15.5887 2.2374
-3.0981 15.4857 2.2372
-3.6516 15.3627 2.2370
-4.2002 15.2200 2.2368
-4.7433 15.0577 2.2366
-5.2802 14.8760 2.2364
-5.8101 14.6753 2.2363
-6.0411 13.7905 2.1332
-6.4005 13.2913 2.0902
-6.8764 13.0585 2.0912
-7.4880 13.0601 2.1332
-7.9518 12.7826 2.1332
-8.4053 12.4886 2.1332
-8.8479 12.1785 2.1332
-9.2792 11.8527 2.1332
-9.6984 11.5117 2.1332
-10.1198 11.1720 2.1363
-10.5140 10.8012 2.1363
-10.8947 10.4166 2.1363
-7.3175 6.5100 1.3881
-7.5074 6.2108 1.3810
-7.8703 6.0486 1.4069
-12.3799 8.8261 2.1550
-12.6885 8.3758 2.1550
-12.9807 7.9148 2.1550
-13.2562 7.4435 2.1550
-13.5145 6.9627 2.1550
-13.7555 6.4730 2.1550
-13.9787 5.9749 2.1550
-14.1839 5.4692 2.1550
-14.3708 4.9565 2.1550
-14.5392 4.4373 2.1550
-14.6888 3.9125 2.1550
-14.8196 3.3826 2.1550
-14.9312 2.8484 2.1550
-15.0236 2.3106 2.1550
-15.0966 1.7697 2.1550
-15.1502 1.2267 2.1550
-15.1843 0.6820 2.1550
-15.1988 0.1365 2.1550
-15.1937 -0.4091 2.1550
-15.1691 -0.9543 2.1550
-15.1249 -1.4982 2.1550
-15.0613 -2.0401 2.1550
-14.9782 -2.5795 2.1550
-14.8759 -3.1154 2.1550
-14.7544 -3.6474 2.1550
-14.6139 -4.1747 2.1550
-14.4545 -4.6966 2.1550
-14.2766 -5.2124 2.1550
-14.0802 -5.7215 2.1550
-6.4276 -2.8848 0.9990
-13.6334 -6.7169 2.1550
-6.1623 -3.3161 0.9922
-8.3749 -4.9023 1.3760
-7.8108 -4.9569 1.3117
-8.1320 -5.5800 1.3984
-7.6781 -5.6845 1.3546
-11.7793 -9.3937 2.1363
-11.4345 -9.8106 2.1363
-11.0751 -10.2148 2.1363
-10.7014 -10.6058 2.1363
-10.3138 -10.9833 2.1363
-9.8979 -11.3292 2.1330
-9.4850 -11.6774 2.1330
-9.0598 -12.0104 2.1330
-8.6229 -12.3281 2.1330
-6.6747 -10.3120 1.7416
-6.8715 -11.5011 1.8994
-7.2479 -13.1842 2.1330
-6.7701 -13.4361 2.1330
-6.2835 -13.6707 2.1330
-5.8857 -14.1199 2.1687
-5.5426 -14.7686 2.2363
-5.0090 -14.9584 2.2363
-4.4689 -15.1288 2.2363
-3.9230 -15.2798 2.2363
-3.3721 -15.4111 2.2363
-2.8167 -15.5225 2.2363
-2.2578 -15.6139 2.2363
-1.6959 -15.6853 2.2363
-1.1317 -15.7364 2.2363
-0.5662 -15.7672 2.2363
0.0002 -13.5708 2.2363
0.4874 -13.5623 2.2363
0.9739 -13.5363 2.2363
1.4592 -13.4929 2.2363
1.9427 -13.4321 2.2363
2.3119 -12.7384 2.1332
2.7677 -12.6475 2.1332
3.2200 -12.5403 2.1332
3.6682 -12.4169 2.1332
4.1116 -12.2775 2.1332
4.5498 -12.1222 2.1332
4.9821 -11.9514 2.1332
5.4080 -11.7651 2.1332
5.8270 -11.5637 2.1332
6.1486 -11.1839 2.1024
6.4139 -10.7346 2.0599
6.7218 -10.3842 2.0376
7.0170 -10.0316 2.0166
7.3036 -9.6818 1.9977
7.5833 -9.3357 1.9811
7.8594 -8.9955 1.9675
8.1340 -8.6615 1.9571
8.6996 -8.6216 2.0173
6.0938 -5.6202 1.3653
6.2569 -5.3681 1.3578
6.7309 -5.3675 1.4179
7.2494 -5.3669 1.4855
7.8207 -5.3663 1.5620
8.4550 -5.3655 1.6491
9.1652 -5.3647 1.7489
6.1531 -3.3110 1.1507
6.1565 -3.0331 1.1302
11.4011 -5.1169 2.0579
11.5755 -4.7035 2.0575
6.1636 -2.2503 1.0805
11.8971 -3.8654 2.0598
12.0440 -3.4404 2.0625
12.1599 -3.0059 2.0625
12.2474 -2.5649 2.0604
12.3081 -2.1195 2.0564
12.3201 -1.6688 2.0471
12.2167 -1.2100 2.0213
12.0670 -0.7591 1.9907
11.8388 -0.3188 1.9499
11.4728 0.1031 1.8890
11.1423 0.5005 1.8363
11.3050 0.9153 1.8674
11.3783 1.3338 1.8862
11.5460 1.7757 1.9233
11.6761 2.2274 1.9570
11.7364 2.6788 1.9820
11.6629 3.1064 1.9871
11.5783 3.5336 1.9930
11.4769 3.9583 1.9987
6.1578 2.3743 1.0865
11.2291 4.7996 2.0105
11.1406 5.2424 2.0270
6.1568 3.1719 1.1402
6.1565 3.4569 1.1624
6.1562 3.7535 1.1871
6.1558 4.0634 1.2144
6.1554 4.3883 1.2446
6.1550 4.7302 1.2780
10.0088 8.2799 2.1386
6.1542 5.4749 1.3561
6.1772 5.9060 1.4071
9.1187 9.3676 2.1523
6.1527 6.7922 1.5089
8.4383 10.0156 2.1562
6.1514 7.8572 1.6430
6.1507 8.4656 1.7229
6.1499 9.1372 1.8135
6.1491 9.8842 1.9167
6.1481 10.7226 2.0351
6.0366 11.4630 2.1332
5.6211 11.6721 2.1332
5.1985 11.8662 2.1332
4.7691 12.0450 2.1332
4.3336 12.2082 2.1332
3.8925 12.3557 2.1332
3.4464 12.4872 2.1332
2.9959 12.6027 2.1332
2.5415 12.7019 2.1332
2.1549 13.2203 2.2058
1.7021 13.4721 2.2363
1.2174 13.5242 2.2363
0.7311 13.5589 2.2363
0.2439 13.5762 2.2363
-0.2435 13.5759 2.2363
-0.7307 13.5581 2.2363
-1.2169 13.5229 2.2363
-1.7015 13.4702 2.2363
-2.1839 13.4002 2.2363
-2.6634 13.3128 2.2363
-3.1395 13.2084 2.2363
-3.6115 13.0869 2.2363
-4.0789 12.9485 2.2363
-4.5409 12.7935 2.2363
-4.9971 12.6219 2.2363
-5.4469 12.4341 2.2363
-5.8896 12.2303 2.2363
-6.0331 11.4571 2.1332
-6.4403 11.2329 2.1332
-6.8392 10.9942 2.1332
-7.2293 10.7414 2.1332
-7.6100 10.4747 2.1332
-7.9810 10.1945 2.1332
-8.3416 9.9013 2.1332
-8.6915 9.5952 2.1332
-9.0301 9.2769 2.1332
-9.3571 8.9465 2.1332
-7.4159 6.5976 1.6356
-7.5948 6.2832 1.6243
-8.0532 6.1892 1.6737
-10.5556 7.5255 2.1363
-10.8187 7.1415 2.1363
-11.0679 6.7485 2.1363
-11.3028 6.3467 2.1363
-11.5231 5.9368 2.1363
-11.7286 5.5192 2.1363
-11.9190 5.0946 2.1363
-12.0939 4.6634 2.1363
-12.3609 4.2633 2.1550
-12.5058 3.8167 2.1550
-12.6346 3.3653 2.1550
-12.7470 2.9096 2.1550
-12.8431 2.4501 2.1550
-12.9226 1.9874 2.1550
-12.9854 1.5223 2.1550
-13.0315 1.0551 2.1550
-13.0609 0.5867 2.1550
-13.0734 0.1174 2.1550
-13.0690 -0.3519 2.1550
-13.0479 -0.8208 2.1550
-13.0099 -1.2887 2.1550
-12.9552 -1.7548 2.1550
-12.8837 -2.2188 2.1550
-12.7957 -2.6798 2.1550
-12.6912 -3.1373 2.1550
-12.5703 -3.5909 2.1550
-12.4333 -4.0398 2.1550
-12.2802 -4.4835 2.1550
-12.0060 -4.8786 2.1363
-6.4269 -2.8845 1.1613
-11.6250 -5.7274 2.1363
-6.1625 -3.3162 1.1536
-7.5884 -4.4420 1.4495
-7.2842 -4.6227 1.4221
-7.1391 -4.8987 1.4272
-7.1796 -5.3154 1.4725
-10.1321 -8.0801 2.1363
-9.8206 -8.4259 2.1330
-9.5119 -8.7730 2.1330
-9.1909 -9.1089 2.1330
-8.8580 -9.4330 2.1330
-8.5138 -9.7450 2.1330
-8.1586 -10.0444 2.1330
-7.7928 -10.3309 2.1330
-7.4170 -10.6041 2.1330
-6.8102 -10.5214 2.0658
-6.6373 -11.1092 2.1330
-6.2343 -11.3404 2.1330
-5.8912 -11.6919 2.1579
-5.6664 -12.3280 2.2363
-5.2203 -12.5236 2.2363
-4.7674 -12.7032 2.2363
-4.3084 -12.8663 2.2363
-3.8438 -13.0129 2.2363
-3.3743 -13.1427 2.2363
-2.9004 -13.2556 2.2363
-2.4228 -13.3514 2.2363
-1.9419 -13.4300 2.2363
-1.4586 -13.4913 2.2363
-0.9734 -13.5352 2.2363
-0.4869 -13.5617 2.2363
0.0002 -11.8945 2.2363
0.4272 -11.8871 2.2363
0.8536 -11.8643 2.2363
1.2790 -11.8262 2.2363
1.7027 -11.7729 2.2363
2.1243 -11.7044 2.2363
2.4259 -11.0852 2.1332
2.8223 -10.9911 2.1332
3.2150 -10.8830 2.1332
3.6037 -10.7607 2.1332
3.9877 -10.6247 2.1332
4.3666 -10.4749 2.1332
4.7399 -10.3116 2.1332
5.1071 -10.1350 2.1332
5.4678 -9.9454 2.1332
5.8213 -9.7429 2.1332
6.0323 -9.3190 2.0864
6.3050 -9.0136 2.0674
6.5653 -8.7031 2.0489
7.0049 -8.6236 2.0880
7.3029 -8.3585 2.0859
7.5537 -8.0436 2.0737
7.7929 -7.7230 2.0618
6.0938 -5.6202 1.5578
6.2569 -5.3681 1.5492
6.7309 -5.3675 1.6178
7.2495 -5.3669 1.6949
7.8208 -5.3663 1.7823
8.4550 -5.3655 1.8816
9.1652 -5.3647 1.9955
6.1528 -3.3108 1.3129
6.1565 -3.0331 1.2896
6.1597 -2.7645 1.2686
10.1392 -4.1199 2.0563
6.1636 -2.2502 1.2328
10.4083 -3.3817 2.0562
6.1640 -1.7608 1.2044
6.1634 -1.5236 1.1928
6.1736 -1.2929 1.1851
10.5238 -1.8122 2.0063
6.1615 -0.8346 1.1681
8.1952 -0.8117 1.5472
6.1609 -0.3876 1.1597
8.2325 -0.2217 1.5472
6.1604 0.0553 1.1574
8.2273 0.3695 1.5472
6.1599 0.4988 1.1610
6.1597 0.7221 1.1651
6.1746 0.9496 1.1736
6.1591 1.1750 1.1779
8.0294 1.8327 1.5472
6.1586 1.6404 1.1973
6.1583 1.8795 1.2096
6.1580 2.1238 1.2237
6.1578 2.3743 1.2398
10.2770 4.3926 2.0996
10.1718 4.7865 2.1118
6.1568 3.1720 1.3011
6.1565 3.4569 1.3264
6.1562 3.7535 1.3545
6.1558 4.0634 1.3856
6.1554 4.3883 1.4201
6.1550 4.7302 1.4583
8.8440 7.3164 2.1562
6.1542 5.4749 1.5474
8.2962 7.9320 2.1563
8.0061 8.2246 2.1563
6.1527 6.7921 1.7217
7.3953 8.7777 2.1563
6.1514 7.8572 1.8747
6.1507 8.4656 1.9659
6.1499 9.1371 2.0692
5.9978 9.6409 2.1332
5.6478 9.8499 2.1332
5.2905 10.0462 2.1332
4.9264 10.2295 2.1332
4.5560 10.3996 2.1332
4.1797 10.5563 2.1332
3.7980 10.6994 2.1332
3.4115 10.8287 2.1332
3.0205 10.9440 2.1332
2.6257 11.0452 2.1332
2.2275 11.1321 2.1332
1.9147 11.7462 2.2363
1.4918 11.8072 2.2363
1.0670 11.8529 2.2363
0.6408 11.8834 2.2363
0.2138 11.8985 2.2363
-0.2134 11.8983 2.2363
-0.6404 11.8828 2.2363
-1.0665 11.8519 2.2363
-1.4912 11.8058 2.2363
-1.9140 11.7444 2.2363
-2.3343 11.6679 2.2363
-2.7515 11.5764 2.2363
-3.1653 11.4699 2.2363
-3.5749 11.3487 2.2363
-3.9799 11.2128 2.2363
-4.3797 11.0625 2.2363
-4.7739 10.8979 2.2363
-5.1619 10.7193 2.2363
-5.5433 10.5269 2.2363
-5.8990 10.2887 2.2293
-5.9943 9.6360 2.1332
-6.3362 9.4144 2.1332
-6.6699 9.1807 2.1332
-6.9950 8.9352 2.1332
-7.3111 8.6782 2.1332
-7.6178 8.4100 2.1332
-7.9146 8.1310 2.1332
-8.2012 7.8415 2.1332
-7.6403 6.7973 1.9226
-7.8237 6.4726 1.9090
-8.9962 6.9140 2.1332
-9.2384 6.5865 2.1332
-9.4687 6.2505 2.1332
-9.6868 5.9065 2.1332
-9.8925 5.5548 2.1332
-10.0999 5.2036 2.1363
-10.2801 4.8376 2.1363
-10.4469 4.4654 2.1363
-10.6003 4.0874 2.1363
-10.7401 3.7043 2.1363
-10.8660 3.3163 2.1363
-10.9779 2.9240 2.1363
-11.0756 2.5280 2.1363
-11.1591 2.1288 2.1363
-11.2282 1.7269 2.1363
-11.2828 1.3227 2.1363
-11.3229 0.9168 2.1363
-11.3484 0.5098 2.1363
-11.3593 0.1021 2.1363
-11.3555 -0.3058 2.1363
-11.3371 -0.7132 2.1363
-11.3041 -1.1197 2.1363
-11.2566 -1.5247 2.1363
-11.1945 -1.9279 2.1363
-11.1181 -2.3284 2.1363
-11.0273 -2.7261 2.1363
-10.9223 -3.1201 2.1363
-10.8032 -3.5102 2.1363
-10.6702 -3.8957 2.1363
-10.5234 -4.2762 2.1363
-6.4262 -2.8842 1.3247
-10.1895 -5.0202 2.1363
-6.1627 -3.3163 1.3162
-7.7434 -4.5326 1.6874
-7.3792 -4.6830 1.6436
-7.2373 -4.9662 1.6507
-9.1156 -6.7487 2.1330
-8.8674 -7.0716 2.1330
-8.6079 -7.3854 2.1330
-8.3373 -7.6897 2.1330
-8.0560 -7.9841 2.1330
-7.7642 -8.2682 2.1330
-7.4625 -8.5416 2.1330
-7.1511 -8.8041 2.1330
-6.8305 -9.0552 2.1330
-6.5011 -9.2946 2.1330
-6.1633 -9.5221 2.1330
-5.8927 -9.8629 2.1605
-5.7289 -10.4211 2.2363
-5.3512 -10.6202 2.2363
-4.9666 -10.8056 2.2363
-4.5756 -10.9770 2.2363
-4.1786 -11.1343 2.2363
-3.7763 -11.2773 2.2363
-3.3691 -11.4058 2.2363
-2.9575 -11.5195 2.2363
-2.5422 -11.6185 2.2363
-2.1235 -11.7024 2.2363
-1.7021 -11.7713 2.2363
-1.2785 -11.8250 2.2363
-0.8532 -11.8635 2.2363
-0.4268 -11.8867 2.2363
0.0002 -10.5770 2.2363
0.3799 -10.5703 2.2363
0.7591 -10.5500 2.2363
1.1373 -10.5162 2.2363
1.5141 -10.4688 2.2363
1.8890 -10.4078 2.2363
2.1681 -9.9073 2.1440
2.5096 -9.7735 2.1332
2.8589 -9.6773 2.1332
3.2045 -9.5686 2.1332
3.5460 -9.4476 2.1332
3.8829 -9.3144 2.1332
4.2148 -9.1692 2.1332
4.5413 -9.0121 2.1332
4.8620 -8.8434 2.1332
5.1764 -8.6634 2.1332
5.4841 -8.4721 2.1332
5.7848 -8.2700 2.1332
6.0285 -7.9914 2.1158
6.2959 -7.7507 2.1105
6.5456 -7.4917 2.1026
6.7892 -7.2294 2.0960
7.0249 -6.9619 2.0903
6.0938 -5.6202 1.7520
6.2570 -5.3681 1.7423
6.7309 -5.3675 1.8194
7.2495 -5.3669 1.9062
7.8208 -5.3663 2.0044
8.2178 -5.2149 2.0568
8.3660 -4.8969 2.0485
6.1528 -3.3108 1.4765
6.1565 -3.0331 1.4503
6.1597 -2.7645 1.4267
6.1856 -2.5134 1.4109
6.1636 -2.2502 1.3865
6.1877 -2.0104 1.3748
6.1640 -1.7608 1.3546
6.1634 -1.5236 1.3415
6.1737 -1.2929 1.3328
9.4003 -1.6188 2.0155
6.1615 -0.8346 1.3138
9.4211 -0.9331 2.0003
6.1609 -0.3875 1.3043
9.4294 -0.2539 1.9930
6.1604 0.0554 1.3017
9.4657 0.4252 2.0020
6.1599 0.4988 1.3057
6.1597 0.7221 1.3103
6.1746 0.9496 1.3199
6.1591 1.1750 1.3248
9.8428 2.2466 2.1330
6.1586 1.6404 1.3465
6.1583 1.8795 1.3603
6.1580 2.1238 1.3762
6.1578 2.3743 1.3943
9.3553 3.9986 2.1495
9.2104 4.3341 2.1506
6.1568 3.1719 1.4633
6.1565 3.4569 1.4917
6.1562 3.7535 1.5233
6.1558 4.0634 1.5584
6.1554 4.3883 1.5971
6.1550 4.7302 1.6401
7.8638 6.5054 2.1563
6.1542 5.4749 1.7403
7.3767 7.0528 2.1563
7.1187 7.3130 2.1562
6.1527 6.7921 1.9363
6.1756 7.3299 2.0251
6.2912 8.0357 2.1563
5.9344 8.1678 2.1332
5.6373 8.3755 2.1332
5.3330 8.5724 2.1332
5.0218 8.7582 2.1332
4.7041 8.9327 2.1332
4.3804 9.0957 2.1332
4.0510 9.2470 2.1332
3.7165 9.3863 2.1332
3.3771 9.5136 2.1332
3.0334 9.6285 2.1332
2.6858 9.7311 2.1332
2.3347 9.8211 2.1332
2.0764 10.3768 2.2363
1.7025 10.4445 2.2363
1.3265 10.4987 2.2363
0.9488 10.5394 2.2363
0.5698 10.5665 2.2363
0.1901 10.5800 2.2363
-0.1898 10.5798 2.2363
-0.5694 10.5660 2.2363
-0.9483 10.5386 2.2363
-1.3259 10.4976 2.2363
-1.7019 10.4430 2.2363
-2.0756 10.3750 2.2363
-2.4467 10.2937 2.2363
-2.8145 10.1990 2.2363
-3.1788 10.0912 2.2363
-3.5389 9.9705 2.2363
-3.8944 9.8368 2.2363
-4.2449 9.6905 2.2363
-4.5900 9.5317 2.2363
-4.9291 9.3607 2.2363
-5.2618 9.1775 2.2363
-5.5878 8.9826 2.2363
-5.8972 8.7622 2.2327
-5.9310 8.1637 2.1332
-6.2201 7.9454 2.1332
-6.5012 7.7168 2.1332
-6.7739 7.4784 2.1332
-7.0379 7.2303 2.1332
-7.2927 6.9729 2.1332
-7.5382 6.7065 2.1332
-7.7740 6.4314 2.1332
-7.9997 6.1481 2.1332
-8.2151 5.8569 2.1332
-8.4199 5.5582 2.1332
-8.6139 5.2523 2.1332
-8.7967 4.9396 2.1332
-8.9683 4.6206 2.1332
-9.1282 4.2956 2.1332
-9.2764 3.9651 2.1332
-9.4119 3.6292 2.1330
-9.5360 3.2890 2.1330
-9.6478 2.9445 2.1330
-9.7472 2.5963 2.1330
-9.8340 2.2447 2.1330
-9.9081 1.8902 2.1330
-9.9846 1.5356 2.1363
-10.0332 1.1762 2.1363
-10.0689 0.8153 2.1363
-10.0916 0.4533 2.1363
-10.1013 0.0907 2.1363
-10.0980 -0.2719 2.1363
-10.0816 -0.6342 2.1363
-10.0523 -0.9957 2.1363
-10.0100 -1.3559 2.1363
-9.9548 -1.7143 2.1363
-9.8718 -2.0674 2.1330
-9.7912 -2.4204 2.1330
-9.6979 -2.7703 2.1330
-9.5922 -3.1167 2.1330
-9.4741 -3.4590 2.1330
-9.3438 -3.7968 2.1330
-6.3640 -2.8563 1.4752
-9.0473 -4.4574 2.1330
-6.1630 -3.3164 1.4801
-8.7042 -5.0951 2.1330
-7.6237 -4.8382 1.9096
-7.7034 -5.2859 1.9758
-8.1061 -6.0014 2.1330
-7.8855 -6.2885 2.1330
-7.6547 -6.5675 2.1330
-7.4140 -6.8381 2.1330
-7.1638 -7.0999 2.1330
-6.9044 -7.3525 2.1330
-6.6360 -7.5957 2.1330
-6.3591 -7.8291 2.1330
-6.0740 -8.0523 2.1330
-5.8910 -8.4223 2.1735
-5.7461 -8.8774 2.2363
-5.4237 -9.0780 2.2363
-5.0944 -9.2670 2.2363
-4.7585 -9.4440 2.2363
-4.4165 -9.6088 2.2363
-4.0688 -9.7613 2.2363
-3.7158 -9.9012 2.2363
-3.3580 -10.0283 2.2363
-2.9959 -10.1425 2.2363
-2.6300 -10.2436 2.2363
-2.2606 -10.3316 2.2363
-1.8883 -10.4062 2.2363
-1.5135 -10.4675 2.2363
-1.1368 -10.5152 2.2363
-0.7586 -10.5494 2.2363
-0.3795 -10.5700 2.2363
0.0002 -9.5131 2.2363
0.3417 -9.5071 2.2363
0.6828 -9.4889 2.2363
1.0230 -9.4584 2.2363
1.3618 -9.4157 2.2363
1.6990 -9.3609 2.2363
2.0339 -9.2941 2.2363
2.2572 -8.7904 2.1332
2.5713 -8.7038 2.1332
2.8822 -8.6061 2.1332
3.1893 -8.4972 2.1332
3.4923 -8.3774 2.1332
3.7908 -8.2468 2.1332
4.0845 -8.1055 2.1332
4.3729 -7.9538 2.1332
4.6556 -7.7918 2.1332
4.9324 -7.6198 2.1332
5.2028 -7.4380 2.1332
5.4666 -7.2465 2.1332
5.7233 -7.0457 2.1332
5.9726 -6.8359 2.1332
6.1358 -6.5337 2.1062
6.3561 -6.2990 2.1028
6.0938 -5.6202 1.9480
6.2570 -5.3681 1.9372
6.7310 -5.3675 2.0229
7.1505 -5.2936 2.0905
7.3286 -5.0285 2.0884
7.4811 -4.7474 2.0819
7.6187 -4.4595 2.0742
6.1528 -3.3108 1.6417
6.1565 -3.0331 1.6125
6.1597 -2.7645 1.5863
8.1438 -3.3091 2.0653
6.1636 -2.2502 1.5416
8.3417 -2.7102 2.0607
6.1640 -1.7607 1.5061
6.1634 -1.5236 1.4916
6.1737 -1.2929 1.4819
8.6075 -1.4822 2.0520
6.1615 -0.8345 1.4608
8.6740 -0.8591 2.0478
6.1609 -0.3875 1.4503
8.7218 -0.2348 2.0497
6.1604 0.0554 1.4473
8.8312 0.3967 2.0767
6.1599 0.4988 1.4518
6.1597 0.7221 1.4570
6.1745 0.9496 1.4676
6.1591 1.1750 1.4730
8.8607 2.0225 2.1351
6.1586 1.6404 1.4972
6.1583 1.8795 1.5126
6.1580 2.1238 1.5302
6.1578 2.3743 1.5504
8.4402 3.6075 2.1563
8.3053 3.9082 2.1563
6.1568 3.1719 1.6270
6.1565 3.4569 1.6587
6.1562 3.7535 1.6938
6.1558 4.0634 1.7327
6.1554 4.3883 1.7759
6.1550 4.7302 1.8236
7.0724 5.8507 2.1563
6.1542 5.4749 1.9350
6.6343 6.3430 2.1563
6.1767 6.3452 2.0803
6.0961 6.7297 2.1332
5.8505 6.9441 2.1332
5.5975 7.1496 2.1332
5.3372 7.3458 2.1332
5.0700 7.5326 2.1332
4.7963 7.7097 2.1332
4.5165 7.8768 2.1332
4.2308 8.0338 2.1332
3.9396 8.1804 2.1332
3.6434 8.3165 2.1332
3.3425 8.4418 2.1332
3.0373 8.5562 2.1332
2.7282 8.6596 2.1332
2.4155 8.7519 2.1332
2.1386 8.9961 2.1726
1.8674 9.3326 2.2363
1.5312 9.3935 2.2363
1.1930 9.4423 2.2363
0.8533 9.4789 2.2363
0.5125 9.5033 2.2363
0.1710 9.5154 2.2363
-0.1706 9.5153 2.2363
-0.5121 9.5029 2.2363
-0.8528 9.4783 2.2363
-1.1925 9.4414 2.2363
-1.5306 9.3924 2.2363
-1.8668 9.3312 2.2363
-2.2005 9.2581 2.2363
-2.5313 9.1730 2.2363
-2.8589 9.0760 2.2363
-3.1828 8.9674 2.2363
-3.5026 8.8472 2.2363
-3.8179 8.7157 2.2363
-4.1282 8.5729 2.2363
-4.4332 8.4190 2.2363
-4.7325 8.2543 2.2363
-5.0257 8.0790 2.2363
-5.3123 7.8932 2.2363
-5.5922 7.6973 2.2363
-5.8648 7.4915 2.2363
-5.9171 7.0236 2.1587
-6.0925 6.7262 2.1332
-6.3299 6.5030 2.1332
-6.5592 6.2715 2.1332
-6.7800 6.0319 2.1332
-6.9920 5.7846 2.1332
-7.1951 5.5298 2.1332
-7.3888 5.2679 2.1332
-7.5731 4.9992 2.1332
-7.7475 4.7240 2.1332
-7.9119 4.4428 2.1331
-8.0661 4.1558 2.1331
-8.2099 3.8635 2.1331
-8.3428 3.5661 2.1330
-8.4653 3.2642 2.1330
-6.6890 2.3071 1.6635
-6.6926 2.0426 1.6451
-6.7022 1.7852 1.6306
-6.7326 1.5368 1.6236
-6.7834 1.2941 1.6236
-6.8254 1.0498 1.6236
-9.0105 1.0563 2.1330
-9.0426 0.7322 2.1330
-9.0629 0.4071 2.1330
-9.0716 0.0815 2.1330
-9.0687 -0.2442 2.1330
-9.0540 -0.5695 2.1330
-9.0277 -0.8942 2.1330
-8.9897 -1.2177 2.1330
-8.9401 -1.5396 2.1330
-8.8791 -1.8595 2.1330
-8.8066 -2.1770 2.1330
-8.7227 -2.4918 2.1330
-8.6276 -2.8033 2.1330
-8.5214 -3.1111 2.1330
-8.4042 -3.4150 2.1330
-6.3571 -2.8532 1.6384
-8.1375 -4.0092 2.1330
-6.1632 -3.3165 1.6456
-7.8289 -4.5827 2.1330
-7.6594 -4.8608 2.1330
-7.4800 -5.1327 2.1330
-7.2909 -5.3979 2.1330
-7.0925 -5.6561 2.1330
-6.8849 -5.9071 2.1330
-6.6685 -6.1505 2.1330
-6.4434 -6.3859 2.1330
-6.2100 -6.6132 2.1330
-5.9687 -6.8318 2.1330
-5.8899 -7.2514 2.1965
-5.7277 -7.5932 2.2363
-5.4515 -7.7939 2.2363
-5.1682 -7.9847 2.2363
-4.8783 -8.1651 2.2363
-4.5821 -8.3351 2.2363
-4.2800 -8.4943 2.2363
-3.9723 -8.6425 2.2363
-3.6596 -8.7796 2.2363
-3.3421 -8.9054 2.2363
-3.0203 -9.0198 2.2363
-2.6946 -9.1225 2.2363
-2.3654 -9.2134 2.2363
-2.0332 -9.2925 2.2363
-1.6983 -9.3596 2.2363
-1.3613 -9.4147 2.2363
-1.0225 -9.4576 2.2363
-0.6823 -9.4884 2.2363
-0.3413 -9.5069 2.2363
0.0002 -8.6353 2.2363
0.3102 -8.6299 2.2363
0.6198 -8.6133 2.2363
0.9286 -8.5856 2.2363
1.2362 -8.5469 2.2363
1.5422 -8.4971 2.2363
1.8463 -8.4364 2.2363
2.1480 -8.3648 2.2363
2.3469 -7.9442 2.1449
2.6162 -7.8119 2.1332
2.8950 -7.7130 2.1332
3.1700 -7.6043 2.1332
3.4410 -7.4857 2.1332
3.7075 -7.3574 2.1332
3.9693 -7.2197 2.1332
4.2260 -7.0727 2.1332
4.4772 -6.9165 2.1332
4.7227 -6.7515 2.1332
4.9620 -6.5777 2.1332
5.1950 -6.3954 2.1332
5.4213 -6.2049 2.1332
5.6407 -6.0064 2.1332
5.8527 -5.8001 2.1332
5.9872 -5.5218 2.1085
6.1681 -5.2917 2.1039
6.3404 -5.0561 2.0993
6.5177 -4.8251 2.0992
6.6926 -4.5921 2.1011
6.8523 -4.3484 2.1008
6.9879 -4.0902 2.0960
6.1528 -3.3108 1.8086
6.1565 -3.0330 1.7765
6.1597 -2.7644 1.7476
7.4503 -3.0272 2.0816
6.1636 -2.2502 1.6984
7.6327 -2.4798 2.0773
6.1640 -1.7607 1.6593
6.1634 -1.5236 1.6433
6.1738 -1.2929 1.6326
7.9180 -1.3635 2.0796
6.1615 -0.8345 1.6093
8.0011 -0.7925 2.0810
6.1609 -0.3875 1.5978
8.0494 -0.2167 2.0841
6.1604 0.0554 1.5945
8.0780 0.3629 2.0928
6.1599 0.4988 1.5995
6.1597 0.7221 1.6051
6.1745 0.9496 1.6168
6.1591 1.1750 1.6228
8.0810 1.8445 2.1453
6.1586 1.6404 1.6495
6.1583 1.8795 1.6664
6.1580 2.1238 1.6859
6.1578 2.3743 1.7080
7.6610 3.2745 2.1562
7.5385 3.5474 2.1563
6.1568 3.1719 1.7925
6.1565 3.4569 1.8274
6.1562 3.7535 1.8661
6.1558 4.0634 1.9090
6.1554 4.3883 1.9565
6.1550 4.7302 2.0091
6.1781 5.1109 2.0752
6.1580 5.4782 2.1332
5.9573 5.6957 2.1332
5.7490 5.9059 2.1332
5.5333 6.1084 2.1332
5.3104 6.3030 2.1332
5.0807 6.4895 2.1332
4.8445 6.6677 2.1332
4.6020 6.8372 2.1332
4.3536 6.9980 2.1332
4.0995 7.1497 2.1332
3.8402 7.2922 2.1332
3.5759 7.4252 2.1332
3.3071 7.5487 2.1332
3.0339 7.6625 2.1332
2.7569 7.7664 2.1332
2.4763 7.8603 2.1332
2.1926 7.9440 2.1332
1.9981 8.4050 2.2363
1.6951 8.4712 2.2363
1.3899 8.5265 2.2363
1.0829 8.5707 2.2363
0.7746 8.6040 2.2363
0.4652 8.6261 2.2363
0.1553 8.6371 2.2363
-0.1549 8.6370 2.2363
-0.4648 8.6258 2.2363
-0.7741 8.6034 2.2363
-1.0824 8.5700 2.2363
-1.3893 8.5255 2.2363
-1.6944 8.4700 2.2363
-1.9974 8.4036 2.2363
-2.2977 8.3263 2.2363
-2.5951 8.2384 2.2363
-2.8891 8.1398 2.2363
-3.1794 8.0307 2.2363
-3.4655 7.9113 2.2363
-3.7472 7.7817 2.2363
-4.0241 7.6421 2.2363
-4.2957 7.4926 2.2363
-4.5618 7.3334 2.2363
-4.8221 7.1648 2.2363
-5.0761 6.9870 2.2363
-5.3236 6.8002 2.2363
-5.5642 6.6046 2.2363
-5.7976 6.4005 2.2363
-5.9030 6.0645 2.1915
-5.9539 5.6928 2.1332
-6.1830 5.5009 2.1431
-6.3468 5.2508 2.1332
-6.5311 5.0195 2.1331
-6.7070 4.7817 2.1331
-6.8741 4.5378 2.1331
-7.0324 4.2880 2.1331
-7.1817 4.0327 2.1331
-7.3215 3.7721 2.1330
-7.4521 3.5069 2.1330
-7.5731 3.2371 2.1330
-7.6843 2.9631 2.1330
-7.7856 2.6853 2.1330
-6.8915 2.1033 1.8662
-6.6928 1.7827 1.7939
-6.6881 1.5266 1.7768
-6.6878 1.2759 1.7634
-6.6875 1.0286 1.7525
-8.1792 0.9589 2.1330
-8.2083 0.6647 2.1330
-8.2268 0.3696 2.1330
-8.2347 0.0740 2.1330
-8.2320 -0.2216 2.1330
-8.2187 -0.5170 2.1330
-8.1948 -0.8117 2.1330
-8.1603 -1.1053 2.1330
-8.1154 -1.3975 2.1330
-8.0600 -1.6880 2.1330
-7.9941 -1.9762 2.1330
-7.9180 -2.2619 2.1330
