ply
format ascii 1.0
element vertex 2162
property float32 x
property float32 y
property float32 z
end_header
-7.7637 -0.7697 1.1051
-15.0764 -2.0434 2.1547
-14.9955 -2.5837 2.1547
-14.8952 -3.1208 2.1547
-14.7758 -3.6539 2.1547
-14.6371 -4.1826 2.1547
-14.4796 -4.7059 2.1547
-14.3033 -5.2234 2.1547
-14.1086 -5.7342 2.1547
-13.8955 -6.2378 2.1547
-13.6645 -6.7334 2.1547
-13.4157 -7.2205 2.1547
-13.1496 -7.6984 2.1547
-12.8664 -8.1665 2.1547
-12.5666 -8.6242 2.1547
-12.1438 -8.9918 2.1360
-11.8146 -9.4231 2.1360
-11.4701 -9.8422 2.1360
-11.1106 -10.2487 2.1360
-10.7368 -10.6421 2.1360
-10.3490 -11.0218 2.1360
-9.9477 -11.3872 2.1360
-9.5189 -11.7202 2.1327
-9.0929 -12.0555 2.1327
-8.6551 -12.3752 2.1327
-8.2061 -12.6789 2.1327
-7.7463 -12.9664 2.1327
-7.2765 -13.2371 2.1327
-6.7971 -13.4907 2.1327
-6.3089 -13.7269 2.1327
-5.8934 -14.1394 2.1624
-5.5655 -14.8306 2.2360
-5.0299 -15.0216 2.2360
-4.4877 -15.1932 2.2360
-3.9396 -15.3451 2.2360
-3.3864 -15.4772 2.2360
-2.8288 -15.5893 2.2360
-2.2675 -15.6812 2.2360
-1.7032 -15.7529 2.2360
-1.1367 -15.8041 2.2360
-0.5687 -15.8349 2.2360
0.0000 -13.6208 2.2360
0.4889 -13.6120 2.2360
0.9772 -13.5856 2.2360
1.4642 -13.5417 2.2360
1.9492 -13.4802 2.2360
2.3197 -12.7835 2.1329
2.7770 -12.6917 2.1329
3.2306 -12.5835 2.1329
3.6801 -12.4591 2.1329
4.1248 -12.3185 2.1329
4.5641 -12.1621 2.1329
4.9974 -11.9899 2.1329
5.4243 -11.8022 2.1329
5.8441 -11.5993 2.1329
6.3241 -11.5047 2.1560
6.7326 -11.2696 2.1560
7.0887 -10.9527 2.1428
7.3652 -10.5309 2.1108
7.5277 -9.9803 2.0535
7.6711 -9.4452 1.9989
7.8430 -8.9781 1.9586
8.0851 -8.6108 1.9407
8.3735 -8.2997 1.9373
8.6773 -8.0043 1.9400
8.9884 -7.7129 1.9466
9.2907 -7.4101 1.9533
9.5886 -7.1000 1.9613
9.7381 -6.6832 1.9417
9.9700 -6.3282 1.9416
10.1894 -5.9655 1.9415
10.3957 -5.5952 1.9415
10.5915 -5.2193 1.9420
10.7747 -4.8370 1.9427
10.9438 -4.4481 1.9434
11.5327 -4.2117 2.0200
11.7041 -3.8040 2.0250
11.8623 -3.3898 2.0303
12.0103 -2.9702 2.0363
6.0897 -1.2760 1.0242
6.6772 -1.1505 1.1154
8.4798 -1.1495 1.4090
11.5744 -1.1476 1.9153
12.4501 -0.7844 2.0544
12.4686 -0.3370 2.0544
12.4910 0.1110 2.0577
12.4987 0.5601 2.0612
12.4751 1.0088 2.0622
12.4175 1.4544 2.0603
12.3387 1.8964 2.0574
12.2450 2.3347 2.0547
12.0894 2.7582 2.0442
11.7652 3.1325 2.0073
11.2856 3.4431 1.9456
10.8837 3.7526 1.8986
10.7035 4.1260 1.8920
10.5167 4.4940 1.8865
6.1612 2.8986 1.1233
6.1605 3.1732 1.1433
6.1694 3.4635 1.1675
10.5179 6.4118 2.0328
10.4616 6.9045 2.0688
6.1595 4.3905 1.2485
6.1593 4.7328 1.2823
6.1591 5.0945 1.3196
6.1589 5.4783 1.3610
6.1821 5.9099 1.4123
6.1583 6.3256 1.4579
6.1581 6.7973 1.5148
6.1764 7.3301 1.5832
6.1574 7.8640 1.6499
6.1571 8.4735 1.7303
7.2873 10.8258 2.1560
6.1562 9.8947 1.9254
6.1713 10.7620 2.0499
6.0147 11.4205 2.1329
5.6005 11.6284 2.1329
5.1792 11.8213 2.1329
4.7512 11.9990 2.1329
4.3172 12.1612 2.1329
3.8777 12.3078 2.1329
3.4332 12.4386 2.1329
2.9843 12.5534 2.1329
2.5317 12.6521 2.1329
2.1398 13.1271 2.1987
1.6954 13.4192 2.2360
1.2126 13.4712 2.2360
0.7282 13.5059 2.2360
0.2428 13.5232 2.2360
-0.2428 13.5232 2.2360
-0.7281 13.5058 2.2360
-1.2125 13.4710 2.2360
-1.6953 13.4189 2.2360
-2.1760 13.3496 2.2360
-2.6539 13.2632 2.2360
-3.1284 13.1597 2.2360
-3.5989 13.0392 2.2360
-4.0648 12.9021 2.2360
-4.5256 12.7483 2.2360
-4.9805 12.5781 2.2360
-5.4291 12.3918 2.2360
-5.8707 12.1895 2.2360
-6.0142 11.4196 2.1329
-6.4206 11.1970 2.1329
-6.8189 10.9599 2.1329
-7.2084 10.7088 2.1329
-7.5887 10.4438 2.1329
-7.9593 10.1654 2.1329
-8.3198 9.8739 2.1329
-8.6696 9.5696 2.1329
-9.0083 9.2530 2.1329
-9.3355 8.9245 2.1329
-9.6507 8.5843 2.1329
-9.9680 8.2451 2.1360
-10.2585 7.8827 2.1360
-10.5359 7.5101 2.1360
-10.7999 7.1277 2.1360
-11.0499 6.7362 2.1360
-11.2858 6.3358 2.1360
-11.5072 5.9272 2.1360
-11.7139 5.5109 2.1360
-11.9055 5.0875 2.1360
-12.0819 4.6574 2.1360
-12.3502 4.2582 2.1547
-12.4966 3.8126 2.1547
-12.6269 3.3619 2.1547
-12.7410 2.9068 2.1547
-12.8387 2.4479 2.1547
-12.9199 1.9857 2.1547
-12.9845 1.5208 2.1547
-13.0323 1.0539 2.1547
-13.0634 0.5855 2.1547
-13.0777 0.1162 2.1547
-7.8927 -0.2133 1.3007
-8.3379 -0.5254 1.3761
-7.7469 -0.7681 1.2821
-8.3421 -1.1308 1.3863
-8.1059 -1.3967 1.3543
-7.6720 -1.6075 1.2905
-12.7068 -3.1425 2.1547
-12.5874 -3.5970 2.1547
-12.4517 -4.0470 2.1547
-12.2999 -4.4919 2.1547
-12.0266 -4.8882 2.1360
-11.8447 -5.3174 2.1360
-11.6476 -5.7398 2.1360
-11.4354 -6.1549 2.1360
-11.2083 -6.5621 2.1360
-10.9668 -6.9609 2.1360
-10.7110 -7.3509 2.1360
-10.4413 -7.7314 2.1360
-10.1581 -8.1020 2.1360
-9.8467 -8.4494 2.1327
-9.5380 -8.7982 2.1327
-7.0155 -6.9537 1.6233
-6.7620 -7.2017 1.6233
-8.5393 -9.7752 2.1327
-8.1836 -10.0763 2.1327
-7.8173 -10.3643 2.1327
-7.4408 -10.6391 2.1327
-7.0546 -10.9001 2.1327
-6.6593 -11.1471 2.1327
-6.2553 -11.3796 2.1327
-5.8974 -11.7051 2.1525
-5.6860 -12.3718 2.2360
-5.2386 -12.5686 2.2360
-4.7843 -12.7491 2.2360
-4.3238 -12.9132 2.2360
-3.8577 -13.0606 2.2360
-3.3866 -13.1912 2.2360
-2.9110 -13.3046 2.2360
-2.4317 -13.4009 2.2360
-1.9491 -13.4799 2.2360
-1.4641 -13.5414 2.2360
-0.9771 -13.5854 2.2360
-0.4889 -13.6119 2.2360
0.0000 -11.9331 2.2360
0.4283 -11.9254 2.2360
0.8561 -11.9023 2.2360
1.2827 -11.8638 2.2360
1.7077 -11.8100 2.2360
2.1305 -11.7409 2.2360
2.4329 -11.1192 2.1329
2.8303 -11.0245 2.1329
3.2241 -10.9155 2.1329
3.6137 -10.7924 2.1329
3.9986 -10.6554 2.1329
4.3783 -10.5046 2.1329
4.7523 -10.3402 2.1329
5.1202 -10.1625 2.1329
5.4814 -9.9717 2.1329
5.8354 -9.7680 2.1329
6.2489 -9.6552 2.1560
6.4544 -9.2288 2.1113
6.6746 -8.8494 2.0781
6.8071 -8.3815 2.0245
7.0013 -8.0148 1.9955
7.2314 -7.7018 1.9811
7.4613 -7.3957 1.9702
7.7122 -7.1142 1.9679
7.9220 -6.7979 1.9580
8.1526 -6.5026 1.9562
8.3566 -6.1879 1.9507
8.5564 -5.8723 1.9471
8.7517 -5.5551 1.9450
8.9357 -5.2316 1.9431
9.1143 -4.9057 1.9425
9.2821 -4.5742 1.9422
9.8122 -4.4050 2.0189
10.0363 -4.0794 2.0338
10.1967 -3.7240 2.0381
10.3454 -3.3626 2.0425
10.4581 -2.9887 2.0425
10.5665 -2.6133 2.0442
6.0897 -1.2760 1.1687
6.6766 -1.1505 1.2727
8.4790 -1.1495 1.6075
10.8888 -1.0798 2.0559
10.9372 -0.6893 2.0593
10.9679 -0.2966 2.0619
8.2301 0.0730 1.5469
8.2212 0.3683 1.5469
8.2018 0.6632 1.5469
6.1474 0.7199 1.1637
8.1313 1.2496 1.5469
6.1538 1.1732 1.1781
10.3920 2.3708 2.0047
6.1592 1.6398 1.1989
9.9700 3.0416 1.9609
6.1620 2.1245 1.2263
6.1710 2.3787 1.2444
9.6411 4.1197 1.9729
6.1612 2.8985 1.2814
6.1605 3.1731 1.3043
6.1696 3.4635 1.3318
6.1834 3.7694 1.3633
6.1832 4.0807 1.3948
6.1595 4.3904 1.4242
6.1593 4.7327 1.4627
6.1591 5.0944 1.5052
6.1589 5.4782 1.5524
8.2742 7.9097 2.1560
6.1583 6.3255 1.6630
6.1581 6.7972 1.7278
6.1765 7.3301 1.8058
6.1574 7.8639 1.8818
6.1571 8.4733 1.9735
6.1802 9.1810 2.0855
5.9791 9.6100 2.1329
5.6300 9.8179 2.1329
5.2736 10.0131 2.1329
4.9104 10.1954 2.1329
4.5410 10.3646 2.1329
4.1659 10.5205 2.1329
3.7853 10.6628 2.1329
3.4000 10.7914 2.1329
3.0103 10.9061 2.1329
2.6167 11.0069 2.1329
2.2198 11.0934 2.1329
1.9081 11.7054 2.2360
1.4866 11.7661 2.2360
1.0632 11.8117 2.2360
0.6385 11.8421 2.2360
0.2129 11.8573 2.2360
-0.2129 11.8573 2.2360
-0.6384 11.8421 2.2360
-1.0631 11.8116 2.2360
-1.4865 11.7659 2.2360
-1.9080 11.7051 2.2360
-2.3270 11.6292 2.2360
-2.7430 11.5385 2.2360
-3.1556 11.4328 2.2360
-3.5641 11.3125 2.2360
-3.9680 11.1776 2.2360
-4.3669 11.0284 2.2360
-4.7602 10.8649 2.2360
-5.1474 10.6875 2.2360
-5.5280 10.4963 2.2360
-5.8916 10.2742 2.2322
-5.9786 9.6092 2.1329
-6.3201 9.3889 2.1329
-6.6534 9.1565 2.1329
-6.9783 8.9123 2.1329
-7.2942 8.6566 2.1329
-7.6007 8.3897 2.1328
-7.8975 8.1119 2.1328
-6.6885 6.3939 1.7430
-6.6883 5.9491 1.6861
-6.6953 5.5379 1.6365
-6.8350 5.2519 1.6233
-7.1673 5.1087 1.6574
-9.4534 6.2390 2.1327
-9.6722 5.8962 2.1327
-9.8786 5.5457 2.1327
-10.0876 5.1959 2.1360
-10.2687 4.8309 2.1360
-10.4365 4.4596 2.1360
-10.5909 4.0825 2.1360
-10.7318 3.7000 2.1360
-10.8588 3.3128 2.1360
-10.9719 2.9211 2.1360
-11.0709 2.5257 2.1360
-11.1556 2.1268 2.1360
-11.2260 1.7252 2.1360
-11.2820 1.3213 2.1360
-11.3234 0.9155 2.1360
-11.3502 0.5085 2.1360
-11.3624 0.1008 2.1360
-7.6058 -0.2057 1.4301
-7.1757 -0.4522 1.3513
-7.0591 -0.7000 1.3330
-7.0650 -0.9578 1.3396
-7.2277 -1.2455 1.3779
-11.1287 -2.3319 2.1360
-11.0391 -2.7302 2.1360
-10.9351 -3.1250 2.1360
-10.8171 -3.5159 2.1360
-10.6850 -3.9023 2.1360
-10.5392 -4.2838 2.1360
-10.3797 -4.6598 2.1360
-10.2068 -5.0299 2.1360
-10.0207 -5.3935 2.1360
-9.8066 -5.7416 2.1327
-9.5951 -6.0905 2.1327
-9.3712 -6.4316 2.1327
-9.1352 -6.7644 2.1327
-8.8873 -7.0886 2.1327
-7.0593 -6.0577 1.7450
-6.6810 -6.1630 1.7050
-6.6807 -6.6221 1.7643
-6.8321 -7.2765 1.8719
-7.4819 -8.5650 2.1327
-7.1702 -8.8287 2.1327
-6.8492 -9.0810 2.1327
-6.5193 -9.3216 2.1327
-6.1809 -9.5502 2.1327
-5.8976 -9.8722 2.1558
-5.7458 -10.4529 2.2360
-5.3672 -10.6530 2.2360
-4.9817 -10.8393 2.2360
-4.5896 -11.0117 2.2360
-4.1916 -11.1698 2.2360
-3.7881 -11.3135 2.2360
-3.3797 -11.4426 2.2360
-2.9670 -11.5569 2.2360
-2.5503 -11.6563 2.2360
-2.1304 -11.7406 2.2360
-1.7076 -11.8097 2.2360
-1.2826 -11.8636 2.2360
-0.8560 -11.9022 2.2360
-0.4283 -11.9253 2.2360
0.0000 -10.6076 2.2360
0.3808 -10.6008 2.2360
0.7610 -10.5802 2.2360
1.1402 -10.5460 2.2360
1.5180 -10.4982 2.2360
1.8938 -10.4368 2.2360
2.1660 -9.8996 2.1362
2.5159 -9.8000 2.1329
2.8660 -9.7032 2.1329
3.2123 -9.5938 2.1329
3.5545 -9.4720 2.1329
3.8920 -9.3380 2.1329
4.2245 -9.1919 2.1329
4.5515 -9.0340 2.1329
4.8726 -8.8644 2.1329
5.1874 -8.6834 2.1329
5.4955 -8.4912 2.1329
5.7964 -8.2880 2.1329
6.0754 -8.0551 2.1278
6.2525 -7.6987 2.0918
6.4411 -7.3736 2.0651
6.6182 -7.0487 2.0395
6.8310 -6.7710 2.0290
7.0222 -6.4778 2.0156
7.2061 -6.1837 2.0034
7.3803 -5.8867 1.9920
7.5493 -5.5902 1.9823
7.7130 -5.2936 1.9742
7.8670 -4.9937 1.9666
8.0131 -4.6916 1.9599
8.1901 -4.4084 1.9634
8.6428 -4.2593 2.0341
8.7711 -3.9377 2.0298
8.9033 -3.6190 2.0292
9.0422 -3.3024 2.0327
9.1625 -2.9782 2.0346
9.2703 -2.6494 2.0363
9.3654 -2.3164 2.0378
6.0897 -1.2761 1.3144
6.6761 -1.1505 1.4312
8.4782 -1.1495 1.8077
9.6312 -0.9552 2.0451
9.6630 -0.6091 2.0461
9.6865 -0.2621 2.0480
9.7112 0.0860 2.0527
9.7005 0.4345 2.0526
9.6768 0.7823 2.0525
6.1474 0.7199 1.3087
8.1611 1.2541 1.7460
6.1538 1.1732 1.3248
9.4011 2.1446 2.0394
6.1592 1.6397 1.3482
6.1846 1.8867 1.3678
6.1620 2.1244 1.3789
6.1712 2.3787 1.3993
8.8529 3.7827 2.0371
6.1612 2.8984 1.4409
6.1605 3.1730 1.4666
6.1698 3.4635 1.4976
8.5102 5.1876 2.1097
8.3800 5.5304 2.1255
6.1595 4.3903 1.6014
6.1593 4.7326 1.6446
6.1591 5.0943 1.6924
6.1589 5.4781 1.7455
7.3591 7.0348 2.1560
6.1583 6.3254 1.8697
6.1581 6.7971 1.9427
6.1766 7.3301 2.0304
6.2747 8.0135 2.1560
5.9185 8.1448 2.1329
5.6219 8.3516 2.1329
5.3182 8.5475 2.1329
5.0076 8.7325 2.1329
4.6907 8.9062 2.1329
4.3677 9.0684 2.1329
4.0392 9.2189 2.1329
3.7054 9.3576 2.1329
3.3670 9.4843 2.1329
3.0242 9.5987 2.1329
2.6776 9.7008 2.1329
2.3324 9.8110 2.1374
2.0700 10.3443 2.2360
1.6972 10.4118 2.2360
1.3223 10.4658 2.2360
0.9457 10.5064 2.2360
0.5679 10.5335 2.2360
0.1894 10.5470 2.2360
-0.1894 10.5470 2.2360
-0.5679 10.5334 2.2360
-0.9457 10.5063 2.2360
-1.3222 10.4656 2.2360
-1.6971 10.4115 2.2360
-2.0699 10.3441 2.2360
-2.4399 10.2633 2.2360
-2.8069 10.1693 2.2360
-3.1702 10.0622 2.2360
-3.5295 9.9422 2.2360
-3.8843 9.8094 2.2360
-4.2341 9.6640 2.2360
-4.5785 9.5061 2.2360
-4.9170 9.3361 2.2360
-5.2493 9.1539 2.2360
-5.5748 8.9600 2.2360
-5.8932 8.7546 2.2360
-5.9176 8.1437 2.1328
-6.2064 7.9264 2.1327
-6.4873 7.6989 2.1327
-6.7600 7.4615 2.1327
-7.0239 7.2145 2.1327
-7.2789 6.9582 2.1327
-7.5246 6.6929 2.1327
-7.7606 6.4189 2.1327
-6.6891 5.1397 1.7863
-8.2024 5.8465 2.1327
-8.4077 5.5487 2.1327
-8.6022 5.2437 2.1327
-8.7856 4.9319 2.1327
-8.9578 4.6138 2.1327
-9.1184 4.2896 2.1327
-9.2674 3.9599 2.1327
-9.4044 3.6250 2.1327
-9.5294 3.2854 2.1327
-9.6421 2.9414 2.1327
-9.7424 2.5937 2.1327
-9.8301 2.2425 2.1327
-9.9053 1.8883 2.1327
-9.9829 1.5340 2.1360
-10.0325 1.1748 2.1360
-10.0692 0.8140 2.1360
-10.0929 0.4521 2.1360
-10.1036 0.0895 2.1360
-10.1014 -0.2733 2.1360
-7.2923 -0.4597 1.5443
-7.1708 -0.7112 1.5229
-7.1748 -0.9728 1.5300
-7.3757 -1.2711 1.5814
-9.8801 -2.0704 2.1327
-9.8004 -2.4240 2.1327
-9.7080 -2.7745 2.1327
-9.6031 -3.1214 2.1327
-9.4857 -3.4645 2.1327
-9.3562 -3.8031 2.1327
-9.2145 -4.1368 2.1327
-9.0609 -4.4653 2.1327
-8.8956 -4.7881 2.1327
-8.7187 -5.1048 2.1327
-8.5306 -5.4149 2.1327
-8.3315 -5.7181 2.1327
-8.1215 -6.0140 2.1327
-7.9011 -6.3021 2.1327
-7.6704 -6.5822 2.1327
-6.8261 -6.2969 1.9595
-7.1795 -7.1166 2.1327
-6.8320 -7.2765 2.1056
-6.6514 -7.6143 2.1327
-6.3742 -7.8487 2.1327
-6.1040 -8.0931 2.1381
-5.8950 -8.4292 2.1694
-5.7606 -8.9010 2.2360
-5.4377 -9.1025 2.2360
-5.1078 -9.2923 2.2360
-4.7712 -9.4701 2.2360
-4.4284 -9.6357 2.2360
-4.0799 -9.7888 2.2360
-3.7260 -9.9294 2.2360
-3.3674 -10.0571 2.2360
-3.0043 -10.1718 2.2360
-2.6374 -10.2733 2.2360
-2.2670 -10.3617 2.2360
-1.8937 -10.4366 2.2360
-1.5179 -10.4980 2.2360
-1.1402 -10.5459 2.2360
-0.7609 -10.5801 2.2360
-0.3807 -10.6007 2.2360
0.0000 -9.5380 2.2360
0.3424 -9.5319 2.2360
0.6842 -9.5134 2.2360
1.0253 -9.4827 2.2360
1.3649 -9.4397 2.2360
1.7028 -9.3845 2.2360
2.0385 -9.3172 2.2360
2.2622 -8.8120 2.1329
2.5770 -8.7249 2.1329
2.8884 -8.6266 2.1329
3.1961 -8.5171 2.1329
3.4996 -8.3966 2.1329
3.7986 -8.2653 2.1329
4.0927 -8.1234 2.1329
4.3814 -7.9709 2.1329
4.6645 -7.8082 2.1329
4.9415 -7.6354 2.1329
5.2121 -7.4527 2.1329
5.4759 -7.2605 2.1329
5.7327 -7.0589 2.1329
5.9603 -6.8232 2.1251
6.0770 -6.4725 2.0827
6.2653 -6.2104 2.0695
6.4445 -5.9450 2.0570
6.6136 -5.6754 2.0447
6.7738 -5.4030 2.0331
6.9252 -5.1282 2.0221
7.0700 -4.8524 2.0123
7.2067 -4.5746 2.0033
7.5258 -4.4064 2.0469
7.7577 -4.1757 2.0680
7.8755 -3.8813 2.0611
7.9837 -3.5844 2.0545
8.0920 -3.2893 2.0508
8.2029 -2.9960 2.0505
8.3042 -2.6993 2.0504
8.3851 -2.3965 2.0480
8.4620 -2.0931 2.0473
6.0897 -1.2762 1.4615
6.6756 -1.1505 1.5913
8.4774 -1.1495 2.0098
8.6358 -0.8566 2.0389
8.6478 -0.5452 2.0360
8.6546 -0.2343 2.0345
8.6727 0.0767 2.0383
8.6927 0.3892 2.0451
8.7013 0.7033 2.0519
6.1474 0.7198 1.4550
8.1611 1.2540 1.9412
6.1538 1.1731 1.4729
8.5326 1.9463 2.0579
6.1592 1.6396 1.4989
8.3826 2.5571 2.0611
6.1620 2.1243 1.5330
6.1714 2.3787 1.5558
8.1172 3.4683 2.0765
6.1612 2.8983 1.6019
6.1605 3.1729 1.6304
6.1699 3.4635 1.6649
7.6223 4.6463 2.1006
7.5033 4.9517 2.1157
6.1595 4.3902 1.7802
6.1593 4.7325 1.8283
6.1591 5.0942 1.8814
6.1589 5.4780 1.9404
6.6200 6.3281 2.1560
6.1583 6.3253 2.0785
6.0822 6.7132 2.1329
5.8369 6.9268 2.1329
5.5841 7.1314 2.1329
5.3242 7.3269 2.1329
5.0575 7.5129 2.1329
4.7842 7.6892 2.1329
4.5049 7.8557 2.1329
4.2198 8.0120 2.1329
3.9293 8.1579 2.1329
3.6337 8.2934 2.1329
3.3335 8.4182 2.1329
3.0290 8.5322 2.1329
2.7207 8.6351 2.1329
2.4089 8.7270 2.1329
2.1426 9.0122 2.1824
1.8622 9.3060 2.2360
1.5269 9.3667 2.2360
1.1896 9.4153 2.2360
0.8508 9.4518 2.2360
0.5109 9.4762 2.2360
0.1704 9.4884 2.2360
-0.1703 9.4884 2.2360
-0.5109 9.4762 2.2360
-0.8508 9.4517 2.2360
-1.1895 9.4152 2.2360
-1.5268 9.3665 2.2360
-1.8621 9.3058 2.2360
-2.1950 9.2331 2.2360
-2.5251 9.1485 2.2360
-2.8520 9.0522 2.2360
-3.1753 8.9442 2.2360
-3.4944 8.8247 2.2360
-3.8091 8.6938 2.2360
-4.1189 8.5518 2.2360
-4.4234 8.3987 2.2360
-4.7223 8.2349 2.2360
-5.0151 8.0604 2.2360
-5.3015 7.8755 2.2360
-5.5811 7.6805 2.2360
-5.8535 7.4756 2.2360
-5.9070 7.0101 2.1587
-6.0812 6.7121 2.1327
-6.3186 6.4899 2.1327
-6.5479 6.2593 2.1327
-6.7688 6.0206 2.1327
-6.9811 5.7741 2.1327
-6.9606 5.3482 2.0663
-7.3784 5.2590 2.1327
-7.5630 4.9911 2.1327
-7.7379 4.7168 2.1327
-7.9029 4.4363 2.1327
-8.0577 4.1500 2.1327
-8.2021 3.8584 2.1327
-8.3360 3.5618 2.1327
-8.4592 3.2605 2.1327
-8.5715 2.9550 2.1327
-8.6728 2.6456 2.1327
-8.7629 2.3328 2.1327
-6.3640 1.4517 1.5351
-6.3644 1.2132 1.5235
-8.9653 1.3776 2.1327
-9.0098 1.0549 2.1327
-9.0427 0.7309 2.1327
-9.0639 0.4059 2.1327
-9.0735 0.0803 2.1327
-9.0713 -0.2455 2.1327
-7.4764 -0.4714 1.7605
-7.2938 -0.7235 1.7223
-7.3106 -0.9913 1.7334
-8.9460 -1.5419 2.1327
-8.8857 -1.8622 2.1327
-8.8139 -2.1801 2.1327
-8.7308 -2.4953 2.1327
-8.6363 -2.8073 2.1327
-8.5307 -3.1158 2.1327
-8.4141 -3.4203 2.1327
-8.2866 -3.7204 2.1327
-8.1484 -4.0158 2.1327
-7.9997 -4.3060 2.1327
-7.8406 -4.5908 2.1327
-7.6714 -4.8696 2.1327
-7.4922 -5.1422 2.1327
-7.3034 -5.4082 2.1327
-7.1051 -5.6673 2.1327
-6.8976 -5.9191 2.1327
-6.6811 -6.1633 2.1327
-6.4560 -6.3996 2.1327
-6.2226 -6.6276 2.1327
-5.9811 -6.8471 2.1327
-5.8923 -7.2555 2.1925
-5.7402 -7.6108 2.2360
-5.4636 -7.8124 2.2360
-5.1799 -8.0039 2.2360
-4.8896 -8.1851 2.2360
-4.5929 -8.3557 2.2360
-4.2902 -8.5155 2.2360
-3.9819 -8.6644 2.2360
-3.6685 -8.8021 2.2360
-3.3504 -8.9284 2.2360
-3.0278 -9.0432 2.2360
-2.7014 -9.1463 2.2360
-2.3715 -9.2376 2.2360
-2.0384 -9.3170 2.2360
-1.7027 -9.3843 2.2360
-1.3649 -9.4395 2.2360
-1.0252 -9.4826 2.2360
-0.6842 -9.5134 2.2360
-0.3423 -9.5319 2.2360
0.0000 -8.6560 2.2360
0.3107 -8.6504 2.2360
0.6210 -8.6337 2.2360
0.9304 -8.6058 2.2360
1.2387 -8.5668 2.2360
1.5454 -8.5167 2.2360
1.8500 -8.4556 2.2360
2.1523 -8.3836 2.2360
2.3455 -7.9412 2.1391
2.6213 -7.8289 2.1329
2.9005 -7.7296 2.1329
3.1760 -7.6202 2.1329
3.4473 -7.5011 2.1329
3.7142 -7.3723 2.1329
3.9763 -7.2340 2.1329
4.2332 -7.0863 2.1329
4.4846 -6.9295 2.1329
4.7302 -6.7638 2.1329
4.9697 -6.5894 2.1329
5.2027 -6.4064 2.1329
5.4291 -6.2152 2.1329
5.6483 -6.0160 2.1329
5.8603 -5.8091 2.1329
5.9474 -5.4865 2.0917
6.1073 -5.2411 2.0805
6.2591 -4.9926 2.0699
6.4027 -4.7413 2.0599
6.5375 -4.4870 2.0502
6.8642 -4.3573 2.1024
6.9979 -4.0974 2.0970
7.1170 -3.8310 2.0903
7.2272 -3.5618 2.0839
7.3289 -3.2905 2.0779
7.4278 -3.0194 2.0741
7.5219 -2.7474 2.0716
7.6124 -2.4746 2.0709
7.6913 -2.1983 2.0697
7.7628 -1.9202 2.0692
6.0897 -1.2763 1.6101
6.6751 -1.1505 1.7530
7.9199 -1.0740 2.0686
7.9409 -0.7878 2.0655
7.9529 -0.5015 2.0628
7.9610 -0.2156 2.0617
7.9066 0.0698 2.0472
7.9704 0.3568 2.0658
7.9617 0.6434 2.0684
6.1474 0.7197 1.6029
7.9023 1.2141 2.0707
6.1538 1.1730 1.6226
7.8024 1.7797 2.0730
6.1592 1.6396 1.6512
7.6758 2.3414 2.0791
6.1620 2.1242 1.6888
6.1717 2.3787 1.7139
7.4152 3.1682 2.0896
6.1612 2.8982 1.7646
6.1605 3.1728 1.7960
6.1701 3.4635 1.8340
6.9219 4.2192 2.1013
6.7654 4.4646 2.1013
6.1595 4.3901 1.9610
6.1593 4.7324 2.0139
6.1591 5.0940 2.0724
6.1461 5.4665 2.1329
5.9455 5.6833 2.1329
5.7373 5.8927 2.1329
5.5217 6.0945 2.1329
5.2991 6.2885 2.1329
5.0696 6.4743 2.1329
4.8337 6.6518 2.1329
4.5915 6.8207 2.1329
4.3435 6.9808 2.1329
4.0899 7.1319 2.1329
3.8311 7.2738 2.1329
3.5673 7.4064 2.1329
3.2990 7.5294 2.1329
3.0265 7.6428 2.1329
2.7501 7.7462 2.1329
2.4701 7.8398 2.1329
2.1870 7.9232 2.1329
1.9930 8.3829 2.2360
1.6907 8.4489 2.2360
1.3863 8.5040 2.2360
1.0801 8.5482 2.2360
0.7725 8.5813 2.2360
0.4639 8.6035 2.2360
0.1547 8.6145 2.2360
-0.1547 8.6145 2.2360
-0.4638 8.6034 2.2360
-0.7724 8.5812 2.2360
-1.0800 8.5480 2.2360
-1.3862 8.5038 2.2360
-1.6906 8.4487 2.2360
-1.9929 8.3827 2.2360
-2.2926 8.3059 2.2360
-2.5894 8.2184 2.2360
-2.8828 8.1203 2.2360
-3.1726 8.0118 2.2360
-3.4583 7.8930 2.2360
-3.7395 7.7640 2.2360
-4.0160 7.6250 2.2360
-4.2873 7.4762 2.2360
-4.5532 7.3178 2.2360
-4.8131 7.1499 2.2360
-5.0669 6.9728 2.2360
-5.3143 6.7868 2.2360
-5.5548 6.5919 2.2360
-5.7882 6.3886 2.2360
-5.9003 6.0601 2.1937
-5.9446 5.6824 2.1327
-6.1451 5.4657 2.1327
-6.3377 5.2419 2.1327
-6.5222 5.0113 2.1327
-6.6984 4.7742 2.1327
-6.8659 4.5310 2.1327
-7.0246 4.2819 2.1327
-7.1743 4.0272 2.1327
-7.3148 3.7673 2.1327
-7.4459 3.5026 2.1327
-7.5674 3.2333 2.1327
-7.6792 2.9597 2.1327
-7.7811 2.6824 2.1327
-7.8730 2.4015 2.1327
-7.9547 2.1175 2.1327
-6.3575 1.4501 1.6893
-6.3579 1.2119 1.6766
-8.1383 1.2504 2.1327
-8.1786 0.9575 2.1327
-8.2083 0.6633 2.1327
-8.2276 0.3683 2.1327
-8.2362 0.0727 2.1327
-8.2341 -0.2230 2.1327
-8.2215 -0.5185 2.1327
-7.4180 -0.7359 1.9297
-7.7353 -1.0490 2.0206
-8.1202 -1.3996 2.1327
-8.0654 -1.6903 2.1327
-8.0001 -1.9789 2.1327
-7.9246 -2.2650 2.1327
-7.8388 -2.5482 2.1327
-7.7429 -2.8282 2.1327
-7.6370 -3.1045 2.1327
-7.5212 -3.3769 2.1327
-7.3957 -3.6450 2.1327
-7.2607 -3.9084 2.1327
-7.1163 -4.1668 2.1327
-6.9626 -4.4198 2.1327
-6.8000 -4.6672 2.1327
-6.6285 -4.9086 2.1327
-6.4485 -5.1437 2.1327
-6.2601 -5.3722 2.1327
-6.0636 -5.5938 2.1327
-5.9020 -5.8505 2.1483
-5.8929 -6.2766 2.2254
-5.6910 -6.5152 2.2360
-5.4538 -6.7156 2.2360
-5.2095 -6.9074 2.2360
-4.9585 -7.0903 2.2360
-4.7010 -7.2640 2.2360
-4.4375 -7.4284 2.2360
-4.1682 -7.5832 2.2360
-3.8935 -7.7283 2.2360
-3.6137 -7.8633 2.2360
-3.3293 -7.9882 2.2360
-3.0405 -8.1028 2.2360
-2.7478 -8.2070 2.2360
-2.4516 -8.3006 2.2360
-2.1522 -8.3834 2.2360
-1.8499 -8.4554 2.2360
-1.5453 -8.5165 2.2360
-1.2386 -8.5666 2.2360
-0.9304 -8.6057 2.2360
-0.6209 -8.6336 2.2360
-0.3106 -8.6504 2.2360
0.0000 -7.9154 2.2360
0.2841 -7.9103 2.2360
0.5678 -7.8950 2.2360
0.8508 -7.8695 2.2360
1.1327 -7.8339 2.2360
1.4131 -7.7881 2.2360
1.6917 -7.7322 2.2360
1.9681 -7.6664 2.2360
2.1602 -7.3140 2.1545
2.3970 -7.1592 2.1329
2.6524 -7.0683 2.1329
2.9043 -6.9684 2.1329
3.1524 -6.8595 2.1329
3.3965 -6.7417 2.1329
3.6361 -6.6152 2.1329
3.8711 -6.4802 2.1329
4.1010 -6.3369 2.1329
4.3256 -6.1853 2.1329
4.5446 -6.0258 2.1329
4.7577 -5.8586 2.1329
4.9647 -5.6837 2.1329
5.1653 -5.5016 2.1329
5.3591 -5.3124 2.1329
5.5460 -5.1163 2.1329
5.7258 -4.9137 2.1329
5.8981 -4.7048 2.1329
5.9586 -4.4126 2.0962
6.1626 -4.2298 2.1133
6.3035 -4.0015 2.1111
6.4352 -3.7681 2.1087
6.5515 -3.5267 2.1041
6.6593 -3.2821 2.0996
6.7612 -3.0357 2.0961
6.8602 -2.7888 2.0946
6.9493 -2.5384 2.0928
7.0277 -2.2846 2.0904
7.0972 -2.0286 2.0883
7.1583 -1.7708 2.0864
6.0897 -1.2764 1.7606
6.6746 -1.1505 1.9166
7.3082 -0.9911 2.0871
7.3429 -0.7285 2.0883
7.3550 -0.4639 2.0859
7.3585 -0.1994 2.0837
7.3537 0.0648 2.0818
7.3432 0.3286 2.0810
7.3341 0.5926 2.0832
6.1474 0.7196 1.7525
7.2787 1.1182 2.0853
6.1538 1.1729 1.7741
7.1861 1.6390 2.0874
6.1592 1.6395 1.8053
7.0589 2.1531 2.0904
6.1620 2.1241 1.8464
6.1719 2.3787 1.8738
6.8005 2.9055 2.0952
6.1612 2.8981 1.9292
6.1605 3.1727 1.9635
6.1703 3.4635 2.0052
6.1834 3.7690 2.0522
6.1883 4.0837 2.1013
6.0373 4.3029 2.1013
5.9669 4.5845 2.1329
5.7981 4.7954 2.1329
5.6219 5.0002 2.1329
5.4385 5.1985 2.1329
5.2480 5.3901 2.1329
5.0509 5.5747 2.1329
4.8472 5.7522 2.1329
4.6374 5.9222 2.1329
4.4216 6.0845 2.1329
4.2001 6.2391 2.1329
3.9732 6.3856 2.1329
3.7413 6.5238 2.1329
3.5045 6.6537 2.1329
3.2632 6.7749 2.1329
3.0178 6.8875 2.1329
2.7685 6.9912 2.1329
2.5157 7.0859 2.1329
2.2596 7.1714 2.1329
2.0973 7.5981 2.2360
1.8231 7.6683 2.2360
1.5466 7.7287 2.2360
1.2681 7.7791 2.2360
0.9880 7.8195 2.2360
0.7066 7.8498 2.2360
0.4244 7.8701 2.2360
0.1415 7.8802 2.2360
-0.1415 7.8802 2.2360
-0.4243 7.8701 2.2360
-0.7066 7.8498 2.2360
-0.9880 7.8194 2.2360
-1.2681 7.7790 2.2360
-1.5465 7.7285 2.2360
-1.8230 7.6681 2.2360
-2.0972 7.5979 2.2360
-2.3687 7.5178 2.2360
-2.6371 7.4281 2.2360
-2.9022 7.3288 2.2360
-3.1635 7.2201 2.2360
-3.4208 7.1021 2.2360
-3.6736 6.9749 2.2360
-3.9218 6.8388 2.2360
-4.1650 6.6938 2.2360
-4.4028 6.5403 2.2360
-4.6350 6.3783 2.2360
-4.8612 6.2080 2.2360
-5.0811 6.0298 2.2360
-5.2946 5.8438 2.2360
-5.5013 5.6502 2.2360
-5.7009 5.4494 2.2360
-5.8932 5.2415 2.2360
-5.9025 4.8817 2.1715
-5.9660 4.5838 2.1327
-6.1270 4.3669 2.1327
-6.2803 4.1444 2.1327
-6.4254 3.9165 2.1327
-6.5623 3.6836 2.1327
-6.6907 3.4458 2.1327
-6.8106 3.2036 2.1327
-6.9217 2.9573 2.1327
-7.0239 2.7071 2.1327
-7.1171 2.4534 2.1327
-7.2011 2.1965 2.1327
-7.2758 1.9367 2.1327
-6.3508 1.4485 1.8450
-6.3513 1.2105 1.8312
-7.4435 1.1435 2.1327
-7.4803 0.8756 2.1327
-7.5075 0.6066 2.1327
-7.5250 0.3367 2.1327
-7.5329 0.0664 2.1327
-7.5310 -0.2040 2.1327
-7.5194 -0.4743 2.1327
-7.4174 -0.7359 2.1098
-7.4671 -1.0127 2.1327
-7.4265 -1.2802 2.1327
-7.3764 -1.5460 2.1327
-7.3167 -1.8100 2.1327
-7.2475 -2.0716 2.1327
-7.1690 -2.3306 2.1327
-7.0813 -2.5866 2.1327
-6.9844 -2.8393 2.1327
-6.8784 -3.0884 2.1327
-6.7637 -3.3335 2.1327
-6.6401 -3.5744 2.1327
-6.5080 -3.8107 2.1327
-6.3674 -4.0421 2.1327
-6.2186 -4.2683 2.1327
-6.0618 -4.4891 2.1327
-5.9058 -4.7110 2.1359
-5.8936 -5.0578 2.1956
-5.8136 -5.3632 2.2360
-5.6177 -5.5688 2.2360
-5.4145 -5.7671 2.2360
-5.2043 -5.9581 2.2360
-4.9873 -6.1414 2.2360
-4.7639 -6.3167 2.2360
-4.5344 -6.4839 2.2360
-4.2989 -6.6428 2.2360
-4.0579 -6.7931 2.2360
-3.8116 -6.9346 2.2360
-3.5604 -7.0672 2.2360
-3.3046 -7.1907 2.2360
-3.0445 -7.3049 2.2360
-2.7804 -7.4097 2.2360
-2.5128 -7.5049 2.2360
-2.2418 -7.5905 2.2360
-1.9680 -7.6662 2.2360
-1.6916 -7.7321 2.2360
-1.4131 -7.7879 2.2360
-1.1326 -7.8338 2.2360
-0.8508 -7.8694 2.2360
-0.5678 -7.8950 2.2360
-0.2841 -7.9103 2.2360
0.0000 -7.2843 2.2360
0.2615 -7.2796 2.2360
0.5226 -7.2655 2.2360
0.7830 -7.2420 2.2360
1.0424 -7.2092 2.2360
1.3004 -7.1671 2.2360
1.5568 -7.1157 2.2360
1.8112 -7.0551 2.2360
2.0632 -6.9855 2.2360
2.2059 -6.5883 2.1329
2.4408 -6.5048 2.1329
2.6727 -6.4128 2.1329
2.9010 -6.3126 2.1329
3.1256 -6.2042 2.1329
3.3462 -6.0878 2.1329
3.5624 -5.9636 2.1329
3.7740 -5.8317 2.1329
3.9807 -5.6923 2.1329
4.1823 -5.5455 2.1329
4.3784 -5.3916 2.1329
4.5689 -5.2307 2.1329
4.7535 -5.0631 2.1329
4.9319 -4.8890 2.1329
5.1040 -4.7086 2.1329
5.2694 -4.5222 2.1329
5.4280 -4.3299 2.1329
5.5796 -4.1320 2.1329
5.7240 -3.9289 2.1329
5.8610 -3.7207 2.1329
5.9450 -3.4811 2.1167
6.0568 -3.2604 2.1136
6.1574 -3.0348 2.1095
6.2503 -2.8064 2.1055
6.3383 -2.5767 2.1027
6.4222 -2.3459 2.1014
6.4982 -2.1126 2.1002
6.5660 -1.8769 2.0992
6.6258 -1.6391 2.0982
6.0897 -1.2765 1.9129
6.6740 -1.1505 2.0823
6.7568 -0.9164 2.0966
6.7910 -0.6739 2.0985
6.8165 -0.4300 2.1004
6.8294 -0.1851 2.1011
6.8250 0.0601 2.0992
6.8121 0.3047 2.0974
6.7906 0.5486 2.0957
6.1474 0.7195 1.9041
6.7307 1.0339 2.0950
6.1538 1.1728 1.9275
6.6405 1.5145 2.0957
6.1592 1.6394 1.9613
6.5168 1.9876 2.0967
6.1620 2.1240 2.0059
6.1722 2.3787 2.0359
6.1854 2.6426 2.0704
6.1715 2.9029 2.0994
6.0653 3.1236 2.1002
5.9514 3.3405 2.1011
5.9154 3.6055 2.1329
5.7818 3.8153 2.1329
5.6407 4.0201 2.1329
5.4924 4.2198 2.1329
5.3371 4.4140 2.1329
5.1749 4.6025 2.1329
5.0061 4.7851 2.1329
4.8308 4.9614 2.1329
4.6493 5.1314 2.1329
4.4619 5.2948 2.1329
4.2687 5.4513 2.1329
4.0701 5.6008 2.1329
3.8662 5.7430 2.1329
3.6574 5.8779 2.1329
3.4439 6.0052 2.1329
3.2260 6.1247 2.1329
3.0039 6.2364 2.1329
2.7780 6.3400 2.1329
2.5485 6.4355 2.1329
2.3342 6.5747 2.1499
2.1452 6.8083 2.1997
1.9306 6.9942 2.2360
1.6783 7.0588 2.2360
1.4237 7.1144 2.2360
1.1674 7.1608 2.2360
0.9095 7.1980 2.2360
0.6505 7.2260 2.2360
0.3906 7.2446 2.2360
0.1303 7.2539 2.2360
-0.1302 7.2539 2.2360
-0.3906 7.2446 2.2360
-0.6504 7.2259 2.2360
-0.9094 7.1980 2.2360
-1.1673 7.1607 2.2360
-1.4236 7.1143 2.2360
-1.6782 7.0587 2.2360
-1.9305 6.9940 2.2360
-2.1804 6.9203 2.2360
-2.4275 6.8377 2.2360
-2.6715 6.7463 2.2360
-2.9121 6.6462 2.2360
-3.1489 6.5376 2.2360
-3.3817 6.4205 2.2360
-3.6101 6.2951 2.2360
-3.8339 6.1617 2.2360
-4.0528 6.0203 2.2360
-4.2665 5.8712 2.2360
-4.4747 5.7144 2.2360
-4.6772 5.5504 2.2360
-4.8737 5.3791 2.2360
-5.0639 5.2009 2.2360
-5.2476 5.0160 2.2360
-5.4246 4.8246 2.2360
-5.5946 4.6270 2.2360
-5.7574 4.4234 2.2360
-5.8992 4.2044 2.2308
-5.9005 3.8937 2.1769
-5.9144 3.6049 2.1327
-6.0404 3.3905 2.1327
-6.1586 3.1717 2.1327
-6.2689 2.9487 2.1327
-6.3711 2.7219 2.1327
-6.4651 2.4916 2.1327
-6.5508 2.2581 2.1327
-6.6281 2.0216 2.1327
-6.6969 1.7825 2.1327
-6.3441 1.4469 2.0024
-6.3447 1.2092 1.9874
-6.8512 1.0524 2.1327
-6.8850 0.8059 2.1327
-6.9100 0.5582 2.1327
-6.9261 0.3098 2.1327
-6.9332 0.0610 2.1327
-6.9315 -0.1879 2.1327
-6.9207 -0.4366 2.1327
-6.9011 -0.6848 2.1327
-6.8726 -0.9322 2.1327
-6.8352 -1.1783 2.1327
-6.7889 -1.4230 2.1327
-6.7340 -1.6659 2.1327
-6.6703 -1.9067 2.1327
-6.5980 -2.1450 2.1327
-6.5172 -2.3806 2.1327
-6.4280 -2.6132 2.1327
-6.3305 -2.8425 2.1327
-6.2248 -3.0681 2.1327
-6.1111 -3.2897 2.1327
-5.9894 -3.5072 2.1327
-5.9032 -3.7475 2.1484
-5.8942 -4.0458 2.1965
-5.8488 -4.3314 2.2360
-5.6899 -4.5388 2.2360
-5.5236 -4.7404 2.2360
-5.3502 -4.9359 2.2360
-5.1699 -5.1250 2.2360
-4.9829 -5.3075 2.2360
-4.7894 -5.4832 2.2360
-4.5897 -5.6519 2.2360
-4.3841 -5.8132 2.2360
-4.1729 -5.9671 2.2360
-3.9562 -6.1133 2.2360
-3.7344 -6.2516 2.2360
-3.5077 -6.3818 2.2360
-3.2765 -6.5038 2.2360
-3.0411 -6.6174 2.2360
-2.8017 -6.7225 2.2360
-2.5587 -6.8189 2.2360
-2.3124 -6.9066 2.2360
-2.0630 -6.9853 2.2360
-1.8111 -7.0550 2.2360
-1.5567 -7.1155 2.2360
-1.3004 -7.1670 2.2360
-1.0423 -7.2091 2.2360
-0.7829 -7.2419 2.2360
-0.5225 -7.2654 2.2360
-0.2614 -7.2795 2.2360
0.0000 -6.7394 2.2360
0.2419 -6.7350 2.2360
0.4835 -6.7220 2.2360
0.7244 -6.7003 2.2360
0.9644 -6.6699 2.2360
1.2031 -6.6310 2.2360
1.4403 -6.5834 2.2360
1.6757 -6.5274 2.2360
1.9088 -6.4630 2.2360
2.1395 -6.3902 2.2360
2.2583 -6.0182 2.1329
2.4728 -5.9332 2.1329
2.6840 -5.8405 2.1329
2.8918 -5.7402 2.1329
3.0959 -5.6326 2.1329
3.2959 -5.5176 2.1329
3.4917 -5.3956 2.1329
3.6830 -5.2666 2.1329
3.8695 -5.1308 2.1329
4.0510 -4.9885 2.1329
4.2272 -4.8396 2.1329
4.3980 -4.6846 2.1329
4.5631 -4.5235 2.1329
4.7223 -4.3566 2.1329
4.8754 -4.1841 2.1329
5.0222 -4.0062 2.1329
5.1624 -3.8232 2.1329
5.2961 -3.6352 2.1329
5.4228 -3.4426 2.1329
5.5426 -3.2456 2.1329
5.6552 -3.0444 2.1329
5.7605 -2.8393 2.1329
5.8583 -2.6305 2.1329
5.9486 -2.4184 2.1329
5.9626 -2.1781 2.1086
6.0333 -1.9615 2.1075
6.0966 -1.7428 2.1065
6.1523 -1.5221 2.1056
6.0897 -1.2765 2.0674
6.2354 -1.0750 2.1025
6.2631 -0.8496 2.1003
6.2848 -0.6237 2.0989
6.3080 -0.3981 2.1006
6.3199 -0.1714 2.1013
6.3215 0.0556 2.1013
6.3150 0.2824 2.1013
6.1679 0.4982 2.0571
6.1474 0.7194 2.0577
6.1742 0.9483 2.0769
6.1538 1.1727 2.0830
6.1558 1.4038 2.0995
6.1023 1.6241 2.0999
6.0410 1.8424 2.1004
5.9721 2.0585 2.1010
5.9835 2.3059 2.1329
5.8965 2.5191 2.1329
5.8019 2.7290 2.1329
5.6999 2.9353 2.1329
5.5905 3.1379 2.1329
5.4739 3.3363 2.1329
5.3503 3.5305 2.1329
5.2198 3.7201 2.1329
5.0826 3.9049 2.1329
4.9389 4.0846 2.1329
4.7888 4.2590 2.1329
4.6326 4.4280 2.1329
4.4704 4.5912 2.1329
4.3025 4.7485 2.1329
4.1291 4.8997 2.1329
3.9503 5.0446 2.1329
3.7665 5.1829 2.1329
3.5779 5.3146 2.1329
3.3846 5.4394 2.1329
3.1870 5.5572 2.1329
2.9854 5.6679 2.1329
2.7799 5.7712 2.1329
2.5708 5.8671 2.1329
2.3584 5.9555 2.1329
2.1546 6.0686 2.1444
2.0179 6.4043 2.2360
1.7867 6.4725 2.2360
1.5531 6.5324 2.2360
1.3176 6.5838 2.2360
1.0803 6.6268 2.2360
0.8417 6.6612 2.2360
0.6020 6.6871 2.2360
0.3615 6.7043 2.2360
0.1206 6.7130 2.2360
-0.1205 6.7130 2.2360
-0.3615 6.7043 2.2360
-0.6019 6.6870 2.2360
-0.8416 6.6612 2.2360
-1.0803 6.6267 2.2360
-1.3175 6.5837 2.2360
-1.5530 6.5322 2.2360
-1.7866 6.4724 2.2360
-2.0178 6.4042 2.2360
-2.2465 6.3277 2.2360
-2.4723 6.2431 2.2360
-2.6949 6.1505 2.2360
-2.9141 6.0499 2.2360
-3.1295 5.9416 2.2360
-3.3409 5.8256 2.2360
-3.5480 5.7021 2.2360
-3.7506 5.5712 2.2360
-3.9483 5.4332 2.2360
-4.1410 5.2881 2.2360
-4.3283 5.1363 2.2360
-4.5101 4.9778 2.2360
-4.6862 4.8128 2.2360
-4.8562 4.6417 2.2360
-5.0199 4.4646 2.2360
-5.1772 4.2817 2.2360
-5.3279 4.0933 2.2360
-5.4717 3.8996 2.2360
-5.6084 3.7009 2.2360
-5.7380 3.4973 2.2360
-5.8602 3.2893 2.2360
-5.8985 3.0376 2.2074
-5.9016 2.7759 2.1697
-5.9097 2.5247 2.1378
-5.9826 2.3056 2.1327
-6.0619 2.0895 2.1327
-6.1333 1.8706 2.1327
-6.1969 1.6493 2.1327
-6.2526 1.4259 2.1327
-6.3001 1.2006 2.1327
-6.3396 0.9738 2.1327
-6.3709 0.7456 2.1327
-6.3940 0.5165 2.1327
-6.4088 0.2866 2.1327
-6.4154 0.0564 2.1327
-6.4137 -0.1740 2.1327
-6.4038 -0.4041 2.1327
-6.3856 -0.6338 2.1327
-6.3592 -0.8626 2.1327
-6.3245 -1.0904 2.1327
-6.2817 -1.3168 2.1327
-6.2308 -1.5415 2.1327
-6.1719 -1.7643 2.1327
-6.1087 -1.9860 2.1340
-6.0302 -2.2028 2.1327
-5.9476 -2.4180 2.1327
-5.9036 -2.6508 2.1496
-5.8949 -2.9056 2.1829
-5.8948 -3.1734 2.2234
-5.8100 -3.4022 2.2360
-5.6845 -3.6088 2.2360
-5.5516 -3.8107 2.2360
-5.4115 -4.0077 2.2360
-5.2645 -4.1996 2.2360
-5.1107 -4.3861 2.2360
-4.9502 -4.5669 2.2360
-4.7833 -4.7419 2.2360
-4.6103 -4.9107 2.2360
-4.4313 -5.0733 2.2360
-4.2465 -5.2293 2.2360
-4.0563 -5.3786 2.2360
-3.8608 -5.5209 2.2360
-3.6603 -5.6561 2.2360
-3.4550 -5.7841 2.2360
-3.2453 -5.9046 2.2360
-3.0314 -6.0174 2.2360
-2.8136 -6.1225 2.2360
-2.5921 -6.2198 2.2360
-2.3673 -6.3089 2.2360
-2.1394 -6.3900 2.2360
-1.9087 -6.4628 2.2360
-1.6756 -6.5273 2.2360
-1.4402 -6.5833 2.2360
-1.2031 -6.6309 2.2360
-0.9643 -6.6698 2.2360
-0.7243 -6.7002 2.2360
-0.4834 -6.7220 2.2360
-0.2418 -6.7350 2.2360
0.0000 -6.2638 2.2360
0.2248 -6.2597 2.2360
0.4493 -6.2476 2.2360
0.6733 -6.2274 2.2360
0.8963 -6.1992 2.2360
1.1182 -6.1630 2.2360
1.3387 -6.1188 2.2360
1.5574 -6.0668 2.2360
1.7741 -6.0069 2.2360
1.9885 -5.9392 2.2360
2.1527 -5.7370 2.1876
2.2982 -5.5145 2.1329
2.4946 -5.4284 2.1329
2.6877 -5.3352 2.1329
2.8774 -5.2351 2.1329
3.0633 -5.1283 2.1329
3.2453 -5.0149 2.1329
3.4231 -4.8951 2.1329
3.5964 -4.7689 2.1329
3.7651 -4.6365 2.1329
3.9290 -4.4982 2.1329
4.0877 -4.3542 2.1329
4.2412 -4.2045 2.1329
4.3891 -4.0493 2.1329
4.5314 -3.8890 2.1329
4.6679 -3.7237 2.1329
4.7983 -3.5536 2.1329
4.9225 -3.3789 2.1329
5.0403 -3.1999 2.1329
5.1516 -3.0167 2.1329
5.2563 -2.8297 2.1329
5.3542 -2.6391 2.1329
5.4452 -2.4451 2.1329
5.5291 -2.2479 2.1329
5.6059 -2.0479 2.1329
5.6754 -1.8453 2.1329
5.7377 -1.6403 2.1329
5.7925 -1.4332 2.1329
5.8399 -1.2242 2.1329
5.8797 -1.0138 2.1329
5.9119 -0.8020 2.1329
5.9365 -0.5893 2.1329
5.9534 -0.3758 2.1329
5.9627 -0.1618 2.1329
5.9643 0.0523 2.1329
5.9582 0.2664 2.1329
5.9444 0.4801 2.1329
5.9230 0.6931 2.1329
5.8939 0.9052 2.1329
5.8572 1.1161 2.1329
5.8130 1.3256 2.1329
5.7613 1.5333 2.1329
5.7022 1.7390 2.1329
5.6358 1.9425 2.1329
5.5621 2.1434 2.1329
5.4812 2.3416 2.1329
5.3933 2.5367 2.1329
5.2985 2.7285 2.1329
5.1968 2.9168 2.1329
5.0885 3.1013 2.1329
4.9736 3.2818 2.1329
4.8523 3.4581 2.1329
4.7248 3.6298 2.1329
4.5912 3.7969 2.1329
4.4517 3.9591 2.1329
4.3065 4.1162 2.1329
4.1557 4.2679 2.1329
3.9996 4.4142 2.1329
3.8384 4.5547 2.1329
3.6723 4.6894 2.1329
3.5014 4.8180 2.1329
3.3260 4.9405 2.1329
3.1464 5.0565 2.1329
2.9627 5.1660 2.1329
2.7753 5.2689 2.1329
2.5843 5.3650 2.1329
0.8579 1.9578 0.7656
2.1925 5.5363 2.1329
2.0885 5.8825 2.2360
1.8759 5.9536 2.2360
1.6609 6.0170 2.2360
1.4438 6.0726 2.2360
1.2249 6.1205 2.2360
1.0043 6.1604 2.2360
0.7825 6.1924 2.2360
0.5596 6.2165 2.2360
0.3361 6.2325 2.2360
0.1121 6.2405 2.2360
-0.1120 6.2405 2.2360
-0.3360 6.2325 2.2360
-0.5596 6.2164 2.2360
-0.7824 6.1924 2.2360
-1.0042 6.1603 2.2360
-1.2248 6.1204 2.2360
-1.4438 6.0725 2.2360
-1.6609 6.0169 2.2360
-1.8758 5.9534 2.2360
-2.0884 5.8824 2.2360
-2.2983 5.8037 2.2360
-0.8578 1.9578 0.7656
-0.9276 1.9257 0.7656
-2.9092 5.5234 2.2360
-3.1058 5.4155 2.2360
-3.2983 5.3007 2.2360
-3.4866 5.1790 2.2360
-3.6704 5.0507 2.2360
-3.8495 4.9158 2.2360
-4.0237 4.7746 2.2360
-4.1927 4.6273 2.2360
-4.3563 4.4740 2.2360
-4.5143 4.3149 2.2360
-4.6665 4.1502 2.2360
-4.8127 3.9802 2.2360
-4.9528 3.8050 2.2360
-5.0864 3.6250 2.2360
-5.2136 3.4402 2.2360
-5.3340 3.2510 2.2360
-5.4476 3.0576 2.2360
-5.5541 2.8602 2.2360
-5.6535 2.6591 2.2360
-5.7457 2.4546 2.2360
-5.8304 2.2469 2.2360
-5.8979 2.0328 2.2323
-5.8977 1.7987 2.2062
-5.8976 1.5696 2.1835
-5.9018 1.3458 2.1657
-5.9055 1.1253 2.1507
-5.9086 0.9075 2.1384
-5.9220 0.6930 2.1327
-5.9435 0.4800 2.1327
-5.9572 0.2663 2.1327
-5.9633 0.0523 2.1327
-5.9617 -0.1618 2.1327
-5.9525 -0.3757 2.1327
-5.9355 -0.5892 2.1327
-5.9109 -0.8019 2.1327
-5.9063 -1.0184 2.1427
-5.9027 -1.2374 2.1561
-5.8985 -1.4594 2.1721
-5.8957 -1.6854 2.1918
-5.8955 -1.9168 2.2158
-5.8764 -2.1467 2.2360
-5.7959 -2.3564 2.2360
-5.7079 -2.5631 2.2360
-5.6125 -2.7665 2.2360
-5.5099 -2.9663 2.2360
-5.4002 -3.1623 2.2360
-5.2835 -3.3543 2.2360
-5.1600 -3.5420 2.2360
-5.0298 -3.7251 2.2360
-4.8931 -3.9034 2.2360
-4.7501 -4.0768 2.2360
-4.6010 -4.2448 2.2360
-4.4459 -4.4074 2.2360
-4.2850 -4.5644 2.2360
-4.1186 -4.7154 2.2360
-3.9469 -4.8604 2.2360
-3.7700 -4.9991 2.2360
-3.5883 -5.1314 2.2360
-3.4020 -5.2571 2.2360
-3.2112 -5.3760 2.2360
-3.0163 -5.4880 2.2360
-2.8175 -5.5929 2.2360
-2.6150 -5.6905 2.2360
-2.4092 -5.7809 2.2360
-2.2002 -5.8638 2.2360
-1.9884 -5.9391 2.2360
-1.7740 -6.0067 2.2360
-1.5573 -6.0667 2.2360
-1.3386 -6.1187 2.2360
-1.1181 -6.1629 2.2360
-0.8963 -6.1992 2.2360
-0.6732 -6.2274 2.2360
-0.4493 -6.2476 2.2360
-0.2248 -6.2597 2.2360
0.0000 -5.8446 2.2360
0.2098 -5.8409 2.2360
0.4193 -5.8296 2.2360
0.6282 -5.8107 2.2360
0.8363 -5.7844 2.2360
1.0434 -5.7506 2.2360
1.2491 -5.7094 2.2360
1.4532 -5.6608 2.2360
1.6554 -5.6049 2.2360
1.8554 -5.5418 2.2360
2.0531 -5.4716 2.2360
2.1603 -5.1836 2.1487
2.3421 -5.0966 2.1461
2.5079 -4.9782 2.1329
2.6849 -4.8849 2.1329
2.8584 -4.7852 2.1329
3.0282 -4.6794 2.1329
3.1941 -4.5676 2.1329
3.3558 -4.4499 2.1329
3.5132 -4.3264 2.1329
3.6661 -4.1974 2.1329
3.8142 -4.0629 2.1329
3.9574 -3.9232 2.1329
4.0955 -3.7785 2.1329
4.2283 -3.6289 2.1329
4.3556 -3.4747 2.1329
4.4773 -3.3160 2.1329
4.5932 -3.1530 2.1329
4.7032 -2.9859 2.1329
4.8071 -2.8151 2.1329
4.9048 -2.6406 2.1329
4.9961 -2.4627 2.1329
5.0810 -2.2816 2.1329
5.1594 -2.0977 2.1329
5.2310 -1.9110 2.1329
5.2960 -1.7220 2.1329
5.3541 -1.5307 2.1329
5.4052 -1.3374 2.1329
5.4494 -1.1425 2.1329
5.4866 -0.9461 2.1329
5.5167 -0.7485 2.1329
5.5397 -0.5499 2.1329
5.5555 -0.3507 2.1329
5.5642 -0.1511 2.1329
5.5657 0.0488 2.1329
5.5600 0.2485 2.1329
5.5472 0.4479 2.1329
5.5272 0.6467 2.1329
5.5001 0.8446 2.1329
5.4659 1.0415 2.1329
5.4247 1.2369 2.1329
5.3764 1.4308 2.1329
5.3213 1.6228 2.1329
5.2593 1.8127 2.1329
5.1906 2.0002 2.1329
5.1151 2.1851 2.1329
5.0331 2.3672 2.1329
4.9446 2.5462 2.1329
4.8497 2.7219 2.1329
4.7486 2.8941 2.1329
4.6414 3.0626 2.1329
4.5283 3.2271 2.1329
4.4093 3.3874 2.1329
4.2846 3.5433 2.1329
4.1544 3.6947 2.1329
4.0190 3.8413 2.1329
3.8783 3.9829 2.1329
3.7326 4.1194 2.1329
3.5822 4.2506 2.1329
3.4271 4.3763 2.1329
3.2677 4.4963 2.1329
3.1040 4.6106 2.1329
2.9364 4.7189 2.1329
2.7650 4.8211 2.1329
2.5900 4.9171 2.1329
0.8656 1.7970 0.7655
0.8005 1.8269 0.7655
0.7344 1.8545 0.7655
0.6674 1.8796 0.7656
0.5994 1.9024 0.7656
0.5307 1.9227 0.7656
0.4614 1.9405 0.7656
0.3914 1.9558 0.7656
0.9373 5.7492 2.2360
0.7303 5.7791 2.2360
0.5223 5.8015 2.2360
0.3136 5.8165 2.2360
0.1046 5.8240 2.2360
-0.1046 5.8240 2.2360
-0.3136 5.8165 2.2360
-0.5222 5.8015 2.2360
-0.7302 5.7790 2.2360
-0.9372 5.7491 2.2360
-0.3914 1.9558 0.7656
-0.4614 1.9405 0.7656
-0.5307 1.9227 0.7656
-0.5994 1.9024 0.7656
-0.6673 1.8796 0.7656
-0.7344 1.8545 0.7656
-0.8005 1.8269 0.7656
-0.8656 1.7970 0.7655
-0.9295 1.7648 0.7655
-2.8985 5.0540 2.2360
-3.0782 4.9468 2.2360
-3.2539 4.8332 2.2360
-3.4254 4.7135 2.2360
-3.5926 4.5876 2.2360
-3.7551 4.4558 2.2360
-3.9128 4.3183 2.2360
-4.0655 4.1752 2.2360
-4.2129 4.0267 2.2360
-4.3550 3.8731 2.2360
-4.4914 3.7144 2.2360
-4.6221 3.5509 2.2360
-4.7468 3.3828 2.2360
-4.8654 3.2104 2.2360
-4.9778 3.0338 2.2360
-5.0838 2.8533 2.2360
-5.1832 2.6691 2.2360
-5.2760 2.4814 2.2360
-5.3619 2.2906 2.2360
-5.4410 2.0967 2.2360
-5.5131 1.9001 2.2360
-5.5780 1.7011 2.2360
-5.6358 1.4998 2.2360
-5.6864 1.2966 2.2360
-5.7296 1.0917 2.2360
-5.7655 0.8854 2.2360
-5.7939 0.6779 2.2360
-5.8148 0.4695 2.2360
-5.8283 0.2605 2.2360
-5.8342 0.0511 2.2360
-5.8326 -0.1584 2.2360
-5.8236 -0.3677 2.2360
-5.8070 -0.5765 2.2360
-5.7829 -0.7846 2.2360
-5.7513 -0.9917 2.2360
-5.7124 -1.1976 2.2360
-5.6660 -1.4020 2.2360
-5.6124 -1.6045 2.2360
-5.5515 -1.8051 2.2360
-5.4835 -2.0033 2.2360
-5.4083 -2.1989 2.2360
-5.3262 -2.3918 2.2360
-5.2372 -2.5816 2.2360
-5.1415 -2.7680 2.2360
-5.0391 -2.9509 2.2360
-4.9302 -3.1301 2.2360
-4.8149 -3.3052 2.2360
-4.6934 -3.4760 2.2360
-4.5658 -3.6424 2.2360
-4.4324 -3.8041 2.2360
-4.2932 -3.9609 2.2360
-4.1484 -4.1127 2.2360
-3.9983 -4.2591 2.2360
-3.8431 -4.4000 2.2360
-3.6828 -4.5353 2.2360
-3.5178 -4.6647 2.2360
-3.3482 -4.7882 2.2360
-3.1743 -4.9054 2.2360
-2.9963 -5.0163 2.2360
-2.8145 -5.1208 2.2360
-2.6289 -5.2187 2.2360
-2.4400 -5.3098 2.2360
-2.2479 -5.3941 2.2360
-2.0530 -5.4714 2.2360
-1.8553 -5.5417 2.2360
-1.6553 -5.6048 2.2360
-1.4531 -5.6607 2.2360
-1.2490 -5.7093 2.2360
-1.0433 -5.7505 2.2360
-0.8363 -5.7843 2.2360
-0.6281 -5.8107 2.2360
-0.4192 -5.8295 2.2360
-0.2097 -5.8408 2.2360
0.0000 -5.4721 2.2360
0.1964 -5.4686 2.2360
0.3925 -5.4580 2.2360
0.5882 -5.4404 2.2360
0.7830 -5.4157 2.2360
0.9769 -5.3841 2.2360
1.1694 -5.3455 2.2360
1.3605 -5.3000 2.2360
1.5498 -5.2477 2.2360
1.7371 -5.1886 2.2360
1.9222 -5.1229 2.2360
2.1048 -5.0505 2.2360
2.1793 -4.7423 2.1329
2.3480 -4.6610 2.1329
2.5137 -4.5736 2.1329
2.6762 -4.4803 2.1329
2.8352 -4.3812 2.1329
2.9905 -4.2765 2.1329
3.1419 -4.1663 2.1329
3.2893 -4.0507 2.1329
3.4325 -3.9299 2.1329
3.5711 -3.8041 2.1329
3.7052 -3.6733 2.1329
3.8345 -3.5378 2.1329
3.9589 -3.3978 2.1329
4.0781 -3.2533 2.1329
4.1920 -3.1047 2.1329
4.3006 -2.9521 2.1329
4.4035 -2.7958 2.1329
4.5008 -2.6358 2.1329
4.5923 -2.4724 2.1329
4.6778 -2.3059 2.1329
4.7574 -2.1364 2.1329
4.8307 -1.9641 2.1329
4.8978 -1.7894 2.1329
4.9586 -1.6124 2.1329
5.0130 -1.4332 2.1329
5.0610 -1.2523 2.1329
5.1024 -1.0698 2.1329
5.1372 -0.8859 2.1329
5.1654 -0.7009 2.1329
5.1869 -0.5150 2.1329
5.2018 -0.3285 2.1329
5.2099 -0.1415 2.1329
5.2113 0.0456 2.1329
5.2061 0.2326 2.1329
5.1940 0.4193 2.1329
5.1753 0.6055 2.1329
5.1500 0.7908 2.1329
5.1180 0.9751 2.1329
5.0794 1.1581 2.1329
5.0343 1.3397 2.1329
4.9826 1.5194 2.1329
4.9246 1.6972 2.1329
4.8602 1.8728 2.1329
4.7896 2.0460 2.1329
4.7128 2.2165 2.1329
4.6300 2.3841 2.1329
4.5412 2.5487 2.1329
4.4465 2.7099 2.1329
4.3462 2.8677 2.1329
4.2402 3.0217 2.1329
4.1288 3.1718 2.1329
4.0121 3.3179 2.1329
3.8902 3.4596 2.1329
3.7633 3.5969 2.1329
3.6316 3.7295 2.1329
3.4952 3.8573 2.1329
3.3544 3.9802 2.1329
3.2092 4.0979 2.1329
3.0599 4.2103 2.1329
2.9066 4.3173 2.1329
2.7497 4.4187 2.1329
2.5892 4.5145 2.1329
0.8704 1.6524 0.7654
0.8105 1.6825 0.7654
0.7496 1.7106 0.7655
0.6877 1.7364 0.7655
0.6249 1.7599 0.7655
0.5613 1.7812 0.7655
0.4969 1.8002 0.7655
0.4320 1.8169 0.7655
0.3665 1.8312 0.7655
0.3005 1.8432 0.7655
0.2341 1.8528 0.7656
0.1675 1.8600 0.7656
0.1006 1.8648 0.7656
0.0336 1.8672 0.7656
-0.0335 1.8672 0.7656
-0.1005 1.8648 0.7656
-0.1674 1.8600 0.7656
-0.2341 1.8528 0.7656
-0.3005 1.8432 0.7656
-0.3665 1.8312 0.7655
-0.4320 1.8169 0.7655
-0.4969 1.8002 0.7655
-0.5613 1.7812 0.7655
-0.6248 1.7599 0.7655
-0.6876 1.7364 0.7655
-0.7495 1.7106 0.7655
-0.8105 1.6826 0.7655
-0.8704 1.6524 0.7655
-0.9291 1.6201 0.7654
-2.8824 4.6321 2.2360
-3.0469 4.5258 2.2360
-3.2076 4.4136 2.2360
-3.3641 4.2958 2.2360
-3.5163 4.1724 2.2360
-3.6639 4.0436 2.2360
-3.8069 3.9096 2.2360
-3.9450 3.7705 2.2360
-4.0780 3.6266 2.2360
-4.2057 3.4780 2.2360
-4.3281 3.3249 2.2360
-4.4448 3.1676 2.2360
-4.5559 3.0061 2.2360
-4.6611 2.8407 2.2360
-4.7603 2.6717 2.2360
-4.8534 2.4992 2.2360
-4.9403 2.3235 2.2360
-5.0208 2.1447 2.2360
-5.0948 1.9632 2.2360
-5.1622 1.7791 2.2360
-5.2231 1.5928 2.2360
-5.2772 1.4043 2.2360
-5.3245 1.2140 2.2360
-5.3649 1.0222 2.2360
-5.3985 0.8290 2.2360
-5.4251 0.6347 2.2360
-5.4447 0.4395 2.2360
-5.4572 0.2438 2.2360
-5.4628 0.0478 2.2360
-5.4613 -0.1484 2.2360
-5.4528 -0.3443 2.2360
-5.4372 -0.5399 2.2360
-5.4146 -0.7347 2.2360
-5.3851 -0.9287 2.2360
-5.3486 -1.1214 2.2360
-5.3052 -1.3128 2.2360
-5.2549 -1.5024 2.2360
-5.1979 -1.6902 2.2360
-5.1342 -1.8758 2.2360
-5.0638 -2.0589 2.2360
-4.9869 -2.2395 2.2360
-4.9036 -2.4172 2.2360
-4.8139 -2.5918 2.2360
-4.7180 -2.7630 2.2360
-4.6161 -2.9307 2.2360
-4.5081 -3.0947 2.2360
-4.3943 -3.2546 2.2360
-4.2749 -3.4104 2.2360
-4.1499 -3.5618 2.2360
-4.0196 -3.7086 2.2360
-3.8841 -3.8507 2.2360
-3.7435 -3.9877 2.2360
-3.5981 -4.1197 2.2360
-3.4481 -4.2463 2.2360
-3.2936 -4.3675 2.2360
-3.1348 -4.4831 2.2360
-2.9720 -4.5928 2.2360
-2.8054 -4.6967 2.2360
-2.6351 -4.7945 2.2360
-2.4614 -4.8861 2.2360
-2.2845 -4.9714 2.2360
-2.1047 -5.0503 2.2360
-1.9221 -5.1227 2.2360
-1.7370 -5.1885 2.2360
-1.5497 -5.2476 2.2360
-1.3604 -5.2999 2.2360
-1.1694 -5.3454 2.2360
-0.9768 -5.3840 2.2360
-0.7829 -5.4157 2.2360
-0.5881 -5.4403 2.2360
-0.3925 -5.4580 2.2360
-0.1964 -5.4685 2.2360
0.0000 -5.1385 2.2360
0.1844 -5.1352 2.2360
0.3686 -5.1252 2.2360
0.5523 -5.1087 2.2360
0.7353 -5.0855 2.2360
0.9173 -5.0558 2.2360
1.0981 -5.0196 2.2360
1.2776 -4.9769 2.2360
1.4553 -4.9278 2.2360
1.6312 -4.8723 2.2360
1.8050 -4.8106 2.2360
1.9764 -4.7426 2.2360
2.1453 -4.6685 2.2360
2.2048 -4.3769 2.1329
2.3605 -4.2948 2.1329
2.5130 -4.2072 2.1329
2.6623 -4.1142 2.1329
2.8082 -4.0159 2.1329
2.9504 -3.9124 2.1329
3.0888 -3.8039 2.1329
3.2232 -3.6904 2.1329
3.3534 -3.5722 2.1329
3.4794 -3.4495 2.1329
3.6008 -3.3222 2.1329
3.7176 -3.1907 2.1329
3.8295 -3.0551 2.1329
3.9365 -2.9156 2.1329
4.0385 -2.7723 2.1329
4.1352 -2.6254 2.1329
4.2265 -2.4752 2.1329
4.3124 -2.3218 2.1329
4.3928 -2.1654 2.1329
4.4675 -2.0063 2.1329
4.5364 -1.8445 2.1329
4.5994 -1.6804 2.1329
4.6565 -1.5142 2.1329
4.7076 -1.3460 2.1329
4.7527 -1.1761 2.1329
4.7916 -1.0047 2.1329
4.8243 -0.8320 2.1329
4.8508 -0.6583 2.1329
4.8710 -0.4837 2.1329
4.8850 -0.3085 2.1329
4.8926 -0.1330 2.1329
4.8940 0.0427 2.1329
4.8890 0.2184 2.1329
4.8778 0.3937 2.1329
4.8602 0.5685 2.1329
4.8364 0.7426 2.1329
4.8064 0.9157 2.1329
4.7701 1.0875 2.1329
4.7278 1.2580 2.1329
4.6793 1.4268 2.1329
4.6248 1.5938 2.1329
4.5644 1.7587 2.1329
4.4981 1.9214 2.1329
4.4260 2.0815 2.1329
4.3482 2.2389 2.1329
4.2648 2.3935 2.1329
4.1759 2.5449 2.1329
4.0817 2.6931 2.1329
3.9821 2.8377 2.1329
3.8775 2.9787 2.1329
3.7679 3.1159 2.1329
3.6535 3.2490 2.1329
3.5343 3.3779 2.1329
3.4106 3.5025 2.1329
3.2826 3.6226 2.1329
3.1503 3.7379 2.1329
3.0139 3.8485 2.1329
2.8737 3.9541 2.1329
2.7298 4.0546 2.1329
2.5824 4.1498 2.1329
0.8726 1.5214 0.7654
0.8174 1.5517 0.7654
0.7611 1.5801 0.7654
0.7039 1.6064 0.7654
0.6458 1.6306 0.7654
0.5868 1.6527 0.7654
0.5271 1.6727 0.7654
0.4667 1.6906 0.7655
0.4057 1.7062 0.7655
0.3442 1.7197 0.7655
0.2822 1.7309 0.7655
0.2199 1.7399 0.7655
0.1573 1.7467 0.7655
0.0944 1.7512 0.7655
0.0315 1.7535 0.7655
-0.0315 1.7535 0.7655
-0.0944 1.7512 0.7655
-0.1572 1.7467 0.7655
-0.2199 1.7399 0.7655
-0.2822 1.7309 0.7655
-0.3442 1.7197 0.7655
-0.4057 1.7062 0.7655
-0.4667 1.6906 0.7655
-0.5271 1.6727 0.7655
-0.5868 1.6527 0.7655
-0.6458 1.6306 0.7654
-0.7039 1.6064 0.7654
-0.7611 1.5801 0.7654
-0.8174 1.5517 0.7654
-0.8726 1.5214 0.7654
-0.9266 1.4891 0.7654
-0.9795 1.4548 0.7653
-3.0124 4.1450 2.2360
-3.1594 4.0343 2.2360
-3.3023 3.9184 2.2360
-3.4410 3.7975 2.2360
-3.5753 3.6716 2.2360
-3.7049 3.5410 2.2360
-3.8298 3.4059 2.2360
-3.9498 3.2663 2.2360
-4.0647 3.1225 2.2360
-4.1744 2.9747 2.2360
-4.2786 2.8231 2.2360
-4.3774 2.6678 2.2360
-4.4706 2.5090 2.2360
-4.5580 2.3470 2.2360
-4.6396 2.1820 2.2360
-4.7151 2.0141 2.2360
-4.7846 1.8436 2.2360
-4.8480 1.6708 2.2360
-4.9051 1.4957 2.2360
-4.9559 1.3187 2.2360
-5.0003 1.1400 2.2360
-5.0383 0.9599 2.2360
-5.0698 0.7784 2.2360
-5.0947 0.5959 2.2360
-5.1131 0.4127 2.2360
-5.1249 0.2289 2.2360
-5.1301 0.0448 2.2360
-5.1287 -0.1394 2.2360
-5.1207 -0.3234 2.2360
-5.1060 -0.5071 2.2360
-5.0848 -0.6901 2.2360
-5.0571 -0.8722 2.2360
-5.0228 -1.0532 2.2360
-4.9820 -1.2329 2.2360
-4.9348 -1.4110 2.2360
-4.8812 -1.5873 2.2360
-4.8214 -1.7616 2.2360
-4.7553 -1.9336 2.2360
-4.6831 -2.1031 2.2360
-4.6048 -2.2700 2.2360
-4.5206 -2.4339 2.2360
-4.4305 -2.5947 2.2360
-4.3347 -2.7522 2.2360
-4.2334 -2.9061 2.2360
-4.1265 -3.0563 2.2360
-4.0144 -3.2026 2.2360
-3.8970 -3.3448 2.2360
-3.7746 -3.4826 2.2360
-3.6473 -3.6160 2.2360
-3.5153 -3.7447 2.2360
-3.3788 -3.8686 2.2360
-3.2379 -3.9876 2.2360
-3.0928 -4.1013 2.2360
-2.9437 -4.2098 2.2360
-2.7908 -4.3129 2.2360
-2.6343 -4.4104 2.2360
-2.4744 -4.5022 2.2360
-2.3113 -4.5883 2.2360
-2.1452 -4.6684 2.2360
-1.9763 -4.7425 2.2360
-1.8049 -4.8104 2.2360
-1.6311 -4.8722 2.2360
-1.4552 -4.9277 2.2360
-1.2775 -4.9768 2.2360
-1.0981 -5.0195 2.2360
-0.9172 -5.0558 2.2360
-0.7352 -5.0855 2.2360
-0.5522 -5.1087 2.2360
-0.3685 -5.1252 2.2360
-0.1844 -5.1351 2.2360
0.0000 -4.8377 2.2360
0.1736 -4.8346 2.2360
0.3470 -4.8252 2.2360
0.5200 -4.8097 2.2360
0.6922 -4.7879 2.2360
0.8636 -4.7599 2.2360
1.0338 -4.7258 2.2360
1.2028 -4.6856 2.2360
1.3701 -4.6394 2.2360
1.5357 -4.5871 2.2360
1.6993 -4.5290 2.2360
1.8607 -4.4650 2.2360
2.0197 -4.3953 2.2360
2.1518 -4.2717 2.2110
2.2223 -4.0435 2.1329
2.3659 -3.9610 2.1329
2.5065 -3.8734 2.1329
2.6438 -3.7809 2.1329
2.7777 -3.6835 2.1329
2.9080 -3.5813 2.1329
3.0345 -3.4745 2.1329
