ply
format ascii 1.0
element vertex 2116
property float32 x
property float32 y
property float32 z
end_header
-18.5913 2.1798 0.5255
-18.5912 1.5057 0.5243
-18.5912 0.8355 0.5238
-18.5911 0.1674 0.5240
-18.5911 -0.5002 0.5248
-18.5910 -1.1691 0.5263
-84.2626 -8.3444 2.3955
-83.8023 -11.3493 2.3955
-32.8410 -5.6548 0.9452
-27.0026 -5.6544 0.7835
-22.8743 -5.6541 0.6700
-20.0987 -5.7409 0.5950
-20.0986 -6.5299 0.6023
-20.0986 -7.3374 0.6106
-20.0985 -8.1664 0.6198
-20.0984 -9.0199 0.6301
-18.5906 -9.1586 0.5934
-18.5905 -10.0034 0.6052
-18.5905 -10.8814 0.6182
-18.5904 -11.7972 0.6325
-18.5903 -12.7557 0.6484
-18.5902 -13.7626 0.6658
-18.5902 -14.8245 0.6851
-18.5901 -15.9490 0.7065
-18.5900 -17.1451 0.7301
-18.5899 -18.4231 0.7562
-22.2135 -23.6541 0.9384
-20.6666 -23.6540 0.9091
-8.0488 -9.9088 0.3698
-20.0973 -26.6414 0.9673
-18.9158 -27.0424 0.9572
-18.5893 -28.7180 0.9929
-18.5891 -31.1120 1.0526
-18.5889 -33.8120 1.1213
-24.8234 -49.2626 1.6039
-22.7303 -49.4504 1.5832
-27.6186 -66.2544 2.0891
-7.8496 -20.9147 0.6504
-10.1360 -30.2674 0.9297
-9.6219 -32.5716 0.9896
-17.2504 -67.1840 2.0216
-6.4793 -29.6096 0.8836
-13.1446 -72.4311 2.1465
-10.5848 -73.1934 2.1568
-7.8639 -72.7249 2.1335
-5.5018 -76.4859 2.2368
-2.7526 -76.6323 2.2368
0.0001 -43.2416 2.2368
1.5524 -43.2152 2.2368
2.6703 -37.1201 1.9249
4.4353 -41.0158 2.1336
5.9053 -40.8333 2.1335
7.4487 -41.0432 2.1568
8.9187 -40.7558 2.1568
10.3779 -40.4168 2.1568
11.8246 -40.0266 2.1568
13.2570 -39.5855 2.1568
14.6732 -39.0942 2.1568
16.0716 -38.5531 2.1568
17.4506 -37.9628 2.1568
18.8082 -37.3240 2.1568
20.1430 -36.6377 2.1568
21.4532 -35.9043 2.1568
13.5336 -20.9069 1.2838
7.2288 -10.3341 0.6498
6.4527 -8.5536 0.5518
6.7238 -8.2772 0.5490
6.9927 -8.0033 0.5469
7.2604 -7.7309 0.5454
7.5273 -7.4595 0.5447
8.5510 -7.8860 0.5976
7.7938 -6.6863 0.5273
7.4699 -5.9566 0.4903
9.0667 -6.7119 0.5786
15.2586 -10.4692 0.9485
11.0495 -7.0116 0.6704
12.6601 -7.4099 0.7510
11.1008 -5.9729 0.6450
12.0631 -5.9425 0.6876
12.3080 -5.5234 0.6893
12.5554 -5.1011 0.6920
11.6271 -4.2444 0.6316
10.2977 -3.3453 0.5521
12.3473 -3.5266 0.6544
12.7298 -3.1463 0.6678
17.1253 -3.5857 0.8904
20.4038 -3.5128 1.0529
20.4498 -2.7690 1.0487
21.2261 -2.1015 1.0831
20.2832 -1.2751 1.0313
35.9341 -0.9660 1.8228
36.8727 0.3329 1.8685
35.4601 1.5943 1.7973
26.2578 2.1272 1.3330
18.1343 2.1266 0.9232
15.1477 2.3303 0.7744
32.4382 6.1896 1.6674
32.4381 7.4055 1.6788
32.4380 8.6415 1.6926
24.9627 7.6196 1.3151
32.4378 11.1891 1.7278
20.2034 7.7911 1.0896
12.8850 5.5080 0.7046
32.4375 15.2657 1.8016
32.4374 16.7133 1.8325
32.4373 18.2155 1.8671
32.4372 19.7795 1.9056
32.4371 21.4135 1.9484
32.4370 23.1269 1.9958
30.9038 23.7520 1.9516
28.7088 23.7518 1.8646
25.9743 23.1092 1.7389
24.8294 23.7410 1.7173
31.2248 32.0794 2.2368
30.0677 33.1954 2.2368
28.8700 34.2692 2.2368
27.6335 35.2989 2.2368
26.2618 36.1485 2.2285
24.3304 36.1512 2.1725
22.6193 36.3617 2.1341
21.3010 37.1526 2.1335
19.9602 37.9058 2.1335
18.5933 38.6115 2.1336
17.2008 39.2663 2.1337
15.7843 39.8686 2.1337
7.8628 22.1522 1.1694
12.9946 41.2514 2.1511
6.1773 22.3840 1.1547
10.0050 42.0917 2.1511
8.4888 42.4293 2.1511
6.9611 42.7113 2.1511
3.1255 24.7422 1.2396
3.8795 43.1064 2.1511
2.3298 43.2192 2.1511
0.6295 35.0624 1.7429
-0.6158 34.3035 1.7052
-1.8003 33.3984 1.6625
-2.9096 32.3311 1.6136
-3.9161 31.0015 1.5534
-4.8051 29.4832 1.4852
-8.4865 42.4181 2.1511
-10.0018 42.0785 2.1511
-11.5034 41.6840 2.1511
-12.9892 41.2347 2.1511
-14.4572 40.7313 2.1511
-15.9054 40.1749 2.1511
-17.3320 39.5662 2.1511
-18.7349 38.9059 2.1511
-21.4621 40.7583 2.2955
-8.2447 14.3804 0.8264
-18.5931 29.8896 1.7555
-18.5930 27.6263 1.6614
-18.5928 25.5925 1.5790
-18.7953 24.0091 1.5226
-20.2263 24.0090 1.5684
-21.7466 24.0089 1.6192
-23.3691 24.0088 1.6756
-25.1092 24.0086 1.7384
-26.9850 24.0085 1.8083
-27.0170 22.3522 1.7566
-26.7225 20.5384 1.6893
-6.0855 4.3389 0.3748
-26.4418 17.4557 1.5900
-27.2960 16.6445 1.6054
-20.0998 11.2873 1.1583
-20.0997 10.3564 1.1369
-20.0997 9.4593 1.1177
-18.5917 7.9475 1.0180
-18.5916 7.1696 1.0039
-7.8711 2.7150 0.4198
-18.5915 5.6749 0.9807
-18.5915 4.9528 0.9713
-18.5914 4.2444 0.9634
-18.5914 3.5475 0.9569
-18.5913 2.8601 0.9517
-18.5913 2.1802 0.9477
-18.5912 1.5061 0.9450
-18.5912 0.8359 0.9436
-18.5911 0.1678 0.9433
-18.5911 -0.4998 0.9443
-18.5910 -1.1687 0.9465
-42.2101 -4.1791 2.1568
-42.0033 -5.6876 2.1568
-32.8454 -5.6548 1.6971
-27.0056 -5.6544 1.4059
-22.8765 -5.6541 1.2016
-20.0987 -5.7405 1.0665
-20.0986 -6.5294 1.0790
-20.0986 -7.3369 1.0932
-20.0985 -8.1659 1.1091
-20.0984 -9.0194 1.1270
-18.5906 -9.1582 1.0609
-18.5905 -10.0029 1.0814
-18.5905 -10.8810 1.1041
-18.5904 -11.7967 1.1292
-18.5903 -12.7552 1.1569
-18.5902 -13.7621 1.1876
-18.5902 -14.8240 1.2215
-18.5901 -15.9485 1.2590
-18.5900 -17.1445 1.3005
-18.5899 -18.4225 1.3466
-22.2142 -23.6541 1.6704
-20.6672 -23.6540 1.6176
-8.0357 -9.8924 0.6566
-20.0973 -26.6407 1.7201
-18.9163 -27.0424 1.7017
-18.5893 -28.7172 1.7646
-18.5891 -31.1112 1.8701
-18.5889 -33.8112 1.9916
-18.7969 -37.3021 2.1568
-17.4408 -37.9419 2.1568
-16.0633 -38.5335 2.1568
-7.8500 -20.9153 1.1544
-10.1362 -30.2674 1.6498
-9.6598 -32.6992 1.7626
-10.1655 -39.5901 2.1134
-6.4795 -29.6100 1.5674
-7.3670 -40.5939 2.1337
-5.9045 -40.8284 2.1337
-4.6490 -42.9930 2.2368
-3.1025 -43.1305 2.2368
-1.5522 -43.2133 2.2368
0.0001 -30.0892 2.2368
1.0803 -30.0705 2.2368
2.1503 -29.8909 2.2276
3.0863 -28.5397 2.1337
4.1092 -28.4127 2.1337
5.1270 -28.2496 2.1337
6.1385 -28.0505 2.1337
7.2199 -28.1169 2.1568
8.2257 -27.8436 2.1568
9.2215 -27.5348 2.1568
10.2058 -27.1910 2.1568
11.1591 -26.7680 2.1532
11.5688 -25.1666 2.0561
10.8556 -21.5418 1.7902
10.6780 -19.4213 1.6444
10.6374 -17.8022 1.5383
10.7366 -16.5856 1.4651
10.8724 -15.5424 1.4062
6.4928 -8.6065 0.7990
6.7654 -8.3282 0.7950
7.0358 -8.0523 0.7920
7.3050 -7.7782 0.7901
7.5736 -7.5051 0.7892
8.6278 -7.9567 0.8683
7.9534 -6.8230 0.7750
7.6120 -6.0696 0.7197
9.4603 -7.0030 0.8698
13.8994 -9.5362 1.2451
12.5797 -7.9822 1.1001
10.6309 -6.2219 0.9091
10.9736 -5.9042 0.9193
16.3041 -8.0313 1.3402
16.9327 -7.5983 1.3680
15.9483 -6.4793 1.2682
11.7709 -4.2966 0.9227
10.1370 -3.2929 0.7845
12.5058 -3.5715 0.9568
12.8967 -3.1872 0.9769
17.3097 -3.6239 1.2998
21.8181 -3.7558 1.6263
20.0260 -2.7112 1.4838
23.7642 -2.3523 1.7525
20.1697 -1.2675 1.4824
24.3434 -0.6539 1.7854
24.3894 0.2207 1.7873
26.6300 1.1979 1.9524
26.2503 2.1272 1.9280
18.1308 2.1266 1.3357
13.8199 2.1264 1.0226
11.1415 2.1262 0.8291
10.2777 2.3466 0.7702
26.6335 7.0958 2.0128
24.1418 7.3696 1.8425
26.1234 9.0116 2.0161
19.6789 7.5894 1.5381
12.8832 5.5076 1.0213
21.3263 10.0371 1.7173
24.5758 12.6632 2.0134
24.0684 13.5164 2.0094
23.5648 14.3699 2.0083
23.0434 15.2128 2.0083
22.4915 16.0366 2.0083
21.9100 16.8402 2.0083
21.4560 17.7520 2.0231
21.7343 19.3375 2.1127
21.4728 20.5322 2.1568
20.7291 21.2971 2.1568
19.9580 22.0348 2.1568
19.1603 22.7441 2.1568
18.3050 23.3833 2.1530
17.2547 23.7511 2.1278
15.9845 23.7510 2.0745
14.7742 23.7509 2.0263
13.2973 23.1934 1.9363
12.5062 23.7508 1.9436
11.4369 23.7507 1.9083
10.1277 23.1203 1.8269
6.1614 15.5631 1.2112
6.1613 17.3590 1.3328
6.1612 19.5591 1.4835
6.1762 22.3806 1.6794
7.1540 30.0980 2.2375
6.0723 30.3515 2.2385
4.9804 30.5585 2.2390
3.1343 24.8118 1.8084
2.7763 30.8491 2.2396
1.6673 30.9294 2.2396
0.5559 30.9615 2.2391
-0.5556 30.9534 2.2385
-1.6658 30.9037 2.2379
-2.7730 30.8137 2.2373
-3.8642 30.5910 2.2299
-4.7453 29.1172 2.1337
-5.7868 28.9250 2.1337
-6.8204 28.6950 2.1337
-6.0897 22.0675 1.6563
-6.6454 21.0966 1.6006
-9.9675 28.0830 2.1568
-10.9670 27.7019 2.1568
-11.8409 27.0316 2.1368
-12.9130 26.8165 2.1555
-13.8639 26.3293 2.1555
-8.2331 14.3606 1.1994
-15.7087 25.2535 2.1555
-16.6003 24.6663 2.1555
-17.4697 24.0473 2.1555
-18.3158 23.3973 2.1555
-19.1375 22.7173 2.1555
-20.2112 22.3145 2.1855
-20.9916 21.5670 2.1855
-21.7443 20.7919 2.1855
-22.4680 19.9904 2.1855
-23.1620 19.1636 2.1855
-23.8253 18.3124 2.1855
-6.0805 4.3354 0.5434
-25.0568 16.5421 2.1855
-25.6234 15.6253 2.1855
-20.0998 11.2878 1.6795
-20.0997 10.3569 1.6481
-20.0997 9.4598 1.6199
-18.5917 7.9480 1.4751
-18.5916 7.1701 1.4544
-7.8576 2.7106 0.6070
-18.5915 5.6753 1.4201
-18.5915 4.9532 1.4063
-18.5914 4.2448 1.3946
-18.5914 3.5479 1.3848
-18.5913 2.8605 1.3769
-18.5913 2.1807 1.3709
-18.5912 1.5065 1.3667
-18.5912 0.8363 1.3643
-18.5911 0.1683 1.3637
-18.5911 -0.4994 1.3648
-18.5910 -1.1683 1.3676
-20.3930 -2.0186 1.5053
-29.0818 -3.9372 2.1568
-28.9076 -4.9762 2.1568
-27.0086 -5.6544 2.0299
-22.8787 -5.6541 1.7345
-20.0987 -5.7400 1.5391
-20.0986 -6.5289 1.5568
-20.0986 -7.3364 1.5769
-20.0985 -8.1654 1.5996
-20.0984 -9.0189 1.6251
-18.5906 -9.1577 1.5294
-18.5905 -10.0024 1.5587
-18.5905 -10.8805 1.5911
-18.5904 -11.7962 1.6270
-18.5903 -12.7547 1.6666
-18.5902 -13.7616 1.7105
-18.5902 -14.8234 1.7590
-18.5901 -15.9480 1.8127
-18.5900 -17.1440 1.8722
-18.5899 -18.4219 1.9383
-19.9294 -21.2206 2.1568
-19.1377 -21.9027 2.1555
-8.0226 -9.8760 0.9432
-17.5064 -23.2056 2.1555
-16.6574 -23.8125 2.1555
-15.7878 -24.3888 2.1555
-14.8984 -24.9337 2.1555
-13.9905 -25.4466 2.1555
-13.0652 -25.9268 2.1555
-12.0181 -26.1445 2.1368
-11.0698 -26.5543 2.1368
-7.6738 -20.4453 1.6222
-9.1192 -27.2300 2.1335
-8.1348 -27.5362 2.1335
-7.1402 -27.8073 2.1335
-6.1367 -28.0429 2.1335
-5.3737 -29.6097 2.2368
-4.3070 -29.7817 2.2368
-3.2350 -29.9157 2.2368
-2.1588 -30.0117 2.2368
-1.0801 -30.0696 2.2368
0.0001 -23.0536 2.2368
0.8277 -23.0392 2.2368
1.6543 -22.9954 2.2368
2.3647 -21.8658 2.1337
3.1483 -21.7681 2.1337
3.9280 -21.6426 2.1337
4.7029 -21.4895 2.1337
5.4718 -21.3090 2.1337
6.3015 -21.3297 2.1568
7.0641 -21.0924 2.1568
7.7934 -20.7630 2.1500
8.3082 -19.9289 2.0929
8.5588 -18.6182 1.9859
8.7758 -17.4141 1.8896
8.9949 -16.3598 1.8087
9.2718 -15.5165 1.7508
9.5053 -14.6831 1.6939
9.7623 -13.9551 1.6489
6.5336 -8.6602 1.0501
6.8076 -8.3799 1.0448
7.0796 -8.1022 1.0410
7.3504 -7.8263 1.0385
7.6206 -7.5514 1.0374
8.7064 -8.0288 1.1449
8.1203 -6.9659 1.0340
7.7602 -6.1875 0.9589
7.4490 -5.5139 0.8951
8.8853 -6.0958 1.0404
12.5836 -7.9843 1.4385
13.6263 -7.9747 1.5234
10.8489 -5.8368 1.1883
14.7473 -7.2641 1.5852
15.3071 -6.8684 1.6172
15.8532 -6.4402 1.6488
11.9188 -4.3503 1.2221
9.9808 -3.2419 1.0104
12.6690 -3.6178 1.2682
13.0686 -3.2294 1.2952
17.4987 -3.6630 1.7195
18.9239 -3.2571 1.8462
19.4199 -2.6287 1.8834
19.8401 -1.9634 1.9154
19.8918 -1.2496 1.9141
19.9233 -0.5347 1.9133
19.9343 0.1809 1.9130
21.1008 0.9497 2.0261
21.1054 1.7108 2.0304
18.1272 2.1266 1.7495
13.8179 2.1264 1.3396
11.1401 2.1262 1.0863
9.3109 2.1261 0.9144
7.9790 2.1260 0.7903
7.6998 2.3507 0.7702
19.9280 6.8749 2.0161
19.6485 7.5781 2.0134
12.8814 5.5071 1.3389
19.0195 8.9519 2.0083
18.6923 9.6321 2.0083
18.3406 10.3003 2.0083
17.9649 10.9555 2.0083
17.5657 11.5970 2.0083
17.1434 12.2238 2.0083
16.6986 12.8351 2.0083
16.2319 13.4301 2.0083
15.7438 14.0081 2.0083
15.4405 14.7646 2.0354
15.1683 15.5844 2.0714
14.9386 16.4936 2.1191
14.3757 17.0651 2.1243
13.7413 17.5540 2.1218
13.0757 17.9991 2.1170
12.4497 18.4992 2.1214
11.8126 18.9904 2.1273
6.1617 10.7477 1.1782
6.1617 11.7020 1.2575
6.1616 12.7960 1.3502
6.1615 14.0663 1.4597
6.1614 15.5635 1.5909
6.1613 17.3593 1.7505
6.1612 19.5595 1.9488
5.9738 21.6476 2.1337
5.1934 21.8499 2.1337
4.4061 22.0238 2.1337
3.6130 22.1690 2.1337
2.8151 22.2853 2.1337
2.1108 23.4542 2.2368
1.2678 23.5184 2.2371
0.4229 23.5528 2.2375
-0.4228 23.5567 2.2379
-1.2682 23.5294 2.2383
-2.1118 23.4676 2.2382
-2.9520 23.3706 2.2378
-3.7882 23.2449 2.2375
-4.6191 23.0889 2.2372
-5.4436 22.9030 2.2369
-5.9726 21.6436 2.1337
-6.6243 21.0303 2.0956
-7.5080 21.1539 2.1337
-8.2612 20.8677 2.1337
-9.0034 20.5544 2.1337
-9.7337 20.2146 2.1337
-7.4337 14.1180 1.5177
-7.9351 13.8412 1.5179
-11.8604 19.0675 2.1368
-12.6445 18.7888 2.1555
-13.3076 18.3186 2.1555
-13.9532 17.8249 2.1555
-14.5803 17.3082 2.1555
-15.1882 16.7693 2.1555
-15.7760 16.2089 2.1555
-16.3430 15.6278 2.1555
-16.8885 15.0267 2.1555
-17.4118 14.4065 2.1555
-17.9122 13.7680 2.1555
-6.1655 4.3962 0.7227
-18.8417 12.4395 2.1555
-19.2697 11.7513 2.1555
-19.6839 11.0547 2.1568
-20.0611 10.3375 2.1568
-20.0997 9.4604 2.1238
-18.5917 7.9484 1.9337
-18.5916 7.1705 1.9064
-7.8446 2.7063 0.7942
-18.5915 5.6758 1.8610
-18.5915 4.9537 1.8427
-18.5914 4.2452 1.8271
-18.5914 3.5483 1.8141
-18.5913 2.8609 1.8036
-18.5913 2.1811 1.7955
-18.5912 1.5070 1.7898
-18.5912 0.8367 1.7864
-18.5911 0.1687 1.7854
-18.5911 -0.4989 1.7866
-18.5910 -1.1678 1.7902
-20.3708 -2.0159 1.9680
-22.2228 -3.0081 2.1568
-22.0922 -3.8025 2.1568
-21.9333 -4.5914 2.1568
-21.7464 -5.3738 2.1568
-20.0987 -5.7395 2.0132
-20.0986 -6.5284 2.0361
-20.0986 -7.3359 2.0622
-20.0985 -8.1649 2.0917
-20.0984 -9.0184 2.1248
-18.5906 -9.1572 1.9995
-18.5905 -10.0020 2.0375
-18.5905 -10.8800 2.0797
-18.5904 -11.7957 2.1264
-18.3980 -12.6223 2.1555
-17.9277 -13.2706 2.1555
-17.4346 -13.9015 2.1555
-16.9195 -14.5143 2.1555
-16.3831 -15.1082 2.1555
-15.8260 -15.6824 2.1555
-15.2489 -16.2363 2.1555
-14.6526 -16.7692 2.1555
-8.0095 -9.8596 1.2299
-8.0054 -10.6113 1.2872
-12.7563 -18.2351 2.1555
-11.9858 -18.5150 2.1368
-11.3113 -18.9299 2.1368
-10.6225 -19.3203 2.1368
-9.9053 -19.6560 2.1335
-6.9973 -15.2216 1.6241
-8.4670 -20.3101 2.1335
-7.7314 -20.5983 2.1335
-6.9861 -20.8602 2.1335
-6.2322 -21.0955 2.1335
-5.7351 -22.3347 2.2368
-4.9292 -22.5245 2.2368
-4.1172 -22.6855 2.2368
-3.2999 -22.8176 2.2368
-2.4786 -22.9206 2.2368
-1.6541 -22.9942 2.2368
-0.8275 -23.0386 2.2368
0.0001 -18.6692 2.2368
0.6703 -18.6575 2.2368
1.3397 -18.6219 2.2368
2.0075 -18.5625 2.2368
2.5495 -17.6277 2.1337
3.1809 -17.5258 2.1337
3.8083 -17.4015 2.1337
4.4310 -17.2550 2.1337
5.0480 -17.0863 2.1337
5.6587 -16.8958 2.1337
6.3302 -16.8643 2.1568
6.9318 -16.6270 2.1566
7.3357 -15.9572 2.1023
7.6925 -15.2642 2.0458
8.0309 -14.6060 1.9946
8.3024 -13.8939 1.9365
8.5936 -13.2745 1.8917
8.8811 -12.6951 1.8531
6.5750 -8.7149 1.3055
6.8505 -8.4325 1.2990
7.1241 -8.1529 1.2942
7.3965 -7.8751 1.2912
7.6684 -7.5985 1.2899
8.7867 -8.1026 1.4278
8.2950 -7.1155 1.3052
7.9148 -6.3106 1.2086
7.5874 -5.6162 1.1268
9.2560 -6.3499 1.3395
11.6660 -7.4018 1.6483
12.2052 -7.1427 1.6867
10.7264 -5.7706 1.4524
13.2043 -6.5037 1.7546
13.6766 -6.1365 1.7864
14.1508 -5.7483 1.8197
14.5864 -5.3236 1.8494
9.8286 -3.1923 1.2305
15.3840 -4.3928 1.9044
15.7633 -3.8949 1.9322
16.0883 -3.3674 1.9554
16.3980 -2.8220 1.9788
16.5445 -2.2391 1.9849
16.6085 -1.6432 1.9836
16.6518 -1.0456 1.9824
16.6664 -0.4469 1.9803
17.1624 0.1561 2.0380
17.2007 0.7746 2.0439
17.1967 1.3943 2.0474
17.1408 2.0113 2.0474
13.8158 2.1264 1.6578
11.1387 2.1262 1.3445
9.3099 2.1261 1.1319
7.9783 2.1260 0.9783
6.9631 2.1259 0.8624
6.1487 2.1214 0.7702
6.0891 2.3486 0.7726
12.8713 5.5031 1.6567
15.4156 7.2560 2.0159
15.1180 7.7907 2.0117
14.7880 8.3055 2.0057
14.4493 8.8120 2.0008
14.0786 9.2952 1.9940
13.7744 9.8220 1.9990
13.5068 10.3822 2.0125
13.1826 10.9076 2.0208
12.7556 11.3497 2.0161
12.0279 11.5018 1.9647
11.6473 11.9672 1.9710
11.3617 12.5447 1.9972
6.1708 7.3255 1.1300
8.0875 10.3318 1.5477
6.1619 8.4823 1.2365
6.1673 9.1643 1.3025
6.1853 9.9440 1.3807
6.1617 10.7480 1.4604
6.1617 11.7023 1.5588
6.1616 12.7963 1.6737
6.1615 14.0666 1.8096
6.1614 15.5638 1.9722
6.0578 17.0682 2.1337
5.4418 17.2762 2.1337
4.8186 17.4618 2.1337
4.1891 17.6246 2.1337
3.5540 17.7647 2.1337
2.9142 17.8816 2.1337
2.2706 17.9753 2.1337
1.7025 18.9175 2.2368
1.0224 18.9666 2.2368
0.3410 18.9911 2.2368
-0.3408 18.9909 2.2368
-1.0222 18.9661 2.2368
-1.7022 18.9165 2.2368
-2.3800 18.8424 2.2368
-3.0546 18.7438 2.2368
-3.7251 18.6209 2.2368
-4.3907 18.4738 2.2368
-5.0505 18.3027 2.2368
-5.7036 18.1078 2.2368
-6.0565 17.0650 2.1337
-6.6643 16.8346 2.1337
-7.2634 16.5824 2.1337
-7.8528 16.3087 2.1337
-7.6577 14.5438 1.9378
-8.9997 15.6985 2.1337
-9.5558 15.3628 2.1337
-10.1138 15.0289 2.1368
-10.6448 14.6535 2.1368
-11.1617 14.2592 2.1368
-11.6639 13.8466 2.1368
-12.1508 13.4161 2.1368
-12.7325 13.0823 2.1555
-13.1908 12.6140 2.1555
-13.6319 12.1295 2.1555
-14.0551 11.6296 2.1555
-14.4598 11.1148 2.1555
-6.1654 4.3963 0.8952
-15.2120 10.0436 2.1555
-15.5586 9.4886 2.1555
-15.8848 8.9216 2.1555
-16.1903 8.3433 2.1555
-16.4746 7.7546 2.1555
-16.7376 7.1562 2.1555
-16.9787 6.5489 2.1555
-7.8316 2.7020 0.9816
-17.3945 5.3107 2.1555
-17.5686 4.6815 2.1555
-17.7199 4.0467 2.1555
-17.8483 3.4069 2.1555
-17.9536 2.7632 2.1555
-18.0356 2.1163 2.1555
-18.0944 1.4671 2.1555
-18.1298 0.8164 2.1555
-18.1417 0.1650 2.1555
-18.1304 -0.4862 2.1555
-18.0957 -1.1363 2.1555
-18.0377 -1.7846 2.1555
-17.9565 -2.4302 2.1555
-17.8522 -3.0723 2.1555
-17.7251 -3.7100 2.1555
-17.5752 -4.3426 2.1555
-17.4029 -4.9693 2.1555
-17.2082 -5.5891 2.1555
-16.9916 -6.2015 2.1555
-16.7533 -6.8055 2.1555
-16.4935 -7.4004 2.1555
-16.2128 -7.9856 2.1555
-15.9114 -8.5601 2.1555
-15.5897 -9.1234 2.1555
-15.2482 -9.6747 2.1555
-14.8873 -10.2133 2.1555
-14.5075 -10.7385 2.1555
-14.1093 -11.2497 2.1555
-13.6932 -11.7462 2.1555
-13.2597 -12.2275 2.1555
-12.8095 -12.6929 2.1555
-12.3430 -13.1419 2.1555
-8.1901 -9.3728 1.4884
-7.6201 -9.3799 1.4454
-7.3427 -9.7326 1.4584
-10.2373 -14.6339 2.1368
-9.6890 -14.9667 2.1335
-9.1441 -15.3025 2.1335
-8.5876 -15.6187 2.1335
-8.0202 -15.9148 2.1335
-6.7685 -14.7236 1.9402
-6.8560 -16.4453 2.1335
-6.2605 -16.6791 2.1335
-5.8952 -17.6023 2.2233
-5.2909 -17.9090 2.2368
-4.6442 -18.0861 2.2368
-3.9917 -18.2401 2.2368
-3.3341 -18.3707 2.2368
-2.6723 -18.4779 2.2368
-2.0072 -18.5614 2.2368
-1.3395 -18.6211 2.2368
-0.6702 -18.6571 2.2368
0.0001 -15.6724 2.2368
0.5627 -15.6625 2.2368
1.1247 -15.6326 2.2368
1.6853 -15.5826 2.2368
2.1580 -14.9204 2.1514
2.6703 -14.7121 2.1337
3.1970 -14.6076 2.1337
2.6228 -10.2134 1.5045
4.2375 -14.3427 2.1337
4.7501 -14.1825 2.1337
5.2567 -14.0042 2.1337
5.7567 -13.8079 2.1337
6.3084 -13.7222 2.1538
6.7860 -13.4651 2.1501
7.1513 -13.0059 2.1161
7.4630 -12.4888 2.0740
7.7762 -12.0115 2.0395
8.0573 -11.5171 2.0031
6.6172 -8.7705 1.5655
6.8943 -8.4861 1.5577
7.1694 -8.2045 1.5520
7.4434 -7.9248 1.5484
7.7170 -7.6464 1.5469
8.8690 -8.1782 1.7175
8.4784 -7.2726 1.5899
8.0767 -6.4394 1.4699
7.7319 -5.7229 1.3686
9.6613 -6.6277 1.6665
10.6974 -6.7869 1.8016
11.0440 -6.4628 1.8193
11.4128 -6.1396 1.8421
11.8195 -5.8213 1.8724
12.1176 -5.4367 1.8870
12.4069 -5.0396 1.9022
12.7053 -4.6368 1.9207
9.6803 -3.1438 1.4450
13.2493 -3.7829 1.9557
13.4902 -3.3329 1.9719
13.6091 -2.8482 1.9725
13.7197 -2.3607 1.9745
13.8111 -1.8688 1.9762
13.8812 -1.3730 1.9774
13.9327 -0.8746 1.9784
14.3233 -0.3837 2.0301
14.3884 0.1312 2.0381
14.4119 0.6493 2.0429
14.4116 1.1688 2.0470
14.3926 1.6892 2.0510
13.8137 2.1264 1.9776
11.1374 2.1262 1.6040
9.3089 2.1261 1.3504
7.9776 2.1260 1.1673
6.9626 2.1259 1.0291
6.1613 2.1259 0.9211
6.0891 2.3488 0.9221
12.7688 5.4596 1.9616
12.9893 6.1143 2.0274
12.6574 6.5230 2.0104
12.3089 6.9135 1.9927
11.9256 7.2732 1.9713
11.3060 7.4649 1.9115
6.1630 4.3948 1.0678
10.5542 8.1129 1.8774
10.5213 8.7059 1.9256
6.1625 5.4835 1.1629
6.1848 5.9144 1.2062
10.3319 10.6159 2.0876
10.1035 11.1558 2.1207
6.1620 7.3152 1.3475
6.1855 7.9022 1.4135
6.1619 8.4826 1.4766
6.1671 9.1643 1.5554
8.0907 13.0076 2.1568
6.1617 10.7482 1.7441
6.1617 11.7026 1.8617
6.1616 12.7966 1.9990
6.0830 13.8876 2.1337
5.5811 14.0983 2.1337
5.0719 14.2907 2.1337
4.5561 14.4646 2.1337
4.0343 14.6198 2.1337
3.5072 14.7560 2.1337
2.9754 14.8731 2.1337
2.4398 14.9709 2.1337
1.9928 15.7764 2.2368
1.4253 15.8380 2.2368
0.8559 15.8791 2.2368
0.2855 15.8996 2.2368
-0.2853 15.8995 2.2368
-0.8558 15.8787 2.2368
-1.4251 15.8373 2.2368
-1.9925 15.7754 2.2368
-2.5573 15.6930 2.2368
-3.1188 15.5902 2.2368
-3.6761 15.4672 2.2368
-4.2285 15.3242 2.2368
-4.7754 15.1613 2.2368
-5.3160 14.9788 2.2368
-5.8496 14.7769 2.2368
-6.0816 13.8849 2.1337
-6.5753 13.6561 2.1337
-7.0603 13.4096 2.1337
-7.5361 13.1458 2.1337
-8.0019 12.8650 2.1337
-6.6850 9.9341 1.6866
-6.7756 9.3276 1.6241
-7.1049 9.0769 1.6241
-9.7536 11.5791 2.1335
-10.1766 11.2366 2.1368
-10.5713 10.8621 2.1368
-10.9523 10.4737 2.1368
-11.3189 10.0718 2.1368
-11.6708 9.6571 2.1368
-12.0073 9.2300 2.1368
-6.1653 4.3965 1.0686
-12.7439 8.4144 2.1555
-13.0347 7.9497 2.1555
-13.3086 7.4750 2.1555
-13.5652 6.9909 2.1555
-13.8041 6.4979 2.1555
-14.0250 5.9968 2.1555
-14.2277 5.4881 2.1555
-7.8185 2.6977 1.1694
-14.5775 4.4511 2.1555
-14.7241 3.9239 2.1555
-14.8517 3.3920 2.1555
-14.9600 2.8560 2.1555
-15.0490 2.3165 2.1555
-15.1185 1.7744 2.1555
-15.1685 1.2302 2.1555
-15.1989 0.6848 2.1555
-15.2097 0.1387 2.1555
-15.2009 -0.4072 2.1555
-15.1726 -0.9524 2.1555
-15.1247 -1.4961 2.1555
-15.0574 -2.0375 2.1555
-14.9707 -2.5760 2.1555
-14.8648 -3.1110 2.1555
-14.7398 -3.6417 2.1555
-14.5959 -4.1674 2.1555
-14.4333 -4.6875 2.1555
-14.2523 -5.2014 2.1555
-14.0530 -5.7083 2.1555
-13.8358 -6.2076 2.1555
-13.6008 -6.6987 2.1555
-13.3486 -7.1810 2.1555
-13.0793 -7.6539 2.1555
-12.7933 -8.1167 2.1555
-12.4910 -8.5690 2.1555
-12.0669 -8.9316 2.1368
-11.7361 -9.3572 2.1368
-11.3905 -9.7706 2.1368
-11.0302 -10.1713 2.1368
-10.6561 -10.5588 2.1368
-10.2683 -10.9326 2.1368
-9.8526 -11.2751 2.1335
-7.7366 -9.5230 1.7486
-7.4781 -9.9117 1.7697
-8.5793 -12.2634 2.1335
-8.1323 -12.5618 2.1335
-7.6751 -12.8440 2.1335
-7.2082 -13.1096 2.1335
-6.7321 -13.3585 2.1335
-6.2476 -13.5901 2.1335
-5.8954 -14.1409 2.1855
-5.5096 -14.6784 2.2368
-4.9787 -14.8655 2.2368
-4.4415 -15.0336 2.2368
-3.8987 -15.1825 2.2368
-3.3509 -15.3119 2.2368
-2.7989 -15.4217 2.2368
-2.2434 -15.5117 2.2368
-1.6850 -15.5818 2.2368
-1.1245 -15.6321 2.2368
-0.5626 -15.6623 2.2368
0.0001 -13.4927 2.2368
0.4845 -13.4841 2.2368
0.9683 -13.4583 2.2368
1.4509 -13.4152 2.2368
1.9317 -13.3549 2.2368
2.2989 -12.6656 2.1337
2.7523 -12.5756 2.1337
2.6202 -10.2031 1.7459
3.6481 -12.3472 2.1337
4.0893 -12.2092 2.1337
4.5254 -12.0555 2.1337
4.9557 -11.8863 2.1337
5.3798 -11.7019 2.1337
5.7970 -11.5024 2.1337
6.2665 -11.3964 2.1541
6.6712 -11.1634 2.1537
7.0337 -10.8642 2.1431
7.3051 -10.4416 2.1099
6.6601 -8.8272 1.8306
6.9389 -8.5407 1.8214
7.2156 -8.2571 1.8148
7.4913 -7.9755 1.8106
7.7666 -7.6953 1.8089
8.0422 -7.4156 1.8096
8.7555 -7.5100 1.9078
8.2464 -6.5745 1.7439
7.8830 -5.8345 1.6214
9.4416 -6.4767 1.8926
9.6918 -6.1487 1.8969
9.9691 -5.8335 1.9085
10.2175 -5.4963 1.9166
10.4424 -5.1428 1.9225
10.6737 -4.7886 1.9318
10.8936 -4.4246 1.9412
11.1060 -4.0528 1.9514
11.3021 -3.6703 1.9610
11.3469 -3.2395 1.9469
11.4631 -2.8318 1.9477
11.5652 -2.4201 1.9486
11.6518 -2.0047 1.9494
11.7227 -1.5860 1.9500
11.7785 -1.1648 1.9507
12.2271 -0.7672 2.0186
12.2943 -0.3291 2.0260
12.3309 0.1127 2.0309
12.3585 0.5571 2.0370
12.3756 1.0040 2.0440
12.3658 1.4516 2.0492
12.3295 1.8982 2.0527
11.1360 2.1262 1.8651
9.3080 2.1261 1.5704
7.9769 2.1260 1.3575
6.9620 2.1259 1.1968
6.1608 2.1259 1.0712
6.0891 2.3489 1.0725
11.5278 4.9293 2.0599
11.3067 5.3226 2.0528
8.3768 4.3172 1.5477
8.2180 4.6160 1.5477
8.0605 4.9162 1.5500
6.1450 4.0575 1.2087
6.1498 4.3855 1.2396
6.1548 4.7313 1.2738
8.1849 6.7729 1.7429
6.1625 5.4837 1.3531
6.1846 5.9144 1.4034
8.9577 9.2043 2.1060
8.7156 9.6237 2.1286
6.1620 7.3154 1.5679
8.1109 10.3622 2.1568
6.1619 8.4828 1.7182
6.1670 9.1643 1.8100
6.9527 11.1782 2.1568
6.1617 10.7485 2.0297
6.0685 11.5258 2.1337
5.6514 11.7373 2.1337
5.2270 11.9336 2.1337
4.7957 12.1145 2.1337
4.3581 12.2797 2.1337
3.9148 12.4290 2.1337
3.4664 12.5622 2.1337
3.0135 12.6792 2.1337
2.5566 12.7797 2.1337
2.1465 13.1713 2.1847
1.7123 13.5557 2.2368
1.2247 13.6087 2.2368
0.7355 13.6440 2.2368
0.2453 13.6616 2.2368
-0.2452 13.6615 2.2368
-0.7353 13.6437 2.2368
-1.2245 13.6082 2.2368
-1.7120 13.5550 2.2368
-2.1974 13.4843 2.2368
-2.6797 13.3961 2.2368
-3.1586 13.2905 2.2368
-3.6334 13.1678 2.2368
-4.1033 13.0279 2.2368
-4.5679 12.8713 2.2368
-5.0265 12.6979 2.2368
-5.4785 12.5081 2.2368
-5.8919 12.2371 2.2249
-6.0667 11.5227 2.1335
-6.4756 11.2963 2.1335
-6.8760 11.0552 2.1335
-7.2674 10.7999 2.1335
-7.6493 10.5307 2.1335
-6.7780 8.6595 1.8028
-8.3826 9.9519 2.1335
-8.7331 9.6431 2.1335
-9.0721 9.3219 2.1335
-9.3992 8.9888 2.1335
-9.7141 8.6442 2.1335
-10.0316 8.3011 2.1368
-10.3212 7.9342 2.1368
-6.1652 4.3966 1.2431
-10.8597 7.1706 2.1368
-11.1079 6.7749 2.1368
-11.3417 6.3706 2.1368
-11.5607 5.9582 2.1368
-11.7647 5.5382 2.1368
-7.2009 3.0791 1.2872
-8.1853 3.1576 1.4423
-7.8054 2.6934 1.3577
-8.3706 2.5561 1.4395
-7.5609 2.0151 1.2872
-12.7712 2.9172 2.1555
-12.8649 2.4563 2.1555
-12.9418 1.9925 2.1555
-13.0021 1.5263 2.1555
-13.0455 1.0584 2.1555
-13.0722 0.5892 2.1555
-13.0819 0.1196 2.1555
-13.0748 -0.3500 2.1555
-13.0509 -0.8189 2.1555
-13.0102 -1.2866 2.1555
-12.9527 -1.7524 2.1555
-12.8786 -2.2157 2.1555
-12.7879 -2.6760 2.1555
-12.6809 -3.1327 2.1555
-12.5575 -3.5851 2.1555
-12.4181 -4.0327 2.1555
-12.1560 -4.4360 2.1368
-11.9865 -4.8686 2.1368
-11.8015 -5.2946 2.1368
-11.6015 -5.7137 2.1368
-11.3867 -6.1253 2.1368
-11.1573 -6.5289 2.1368
-10.9137 -6.9239 2.1368
-10.6561 -7.3099 2.1368
-10.3850 -7.6864 2.1368
-10.1006 -8.0528 2.1368
-9.7884 -8.3960 2.1335
-9.4791 -8.7406 2.1335
-9.1578 -9.0738 2.1335
-8.8248 -9.3953 2.1335
-8.4805 -9.7047 2.1335
-8.1255 -10.0015 2.1335
-7.7602 -10.2854 2.1335
-7.3850 -10.5560 2.1335
-7.0004 -10.8131 2.1335
-6.6070 -11.0562 2.1335
-6.2051 -11.2851 2.1335
-5.8986 -11.7043 2.1715
-5.6386 -12.2652 2.2368
-5.1942 -12.4587 2.2368
-4.7432 -12.6362 2.2368
-4.2862 -12.7974 2.2368
-3.8237 -12.9423 2.2368
-3.3564 -13.0705 2.2368
-2.8849 -13.1820 2.2368
-2.4097 -13.2766 2.2368
-1.9314 -13.3542 2.2368
-1.4507 -13.4146 2.2368
-0.9681 -13.4579 2.2368
-0.4843 -13.4839 2.2368
0.0001 -11.8343 2.2368
0.4250 -11.8268 2.2368
0.8493 -11.8041 2.2368
1.2726 -11.7663 2.2368
1.6943 -11.7134 2.2368
2.1138 -11.6455 2.2368
2.4140 -11.0297 2.1337
2.6176 -10.1928 1.9886
3.1997 -10.8293 2.1337
3.5866 -10.7081 2.1337
3.9691 -10.5732 2.1337
4.3464 -10.4247 2.1337
4.7183 -10.2628 2.1337
5.0842 -10.0877 2.1337
5.4436 -9.8997 2.1337
5.7962 -9.6989 2.1337
6.1413 -9.4856 2.1337
6.5488 -9.3603 2.1568
6.8815 -9.1203 2.1568
6.9844 -8.5965 2.0906
7.2628 -8.3108 2.0830
7.5401 -8.0273 2.0782
7.8172 -7.7452 2.0762
7.9730 -7.3514 2.0458
8.0816 -6.9317 2.0082
8.2344 -6.5647 1.9860
8.0413 -5.9514 1.8863
8.5173 -5.8424 1.9472
8.6821 -5.5078 1.9380
8.8758 -5.1935 1.9380
9.0481 -4.8670 1.9359
9.2454 -4.5530 1.9415
9.4308 -4.2307 1.9469
9.6229 -3.9083 1.9560
9.7996 -3.5758 1.9641
9.8139 -3.1868 1.9424
9.9236 -2.8329 1.9424
10.0206 -2.4752 1.9423
10.1049 -2.1143 1.9423
10.1762 -1.7506 1.9423
10.2345 -1.3844 1.9423
10.2796 -1.0163 1.9423
10.7606 -0.6749 2.0269
10.8100 -0.2891 2.0325
10.8464 0.0994 2.0383
10.8559 0.4896 2.0417
10.8497 0.8805 2.0447
10.8294 1.2715 2.0478
10.7950 1.6622 2.0508
10.7464 2.0521 2.0539
9.3070 2.1261 1.7919
7.9762 2.1260 1.5490
6.9615 2.1259 1.3657
6.1604 2.1259 1.2225
6.0891 2.3491 1.2241
10.0766 4.3090 2.0550
9.8872 4.6546 2.0488
9.6971 4.9979 2.0449
9.4997 5.3362 2.0421
9.2989 5.6717 2.0410
6.1450 4.0577 1.3796
6.1498 4.3857 1.4149
6.1548 4.7315 1.4540
8.1846 6.7729 1.9894
6.1625 5.4839 1.5446
6.1844 5.9144 1.6020
7.8212 8.0368 2.0992
7.5645 8.3529 2.1091
6.1620 7.3156 1.7900
7.0700 9.0327 2.1463
6.1619 8.4830 1.9617
6.1668 9.1643 2.0664
6.0244 9.6861 2.1337
5.6735 9.8970 2.1337
5.3151 10.0952 2.1337
4.9498 10.2803 2.1337
4.5780 10.4522 2.1337
4.2002 10.6105 2.1337
3.8169 10.7551 2.1337
3.4287 10.8858 2.1337
3.0359 11.0024 2.1337
2.6392 11.1047 2.1337
2.2391 11.1927 2.1337
1.9247 11.8105 2.2368
1.4996 11.8722 2.2368
1.0726 11.9186 2.2368
0.6441 11.9495 2.2368
0.2148 11.9649 2.2368
-0.2147 11.9648 2.2368
-0.6440 11.9493 2.2368
-1.0724 11.9182 2.2368
-1.4994 11.8717 2.2368
-1.9244 11.8098 2.2368
-2.3469 11.7326 2.2368
-2.7664 11.6403 2.2368
-3.1822 11.5328 2.2368
-3.5938 11.4105 2.2368
-4.0007 11.2734 2.2368
-4.4024 11.1217 2.2368
-4.7983 10.9556 2.2368
-5.1880 10.7753 2.2368
-5.5708 10.5812 2.2368
-5.8970 10.2872 2.2182
-6.0227 9.6835 2.1335
-6.3656 9.4600 2.1335
-6.7003 9.2244 2.1335
-6.9589 8.8909 2.1131
-7.3428 8.7177 2.1335
-7.6499 8.4474 2.1335
-7.9471 8.1662 2.1335
-8.2338 7.8746 2.1335
-8.5099 7.5728 2.1335
-8.7748 7.2614 2.1335
-6.3645 4.8928 1.5040
-6.1651 4.3967 1.4189
-9.4998 6.2730 2.1335
-9.7172 5.9269 2.1335
-9.9370 5.5818 2.1368
-10.1291 5.2206 2.1368
-10.3081 4.8528 2.1368
-7.3014 3.1223 1.4896
-7.1101 2.7430 1.4298
-7.1584 2.4703 1.4210
-7.3213 2.2358 1.4368
-7.7379 2.0625 1.5033
-11.0944 2.5344 2.1368
-11.1761 2.1341 2.1368
-11.2432 1.7312 2.1368
-11.2959 1.3263 2.1368
-11.3339 0.9198 2.1368
-11.3574 0.5122 2.1368
-11.3662 0.1042 2.1368
-11.3603 -0.3038 2.1368
-11.3399 -0.7113 2.1368
-11.3048 -1.1177 2.1368
-11.2551 -1.5225 2.1368
-11.1910 -1.9251 2.1368
-11.1125 -2.3252 2.1368
-11.0198 -2.7221 2.1368
-10.9129 -3.1153 2.1368
-10.7920 -3.5044 2.1368
-10.6572 -3.8888 2.1368
-10.5088 -4.2681 2.1368
-10.3470 -4.6418 2.1368
-10.1718 -5.0093 2.1368
-9.9837 -5.3704 2.1368
-9.7679 -5.7156 2.1335
-9.5548 -6.0616 2.1335
-9.3296 -6.3997 2.1335
-9.0924 -6.7294 2.1335
-8.8435 -7.0504 2.1335
-8.5834 -7.3622 2.1335
-8.3124 -7.6645 2.1335
-8.0307 -7.9569 2.1335
-7.7389 -8.2390 2.1335
-7.4372 -8.5104 2.1335
-7.1259 -8.7709 2.1335
-6.8057 -9.0200 2.1335
-6.4767 -9.2575 2.1335
-6.1395 -9.4830 2.1335
-5.8987 -9.8707 2.1719
-5.7055 -10.3762 2.2368
-5.3289 -10.5734 2.2368
-4.9454 -10.7571 2.2368
-4.5557 -10.9269 2.2368
-4.1602 -11.0827 2.2368
-3.7594 -11.2242 2.2368
-3.3538 -11.3513 2.2368
-2.9439 -11.4639 2.2368
-2.5304 -11.5617 2.2368
-2.1136 -11.6447 2.2368
-1.6941 -11.7128 2.2368
-1.2724 -11.7659 2.2368
-0.8491 -11.8038 2.2368
-0.4248 -11.8267 2.2368
0.0001 -10.5292 2.2368
0.3781 -10.5225 2.2368
0.7557 -10.5023 2.2368
1.1323 -10.4686 2.2368
1.5075 -10.4215 2.2368
1.8807 -10.3610 2.2368
2.1592 -9.8650 2.1450
2.4989 -9.7301 2.1337
2.8468 -9.6346 2.1337
3.1911 -9.5268 2.1337
3.5313 -9.4067 2.1337
3.8670 -9.2745 2.1337
4.1978 -9.1304 2.1337
4.5233 -8.9745 2.1337
4.8430 -8.8071 2.1337
5.1566 -8.6284 2.1337
5.4636 -8.4385 2.1337
5.7636 -8.2378 2.1337
6.0563 -8.0264 2.1337
6.4100 -7.8892 2.1568
6.6899 -7.6549 2.1568
6.9544 -7.4035 2.1547
7.1580 -7.0919 2.1372
7.3027 -6.7332 2.1065
7.3817 -6.3311 2.0620
7.4668 -5.9525 2.0245
7.5459 -5.5845 1.9900
7.6513 -5.2481 1.9665
7.7755 -4.9325 1.9513
7.9050 -4.6252 1.9405
8.0708 -4.3411 1.9414
8.2331 -4.0543 1.9439
8.3999 -3.7680 1.9497
8.5665 -3.4790 1.9578
8.6392 -3.1522 1.9469
8.7434 -2.8389 1.9458
8.8367 -2.5224 1.9449
8.9191 -2.2029 1.9440
8.9919 -1.8812 1.9435
9.0547 -1.5574 1.9434
9.1060 -1.2315 1.9433
9.1456 -0.9040 1.9432
9.5856 -0.6010 2.0305
9.6247 -0.2572 2.0351
9.6575 0.0887 2.0410
9.6600 0.4359 2.0432
9.6383 0.7824 2.0429
9.6031 1.1277 2.0423
9.5546 1.4714 2.0415
9.4990 1.8141 2.0419
9.3060 2.1261 2.0152
7.9754 2.1260 1.7422
6.9609 2.1259 1.5360
6.1600 2.1259 1.3750
6.0891 2.3492 1.3769
8.8857 3.8000 2.0385
8.7888 4.1377 2.0487
8.6574 4.4623 2.0538
8.5075 4.7790 2.0573
8.3470 5.0914 2.0610
6.1450 4.0578 1.5521
6.1498 4.3859 1.5918
6.1548 4.7317 1.6358
7.6212 6.3068 2.0841
6.1625 5.4841 1.7377
6.1842 5.9144 1.8024
6.9579 7.1499 2.1011
6.7009 7.3995 2.1021
6.1620 7.3158 2.0139
6.1542 7.8629 2.1021
5.9568 8.2009 2.1337
5.6592 8.4102 2.1337
5.3542 8.6087 2.1337
5.0422 8.7961 2.1337
4.7237 8.9721 2.1337
4.3990 9.1366 2.1337
4.0685 9.2892 2.1337
3.7328 9.4299 2.1337
3.3921 9.5583 2.1337
3.0470 9.6744 2.1337
2.6980 9.7779 2.1337
2.3454 9.8689 2.1337
2.0860 10.4276 2.2368
1.7104 10.4960 2.2368
1.3327 10.5508 2.2368
0.9532 10.5920 2.2368
0.5724 10.6195 2.2368
0.1909 10.6332 2.2368
-0.1908 10.6331 2.2368
-0.5723 10.6193 2.2368
-0.9530 10.5917 2.2368
-1.3325 10.5504 2.2368
-1.7102 10.4955 2.2368
-2.0857 10.4269 2.2368
-2.4585 10.3449 2.2368
-2.8280 10.2495 2.2368
-3.1938 10.1408 2.2368
-3.5555 10.0190 2.2368
-3.9125 9.8843 2.2368
-4.2644 9.7368 2.2368
-4.6107 9.5767 2.2368
-4.9510 9.4042 2.2368
-5.2849 9.2196 2.2368
-5.6118 9.0231 2.2368
-5.8969 8.7637 2.2238
-5.9551 8.1987 2.1335
-6.2448 7.9788 2.1335
-6.5264 7.7487 2.1335
-6.7995 7.5085 2.1335
-7.0637 7.2587 2.1335
-7.3187 6.9996 2.1335
-7.5641 6.7315 2.1335
-7.7998 6.4547 2.1335
-6.3566 4.8869 1.6899
-6.1651 4.3968 1.5962
-8.4446 5.5765 2.1335
-8.6380 5.2690 2.1335
-8.8202 4.9547 2.1335
-8.9909 4.6342 2.1335
-9.1499 4.3078 2.1335
-9.2971 3.9760 2.1335
-7.2266 2.7881 1.6346
-7.2471 2.5011 1.6182
-7.4316 2.2697 1.6404
-9.7637 2.6027 2.1335
-9.8491 2.2502 2.1335
-9.9369 1.8977 2.1368
-9.9969 1.5395 2.1368
-10.0439 1.1795 2.1368
-10.0779 0.8181 2.1368
-10.0990 0.4557 2.1368
-10.1071 0.0929 2.1368
-10.1021 -0.2700 2.1368
-10.0841 -0.6323 2.1368
-10.0531 -0.9937 2.1368
-10.0091 -1.3537 2.1368
-9.9523 -1.7118 2.1368
-9.8677 -2.0645 2.1335
-9.7855 -2.4170 2.1335
-9.6908 -2.7662 2.1335
-9.5836 -3.1118 2.1335
-9.4642 -3.4532 2.1335
-7.1043 -2.8852 1.6241
-6.9950 -3.1379 1.6241
-6.8768 -3.3864 1.6241
-6.7497 -3.6306 1.6241
-6.6892 -3.9140 1.6426
-8.4991 -5.3916 2.1335
-8.2988 -5.6924 2.1335
-8.0880 -5.9858 2.1335
-7.8668 -6.2715 2.1335
-7.6355 -6.5490 2.1335
-7.3945 -6.8180 2.1335
-7.1441 -7.0782 2.1335
-6.8845 -7.3292 2.1335
-6.6162 -7.5708 2.1335
-6.3394 -7.8026 2.1335
-6.0546 -8.0243 2.1335
-5.8959 -8.4271 2.1831
-5.7264 -8.8447 2.2368
-5.4047 -9.0438 2.2368
-5.0761 -9.2312 2.2368
-4.7410 -9.4068 2.2368
-4.3999 -9.5703 2.2368
-4.0532 -9.7214 2.2368
-3.7013 -9.8601 2.2368
-3.3447 -9.9861 2.2368
-2.9839 -10.0992 2.2368
-2.6193 -10.1994 2.2368
-2.2513 -10.2865 2.2368
-1.8805 -10.3604 2.2368
-1.5072 -10.4210 2.2368
-1.1321 -10.4683 2.2368
-0.7555 -10.5020 2.2368
-0.3780 -10.5224 2.2368
0.0001 -9.4743 2.2368
0.3403 -9.4682 2.2368
0.6800 -9.4500 2.2368
1.0189 -9.4197 2.2368
1.3565 -9.3773 2.2368
1.6923 -9.3228 2.2368
2.0261 -9.2564 2.2368
2.2485 -8.7551 2.1337
2.5616 -8.6691 2.1337
2.8713 -8.5720 2.1337
3.1775 -8.4639 2.1337
3.4795 -8.3449 2.1337
3.7771 -8.2152 2.1337
4.0700 -8.0749 2.1337
4.3576 -7.9242 2.1337
4.6397 -7.7633 2.1337
4.9159 -7.5924 2.1337
5.1858 -7.4117 2.1337
5.4491 -7.2215 2.1337
5.7055 -7.0219 2.1337
5.9545 -6.8133 2.1337
6.2631 -6.6673 2.1568
6.4992 -6.4389 2.1568
6.6295 -6.1123 2.1255
6.7258 -5.7684 2.0884
6.8418 -5.4540 2.0619
6.9145 -5.1170 2.0269
6.9907 -4.7948 1.9971
7.1271 -4.5210 1.9882
7.2563 -4.2455 1.9801
7.3830 -3.9710 1.9742
7.5157 -3.7008 1.9726
7.6614 -3.4365 1.9768
7.7634 -3.1526 1.9724
7.8548 -2.8658 1.9679
7.9374 -2.5770 1.9638
8.0131 -2.2871 1.9606
8.0835 -1.9963 1.9587
8.1445 -1.7037 1.9571
8.1959 -1.4095 1.9557
8.2378 -1.1139 1.9546
8.6125 -0.8511 2.0346
8.6349 -0.5412 2.0336
8.6545 -0.2311 2.0347
8.6677 0.0799 2.0368
8.6707 0.3915 2.0391
8.6572 0.7029 2.0403
8.6313 1.0138 2.0411
8.5983 1.3244 2.0429
8.5603 1.6350 2.0462
8.5063 1.9436 2.0483
7.9747 2.1260 1.9371
6.9603 2.1259 1.7079
6.1595 2.1259 1.5289
6.0891 2.3494 1.5312
8.0716 3.4520 2.0592
7.9683 3.7516 2.0656
7.8511 4.0469 2.0713
7.7185 4.3360 2.0758
7.5715 4.6186 2.0792
6.1450 4.0580 1.7262
6.1498 4.3861 1.7704
6.1548 4.7319 1.8193
6.8868 5.6993 2.0946
6.1625 5.4842 1.9327
6.1839 5.9144 2.0046
6.1865 6.3574 2.0778
6.0225 6.6506 2.1014
5.8694 6.9687 2.1337
5.6161 7.1756 2.1337
5.3554 7.3732 2.1337
5.0878 7.5613 2.1337
4.8136 7.7397 2.1337
4.5331 7.9081 2.1337
4.2466 8.0663 2.1337
3.9547 8.2140 2.1337
3.6576 8.3512 2.1337
3.3557 8.4776 2.1337
3.0495 8.5930 2.1337
2.7393 8.6973 2.1337
2.4255 8.7904 2.1337
2.1507 9.0495 2.1764
1.8752 9.3743 2.2368
1.5376 9.4358 2.2368
1.1980 9.4851 2.2368
0.8569 9.5221 2.2368
0.5146 9.5468 2.2368
0.1717 9.5591 2.2368
-0.1715 9.5590 2.2368
-0.5144 9.5466 2.2368
-0.8567 9.5218 2.2368
-1.1978 9.4848 2.2368
-1.5374 9.4354 2.2368
-1.8750 9.3738 2.2368
-2.2101 9.3001 2.2368
-2.5423 9.2144 2.2368
-2.8712 9.1167 2.2368
-3.1964 9.0073 2.2368
-3.5173 8.8862 2.2368
-3.8337 8.7537 2.2368
-4.1451 8.6098 2.2368
-4.4511 8.4549 2.2368
-4.7512 8.2890 2.2368
-5.0452 8.1124 2.2368
-5.3326 7.9254 2.2368
-5.6131 7.7281 2.2368
-5.8862 7.5209 2.2368
-5.9060 7.0124 2.1475
-6.1133 6.7510 2.1335
-6.3509 6.5265 2.1335
-6.5803 6.2936 2.1335
-6.8011 6.0526 2.1335
-7.0130 5.8039 2.1335
-6.3486 4.8810 1.8771
-6.1650 4.3969 1.7752
-7.5932 5.0144 2.1335
-7.7672 4.7380 2.1335
-7.9311 4.4555 2.1335
-8.0847 4.1674 2.1335
-8.2279 3.8739 2.1335
-8.3604 3.5756 2.1335
-8.4820 3.2727 2.1335
-7.4471 2.5703 1.8491
-7.7286 2.3606 1.8970
-8.7805 2.3408 2.1335
-8.8575 2.0238 2.1335
-8.9230 1.7043 2.1335
-8.9770 1.3827 2.1335
-9.0194 1.0594 2.1335
-9.0501 0.7349 2.1335
-9.0692 0.4095 2.1335
-9.0765 0.0836 2.1335
-9.0722 -0.2422 2.1335
-9.0562 -0.5676 2.1335
-9.0285 -0.8922 2.1335
-8.9892 -1.2155 2.1335
-8.9384 -1.5372 2.1335
-8.8760 -1.8568 2.1335
-8.8023 -2.1739 2.1335
-8.7172 -2.4881 2.1335
-8.6209 -2.7990 2.1335
-6.8930 -2.5149 1.7274
-6.6842 -2.7144 1.6987
-6.6842 -2.9983 1.7252
-6.6842 -3.2914 1.7548
-6.6860 -3.5961 1.7883
-7.8164 -4.5733 2.1335
-7.6461 -4.8503 2.1335
-7.4661 -5.1210 2.1335
-7.2765 -5.3850 2.1335
-7.0776 -5.6421 2.1335
-6.8696 -5.8918 2.1335
-6.6529 -6.1340 2.1335
-6.4276 -6.3681 2.1335
-6.1942 -6.5941 2.1335
-5.9528 -6.8115 2.1335
-5.8959 -7.2564 2.2053
-5.7112 -7.5691 2.2368
-5.4353 -7.7685 2.2368
-5.1524 -7.9580 2.2368
-4.8630 -8.1372 2.2368
-4.5674 -8.3059 2.2368
-4.2659 -8.4639 2.2368
-3.9590 -8.6111 2.2368
-3.6471 -8.7472 2.2368
-3.3305 -8.8720 2.2368
-3.0096 -8.9854 2.2368
-2.6850 -9.0873 2.2368
-2.3569 -9.1775 2.2368
-2.0258 -9.2559 2.2368
-1.6921 -9.3224 2.2368
-1.3563 -9.3769 2.2368
-1.0187 -9.4194 2.2368
-0.6798 -9.4498 2.2368
-0.3401 -9.4681 2.2368
0.0001 -8.6031 2.2368
0.3090 -8.5976 2.2368
0.6175 -8.5811 2.2368
0.9252 -8.5535 2.2368
1.2318 -8.5150 2.2368
1.5367 -8.4655 2.2368
1.8398 -8.4052 2.2368
2.1405 -8.3340 2.2368
2.3400 -7.9191 2.1465
2.6073 -7.7836 2.1337
2.8853 -7.6854 2.1337
3.1595 -7.5773 2.1337
3.4298 -7.4595 2.1337
3.6956 -7.3320 2.1337
3.9568 -7.1951 2.1337
4.2129 -7.0490 2.1337
4.4637 -6.8937 2.1337
4.7087 -6.7296 2.1337
4.9478 -6.5568 2.1337
5.1805 -6.3756 2.1337
5.4066 -6.1861 2.1337
5.6258 -5.9886 2.1337
5.8378 -5.7834 2.1337
6.0423 -5.5707 2.1337
6.2310 -5.3438 2.1309
6.3579 -5.0680 2.1104
6.4347 -4.7617 2.0775
6.5327 -4.4805 2.0556
6.6372 -4.2100 2.0393
6.7397 -3.9431 2.0257
6.8338 -3.6753 2.0128
6.9757 -3.4347 2.0167
7.0802 -3.1756 2.0123
7.1696 -2.9113 2.0064
7.2511 -2.6453 2.0011
7.3246 -2.3779 1.9962
7.3903 -2.1091 1.9919
7.4481 -1.8392 1.9881
7.5000 -1.5687 1.9853
7.5443 -1.2972 1.9831
7.5803 -1.0248 1.9814
7.9267 -0.7831 2.0629
7.9412 -0.4975 2.0604
7.9458 -0.2119 2.0580
7.9415 0.0734 2.0559
7.9357 0.3585 2.0561
7.9282 0.6439 2.0585
7.9117 0.9295 2.0613
7.8860 1.2148 2.0643
7.8489 1.4993 2.0671
7.8035 1.7832 2.0703
7.7487 2.0659 2.0738
6.9598 2.1259 1.8817
6.1591 2.1259 1.6845
6.0891 2.3495 1.6871
7.4123 3.1702 2.0836
7.3024 3.4383 2.0858
7.1840 3.7032 2.0884
7.0572 3.9647 2.0913
6.9213 4.2221 2.0943
6.1450 4.0582 1.9021
6.1498 4.3862 1.9509
6.1548 4.7321 2.0048
6.1831 5.1172 2.0723
6.0789 5.4100 2.1009
5.9731 5.7130 2.1337
5.7648 5.9243 2.1337
5.5491 6.1280 2.1337
5.3261 6.3238 2.1337
5.0961 6.5114 2.1337
4.8596 6.6907 2.1337
4.6167 6.8614 2.1337
4.3678 7.0232 2.1337
4.1133 7.1759 2.1337
3.8534 7.3194 2.1337
3.5884 7.4535 2.1337
3.3188 7.5779 2.1337
3.0449 7.6925 2.1337
2.7670 7.7972 2.1337
2.4855 7.8918 2.1337
2.2008 7.9762 2.1337
2.0056 8.4393 2.2368
1.7015 8.5061 2.2368
1.3952 8.5618 2.2368
1.0871 8.6065 2.2368
0.7775 8.6401 2.2368
0.4669 8.6625 2.2368
0.1558 8.6737 2.2368
-0.1556 8.6736 2.2368
-0.4668 8.6624 2.2368
-0.7773 8.6399 2.2368
-1.0869 8.6063 2.2368
-1.3950 8.5615 2.2368
-1.7013 8.5056 2.2368
-2.0053 8.4388 2.2368
-2.3068 8.3610 2.2368
-2.6053 8.2725 2.2368
-2.9003 8.1732 2.2368
-3.1916 8.0634 2.2368
-3.4787 7.9432 2.2368
-3.7612 7.8127 2.2368
-4.0389 7.6721 2.2368
-4.3113 7.5217 2.2368
-4.5781 7.3615 2.2368
-4.8389 7.1918 2.2368
-5.0934 7.0129 2.2368
-5.3414 6.8250 2.2368
-5.5823 6.6282 2.2368
-5.8160 6.4229 2.2368
-5.8969 6.0601 2.1830
-5.9714 5.7115 2.1335
-6.1719 5.4929 2.1335
-6.3643 5.2672 2.1335
-6.3406 4.8750 2.0658
-6.1649 4.3971 1.9561
-6.8910 4.5509 2.1335
-7.0490 4.3001 2.1335
-7.1978 4.0438 2.1335
-7.3374 3.7823 2.1335
-7.4674 3.5161 2.1335
-7.5877 3.2453 2.1335
-7.3696 2.8437 2.0424
-7.7988 2.6919 2.1335
-7.6650 2.3414 2.0729
-7.9695 2.1248 2.1335
-8.0395 1.8371 2.1335
-8.0990 1.5471 2.1335
-8.1481 1.2552 2.1335
-8.1867 0.9618 2.1335
-8.2147 0.6672 2.1335
-8.2322 0.3719 2.1335
-8.2390 0.0761 2.1335
-8.2352 -0.2197 2.1335
-8.2207 -0.5151 2.1335
-8.1957 -0.8097 2.1335
-8.1602 -1.1032 2.1335
-8.1141 -1.3952 2.1335
-8.0576 -1.6854 2.1335
-7.9908 -1.9733 2.1335
-7.9137 -2.2585 2.1335
-7.8264 -2.5408 2.1335
-7.7290 -2.8197 2.1335
-6.7843 -2.7549 1.8991
-7.5047 -3.3661 2.1335
-7.3781 -3.6329 2.1335
-6.9425 -3.7339 2.0453
-7.0965 -4.1519 2.1335
-6.9420 -4.4035 2.1335
-6.7787 -4.6493 2.1335
-6.6066 -4.8891 2.1335
-6.4261 -5.1225 2.1335
-6.2373 -5.3493 2.1335
-6.0406 -5.5692 2.1335
-5.9025 -5.8477 2.1578
-5.8959 -6.2763 2.2366
-5.6667 -6.4839 2.2368
-5.4297 -6.6825 2.2368
-5.1858 -6.8726 2.2368
-4.9353 -7.0537 2.2368
-4.6785 -7.2258 2.2368
-4.4157 -7.3886 2.2368
-4.1473 -7.5418 2.2368
-3.8736 -7.6854 2.2368
-3.5950 -7.8190 2.2368
-3.3117 -7.9426 2.2368
-3.0242 -8.0560 2.2368
-2.7329 -8.1590 2.2368
-2.4381 -8.2516 2.2368
-2.1402 -8.3335 2.2368
-1.8395 -8.4047 2.2368
-1.5365 -8.4651 2.2368
-1.2316 -8.5147 2.2368
-0.9250 -8.5533 2.2368
-0.6173 -8.5809 2.2368
-0.3088 -8.5975 2.2368
0.0001 -7.8708 2.2368
0.2827 -7.8658 2.2368
0.5649 -7.8507 2.2368
0.8465 -7.8255 2.2368
1.1270 -7.7902 2.2368
1.4060 -7.7449 2.2368
1.6832 -7.6897 2.2368
1.9583 -7.6246 2.2368
2.1553 -7.2938 2.1610
2.3854 -7.1210 2.1337
2.6397 -7.0311 2.1337
2.8906 -6.9322 2.1337
3.1378 -6.8243 2.1337
3.3810 -6.7077 2.1337
3.6200 -6.5824 2.1337
3.8543 -6.4486 2.1337
4.0836 -6.3066 2.1337
4.3078 -6.1564 2.1337
4.5264 -5.9983 2.1337
4.7393 -5.8324 2.1337
4.9461 -5.6590 2.1337
5.1466 -5.4783 2.1337
5.3405 -5.2905 2.1337
5.5275 -5.0959 2.1337
5.7075 -4.8947 2.1337
5.8802 -4.6871 2.1337
6.0412 -4.4703 2.1322
6.1371 -4.2090 2.1111
6.2318 -3.9527 2.0932
6.3293 -3.7027 2.0797
6.4167 -3.4509 2.0661
6.4981 -3.1994 2.0537
6.5885 -2.9549 2.0471
6.6715 -2.7088 2.0411
6.7471 -2.4613 2.0356
6.8154 -2.2124 2.0307
6.8763 -1.9623 2.0262
6.9299 -1.7111 2.0223
6.9766 -1.4591 2.0191
7.0164 -1.2063 2.0165
7.0487 -0.9528 2.0144
7.3311 -0.7241 2.0860
7.3443 -0.4600 2.0834
7.3491 -0.1958 2.0812
7.3456 0.0680 2.0792
7.3364 0.3316 2.0784
7.3227 0.5949 2.0789
7.3008 0.8579 2.0798
7.2762 1.1211 2.0826
7.2390 1.3830 2.0846
7.1909 1.6434 2.0861
7.1342 1.9023 2.0879
6.9592 2.1259 2.0574
6.1586 2.1259 1.8419
6.0891 2.3497 1.8449
6.8307 2.9217 2.0997
6.7284 3.1682 2.1016
6.6125 3.4088 2.1021
6.4867 3.6444 2.1021
6.3508 3.8743 2.1015
6.1450 4.0584 2.0801
6.0566 4.3199 2.1011
5.9898 4.6053 2.1337
5.8212 4.8179 2.1337
5.6452 5.0242 2.1337
5.4617 5.2241 2.1337
5.2712 5.4172 2.1337
5.0739 5.6034 2.1337
4.8700 5.7824 2.1337
4.6597 5.9540 2.1337
4.4434 6.1179 2.1337
4.2213 6.2738 2.1337
3.9937 6.4217 2.1337
3.7609 6.5614 2.1337
3.5233 6.6925 2.1337
3.2810 6.8151 2.1337
3.0345 6.9288 2.1337
2.7840 7.0336 2.1337
2.5299 7.1293 2.1337
2.2725 7.2157 2.1337
2.1094 7.6453 2.2368
1.8338 7.7163 2.2368
1.5557 7.7773 2.2368
1.2756 7.8283 2.2368
0.9939 7.8691 2.2368
0.7109 7.8998 2.2368
0.4269 7.9203 2.2368
0.1424 7.9305 2.2368
-0.1423 7.9305 2.2368
-0.4268 7.9202 2.2368
-0.7107 7.8997 2.2368
-0.9937 7.8689 2.2368
-1.2754 7.8280 2.2368
-1.5555 7.7769 2.2368
-1.8335 7.7158 2.2368
-2.1091 7.6448 2.2368
-2.3820 7.5638 2.2368
-2.6518 7.4731 2.2368
-2.9181 7.3727 2.2368
-3.1806 7.2629 2.2368
-3.4390 7.1436 2.2368
-3.6929 7.0151 2.2368
-3.9420 6.8776 2.2368
-4.1860 6.7312 2.2368
-4.4245 6.5761 2.2368
-4.6573 6.4125 2.2368
-4.8840 6.2407 2.2368
-5.1043 6.0609 2.2368
-5.3181 5.8732 2.2368
-5.5249 5.6780 2.2368
-5.7245 5.4755 2.2368
-5.8967 5.2482 2.2292
-5.9017 4.8846 2.1636
-5.9880 4.6041 2.1335
-6.1487 4.3857 2.1335
-6.3014 4.1617 2.1335
-6.4460 3.9324 2.1335
-6.5822 3.6981 2.1335
-6.7098 3.4590 2.1335
-6.8288 3.2156 2.1335
-6.9389 2.9680 2.1335
-7.0401 2.7167 2.1335
-7.1321 2.4619 2.1335
-7.2149 2.2041 2.1335
-7.2884 1.9434 2.1335
-7.3524 1.6803 2.1335
-7.4070 1.4151 2.1335
-7.4520 1.1482 2.1335
-7.4874 0.8798 2.1335
-7.5131 0.6104 2.1335
-7.5291 0.3403 2.1335
-7.5355 0.0698 2.1335
-7.5321 -0.2007 2.1335
-7.5190 -0.4709 2.1335
-7.4962 -0.7404 2.1335
-7.4637 -1.0089 2.1335
-7.4217 -1.2760 2.1335
-7.3701 -1.5414 2.1335
-7.3091 -1.8047 2.1335
-7.2386 -2.0657 2.1335
-7.1588 -2.3239 2.1335
-7.0699 -2.5791 2.1335
-6.7844 -2.7548 2.0762
-6.8649 -3.0790 2.1335
-6.7491 -3.3230 2.1335
-6.6246 -3.5627 2.1335
-6.4917 -3.7978 2.1335
-6.3504 -4.0280 2.1335
-6.2010 -4.2529 2.1335
-6.0437 -4.4723 2.1335
-5.9063 -4.7080 2.1436
-5.8960 -5.0564 2.2046
-5.7934 -5.3412 2.2368
-5.5974 -5.5452 2.2368
-5.3942 -5.7421 2.2368
-5.1841 -5.9315 2.2368
-4.9674 -6.1133 2.2368
-4.7443 -6.2872 2.2368
-4.5151 -6.4530 2.2368
-4.2802 -6.6104 2.2368
-4.0398 -6.7594 2.2368
-3.7943 -6.8996 2.2368
-3.5439 -7.0310 2.2368
-3.2890 -7.1533 2.2368
-3.0298 -7.2664 2.2368
-2.7668 -7.3702 2.2368
-2.5003 -7.4645 2.2368
-2.2306 -7.5491 2.2368
-1.9581 -7.6241 2.2368
-1.6830 -7.6893 2.2368
-1.4058 -7.7446 2.2368
-1.1268 -7.7899 2.2368
-0.8463 -7.8253 2.2368
-0.5648 -7.8506 2.2368
-0.2825 -7.8658 2.2368
0.0001 -7.2461 2.2368
0.2603 -7.2415 2.2368
0.5201 -7.2276 2.2368
0.7793 -7.2044 2.2368
1.0375 -7.1719 2.2368
1.2944 -7.1302 2.2368
1.5497 -7.0793 2.2368
1.8029 -7.0193 2.2368
2.0539 -6.9503 2.2368
2.1961 -6.5557 2.1337
2.4302 -6.4729 2.1337
2.6612 -6.3818 2.1337
2.8888 -6.2825 2.1337
3.1127 -6.1750 2.1337
3.3326 -6.0597 2.1337
3.5483 -5.9365 2.1337
3.7594 -5.8057 2.1337
3.9657 -5.6674 2.1337
4.1670 -5.5218 2.1337
4.3629 -5.3691 2.1337
4.5533 -5.2094 2.1337
4.7378 -5.0430 2.1337
4.9163 -4.8701 2.1337
5.0885 -4.6909 2.1337
5.2541 -4.5057 2.1337
5.4130 -4.3145 2.1337
5.5650 -4.1179 2.1337
5.7099 -3.9158 2.1337
5.8475 -3.7087 2.1337
5.9592 -3.4861 2.1271
5.9758 -3.2136 2.0903
6.0691 -2.9880 2.0838
6.1553 -2.7605 2.0778
6.2346 -2.5313 2.0722
6.3068 -2.3005 2.0672
6.3721 -2.0683 2.0626
6.4303 -1.8348 2.0586
6.4813 -1.6002 2.0549
6.5253 -1.3645 2.0517
6.5623 -1.1281 2.0490
6.5923 -0.8909 2.0468
6.8059 -0.6721 2.1040
6.8198 -0.4269 2.1019
6.8250 -0.1817 2.0999
6.8220 0.0634 2.0980
6.8108 0.3080 2.0964
6.7961 0.5523 2.0964
6.7739 0.7961 2.0967
6.7434 1.0392 2.0972
6.7045 1.2811 2.0978
6.6574 1.5216 2.0985
6.6020 1.7605 2.0994
6.5385 1.9975 2.1004
6.1582 2.1259 2.0012
6.0891 2.3499 2.0047
6.2889 2.6901 2.1006
6.1885 2.9142 2.1005
6.0833 3.1362 2.1014
5.9695 3.3539 2.1021
5.9337 3.6200 2.1337
5.8006 3.8310 2.1337
5.6599 4.0372 2.1337
5.5119 4.2381 2.1337
5.3568 4.4337 2.1337
5.1947 4.6235 2.1337
5.0259 4.8074 2.1337
4.8506 4.9851 2.1337
4.6690 5.1564 2.1337
4.4813 5.3211 2.1337
4.2878 5.4789 2.1337
4.0887 5.6297 2.1337
3.8843 5.7732 2.1337
3.6749 5.9092 2.1337
3.4607 6.0377 2.1337
3.2419 6.1584 2.1337
3.0190 6.2711 2.1337
2.7922 6.3757 2.1337
2.5617 6.4721 2.1337
2.3395 6.5930 2.1444
2.1491 6.8241 2.1930
1.9409 7.0349 2.2368
1.6873 7.1002 2.2368
1.4315 7.1563 2.2368
1.1737 7.2032 2.2368
0.9145 7.2408 2.2368
0.6541 7.2690 2.2368
0.3928 7.2879 2.2368
0.1310 7.2973 2.2368
-0.1309 7.2972 2.2368
-0.3927 7.2878 2.2368
-0.6539 7.2689 2.2368
-0.9143 7.2406 2.2368
-1.1736 7.2030 2.2368
-1.4313 7.1560 2.2368
-1.6871 7.0998 2.2368
-1.9407 7.0345 2.2368
-2.1918 6.9600 2.2368
-2.4400 6.8766 2.2368
-2.6851 6.7842 2.2368
-2.9267 6.6831 2.2368
-3.1644 6.5734 2.2368
-3.3981 6.4552 2.2368
-3.6273 6.3287 2.2368
-3.8518 6.1940 2.2368
-4.0713 6.0514 2.2368
-4.2855 5.9009 2.2368
-4.4942 5.7428 2.2368
-4.6970 5.5774 2.2368
-4.8937 5.4047 2.2368
-5.0840 5.2252 2.2368
-5.2678 5.0389 2.2368
-5.4447 4.8461 2.2368
-5.6145 4.6471 2.2368
-5.7771 4.4421 2.2368
-5.8966 4.2061 2.2234
-5.8999 3.8967 2.1707
-5.9320 3.6190 2.1335
-6.0574 3.4034 2.1335
-6.1749 3.1835 2.1335
-6.2845 2.9594 2.1335
-6.3859 2.7316 2.1335
-6.4790 2.5004 2.1335
-6.5638 2.2659 2.1335
-6.6400 2.0286 2.1335
-6.7077 1.7888 2.1335
-6.7668 1.5466 2.1335
-6.8171 1.3026 2.1335
-6.8585 1.0569 2.1335
-6.8912 0.8099 2.1335
-6.9149 0.5620 2.1335
-6.9297 0.3134 2.1335
-6.9356 0.0644 2.1335
-6.9326 -0.1846 2.1335
-6.9206 -0.4333 2.1335
-6.8997 -0.6813 2.1335
-6.8699 -0.9284 2.1335
-6.8313 -1.1743 2.1335
-6.7839 -1.4186 2.1335
-6.7277 -1.6610 2.1335
-6.6629 -1.9012 2.1335
-6.5896 -2.1390 2.1335
-6.5078 -2.3739 2.1335
-6.4176 -2.6056 2.1335
-6.3191 -2.8340 2.1335
