ply
format ascii 1.0
element vertex 2099
property float32 x
property float32 y
property float32 z
end_header
-7.8646 -12.1503 -0.2395
-7.4751 -12.5112 -0.2410
-29.0916 -52.9178 -0.9983
-10.8246 -21.4825 -0.3975
-9.8742 -21.4823 -0.3906
-9.6577 -23.1689 -0.4145
-20.0093 -53.3150 -0.9402
-10.2234 -30.5294 -0.5314
-16.7789 -56.8011 -0.9774
-14.8681 -57.9077 -0.9864
-13.9270 -63.6467 -1.0748
-9.5638 -52.7012 -0.8835
-9.2027 -63.6378 -1.0605
-8.0870 -74.7891 -1.2406
7.0649 -98.2167 0.5936
6.1832 -57.1829 0.3466
13.8397 -76.2628 0.4666
21.1599 -82.4119 0.5116
24.4567 -58.6709 0.3809
24.6973 -53.7310 0.3540
27.0741 -53.7305 0.3597
29.5384 -53.7301 0.3661
32.1021 -53.7296 0.3733
34.7780 -53.7291 0.3812
37.5813 -53.7285 0.3899
27.6905 -36.7083 0.2730
47.7766 -58.8189 0.4492
47.7696 -54.6766 0.4297
47.8028 -50.9046 0.4126
67.8752 -67.2685 0.5636
65.9922 -60.8652 0.5285
70.7033 -60.6610 0.5474
70.1544 -55.9461 0.5262
70.2294 -51.9940 0.5114
75.7183 -51.9562 0.5363
21.7098 -13.7774 0.1498
2.5626 -1.5001 0.0173
23.0529 -12.4052 0.1519
10.0895 -4.9709 0.0651
10.1075 -4.5364 0.0640
10.1249 -4.1142 0.0630
10.1419 -3.7028 0.0621
9.1528 -2.9739 0.0552
7.2235 -2.0635 0.0430
7.4817 -1.8496 0.0440
7.7541 -1.6239 0.0451
8.0424 -1.3850 0.0463
8.3490 -1.1309 0.0477
8.6765 -0.8595 0.0493
9.3420 -0.5877 0.0527
8.4676 -0.2281 0.0476
6.9691 0.0626 0.0391
6.3087 0.2833 0.0353
6.5525 0.5305 0.0367
6.8175 0.7992 0.0382
7.1075 1.0930 0.0399
7.4268 1.4168 0.0418
7.7362 1.7658 0.0438
7.6239 2.0306 0.0435
7.5128 2.2928 0.0432
7.4026 2.5531 0.0429
7.2930 2.8120 0.0427
7.1836 3.0704 0.0426
7.0742 3.3289 0.0425
10.4858 5.4022 0.0640
10.0173 5.6248 0.0622
9.5720 5.8363 0.0606
9.1472 6.0381 0.0591
25.5565 18.2197 0.1689
64.2051 49.3428 0.4348
60.5145 50.0621 0.4209
25.9136 24.7760 0.1914
50.2148 51.5858 0.3836
12.9084 14.2503 0.1023
49.0753 58.2495 0.4045
46.8999 59.9061 0.4034
20.4359 28.1277 0.1840
45.8499 68.1219 0.4341
48.1610 77.4171 0.4813
47.1311 82.2007 0.4996
44.9380 85.3359 0.5079
28.9134 60.0396 0.3506
37.0890 84.6634 0.4857
33.3488 84.2296 0.4756
30.2707 85.2792 0.4747
27.0963 86.0134 0.4727
24.0942 87.3036 0.4744
20.5697 86.5339 0.4657
13.3188 66.5679 0.3553
9.4064 57.7122 0.3059
8.3935 66.4414 0.3503
5.9876 66.5278 0.3493
4.6450 86.1650 0.4512
1.6080 89.5661 0.4684
-1.5157 84.4232 0.4416
-4.5080 83.6243 0.4381
-7.7223 85.8021 0.4508
-11.5023 91.0504 0.4805
-14.7091 90.2467 0.4789
-9.1673 45.8187 0.2449
-19.4766 81.9356 0.4417
-20.1284 72.9337 0.3972
-23.7238 75.3080 0.4149
-8.2419 23.2192 0.1296
-29.8929 75.5011 0.4276
-32.5912 74.3963 0.4282
-6.3203 13.1243 0.0769
-23.8648 45.3185 0.2707
-18.9962 33.1309 0.2021
-20.5952 33.1060 0.2067
-28.2794 42.0164 0.2689
-24.0524 33.1053 0.2176
-29.3810 37.5289 0.2539
-27.8907 33.1046 0.2310
-32.3381 35.6998 0.2575
-35.1132 36.0718 0.2697
-20.5130 19.6125 0.1523
-19.1580 15.8489 0.1340
-20.6223 15.8486 0.1405
-23.8595 17.0099 0.1586
-18.9924 12.5368 0.1235
-20.4643 12.4775 0.1303
-28.2746 15.8763 0.1768
-23.8586 12.2918 0.1467
-28.2741 13.3048 0.1712
-18.9915 8.1174 0.1134
-20.4635 7.8904 0.1207
-23.8578 8.2283 0.1393
-27.5314 8.4023 0.1593
-89.8474 23.9308 0.5157
-90.2784 17.2217 0.5124
-86.9386 13.3702 0.4916
-20.4625 2.3987 0.1154
-27.5303 2.2289 0.1552
-87.0987 3.9118 0.4911
-87.8974 0.7892 0.4964
-23.8562 -0.6425 0.1351
-18.9898 -1.1947 0.1080
-28.2711 -2.8004 0.1616
-28.2709 -3.8295 0.1627
-28.2707 -4.8686 0.1640
-21.2165 -4.4434 0.1243
-18.9892 -4.6943 0.1124
-61.1046 -17.4554 0.3660
-27.5281 -8.9444 0.1671
-24.0745 -8.7895 0.1483
-37.7926 -15.3569 0.2366
-19.5820 -8.7887 0.1248
-18.9883 -9.3551 0.1233
-28.2185 -15.1849 0.1871
-31.0608 -18.1816 0.2105
-23.9264 -15.1841 0.1661
-28.2680 -19.3969 0.2014
-20.5087 -15.1835 0.1502
-28.2674 -22.5424 0.2132
-47.2429 -40.5328 0.3677
-20.4585 -18.8691 0.1647
-19.0191 -18.8491 0.1587
-21.0758 -22.4433 0.1828
-19.6080 -22.4430 0.1772
-42.9581 -52.8868 0.4057
-20.4570 -27.1191 0.2025
-18.9850 -27.1421 0.1977
-7.8501 -12.1277 0.0864
-34.0929 -57.0617 0.3978
-31.2283 -56.8039 0.3883
-10.8247 -21.4825 0.1443
-9.8743 -21.4823 0.1419
-10.0680 -24.1529 0.1572
-21.5690 -57.4703 0.3691
-19.0213 -56.8015 0.3604
-6.1838 -20.9336 0.1314
-14.8667 -57.9019 0.3601
-13.9271 -63.6467 0.3926
-11.5501 -63.6462 0.3899
-9.3025 -64.3278 0.3919
-8.2546 -76.3389 0.4630
0.0000 -78.3116 2.2365
2.6816 -74.6554 2.1334
5.3598 -74.5111 2.1333
6.1833 -57.1827 1.6423
10.7098 -74.0578 2.1365
13.3627 -73.6333 2.1365
15.9993 -73.1153 2.1365
18.6162 -72.5042 2.1365
21.2102 -71.8006 2.1365
23.7780 -71.0051 2.1365
22.6574 -60.3698 1.8394
24.4567 -58.6703 1.8128
24.6976 -53.7310 1.6862
27.0744 -53.7305 1.7151
29.5388 -53.7301 1.7474
32.1024 -53.7296 1.7833
34.7784 -53.7291 1.8230
34.5450 -49.3871 1.7162
27.6872 -36.7035 1.3087
40.1116 -49.3818 1.8104
49.3399 -56.4731 2.1332
51.3536 -54.6851 2.1332
55.8834 -55.3831 2.2365
57.8573 -53.3615 2.2365
59.6893 -51.2107 2.2339
40.5670 -32.3505 1.4732
40.5665 -30.0327 1.4325
40.5661 -27.8351 1.3956
19.6368 -12.4616 0.6595
2.5623 -1.4998 0.0842
16.5429 -8.9019 0.5322
9.9996 -4.9265 0.3157
10.0187 -4.4965 0.3108
10.0372 -4.0785 0.3065
10.0552 -3.6710 0.3027
9.1334 -2.9675 0.2714
8.4953 -2.4267 0.2496
7.3481 -1.8164 0.2137
7.6117 -1.5940 0.2195
7.8904 -1.3588 0.2258
8.1861 -1.1088 0.2329
8.5015 -0.8420 0.2407
9.4195 -0.5925 0.2658
8.6438 -0.2327 0.2434
6.1352 0.0551 0.1726
6.3648 0.2859 0.1792
6.6132 0.5355 0.1865
6.8836 0.8070 0.1947
7.1796 1.1042 0.2039
7.5061 1.4320 0.2144
7.8038 1.7813 0.2245
7.6902 2.0484 0.2231
7.5779 2.3128 0.2220
7.4665 2.5752 0.2212
7.3558 2.8363 0.2207
7.2454 3.0969 0.2205
7.1351 3.3576 0.2206
10.4582 5.3881 0.3289
9.9917 5.6105 0.3202
9.5481 5.8218 0.3124
25.2605 16.6747 0.8451
25.9341 18.4892 0.8889
32.4338 24.9263 1.1412
20.4382 16.9083 0.7397
32.4330 28.8538 1.2101
32.4326 31.0092 1.2504
52.4472 53.8798 2.0946
12.9071 14.2491 0.5354
49.5697 58.8371 2.1417
47.2025 60.2933 2.1310
45.4404 62.5443 2.1508
43.1778 64.1524 2.1508
40.8578 65.6782 2.1508
38.4834 67.1188 2.1508
36.0572 68.4723 2.1508
28.9140 60.0414 1.8518
31.0643 70.9114 2.1508
28.5039 71.9934 2.1508
25.9054 72.9818 2.1508
23.2721 73.8748 2.1508
20.6078 74.6716 2.1508
17.9160 75.3709 2.1508
13.3187 66.5679 1.8846
9.4063 57.7122 1.6232
8.3925 66.4344 1.8587
5.1871 57.6345 1.6062
3.1069 57.6341 1.6020
1.3910 77.4769 2.1508
-1.3909 77.4745 2.1508
-4.1709 77.3714 2.1508
-6.9450 77.1668 2.1508
-9.7097 76.8615 2.1508
-12.4613 76.4559 2.1508
-9.1653 45.8091 1.2973
-17.9100 75.3457 2.1508
-20.5758 74.5554 2.1483
-21.6736 68.8007 2.0040
-8.2302 23.1865 0.6837
-26.1821 66.1296 1.9767
-28.9220 66.0214 2.0037
-6.3203 13.1243 0.4050
-18.5978 35.3171 1.1101
-18.8022 32.7931 1.0516
-20.4001 32.7928 1.0747
-7.8023 11.5924 0.3890
-23.8245 32.7921 1.1287
-25.6720 32.7917 1.1600
-27.6264 32.7914 1.1948
-26.9521 29.7543 1.1191
-27.6862 28.4425 1.1068
-20.1027 19.2205 0.7758
-18.5944 16.5423 0.6945
-18.5941 15.3827 0.6737
-18.5939 14.2900 0.6550
-18.5937 13.2561 0.6381
-18.5935 12.2738 0.6228
-18.5934 11.3370 0.6090
-18.5932 10.4404 0.5966
-18.5930 9.5792 0.5855
-18.5929 8.7494 0.5755
-18.5927 7.9471 0.5665
-19.5618 7.5429 0.5877
-21.8687 7.5425 0.6488
-24.7116 7.5419 0.7250
-28.3123 7.5412 0.8226
-81.0539 18.5011 2.3352
-43.0949 8.2213 1.2327
-20.0998 3.0913 0.5718
-20.0996 2.3563 0.5693
-20.0995 1.6275 0.5676
-20.0993 0.9029 0.5666
-20.0992 0.1806 0.5663
-23.8562 -0.6423 0.6727
-18.7075 -1.1768 0.5287
-18.6438 -1.8466 0.5287
-18.5908 -2.5181 0.5296
-18.5907 -3.2014 0.5328
-18.5905 -3.8932 0.5368
-18.5904 -4.5955 0.5414
-18.5903 -5.3104 0.5469
-18.5901 -6.0401 0.5532
-18.5900 -6.7870 0.5603
-18.5898 -7.5537 0.5684
-18.5897 -8.3432 0.5775
-18.5896 -9.1585 0.5876
-27.6366 -14.8715 0.8902
-25.4058 -14.8711 0.8354
-23.4330 -14.8707 0.7879
-21.6717 -14.8704 0.7465
-20.0964 -14.8781 0.7104
-20.0962 -16.0259 0.7306
-20.0960 -17.2414 0.7529
-19.7949 -18.2568 0.7660
-18.5879 -18.4215 0.7446
-18.5876 -19.7935 0.7729
-18.5873 -21.2746 0.8044
-18.5870 -22.8827 0.8397
-18.5867 -24.6395 0.8793
-18.5863 -26.5719 0.9241
-7.8502 -12.1277 0.4118
-25.5919 -42.8332 1.4227
-24.0323 -43.7142 1.4227
-10.8248 -21.4825 0.6862
-9.8744 -21.4823 0.6745
-10.0681 -24.1529 0.7467
-21.5692 -57.4703 1.7519
-10.3370 -30.8683 0.9292
-17.2515 -58.3998 1.7384
-14.8667 -57.9015 1.7068
-13.7034 -62.6239 1.8305
-11.5502 -63.6462 1.8472
-9.2028 -63.6378 1.8362
-8.0308 -74.2692 2.1334
-5.6184 -78.1085 2.2365
-2.8110 -78.2598 2.2365
0.0000 -43.7531 2.2365
1.5707 -43.7257 2.2365
3.1394 -43.6425 2.2365
4.7042 -43.5034 2.2365
6.2631 -43.3085 2.2365
7.8141 -43.0583 2.2365
9.3554 -42.7530 2.2365
10.8849 -42.3930 2.2365
12.4008 -41.9788 2.2365
13.9011 -41.5106 2.2365
15.3839 -40.9892 2.2365
16.8474 -40.4154 2.2365
18.2896 -39.7896 2.2365
19.7088 -39.1127 2.2365
20.1289 -36.6134 2.1332
21.4335 -35.8727 2.1332
22.7110 -35.0858 2.1332
23.9600 -34.2538 2.1332
25.1785 -33.3775 2.1332
26.6529 -32.8122 2.1565
27.8188 -31.8403 2.1565
28.9498 -30.8275 2.1565
30.0439 -29.7745 2.1565
31.0999 -28.6830 2.1565
16.9389 -14.5325 1.1374
16.0541 -12.8023 1.0462
15.5083 -11.4811 0.9829
15.1153 -10.3715 0.9335
14.7103 -9.3351 0.8870
2.5620 -1.4996 0.1511
14.0670 -7.5694 0.8129
9.9111 -4.8828 0.5621
9.9314 -4.4572 0.5537
9.9509 -4.0433 0.5461
9.9697 -3.6397 0.5395
9.9878 -3.2450 0.5337
9.2761 -2.6497 0.4901
7.2189 -1.7844 0.3777
7.4743 -1.5652 0.3878
7.7438 -1.3335 0.3989
8.0293 -1.0875 0.4112
8.3332 -0.8253 0.4248
10.8040 -0.6795 0.5490
8.8278 -0.2376 0.4478
6.1884 0.0557 0.3137
6.4221 0.2885 0.3258
6.6752 0.5406 0.3393
6.9510 0.8149 0.3545
7.2533 1.1156 0.3716
7.9895 1.5243 0.4117
7.8728 1.7971 0.4086
7.7578 2.0664 0.4062
7.6442 2.3331 0.4042
7.5316 2.5977 0.4028
7.4198 2.8611 0.4020
7.3084 3.1239 0.4017
9.5083 4.4745 0.5309
10.4308 5.3741 0.5927
9.9661 5.5962 0.5772
9.5243 5.8074 0.5632
16.5346 10.9148 1.0000
15.3091 10.9145 0.9488
14.2014 10.9143 0.9037
13.1925 10.9141 0.8637
12.2677 10.9140 0.8281
11.4027 10.9024 0.7955
10.6683 10.9598 0.7710
12.9058 14.2478 0.9689
27.4154 32.5413 2.1443
25.4754 32.5409 2.0823
23.6415 32.5406 2.0263
21.9010 32.5402 1.9757
20.2426 32.5399 1.9300
18.3372 31.9822 1.8564
17.1350 32.5394 1.8516
15.6696 32.5391 1.8182
13.9727 31.8963 1.7529
12.8827 32.5386 1.7615
11.5459 32.5278 1.7372
10.0477 31.8956 1.6829
6.1582 22.3141 1.1648
6.1631 25.9277 1.3410
6.1697 30.8366 1.5823
7.1513 43.8772 2.2368
4.4623 35.3234 1.7907
3.9849 44.2767 2.2367
2.3853 44.2480 2.2294
0.7825 43.5812 2.1930
-0.7660 42.6679 2.1471
-2.2863 42.4127 2.1371
-3.8094 42.3275 2.1384
-5.3193 42.1076 2.1356
-5.9321 36.3970 1.8557
-6.1215 30.5960 1.5702
-9.9089 41.6865 2.1565
-11.3980 41.3006 2.1565
-12.8644 40.8373 2.1552
-8.2184 23.1537 1.2369
-15.7577 39.8004 2.1552
-17.1740 39.2042 2.1552
-18.5678 38.5575 2.1552
-18.5978 35.3175 2.0104
-18.8020 32.7931 1.9043
-20.3998 32.7928 1.9458
-7.7896 11.5737 0.7030
-23.8242 32.7921 2.0429
-25.6717 32.7917 2.0994
-27.2317 32.3233 2.1310
-26.6554 29.4271 2.0023
-28.2536 29.0258 2.0432
-20.1027 19.2208 1.4032
-18.5944 16.5426 1.2559
-18.5941 15.3829 1.2181
-18.5939 14.2902 1.1839
-18.5937 13.2563 1.1531
-18.5935 12.2740 1.1253
-18.5934 11.3372 1.1002
-18.5932 10.4406 1.0776
-18.5930 9.5794 1.0573
-18.5929 8.7496 1.0390
-18.5927 7.9473 1.0226
-19.5613 7.5429 1.0606
-21.8681 7.5425 1.1706
-24.7108 7.5419 1.3077
-28.3113 7.5412 1.4834
-41.5127 9.4759 2.1565
-41.8143 7.9774 2.1565
-20.0998 3.0915 1.0305
-20.0996 2.3565 1.0258
-20.0995 1.6277 1.0224
-20.0993 0.9031 1.0204
-20.0992 0.1808 1.0197
-18.5912 -0.5004 0.9438
-18.5911 -1.1693 0.9455
-18.5909 -1.8412 0.9486
-18.5908 -2.5179 0.9528
-18.5907 -3.2013 0.9584
-18.5905 -3.8931 0.9652
-18.5904 -4.5954 0.9734
-18.5903 -5.3102 0.9830
-18.5901 -6.0399 0.9941
-18.5900 -6.7868 1.0067
-18.5898 -7.5536 1.0210
-18.5897 -8.3430 1.0371
-18.5896 -9.1583 1.0550
-27.6371 -14.8716 1.5982
-25.4062 -14.8711 1.4994
-23.4334 -14.8707 1.4139
-21.6720 -14.8704 1.3393
-20.0964 -14.8778 1.2744
-20.0962 -16.0257 1.3104
-20.0960 -17.2412 1.3502
-19.7951 -18.2568 1.3734
-18.5879 -18.4213 1.3349
-18.5876 -19.7933 1.3854
-18.5873 -21.2743 1.4416
-18.5870 -22.8824 1.5046
-18.5867 -24.6392 1.5755
-18.5863 -26.5716 1.6555
-7.8504 -12.1279 0.7377
-21.6582 -36.2489 2.1565
-20.3405 -36.9984 2.1565
-10.8249 -21.4825 1.2288
-9.8744 -21.4823 1.2079
-9.6577 -23.1683 1.2825
-14.8294 -39.5121 2.1565
-10.2951 -30.7426 1.6567
-11.9545 -40.4680 2.1565
-10.4935 -40.8686 2.1565
-8.9226 -40.7755 2.1334
-7.4528 -41.0677 2.1334
-5.9736 -41.3075 2.1334
-4.7037 -43.4995 2.2365
-3.1391 -43.6399 2.2365
-1.5705 -43.7244 2.2365
0.0000 -30.3354 2.2365
1.0890 -30.3162 2.2365
2.1574 -29.9914 2.2167
3.1111 -28.7707 2.1333
4.1420 -28.6409 2.1333
5.1675 -28.4743 2.1333
6.2540 -28.5796 2.1565
7.2763 -28.3382 2.1565
8.2894 -28.0604 2.1565
9.2920 -27.7468 2.1565
10.2827 -27.3974 2.1565
11.2605 -27.0127 2.1565
12.2240 -26.5935 2.1565
13.1720 -26.1399 2.1565
14.1032 -25.6527 2.1565
15.0166 -25.1327 2.1565
15.9109 -24.5802 2.1565
16.7850 -23.9960 2.1565
17.6378 -23.3809 2.1565
17.9137 -22.0532 2.0917
14.9379 -17.0972 1.6713
14.0778 -14.9907 1.5136
13.6178 -13.4955 1.4109
13.3123 -12.2776 1.3325
13.1349 -11.2688 1.2732
13.0242 -10.3860 1.2253
12.9248 -9.5683 1.1827
12.8414 -8.8110 1.1452
12.7758 -8.1073 1.1124
2.5617 -1.4994 0.2182
12.5714 -6.7645 1.0492
9.8240 -4.8398 0.8047
9.8454 -4.4185 0.7928
9.8659 -4.0087 0.7822
9.8856 -3.6089 0.7729
9.9044 -3.2178 0.7647
9.2564 -2.6440 0.7067
8.9987 -2.2243 0.6804
7.3415 -1.5373 0.5504
7.6023 -1.3090 0.5660
9.9305 -1.3449 0.7351
11.8851 -1.1770 0.8759
10.5783 -0.6652 0.7772
9.0203 -0.2427 0.6615
6.2426 0.0562 0.4576
6.4805 0.2912 0.4754
6.7385 0.5457 0.4953
7.0199 0.8231 0.5178
7.3288 1.1273 0.5431
8.0615 1.5380 0.6010
7.9432 1.8132 0.5965
7.8267 2.0849 0.5929
7.7118 2.3538 0.5901
7.5980 2.6207 0.5881
7.4851 2.8864 0.5869
7.3727 3.1515 0.5865
10.8919 5.1257 0.8803
10.4034 5.3601 0.8557
9.9407 5.5820 0.8335
9.5005 5.7930 0.8134
16.5343 10.9148 1.4479
15.3089 10.9145 1.3738
14.2012 10.9143 1.3086
13.1923 10.9141 1.2507
12.2675 10.9140 1.1993
11.4145 10.9138 1.1533
10.6232 10.9137 1.1121
9.8855 10.9135 1.0751
9.1942 10.9134 1.0417
8.5436 10.9133 1.0117
7.9286 10.9132 0.9845
7.3449 10.9131 0.9600
6.7887 10.9130 0.9378
6.2569 10.9129 0.9178
13.4850 25.6083 2.1115
12.5005 25.9584 2.1018
6.1792 14.1057 1.1233
6.1596 15.5578 1.2205
6.1591 17.3520 1.3429
6.1587 19.5504 1.4949
6.1582 22.3142 1.6882
6.1630 25.9277 1.9435
5.7394 28.6866 2.1334
4.7062 28.8749 2.1334
3.6667 29.0257 2.1334
2.6225 29.1390 2.1334
1.6510 30.6262 2.2365
0.5506 30.6656 2.2365
-0.5505 30.6653 2.2365
-1.6509 30.6252 2.2365
-2.7490 30.5455 2.2365
-3.8436 30.4262 2.2365
-4.9331 30.2675 2.2365
-5.9049 29.5137 2.1951
-6.7643 28.4575 2.1334
-7.7810 28.1947 2.1334
-8.7874 27.8954 2.1334
-8.0993 22.8184 1.7663
-10.7801 27.2284 2.1365
-11.7495 26.8215 2.1365
-12.8150 26.6116 2.1552
-13.7606 26.1319 2.1552
-14.6882 25.6184 2.1552
-15.5967 25.0719 2.1552
-7.7769 11.5550 1.0168
-17.3511 23.8827 2.1552
-18.1949 23.2415 2.1552
-19.0149 22.5704 2.1552
-19.8216 21.8830 2.1565
-20.5914 21.1544 2.1565
-20.1027 19.2211 2.0320
-18.5944 16.5428 1.8186
-18.5941 15.3831 1.7636
-18.5939 14.2904 1.7141
-18.5937 13.2565 1.6694
-18.5935 12.2742 1.6290
-18.5934 11.3374 1.5926
-18.5932 10.4408 1.5597
-18.5930 9.5796 1.5301
-18.5929 8.7497 1.5035
-18.5927 7.9475 1.4798
-19.5608 7.5429 1.5345
-21.8675 7.5425 1.6935
-24.7100 7.5419 1.8918
-28.3103 7.5412 2.1457
-20.3655 4.6489 1.5302
-28.9117 5.5161 2.1565
-20.0998 3.0917 1.4903
-20.0996 2.3567 1.4833
-20.0995 1.6279 1.4783
-20.0993 0.9032 1.4753
-20.0992 0.1810 1.4741
-18.5912 -0.5002 1.3642
-18.5911 -1.1691 1.3667
-18.5909 -1.8410 1.3709
-8.0853 -1.0950 0.5988
-18.5907 -3.2011 1.3848
-18.5905 -3.8929 1.3946
-18.5904 -4.5952 1.4063
-18.5903 -5.3101 1.4201
-18.5901 -6.0398 1.4360
-18.5900 -6.7866 1.4542
-18.5898 -7.5534 1.4747
-18.5897 -8.3428 1.4977
-18.5896 -9.1581 1.5235
-25.8260 -13.8967 2.1565
-25.3062 -14.8123 2.1565
-23.4338 -14.8707 2.0414
-21.6724 -14.8704 1.9336
-20.0964 -14.8776 1.8397
-20.0962 -16.0255 1.8915
-20.0960 -17.2410 1.9488
-19.7954 -18.2568 1.9822
-18.5879 -18.4210 1.9266
-18.5876 -19.7930 1.9992
-18.5873 -21.2741 2.0803
-18.4508 -22.7145 2.1552
-17.6318 -23.3731 2.1565
-16.7796 -23.9884 2.1565
-7.8506 -12.1282 1.0644
-15.0122 -25.1255 2.1565
-14.0994 -25.6459 2.1565
-10.8250 -21.4825 1.7727
-9.8745 -21.4823 1.7424
-9.6577 -23.1681 1.8499
-10.2806 -27.3919 2.1565
-9.1907 -27.4447 2.1334
-8.1992 -27.7555 2.1334
-7.1973 -28.0308 2.1334
-6.1862 -28.2701 2.1334
-5.4169 -29.8490 2.2365
-4.3418 -30.0236 2.2365
-3.2612 -30.1596 2.2365
-2.1764 -30.2570 2.2365
-1.0889 -30.3156 2.2365
0.0000 -23.1977 2.2365
0.8328 -23.1830 2.2365
1.6645 -23.1385 2.2365
2.3791 -22.0012 2.1334
3.1674 -21.9018 2.1333
3.9517 -21.7744 2.1333
4.7309 -21.6189 2.1333
5.5040 -21.4357 2.1332
6.3386 -21.4565 2.1565
7.1051 -21.2163 2.1565
7.8626 -20.9487 2.1565
8.6100 -20.6543 2.1565
9.3466 -20.3333 2.1565
10.0712 -19.9861 2.1565
10.7830 -19.6132 2.1565
11.4673 -19.1920 2.1539
12.0928 -18.6814 2.1438
12.3903 -17.7130 2.0822
12.0898 -16.0262 1.9335
11.7959 -14.5215 1.8018
11.6270 -13.3074 1.7017
11.5491 -12.2978 1.6244
11.4920 -11.3886 1.5576
11.4155 -10.5280 1.4949
11.3998 -9.7800 1.4457
11.3972 -9.0883 1.4029
11.4208 -8.4548 1.3674
11.4369 -7.8473 1.3345
11.4701 -7.2786 1.3069
2.5614 -1.4992 0.2855
11.4942 -6.1848 1.2554
9.7382 -4.7974 1.0439
9.7607 -4.3803 1.0287
9.7821 -3.9745 1.0151
9.8025 -3.5785 1.0031
9.8221 -3.1910 0.9926
10.8720 -3.1053 1.0865
8.3728 -2.0695 0.8287
7.2128 -1.5103 0.7079
9.7354 -1.6762 0.9489
9.3350 -1.2641 0.9047
10.4781 -1.0375 1.0111
11.9872 -0.7537 1.1532
9.2220 -0.2480 0.8856
6.2979 0.0568 0.6045
6.5402 0.2940 0.6283
6.8032 0.5510 0.6549
7.0904 0.8314 0.6849
7.4060 1.1392 0.7188
8.1349 1.5521 0.7943
8.0150 1.8297 0.7884
7.8971 2.1037 0.7836
7.7808 2.3749 0.7799
7.6658 2.6441 0.7773
7.5518 2.9121 0.7757
7.4384 3.1796 0.7752
10.8625 5.1120 1.1503
10.3761 5.3461 1.1182
9.9152 5.5678 1.0893
9.4768 5.7786 1.0631
16.5340 10.9148 1.8973
15.3087 10.9145 1.8003
14.2010 10.9143 1.7148
13.1922 10.9141 1.6391
12.2673 10.9140 1.5717
11.4143 10.9138 1.5115
10.6231 10.9137 1.4575
9.8854 10.9135 1.4091
9.1941 10.9134 1.3654
8.5435 10.9133 1.3260
7.9285 10.9132 1.2905
7.3448 10.9131 1.2583
6.7887 10.9130 1.2293
6.2568 10.9129 1.2031
10.2366 19.4397 2.1012
6.1415 12.7535 1.3537
6.1726 14.0907 1.4711
6.1596 15.5579 1.6000
6.1591 17.3521 1.7606
6.1587 19.5506 1.9599
5.9360 21.5093 2.1334
5.1603 21.7092 2.1334
4.3778 21.8810 2.1334
3.5896 22.0244 2.1334
2.7968 22.1395 2.1334
2.0970 23.2998 2.2365
1.2593 23.3601 2.2365
0.4200 23.3902 2.2365
-0.4199 23.3900 2.2365
-1.2592 23.3596 2.2365
-2.0968 23.2989 2.2365
-2.9317 23.2080 2.2365
-3.7627 23.0872 2.2365
-4.5889 22.9364 2.2365
-5.4090 22.7560 2.2365
-5.9352 21.5065 2.1333
-6.7030 21.2786 2.1333
-7.4620 21.0232 2.1334
-6.9052 17.4413 1.7940
-8.9500 20.4311 2.1334
-6.6021 13.7101 1.4555
-10.4064 19.7623 2.1365
-11.1082 19.3745 2.1365
-7.1051 11.4217 1.2869
-7.7642 11.5362 1.3305
-8.4047 11.5687 1.3683
-13.8824 17.7331 2.1552
-14.5085 17.2216 2.1552
-15.1158 16.6880 2.1552
-15.7033 16.1329 2.1552
-16.2705 15.5571 2.1552
-16.8164 14.9613 2.1552
-17.3405 14.3462 2.1552
-17.8422 13.7129 2.1552
-18.3206 13.0619 2.1552
-18.5935 12.2744 2.1344
-18.5934 11.3376 2.0865
-18.5932 10.4410 2.0434
-18.5930 9.5798 2.0045
-18.5929 8.7499 1.9696
-18.5927 7.9477 1.9384
-19.5603 7.5429 2.0100
-21.2593 7.3329 2.1565
-21.5057 6.5641 2.1565
-21.7243 5.7871 2.1565
-20.3627 4.6485 2.0037
-22.0769 4.2123 2.1565
-20.0998 3.0919 1.9515
-20.0996 2.3569 1.9423
-20.0995 1.6280 1.9357
-20.0993 0.9034 1.9316
-20.0992 0.1812 1.9300
-18.5912 -0.5000 1.7861
-18.5911 -1.1689 1.7892
-18.5909 -1.8409 1.7947
-8.0572 -1.0911 0.7812
-18.5907 -3.2009 1.8127
-18.5905 -3.8927 1.8254
-18.5904 -4.5950 1.8407
-18.5903 -5.3099 1.8587
-18.5901 -6.0396 1.8794
-18.5900 -6.7865 1.9031
-18.5898 -7.5532 1.9298
-18.5897 -8.3426 1.9599
-18.5896 -9.1579 1.9936
-19.7373 -10.6203 2.1565
-19.3296 -11.3139 2.1552
-18.9087 -11.9990 2.1552
-18.4635 -12.6685 2.1552
-17.9948 -13.3215 2.1552
-17.5029 -13.9573 2.1552
-16.9887 -14.5750 2.1552
-16.4528 -15.1738 2.1552
-15.8959 -15.7530 2.1552
-15.3186 -16.3118 2.1552
-14.7218 -16.8496 2.1552
-14.1061 -17.3656 2.1552
-13.4725 -17.8593 2.1552
-8.0110 -11.4525 1.3466
-7.4944 -11.5777 1.3289
-7.2503 -12.1345 1.3621
-10.6807 -19.4273 2.1365
-9.9758 -19.7969 2.1365
-9.2440 -20.1104 2.1332
-8.5157 -20.4282 2.1332
-7.7771 -20.7213 2.1334
-6.0902 -18.1859 1.8487
-6.2698 -21.2241 2.1334
-5.7697 -22.4706 2.2365
-4.9592 -22.6626 2.2365
-4.1424 -22.8255 2.2365
-3.3202 -22.9591 2.2365
-2.4939 -23.0633 2.2365
-1.6644 -23.1378 2.2365
-0.8327 -23.1826 2.2365
0.0000 -18.7636 2.2365
0.6736 -18.7516 2.2365
1.3463 -18.7156 2.2365
2.0174 -18.6555 2.2365
2.5620 -17.7154 2.1334
3.1964 -17.6125 2.1334
3.8267 -17.4869 2.1334
4.4521 -17.3389 2.1334
5.0719 -17.1685 2.1334
5.6852 -16.9761 2.1334
6.3593 -16.9434 2.1565
6.9638 -16.7050 2.1565
7.5594 -16.4452 2.1565
8.1454 -16.1642 2.1565
8.7209 -15.8623 2.1565
9.2853 -15.5401 2.1565
9.7588 -15.0756 2.1391
9.9871 -14.2773 2.0753
10.0222 -13.2852 1.9820
10.0399 -12.3596 1.8963
10.0580 -11.5115 1.8203
10.0885 -10.7424 1.7547
10.1377 -10.0464 1.6992
10.1949 -9.4022 1.6510
10.2449 -8.7891 1.6068
10.3019 -8.2148 1.5683
10.3729 -7.6789 1.5359
10.4428 -7.1651 1.5071
10.5138 -6.6717 1.4816
2.5611 -1.4990 0.3531
10.6606 -5.7361 1.4401
9.6535 -4.7556 1.2800
9.6770 -4.3427 1.2615
9.6993 -3.9408 1.2450
9.7205 -3.5485 1.2304
9.7407 -3.1645 1.2177
10.8447 -3.0974 1.3407
9.3798 -2.3183 1.1485
9.5419 -1.9979 1.1586
10.8307 -1.8647 1.3060
11.1785 -1.5137 1.3403
9.7653 -0.9669 1.1658
11.0112 -0.6922 1.3106
9.4339 -0.2536 1.1209
6.3544 0.0573 0.7547
6.6013 0.2968 0.7847
6.8695 0.5565 0.8183
7.1627 0.8400 0.8562
7.4853 1.1515 0.8990
8.2101 1.5666 0.9920
8.0885 1.8466 0.9846
7.9691 2.1229 0.9786
7.8514 2.3965 0.9740
7.7351 2.6681 0.9707
7.6199 2.9385 0.9688
7.5055 3.2084 0.9681
10.8332 5.0983 1.4199
10.3488 5.3322 1.3805
9.8898 5.5537 1.3449
14.6790 8.9509 2.0383
14.3830 9.4950 2.0431
14.0629 10.0264 2.0472
13.7224 10.5466 2.0513
13.1920 10.9141 2.0291
12.2672 10.9140 1.9457
11.4142 10.9138 1.8712
10.6230 10.9137 1.8045
9.8853 10.9135 1.7445
9.1940 10.9134 1.6905
8.5434 10.9133 1.6417
7.9284 10.9132 1.5977
7.3447 10.9131 1.5580
6.7886 10.9130 1.5221
6.2568 10.9129 1.4897
8.1568 15.4903 2.0731
6.1415 12.7536 1.6761
6.1725 14.0907 1.8215
6.1596 15.5580 1.9812
5.9381 16.7296 2.1018
5.4141 17.1870 2.1334
4.7938 17.3707 2.1334
4.1673 17.5321 2.1334
3.5354 17.6707 2.1334
2.8989 17.7865 2.1334
2.2586 17.8793 2.1334
1.6935 18.8163 2.2365
1.0170 18.8650 2.2365
0.3392 18.8893 2.2365
-0.3391 18.8892 2.2365
-1.0169 18.8647 2.2365
-1.6933 18.8157 2.2365
-2.3676 18.7425 2.2365
-3.0387 18.6450 2.2365
-3.7059 18.5234 2.2365
-4.3683 18.3778 2.2365
-5.0249 18.2085 2.2365
-5.6750 18.0157 2.2365
-6.0261 16.9778 2.1332
-6.6313 16.7497 2.1332
-7.2279 16.5000 2.1332
-6.5127 13.5245 1.7777
-8.3920 15.9371 2.1332
-8.9581 15.6245 2.1332
-7.2377 11.6350 1.6231
-7.4128 11.0143 1.5727
-7.9419 10.9317 1.6008
-11.1157 14.1991 2.1365
-11.6172 13.7898 2.1365
-12.1037 13.3628 2.1365
-12.6847 13.0319 2.1552
-13.1432 12.5671 2.1552
-13.5845 12.0860 2.1552
-14.0082 11.5895 2.1552
-14.4138 11.0781 2.1552
-14.8006 10.5525 2.1552
-15.1682 10.0134 2.1552
-15.5162 9.4614 2.1552
-15.8441 8.8974 2.1552
-16.1515 8.3220 2.1552
-16.4380 7.7360 2.1552
-16.7031 7.1401 2.1552
-16.9467 6.5352 2.1552
-17.1683 5.9220 2.1552
-17.3678 5.3013 2.1552
-17.5448 4.6739 2.1552
-17.6991 4.0406 2.1552
-17.8306 3.4022 2.1552
-17.9390 2.7597 2.1552
-18.0243 2.1137 2.1552
-18.0864 1.4651 2.1552
-18.1251 0.8149 2.1552
-18.1404 0.1637 2.1552
-18.1324 -0.4875 2.1552
-18.1010 -1.1380 2.1552
-18.0463 -1.7868 2.1552
-8.0292 -1.0872 0.9631
-17.8672 -3.0762 2.1552
-17.7432 -3.7151 2.1552
-17.5963 -4.3491 2.1552
-17.4268 -4.9774 2.1552
-17.2349 -5.5991 2.1552
-17.0209 -6.2135 2.1552
-16.7850 -6.8197 2.1552
-16.5275 -7.4170 2.1552
-16.2489 -8.0047 2.1552
-15.9494 -8.5819 2.1552
-15.6294 -9.1480 2.1552
-15.2894 -9.7021 2.1552
-14.9298 -10.2437 2.1552
-14.5510 -10.7720 2.1552
-14.1536 -11.2863 2.1552
-13.7381 -11.7861 2.1552
-13.3050 -12.2706 2.1552
-12.8549 -12.7392 2.1552
-12.3883 -13.1914 2.1552
-11.8023 -13.5080 2.1365
-11.3089 -13.9219 2.1365
-10.8011 -14.3179 2.1365
-8.1863 -11.7030 1.7014
-7.6086 -11.7541 1.6681
-9.1835 -15.3698 2.1332
-8.6253 -15.6887 2.1332
-8.0562 -15.9874 2.1332
-7.4767 -16.2655 2.1332
-6.8877 -16.5227 2.1332
-6.2899 -16.7586 2.1332
-5.8932 -17.5976 2.2117
-5.3164 -17.9964 2.2365
-4.6668 -18.1752 2.2365
-4.0112 -18.3306 2.2365
-3.3506 -18.4624 2.2365
-2.6856 -18.5706 2.2365
-2.0172 -18.6549 2.2365
-1.3462 -18.7151 2.2365
-0.6735 -18.7514 2.2365
0.0001 -15.7390 2.2365
0.5651 -15.7289 2.2365
1.1293 -15.6987 2.2365
1.6922 -15.6482 2.2365
2.1611 -14.9427 2.1453
2.6811 -14.7732 2.1334
3.2098 -14.6678 2.1334
3.7344 -14.5436 2.1334
4.2542 -14.4006 2.1334
4.7686 -14.2391 2.1334
5.2769 -14.0593 2.1334
5.7785 -13.8614 2.1334
6.3406 -13.7934 2.1565
6.8320 -13.5576 2.1565
7.3146 -13.3043 2.1565
7.7880 -13.0339 2.1565
8.2090 -12.6812 2.1454
8.5037 -12.1565 2.1068
8.7255 -11.5662 2.0574
8.8527 -10.8980 1.9936
8.9595 -10.2542 1.9334
9.0686 -9.6563 1.8807
9.1735 -9.0908 1.8334
9.2549 -8.5352 1.7871
9.3347 -8.0081 1.7457
9.4710 -7.5521 1.7192
9.5649 -7.0807 1.6889
9.6725 -6.6364 1.6646
9.7523 -6.1883 1.6388
2.5608 -1.4988 0.4210
9.9541 -5.3559 1.6036
9.5698 -4.7142 1.5133
9.5943 -4.3055 1.4916
9.6174 -3.9074 1.4723
9.6394 -3.5188 1.4552
9.6603 -3.1382 1.4403
9.6802 -2.7647 1.4273
10.2205 -2.5260 1.4925
8.8401 -1.8509 1.2803
10.3012 -1.7734 1.4815
10.3502 -1.4014 1.4803
10.4550 -1.0351 1.4888
10.2249 -0.6427 1.4517
9.6570 -0.2596 1.3687
6.4123 0.0579 0.9084
6.6639 0.2997 0.9449
6.9374 0.5621 0.9858
7.2368 0.8487 1.0319
7.5667 1.1641 1.0841
8.2870 1.5813 1.1946
8.1638 1.8638 1.1856
8.0428 2.1426 1.1783
7.9237 2.4187 1.1727
7.8061 2.6927 1.1687
7.6897 2.9655 1.1664
7.5742 3.2378 1.1656
10.8038 5.0845 1.6895
10.3216 5.3182 1.6428
9.8644 5.5395 1.6005
11.7702 7.1773 1.9501
11.4922 7.5867 1.9478
11.6440 8.3020 2.0226
11.3902 8.7543 2.0316
11.1110 9.1926 2.0393
10.7994 9.6082 2.0439
10.4642 10.0055 2.0470
10.1138 10.3907 2.0501
9.7254 10.7371 2.0480
9.1939 10.9134 2.0172
8.5433 10.9133 1.9591
7.9283 10.9132 1.9066
7.3447 10.9131 1.8592
6.7885 10.9130 1.8164
6.2567 10.9129 1.7778
6.9044 13.1119 2.0941
6.1415 12.7537 2.0003
5.9672 13.6220 2.1015
5.5577 14.0379 2.1334
5.0504 14.2288 2.1334
4.5365 14.4013 2.1334
4.0168 14.5552 2.1334
3.4918 14.6903 2.1334
2.9623 14.8064 2.1334
2.4290 14.9034 2.1334
1.9839 15.7051 2.2365
1.4189 15.7663 2.2365
0.8521 15.8071 2.2365
0.2842 15.8275 2.2365
-0.2841 15.8274 2.2365
-0.8520 15.8068 2.2365
-1.4188 15.7659 2.2365
-1.9838 15.7045 2.2365
-2.5462 15.6229 2.2365
-3.1052 15.5210 2.2365
-3.6602 15.3992 2.2365
-4.2105 15.2574 2.2365
-4.7553 15.0959 2.2365
-5.2938 14.9149 2.2365
-5.8256 14.7147 2.2365
-6.0565 13.8262 2.1332
-6.5056 13.5100 2.1192
-7.0322 13.3548 2.1332
-7.5066 13.0930 2.1332
-7.9713 12.8144 2.1332
-8.4256 12.5193 2.1332
-8.8690 12.2080 2.1332
-9.3008 11.8810 2.1332
-9.7206 11.5387 2.1332
-10.1433 11.1985 2.1365
-10.5379 10.8264 2.1365
-10.9189 10.4404 2.1365
-11.2857 10.0409 2.1365
-11.6379 9.6286 2.1365
-11.9750 9.2039 2.1365
-12.4045 8.8443 2.1552
-12.7128 8.3926 2.1552
-13.0047 7.9301 2.1552
-13.2798 7.4575 2.1552
-13.5376 6.9754 2.1552
-13.7780 6.4843 2.1552
-14.0005 5.9850 2.1552
-14.2049 5.4780 2.1552
-14.3910 4.9641 2.1552
-14.5584 4.4439 2.1552
-14.7071 3.9180 2.1552
-14.8368 3.3873 2.1552
-14.9472 2.8522 2.1552
-15.0385 2.3136 2.1552
-15.1103 1.7721 2.1552
-15.1626 1.2284 2.1552
-15.1953 0.6833 2.1552
-15.2084 0.1374 2.1552
-15.2020 -0.4086 2.1552
-15.1760 -0.9539 2.1552
-15.1304 -1.4979 2.1552
-8.0012 -1.0834 1.1446
-8.0291 -1.3823 1.1551
-14.8772 -3.1149 2.1552
-14.7543 -3.6466 2.1552
-14.6124 -4.1734 2.1552
-14.4518 -4.6948 2.1552
-14.2726 -5.2101 2.1552
-14.0750 -5.7185 2.1552
-13.8594 -6.2195 2.1552
-13.6259 -6.7124 2.1552
-13.3750 -7.1966 2.1552
-13.1069 -7.6714 2.1552
-12.8220 -8.1362 2.1552
-12.5206 -8.5906 2.1552
-12.0970 -8.9552 2.1365
-11.7668 -9.3829 2.1365
-11.4215 -9.7985 2.1365
-11.0616 -10.2014 2.1365
-10.6875 -10.5912 2.1365
-10.2997 -10.9673 2.1365
-9.8837 -11.3120 2.1332
-9.4706 -11.6588 2.1332
-9.0455 -11.9905 2.1332
-8.6087 -12.3068 2.1332
-7.6917 -11.8823 2.0106
-7.7027 -12.8914 2.1332
-7.2346 -13.1590 2.1332
-6.7573 -13.4096 2.1332
-6.2713 -13.6430 2.1332
-5.8955 -14.1423 2.1769
-5.5312 -14.7372 2.2365
-4.9985 -14.9258 2.2365
-4.4594 -15.0953 2.2365
-3.9145 -15.2453 2.2365
-3.3646 -15.3757 2.2365
-2.8105 -15.4863 2.2365
-2.2527 -15.5770 2.2365
-1.6921 -15.6477 2.2365
-1.1292 -15.6983 2.2365
-0.5649 -15.7287 2.2365
0.0001 -13.5420 2.2365
0.4862 -13.5334 2.2365
0.9717 -13.5073 2.2365
1.4560 -13.4639 2.2365
1.9384 -13.4031 2.2365
2.3069 -12.7109 2.1334
2.7618 -12.6202 2.1334
3.2131 -12.5133 2.1334
3.6604 -12.3902 2.1334
4.1029 -12.2512 2.1334
4.5402 -12.0964 2.1334
4.9717 -11.9261 2.1334
5.3968 -11.7404 2.1334
5.8151 -11.5396 2.1334
6.2933 -11.4465 2.1565
6.7005 -11.2138 2.1565
7.0909 -10.9539 2.1540
7.4599 -10.6642 2.1482
7.7607 -10.2871 2.1269
7.9927 -9.8392 2.0922
8.1462 -9.3232 2.0432
8.2825 -8.8191 1.9965
8.4090 -8.3330 1.9535
8.5052 -7.8437 1.9091
8.6321 -7.4053 1.8765
8.7702 -6.9933 1.8506
8.9067 -6.5933 1.8281
9.0283 -6.1943 1.8061
9.1254 -5.7904 1.7826
2.5605 -1.4986 0.4893
9.3203 -5.0148 1.7454
9.4171 -4.6389 1.7311
9.4893 -4.2583 1.7150
9.5365 -3.8744 1.6971
9.5592 -3.4894 1.6776
9.5807 -3.1123 1.6606
9.6011 -2.7420 1.6458
9.6503 -2.3850 1.6384
9.6619 -2.0229 1.6268
9.6857 -1.6674 1.6196
9.7288 -1.3172 1.6177
9.7649 -0.9667 1.6167
9.8039 -0.6162 1.6183
9.8596 -0.2649 1.6248
6.4717 0.0585 1.0660
6.7281 0.3026 1.1092
7.0072 0.5678 1.1578
7.3130 0.8577 1.2125
7.6505 1.1771 1.2745
8.3660 1.5965 1.4022
8.2410 1.8815 1.3916
8.1184 2.1629 1.3830
7.9978 2.4414 1.3764
7.8789 2.7179 1.3717
7.7612 2.9931 1.3690
7.6446 3.2680 1.3681
10.7744 5.0708 1.9594
10.2942 5.3042 1.9054
9.8390 5.5253 1.8565
10.0790 6.1461 1.9420
9.8530 6.5047 1.9421
9.6146 6.8552 1.9423
9.3644 7.1974 1.9425
9.1029 7.5313 1.9430
8.8342 7.8599 1.9446
8.9137 8.5231 2.0280
8.6413 8.8780 2.0371
8.3560 9.2253 2.0465
8.0577 9.5647 2.0562
7.7515 9.9019 2.0674
7.4304 10.2278 2.0782
7.0945 10.5414 2.0887
6.7381 10.8320 2.0969
6.2566 10.9129 2.0677
5.9708 11.3391 2.1063
5.6315 11.6947 2.1334
5.2083 11.8897 2.1334
4.7783 12.0693 2.1334
4.3421 12.2334 2.1334
3.9003 12.3817 2.1334
3.4534 12.5140 2.1334
3.0021 12.6301 2.1334
2.5469 12.7299 2.1334
2.1470 13.1735 2.1934
1.7057 13.5025 2.2365
1.2199 13.5550 2.2365
0.7326 13.5901 2.2365
0.2443 13.6076 2.2365
-0.2442 13.6076 2.2365
-0.7325 13.5899 2.2365
-1.2198 13.5547 2.2365
-1.7056 13.5020 2.2365
-2.1891 13.4319 2.2365
-2.6697 13.3444 2.2365
-3.1469 13.2397 2.2365
-3.6200 13.1178 2.2365
-4.0884 12.9790 2.2365
-4.5515 12.8235 2.2365
-5.0086 12.6514 2.2365
-5.4593 12.4630 2.2365
-5.8987 12.2499 2.2349
-6.0462 11.4824 2.1332
-6.4541 11.2575 2.1332
-6.8537 11.0180 2.1332
-7.2444 10.7643 2.1332
-7.6257 10.4968 2.1332
-7.9971 10.2157 2.1332
-8.3581 9.9215 2.1332
-8.7083 9.6144 2.1332
-9.0472 9.2951 2.1332
-9.3744 8.9637 2.1332
-9.6894 8.6209 2.1332
-10.0072 8.2795 2.1365
-10.2972 7.9145 2.1365
-10.5738 7.5391 2.1365
-10.8368 7.1542 2.1365
-11.0857 6.7601 2.1365
-11.3203 6.3573 2.1365
-11.5403 5.9463 2.1365
-11.7453 5.5278 2.1365
-11.9352 5.1022 2.1365
-12.1096 4.6701 2.1365
-12.3761 4.2692 2.1552
-12.5203 3.8219 2.1552
-12.6483 3.3697 2.1552
-12.7599 2.9132 2.1552
-12.8552 2.4531 2.1552
-12.9338 1.9899 2.1552
-12.9957 1.5242 2.1552
-13.0409 1.0566 2.1552
-13.0692 0.5878 2.1552
-13.0807 0.1183 2.1552
-13.0754 -0.3513 2.1552
-7.7943 -0.4899 1.2869
-8.4773 -0.8392 1.4039
-7.9733 -1.0795 1.3261
-8.0071 -1.3784 1.3392
-8.2721 -1.7319 1.3932
-7.5782 -1.8729 1.2869
-12.5695 -3.5898 2.1552
-12.4315 -4.0384 2.1552
-12.2775 -4.4817 2.1552
-12.0024 -4.8763 2.1365
-11.8186 -5.3036 2.1365
-11.6197 -5.7240 2.1365
-11.4059 -6.1369 2.1365
-11.1774 -6.5419 2.1365
-10.9345 -6.9384 2.1365
-10.6776 -7.3260 2.1365
-10.4070 -7.7040 2.1365
-10.1231 -8.0721 2.1365
-9.8112 -8.4169 2.1332
-9.5021 -8.7631 2.1332
-6.9885 -6.9254 1.6238
-6.7350 -7.1714 1.6238
-8.5034 -9.7321 2.1332
-8.1481 -10.0306 2.1332
-7.7824 -10.3161 2.1332
-7.4067 -10.5883 2.1332
-7.0215 -10.8468 2.1332
-6.6273 -11.0914 2.1332
-6.2246 -11.3217 2.1332
-5.8991 -11.7064 2.1645
-5.6570 -12.3065 2.2365
-5.2114 -12.5012 2.2365
-4.7591 -12.6799 2.2365
-4.3008 -12.8422 2.2365
-3.8369 -12.9880 2.2365
-3.3681 -13.1171 2.2365
-2.8950 -13.2294 2.2365
-2.4182 -13.3246 2.2365
-1.9383 -13.4027 2.2365
-1.4559 -13.4635 2.2365
-0.9716 -13.5071 2.2365
-0.4861 -13.5332 2.2365
0.0000 -11.8724 2.2365
0.4262 -11.8648 2.2365
0.8519 -11.8420 2.2365
1.2765 -11.8039 2.2365
1.6994 -11.7506 2.2365
2.1202 -11.6822 2.2365
2.4213 -11.0641 2.1334
2.8170 -10.9703 2.1334
3.2090 -10.8624 2.1334
3.5970 -10.7405 2.1334
3.9804 -10.6048 2.1334
4.3587 -10.4554 2.1334
4.7314 -10.2926 2.1334
5.0980 -10.1165 2.1334
5.4581 -9.9273 2.1334
5.8112 -9.7254 2.1334
6.1569 -9.5109 2.1334
6.5650 -9.3848 2.1565
6.8980 -9.1435 2.1565
7.1570 -8.8103 2.1370
7.3970 -8.4657 2.1164
7.5761 -8.0668 2.0833
7.7569 -7.6868 2.0556
7.8975 -7.2832 2.0221
8.0274 -6.8865 1.9907
8.1705 -6.5150 1.9667
8.3045 -6.1475 1.9444
8.4180 -5.7755 1.9211
8.5205 -5.4065 1.8988
2.5601 -1.4984 0.5581
8.7317 -4.6979 1.8654
8.8378 -4.3535 1.8534
8.9358 -4.0098 1.8424
9.0007 -3.6567 1.8274
9.0587 -3.3066 1.8137
9.0968 -2.9550 1.7988
9.1217 -2.6051 1.7840
9.1413 -2.2591 1.7706
9.1581 -1.9173 1.7593
9.1788 -1.5801 1.7511
9.1952 -1.2449 1.7444
9.2256 -0.9132 1.7427
9.2317 -0.5801 1.7387
9.2389 -0.2482 1.7371
6.5326 0.0591 1.2278
6.7940 0.3056 1.2780
7.0789 0.5736 1.3345
7.3914 0.8670 1.3983
7.7368 1.1904 1.4707
8.4470 1.6120 1.6155
8.3202 1.8997 1.6032
8.1959 2.1836 1.5932
8.0739 2.4647 1.5855
7.9536 2.7437 1.5801
7.8347 3.0215 1.5769
7.7169 3.2990 1.5759
9.3674 4.4087 1.9439
9.2312 4.7566 1.9497
9.0841 5.1015 1.9560
8.9140 5.4358 1.9600
8.6536 5.7129 1.9465
8.4526 6.0268 1.9486
8.2536 6.3438 1.9538
8.0440 6.6554 1.9594
7.8361 6.9719 1.9684
7.6218 7.2880 1.9789
7.3999 7.6027 1.9908
7.4420 8.2163 2.0801
7.1710 8.5123 2.0884
6.8881 8.7990 2.0966
6.5840 9.0628 2.1016
6.2706 9.3174 2.1070
5.9483 9.5623 2.1126
5.6564 9.8661 2.1334
5.2988 10.0631 2.1334
4.9344 10.2471 2.1334
4.5635 10.4179 2.1334
4.1868 10.5753 2.1334
3.8046 10.7190 2.1334
3.4175 10.8489 2.1334
3.0259 10.9648 2.1334
2.6304 11.0665 2.1334
2.2315 11.1539 2.1334
1.9182 11.7695 2.2365
1.4945 11.8308 2.2365
1.0689 11.8769 2.2365
0.6419 11.9076 2.2365
0.2141 11.9230 2.2365
-0.2140 11.9230 2.2365
-0.6418 11.9075 2.2365
-1.0688 11.8767 2.2365
-1.4944 11.8305 2.2365
-1.9180 11.7691 2.2365
-2.3392 11.6924 2.2365
-2.7573 11.6007 2.2365
-3.1718 11.4940 2.2365
-3.5823 11.3724 2.2365
-3.9880 11.2362 2.2365
-4.3886 11.0855 2.2365
-4.7836 10.9204 2.2365
-5.1722 10.7413 2.2365
-5.5542 10.5483 2.2365
-5.8984 10.2882 2.2249
-6.0055 9.6545 2.1332
-6.3478 9.4323 2.1332
-6.6820 9.1979 2.1332
-7.0075 8.9517 2.1332
-7.3239 8.6939 2.1332
-7.6308 8.4249 2.1332
-7.9278 8.1452 2.1332
-8.2146 7.8549 2.1332
-6.6856 5.9484 1.6797
-6.6973 5.5412 1.6317
-6.8582 5.2713 1.6238
-7.0426 5.0214 1.6238
-9.4820 6.2599 2.1332
-9.7000 5.9151 2.1332
-9.9053 5.5627 2.1332
-10.1133 5.2112 2.1365
-10.2931 4.8444 2.1365
-10.4596 4.4715 2.1365
-10.6125 4.0929 2.1365
-10.7518 3.7090 2.1365
-10.8772 3.3204 2.1365
-10.9885 2.9276 2.1365
-11.0856 2.5311 2.1365
-11.1685 2.1314 2.1365
-11.2369 1.7289 2.1365
-11.2909 1.3244 2.1365
-11.3302 0.9181 2.1365
-11.3550 0.5108 2.1365
-11.3651 0.1029 2.1365
-11.3605 -0.3051 2.1365
-11.3414 -0.7127 2.1365
-7.4519 -0.7376 1.4080
-7.3035 -0.9888 1.3859
-7.2714 -1.2517 1.3875
-7.3759 -1.5442 1.4172
-11.0276 -2.7253 2.1365
-10.9218 -3.1192 2.1365
-10.8020 -3.5089 2.1365
-10.6683 -3.8942 2.1365
-10.5209 -4.2743 2.1365
-10.3599 -4.6489 2.1365
-10.1857 -5.0174 2.1365
-9.9983 -5.3795 2.1365
-9.7832 -5.7258 2.1332
-9.5707 -6.0729 2.1332
-9.3459 -6.4122 2.1332
-9.1091 -6.7431 2.1332
-7.1102 -5.6695 1.7118
-6.6834 -5.7336 1.6577
-6.6834 -6.1635 1.7115
-6.6833 -6.6229 1.7714
-7.7565 -8.2590 2.1332
-7.4546 -8.5317 2.1332
-7.1432 -8.7934 2.1332
-6.8226 -9.0437 2.1332
-6.4933 -9.2824 2.1332
-6.1556 -9.5091 2.1332
-5.8991 -9.8726 2.1659
-5.7212 -10.4060 2.2365
-5.3437 -10.6043 2.2365
-4.9595 -10.7889 2.2365
-4.5688 -10.9597 2.2365
-4.1723 -11.1164 2.2365
-3.7705 -11.2587 2.2365
-3.3638 -11.3866 2.2365
-2.9528 -11.4998 2.2365
-2.5381 -11.5983 2.2365
-2.1201 -11.6818 2.2365
-1.6993 -11.7502 2.2365
-1.2764 -11.8036 2.2365
-0.8518 -11.8418 2.2365
-0.4262 -11.8647 2.2365
0.0000 -10.5594 2.2365
0.3791 -10.5527 2.2365
0.7577 -10.5323 2.2365
1.1353 -10.4985 2.2365
1.5115 -10.4511 2.2365
1.8858 -10.3902 2.2365
2.1611 -9.8752 2.1409
2.5054 -9.7570 2.1334
2.8542 -9.6610 2.1334
3.1992 -9.5526 2.1334
3.5402 -9.4318 2.1334
3.8766 -9.2989 2.1334
4.2081 -9.1541 2.1334
4.5341 -8.9974 2.1334
4.8544 -8.8291 2.1334
5.1684 -8.6495 2.1334
5.4758 -8.4587 2.1334
5.7762 -8.2571 2.1334
6.0691 -8.0448 2.1334
6.4231 -7.9068 2.1565
6.7031 -7.6715 2.1565
6.9625 -7.4134 2.1527
7.1412 -7.0765 2.1279
7.2998 -6.7318 2.1016
7.4568 -6.3969 2.0792
7.6113 -6.0689 2.0601
7.7456 -5.7336 2.0393
7.8600 -5.3925 2.0170
7.9622 -5.0521 1.9952
2.5598 -1.4981 0.6275
8.1721 -4.3968 1.9632
8.2717 -4.0745 1.9506
8.3672 -3.7546 1.9399
8.4525 -3.4339 1.9297
8.5183 -3.1093 1.9179
8.5812 -2.7874 1.9082
8.6227 -2.4625 1.8964
8.6473 -2.1369 1.8836
8.6786 -1.8168 1.8748
8.7050 -1.4984 1.8676
8.7230 -1.1809 1.8610
8.7398 -0.8650 1.8566
8.7488 -0.5497 1.8530
8.7502 -0.2350 1.8502
6.5952 0.0598 1.3940
6.8618 0.3087 1.4516
7.1527 0.5797 1.5165
7.4722 0.8765 1.5898
7.8258 1.2042 1.6730
8.5304 1.6280 1.8348
8.4017 1.9184 1.8207
8.2757 2.2049 1.8092
8.1521 2.4886 1.8005
8.0303 2.7703 1.7943
7.9101 3.0507 1.7906
8.4364 3.6066 1.9377
8.3020 3.9074 1.9377
8.1634 4.2064 1.9392
8.0171 4.5024 1.9416
7.8726 4.8008 1.9469
7.7513 5.1173 1.9610
7.6386 5.4465 1.9806
7.4619 5.7354 1.9868
7.2922 6.0334 1.9979
7.1130 6.3287 2.0097
6.9247 6.6215 2.0223
6.7297 6.9141 2.0365
6.5248 7.2038 2.0513
6.3089 7.4891 2.0666
6.0824 7.7699 2.0824
5.9418 8.1790 2.1334
5.6446 8.3873 2.1334
5.3401 8.5848 2.1334
5.0287 8.7712 2.1334
4.7108 8.9464 2.1334
4.3867 9.1099 2.1334
4.0570 9.2618 2.1334
3.6917 9.3250 2.1160
3.3550 9.4525 2.1162
3.0137 9.5671 2.1162
2.6900 9.7478 2.1334
2.3402 9.8456 2.1350
2.0797 10.3951 2.2365
1.7053 10.4632 2.2365
1.3286 10.5177 2.2365
0.9503 10.5587 2.2365
0.5707 10.5860 2.2365
0.1903 10.5996 2.2365
-0.1902 10.5996 2.2365
-0.5706 10.5859 2.2365
-0.9501 10.5585 2.2365
-1.3285 10.5175 2.2365
-1.7051 10.4628 2.2365
-2.0795 10.3947 2.2365
-2.4513 10.3132 2.2365
-2.8198 10.2184 2.2365
-3.1847 10.1103 2.2365
-3.5454 9.9892 2.2365
-3.9016 9.8553 2.2365
-4.2527 9.7086 2.2365
-4.5982 9.5494 2.2365
-4.9379 9.3778 2.2365
-5.2711 9.1942 2.2365
-5.5975 8.9987 2.2365
-5.8981 8.7641 2.2295
-5.9406 8.1774 2.1332
-6.2300 7.9586 2.1332
-6.5113 7.7295 2.1332
-6.7842 7.4904 2.1332
-7.0484 7.2417 2.1332
-7.3034 6.9836 2.1332
-7.5489 6.7166 2.1332
-7.7847 6.4410 2.1332
-6.6855 5.1386 1.7804
-6.6854 4.7669 1.7337
-7.1089 4.6933 1.7988
-8.6243 5.2593 2.1332
-8.8070 4.9460 2.1332
-8.9783 4.6264 2.1332
-9.1379 4.3009 2.1332
-9.2858 3.9698 2.1332
-9.4217 3.6337 2.1332
-9.5454 3.2929 2.1332
-9.6568 2.9480 2.1332
-9.7557 2.5993 2.1332
-9.8420 2.2472 2.1332
-9.9157 1.8924 2.1332
-9.9917 1.5375 2.1365
-10.0398 1.1777 2.1365
-10.0748 0.8165 2.1365
-10.0969 0.4543 2.1365
-10.1060 0.0916 2.1365
-10.1021 -0.2712 2.1365
-10.0851 -0.6336 2.1365
-7.5711 -0.7493 1.6087
-7.3830 -0.9995 1.5754
-7.3597 -1.2668 1.5793
-7.5648 -1.5837 1.6345
-9.7915 -2.4197 2.1332
-9.6977 -2.7695 2.1332
-9.5914 -3.1156 2.1332
-9.4728 -3.4577 2.1332
-9.3419 -3.7952 2.1332
-9.1991 -4.1279 2.1332
-9.0444 -4.4552 2.1332
-8.8781 -4.7767 2.1332
-8.7004 -5.0920 2.1332
-8.5115 -5.4007 2.1332
-8.3116 -5.7025 2.1332
-8.1011 -5.9968 2.1332
-7.8802 -6.2834 2.1332
-6.8879 -5.9088 1.9209
-7.4083 -6.8319 2.1332
-6.9514 -6.8885 2.0717
-6.8983 -7.3452 2.1332
-6.6299 -7.5877 2.1332
-6.3530 -7.8205 2.1332
-6.0679 -8.0432 2.1332
-5.8962 -8.4288 2.1780
-5.7397 -8.8666 2.2365
-5.4175 -9.0666 2.2365
-5.0884 -9.2549 2.2365
-4.7527 -9.4314 2.2365
-4.4110 -9.5956 2.2365
-4.0635 -9.7475 2.2365
-3.7109 -9.8869 2.2365
-3.3535 -10.0136 2.2365
-2.9918 -10.1273 2.2365
-2.6263 -10.2280 2.2365
-2.2574 -10.3156 2.2365
-1.8856 -10.3899 2.2365
-1.5114 -10.4508 2.2365
-1.1352 -10.4982 2.2365
-0.7576 -10.5322 2.2365
-0.3790 -10.5526 2.2365
0.0000 -9.4989 2.2365
0.3411 -9.4928 2.2365
0.6816 -9.4745 2.2365
1.0213 -9.4440 2.2365
1.3597 -9.4014 2.2365
1.6964 -9.3466 2.2365
2.0308 -9.2798 2.2365
2.2538 -8.7770 2.1334
2.5675 -8.6906 2.1334
2.8779 -8.5930 2.1334
3.1846 -8.4844 2.1334
3.4872 -8.3648 2.1334
3.7854 -8.2345 2.1334
4.0787 -8.0935 2.1334
4.3667 -7.9421 2.1334
4.6492 -7.7805 2.1334
4.9257 -7.6089 2.1334
5.1959 -7.4274 2.1334
5.4594 -7.2364 2.1334
5.7159 -7.0361 2.1334
5.9651 -6.8266 2.1334
6.2737 -6.6800 2.1565
6.5098 -6.4508 2.1565
6.7375 -6.2132 2.1565
6.9479 -5.9602 2.1538
7.0854 -5.6495 2.1320
7.2139 -5.3399 2.1115
7.3271 -5.0269 2.0903
7.4406 -4.7211 2.0729
2.5595 -1.4979 0.6976
7.6578 -4.1200 2.0453
7.7537 -3.8193 2.0328
7.8547 -3.5245 2.0247
7.9468 -3.2284 2.0171
8.0208 -2.9276 2.0078
8.0844 -2.6260 1.9987
8.1416 -2.3250 1.9908
8.1765 -2.0205 1.9801
8.2155 -1.7198 1.9732
8.2509 -1.4202 1.9681
8.2732 -1.1199 1.9624
8.2919 -0.8206 1.9585
8.3094 -0.5220 1.9568
8.3164 -0.2232 1.9552
6.6596 0.0604 1.5651
6.9316 0.3120 1.6305
7.2288 0.5859 1.7041
7.5556 0.8864 1.7874
7.9177 1.2184 1.8821
8.2788 1.5800 1.9800
8.2621 1.8866 1.9908
8.1956 2.1837 1.9923
8.0795 2.4665 1.9842
7.9573 2.7451 1.9770
7.8311 3.0203 1.9712
7.7070 3.2949 1.9684
7.5879 3.5714 1.9693
7.4610 3.8446 1.9708
7.3337 4.1186 1.9749
7.2097 4.3966 1.9826
7.0770 4.6723 1.9909
6.9357 4.9454 1.9998
6.8237 5.2449 2.0204
6.6930 5.5377 2.0391
6.5283 5.8085 2.0511
6.3540 6.0759 2.0635
6.1702 6.3394 2.0763
5.9774 6.5995 2.0897
5.8566 6.9523 2.1334
5.6036 7.1583 2.1334
5.3432 7.3551 2.1334
5.0759 7.5424 2.1334
4.8021 7.7200 2.1334
4.5221 7.8876 2.1334
4.2361 8.0451 2.1334
3.9447 8.1921 2.1334
3.6483 8.3286 2.1334
3.3470 8.4544 2.1334
3.0415 8.5693 2.1334
2.7320 8.6731 2.1334
2.4190 8.7657 2.1334
2.1486 9.0396 2.1798
1.8701 9.3477 2.2365
1.5334 9.4089 2.2365
1.1947 9.4579 2.2365
0.8545 9.4947 2.2365
0.5132 9.5193 2.2365
0.1712 9.5316 2.2365
-0.1711 9.5316 2.2365
-0.5131 9.5192 2.2365
-0.8544 9.4946 2.2365
-1.1946 9.4577 2.2365
-1.5333 9.4086 2.2365
-1.8700 9.3474 2.2365
-2.2043 9.2741 2.2365
-2.5357 9.1888 2.2365
-2.8638 9.0917 2.2365
-3.1882 8.9828 2.2365
-3.5085 8.8624 2.2365
-3.8242 8.7305 2.2365
-4.1350 8.5873 2.2365
-4.4404 8.4331 2.2365
-4.7401 8.2680 2.2365
-5.0336 8.0923 2.2365
-5.3206 7.9061 2.2365
-5.6007 7.7097 2.2365
-5.8736 7.5034 2.2365
-5.9059 7.0108 2.1516
-6.1104 6.7465 2.1365
-6.3385 6.5124 2.1332
-6.5678 6.2804 2.1332
-6.7887 6.0403 2.1332
-7.0008 5.7924 2.1332
-7.2038 5.5371 2.1332
-6.9090 4.9263 1.9923
-7.5817 5.0055 2.1332
-7.7560 4.7299 2.1332
-7.9203 4.4481 2.1332
-8.0744 4.1607 2.1332
-8.2181 3.8680 2.1332
-8.3511 3.5703 2.1332
-8.4734 3.2680 2.1332
-8.5847 2.9616 2.1332
-8.6849 2.6514 2.1332
-8.7739 2.3378 2.1332
-8.8516 2.0212 2.1332
-8.9179 1.7020 2.1332
-8.9727 1.3807 2.1332
-9.0159 1.0577 2.1332
-9.0475 0.7333 2.1332
-9.0674 0.4081 2.1332
-9.0756 0.0823 2.1332
-9.0721 -0.2435 2.1332
-9.0569 -0.5690 2.1332
-9.0301 -0.8937 2.1332
-7.5320 -1.0196 1.7869
-7.5360 -1.2971 1.7979
-8.8800 -1.8589 2.1332
-8.8070 -2.1763 2.1332
-8.7227 -2.4909 2.1332
-8.6271 -2.8023 2.1332
-8.5204 -3.1100 2.1332
-8.4028 -3.4136 2.1332
-8.2744 -3.7129 2.1332
-8.1353 -4.0073 2.1332
-7.9858 -4.2965 2.1332
-7.8259 -4.5801 2.1332
-7.6561 -4.8579 2.1332
-7.4764 -5.1293 2.1332
-7.2870 -5.3941 2.1332
-7.0883 -5.6520 2.1332
-6.8806 -5.9025 2.1332
-6.6639 -6.1454 2.1332
-6.4387 -6.3804 2.1332
-6.2053 -6.6071 2.1332
-5.9638 -6.8254 2.1332
-5.8951 -7.2568 2.2005
-5.7225 -7.5853 2.2365
-5.4463 -7.7856 2.2365
-5.1631 -7.9758 2.2365
-4.8733 -8.1558 2.2365
-4.5773 -8.3252 2.2365
-4.2753 -8.4840 2.2365
-3.9679 -8.6318 2.2365
-3.6554 -8.7684 2.2365
-3.3382 -8.8938 2.2365
-3.0167 -9.0078 2.2365
-2.6913 -9.1101 2.2365
-2.3625 -9.2007 2.2365
-2.0307 -9.2795 2.2365
-1.6962 -9.3463 2.2365
-1.3596 -9.4011 2.2365
-1.0212 -9.4438 2.2365
-0.6815 -9.4744 2.2365
-0.3410 -9.4927 2.2365
0.0000 -8.6235 2.2365
0.3096 -8.6180 2.2365
0.6188 -8.6014 2.2365
0.9272 -8.5737 2.2365
1.2344 -8.5350 2.2365
1.5401 -8.4853 2.2365
1.8437 -8.4246 2.2365
2.1450 -8.3531 2.2365
2.3416 -7.9257 2.1431
2.6127 -7.8011 2.1334
2.8911 -7.7024 2.1334
3.1658 -7.5938 2.1334
3.4365 -7.4755 2.1334
3.7028 -7.3475 2.1334
3.9643 -7.2101 2.1334
4.2207 -7.0633 2.1334
4.4717 -6.9075 2.1334
4.7170 -6.7427 2.1334
4.9562 -6.5693 2.1334
5.1890 -6.3874 2.1334
5.4152 -6.1973 2.1334
5.6344 -5.9991 2.1334
5.8464 -5.7932 2.1334
6.0508 -5.5799 2.1334
6.3152 -5.4173 2.1565
6.4970 -5.1803 2.1535
6.6703 -4.9375 2.1507
6.8394 -4.6922 2.1494
6.9782 -4.4276 2.1415
2.5591 -1.4977 0.7683
7.1823 -3.8641 2.1132
7.2727 -3.5823 2.1004
7.3601 -3.3025 2.0900
7.4497 -3.0263 2.0831
7.5276 -2.7475 2.0758
7.5977 -2.4678 2.0692
7.6607 -2.1876 2.0635
7.7150 -1.9064 2.0583
7.7624 -1.6249 2.0539
7.8053 -1.3434 2.0511
7.8413 -1.0614 2.0490
7.8690 -0.7787 2.0475
7.8914 -0.4957 2.0473
7.9066 -0.2122 2.0478
6.7260 0.0611 1.7414
7.0037 0.3153 1.8149
7.3073 0.5924 1.8978
7.6417 0.8966 1.9916
7.8932 1.2147 2.0671
7.8323 1.4949 2.0637
7.7648 1.7731 2.0613
7.6866 2.0481 2.0586
7.5757 2.3128 2.0497
7.4630 2.5747 2.0428
7.3465 2.8335 2.0373
7.2242 3.0885 2.0328
7.0962 3.3400 2.0291
6.9624 3.5878 2.0263
6.8331 3.8375 2.0273
6.7088 4.0913 2.0327
6.5958 4.3546 2.0444
6.4828 4.6225 2.0594
6.3621 4.8902 2.0754
6.2312 5.1557 2.0917
6.0904 5.4190 2.1083
5.9417 5.6816 2.1260
5.7540 5.9119 2.1334
5.5384 6.1149 2.1334
5.3155 6.3100 2.1334
5.0858 6.4969 2.1334
4.8494 6.6755 2.1334
4.6069 6.8455 2.1334
4.3583 7.0066 2.1334
4.1041 7.1587 2.1334
3.8446 7.3016 2.1334
3.5802 7.4351 2.1334
3.3111 7.5590 2.1334
3.0377 7.6731 2.1334
2.7604 7.7773 2.1334
2.4795 7.8715 2.1334
2.1954 7.9556 2.1334
2.0007 8.4173 2.2365
1.6973 8.4838 2.2365
1.3917 8.5393 2.2365
1.0843 8.5838 2.2365
0.7755 8.6172 2.2365
0.4657 8.6395 2.2365
0.1553 8.6507 2.2365
-0.1553 8.6506 2.2365
-0.4656 8.6394 2.2365
-0.7754 8.6171 2.2365
-1.0842 8.5836 2.2365
-1.3916 8.5391 2.2365
-1.6971 8.4835 2.2365
-2.0005 8.4170 2.2365
-2.3013 8.3396 2.2365
-2.5991 8.2515 2.2365
-2.8935 8.1527 2.2365
-3.1842 8.0434 2.2365
-3.4708 7.9237 2.2365
-3.7528 7.7939 2.2365
-4.0301 7.6539 2.2365
-4.3020 7.5041 2.2365
-4.5685 7.3446 2.2365
-4.8290 7.1756 2.2365
-5.0832 6.9974 2.2365
-5.3309 6.8102 2.2365
-5.5717 6.6142 2.2365
-5.8053 6.4097 2.2365
-5.8976 6.0595 2.1869
-5.9611 5.7003 2.1332
-6.1616 5.4824 2.1332
-6.3541 5.2574 2.1332
-6.5384 5.0257 2.1332
-6.7142 4.7876 2.1332
-6.8814 4.5433 2.1332
-7.0397 4.2931 2.1332
-7.1889 4.0374 2.1332
-7.3288 3.7766 2.1332
-7.4592 3.5109 2.1332
-7.5800 3.2407 2.1332
-7.6910 2.9664 2.1332
-7.7921 2.6882 2.1332
-7.8831 2.4067 2.1332
-7.9639 2.1220 2.1332
-8.0345 1.8347 2.1332
-8.0947 1.5450 2.1332
-8.1445 1.2534 2.1332
-8.1838 0.9602 2.1332
-8.2124 0.6657 2.1332
-8.2306 0.3705 2.1332
-8.2381 0.0748 2.1332
-8.2350 -0.2210 2.1332
-8.2212 -0.5164 2.1332
-8.1969 -0.8111 2.1332
-7.5356 -1.0200 1.9695
-8.1167 -1.3970 2.1332
-8.0608 -1.6873 2.1332
-7.9946 -1.9755 2.1332
-7.9181 -2.2611 2.1332
-7.8314 -2.5437 2.1332
-7.7346 -2.8231 2.1332
-7.6278 -3.0987 2.1332
-7.5113 -3.3704 2.1332
-7.3851 -3.6376 2.1332
-7.2494 -3.9002 2.1332
-7.1043 -4.1577 2.1332
-6.9501 -4.4099 2.1332
-6.7870 -4.6563 2.1332
-6.6152 -4.8967 2.1332
-6.4348 -5.1308 2.1332
-6.2463 -5.3583 2.1332
-6.0496 -5.5788 2.1332
-5.9028 -5.8492 2.1542
-5.8953 -6.2770 2.2324
-5.6762 -6.4961 2.2365
-5.4391 -6.6954 2.2365
-5.1951 -6.8861 2.2365
-4.9444 -7.0679 2.2365
-4.6873 -7.2407 2.2365
-4.4242 -7.4040 2.2365
-4.1555 -7.5579 2.2365
-3.8813 -7.7020 2.2365
-3.6023 -7.8362 2.2365
-3.3185 -7.9603 2.2365
-3.0306 -8.0742 2.2365
-2.7387 -8.1776 2.2365
-2.4433 -8.2705 2.2365
-2.1448 -8.3528 2.2365
-1.8436 -8.4243 2.2365
-1.5399 -8.4850 2.2365
-1.2343 -8.5348 2.2365
