ply
format ascii 1.0
element vertex 2125
property float32 x
property float32 y
property float32 z
end_header
6.7747 4.8297 0.0595
6.3758 4.8998 0.0581
6.0023 4.9654 0.0568
5.6510 5.0272 0.0557
5.7199 5.4687 0.0588
5.8068 5.9652 0.0624
5.7760 6.3763 0.0650
6.0272 7.1537 0.0712
6.1359 7.8374 0.0763
6.1409 8.4521 0.0807
6.3007 9.3612 0.0877
6.5578 10.5411 0.0971
6.7158 11.7128 0.1062
6.9877 13.2692 0.1186
7.3685 15.3005 0.1350
7.3492 16.7758 0.1463
6.6881 16.8920 0.1457
6.0367 17.0065 0.1453
5.7464 18.2407 0.1545
6.9756 25.2751 0.2124
6.8696 28.8990 0.2413
5.8191 29.0836 0.2414
11.5722 70.9990 0.5866
2.3792 18.8329 0.1550
6.6669 74.0745 0.6079
-9.8935 78.3134 0.6436
-9.8784 60.6068 0.4997
-10.1930 50.9436 0.4219
-10.0955 42.4697 0.3535
-15.0429 47.7506 0.4028
-43.3320 82.2842 0.7312
-37.7908 65.9089 0.5939
-24.9944 40.1767 0.3676
-43.3039 64.3376 0.5985
-37.6598 51.8331 0.4909
-14.8534 18.9721 0.1833
-11.9986 14.2413 0.1405
-12.4321 13.7241 0.1386
-12.8613 13.2121 0.1368
-15.2218 14.5532 0.1549
-43.2239 38.4521 0.4215
-43.0981 30.7245 0.3741
-14.8626 9.8104 0.1245
-15.0649 9.1851 0.1220
-15.6388 8.7809 0.1226
-12.4381 6.4078 0.0945
-12.3473 5.8100 0.0910
-12.4979 5.3417 0.0895
-13.0140 5.0177 0.0907
-19.3472 6.6722 0.1312
-35.9910 10.9834 0.2380
-16.1093 4.2904 0.1040
-16.1722 3.6909 0.1020
-13.1609 2.5104 0.0812
-12.6524 1.9456 0.0764
-12.5828 1.4748 0.0744
-12.7661 1.0334 0.0741
-13.4865 0.6055 0.0769
-68.7337 0.6160 0.3850
-68.7324 -1.8523 0.3789
-81.9527 -5.1572 0.4450
-9.8966 -1.7045 0.0517
-88.6580 -18.5690 0.4581
-77.0699 -19.0536 0.3944
-67.0296 -19.1491 0.3402
-60.0548 -19.5139 0.3027
-53.7319 -19.6183 0.2693
-47.2208 -19.1887 0.2356
-43.5226 -19.5343 0.2165
-28.7672 -14.1734 0.1429
-35.8474 -19.2908 0.1782
-32.0863 -18.7824 0.1598
-29.4836 -18.7113 0.1474
-28.7934 -19.7579 0.1448
-24.8342 -18.3863 0.1258
-24.0420 -19.1732 0.1230
-23.9871 -20.5806 0.1242
-24.0914 -22.2202 0.1266
-23.9854 -23.7714 0.1283
-24.0764 -25.6392 0.1313
-24.5325 -28.0801 0.1371
-24.0835 -29.6503 0.1382
-21.2685 -28.1954 0.1259
-19.7208 -28.1945 0.1208
-18.7797 -29.0136 0.1196
-17.4014 -29.1254 0.1159
-16.0112 -29.1246 0.1120
-14.2511 -28.2828 0.1055
-10.2771 -22.3589 0.0810
-9.2439 -22.1762 0.0783
-8.2573 -22.0017 0.0758
-7.3117 -21.8344 0.0736
-6.4023 -21.6736 0.0717
-5.5249 -21.5184 0.0699
-4.6757 -21.3682 0.0684
-3.8513 -21.2223 0.0671
-1.5659 -10.8285 0.0339
-2.2644 -20.9417 0.0651
-1.4888 -20.6982 0.0640
-0.7277 -20.2582 0.0624
-0.0000 -20.1760 0.5166
0.7099 -19.7656 0.5065
1.3932 -19.3706 0.4975
2.0531 -18.9891 0.4895
2.6924 -18.6196 0.4824
3.3135 -18.2605 0.4762
3.9189 -17.9106 0.4708
4.5105 -17.5686 0.4661
5.0828 -17.2079 0.4616
5.6519 -16.8790 0.4584
6.2218 -16.5793 0.4566
6.7921 -16.2954 0.4559
7.1802 -15.6223 0.4446
7.5490 -14.9828 0.4346
7.9008 -14.3727 0.4256
8.2376 -13.7886 0.4175
8.5612 -13.2274 0.4104
8.8730 -12.6866 0.4040
9.1746 -12.1636 0.3984
5.6754 -6.9878 0.2359
5.7328 -6.5623 0.2289
5.8004 -6.1774 0.2231
5.7771 -5.7260 0.2147
5.9354 -5.4748 0.2137
5.9937 -5.1430 0.2096
5.9494 -4.7450 0.2025
6.0933 -4.5117 0.2023
6.1450 -4.2171 0.1994
6.1951 -3.9321 0.1969
6.1506 -3.6008 0.1918
6.3016 -3.3915 0.1932
6.3479 -3.1280 0.1916
6.2874 -2.8224 0.1872
6.4272 -2.6122 0.1890
6.4710 -2.3630 0.1883
6.4184 -2.0859 0.1850
6.5061 -1.8591 0.1861
6.5483 -1.6193 0.1861
6.5902 -1.3807 0.1864
6.6320 -1.1426 0.1869
6.6739 -0.9045 0.1877
6.7159 -0.6657 0.1887
6.7107 -0.4227 0.1886
6.7530 -0.1824 0.1901
6.8971 0.0614 0.1947
6.8375 0.3066 0.1939
6.9972 0.5660 0.1995
7.0428 0.8250 0.2021
7.0893 1.0897 0.2051
7.0188 1.3384 0.2050
7.1741 1.6369 0.2117
7.2245 1.9237 0.2158
7.2286 2.2055 0.2188
7.3428 2.5319 0.2255
7.3991 2.8524 0.2309
7.4580 3.1871 0.2369
7.3953 3.4794 0.2394
7.5720 3.9004 0.2502
7.6446 4.2918 0.2582
7.6654 4.6731 0.2651
7.2034 4.7543 0.2555
6.7752 4.8296 0.2470
6.3763 4.8997 0.2393
6.0028 4.9654 0.2323
5.6514 5.0271 0.2261
5.7198 5.4682 0.2371
5.8067 5.9647 0.2499
5.7765 6.3764 0.2588
6.0271 7.1531 0.2819
6.1358 7.8367 0.3006
6.1416 8.4524 0.3161
6.3015 9.3617 0.3420
6.5576 10.5402 0.3768
6.7157 11.7117 0.4104
6.9888 13.2705 0.4565
7.3689 15.3004 0.5176
7.3496 16.7757 0.5589
6.6885 16.8919 0.5550
6.0371 17.0065 0.5518
5.7467 18.2407 0.5853
6.9760 25.2750 0.8032
6.8699 28.8989 0.9105
5.8194 29.0836 0.9097
10.2353 62.7940 1.9522
2.3790 18.8307 0.5826
6.3650 70.7176 2.1801
3.0822 57.1728 1.7583
1.3065 72.7680 2.2351
-1.3067 72.7728 2.2351
-3.9191 72.6911 2.2351
-6.2900 69.8819 2.1537
-6.5039 51.4793 1.5921
-9.8776 60.5980 1.8830
-9.9170 49.5613 1.5492
-10.0115 42.1132 1.3258
-10.0739 36.4987 1.1588
-10.0110 31.7759 1.0187
-10.1168 28.4987 0.9237
-24.0135 60.6461 1.9902
-9.9028 22.6032 0.7520
-9.9017 20.5594 0.6945
-9.9008 18.7996 0.6457
-36.3098 63.3216 2.2151
-25.0365 40.2415 1.4359
-9.8986 14.7056 0.5362
-37.6181 51.7719 1.9322
-9.8976 12.6411 0.4838
-11.9991 14.2407 0.5601
-9.8609 10.8848 0.4408
-10.1925 10.4696 0.4376
-15.2224 14.5525 0.6293
-9.8587 8.7695 0.3934
-43.1377 35.6823 1.6652
-43.1363 33.1469 1.6142
-43.1351 30.7478 1.5678
-9.8615 6.5087 0.3488
-43.1458 26.3030 1.4878
-35.4519 19.9033 1.1938
-61.1600 31.5040 2.0144
-10.2267 4.8115 0.3300
-39.4619 16.8636 1.2494
-39.6555 15.2873 1.2337
-43.1267 14.8704 1.3202
-59.7206 18.2213 1.8016
-59.7222 15.9023 1.7778
-63.1938 14.4189 1.8587
-62.2278 11.8660 1.8109
-43.1223 6.6285 1.2432
-62.5643 7.3292 1.7892
-36.6536 2.9648 1.0411
-64.0013 2.8697 1.8080
-43.1991 0.3847 1.2152
-43.2039 -1.1668 1.2118
-60.6341 -3.8191 1.6979
-79.8482 -7.9154 2.2351
-12.3334 -1.6716 0.3456
-9.8952 -1.7048 0.2779
-75.6471 -15.8484 2.1320
-75.5202 -18.6749 2.1390
-63.3075 -18.0895 1.8046
-60.1502 -19.5485 1.7279
-50.4895 -18.4375 1.4639
-47.3203 -19.2321 1.3868
-40.6916 -18.2662 1.2072
-28.7635 -14.1734 0.8653
-35.8459 -19.2923 1.0952
-30.8691 -18.0719 0.9595
-29.1827 -18.5223 0.9245
-27.6642 -18.9849 0.8949
-24.8328 -18.3870 0.8219
-24.0827 -19.2074 0.8171
-23.9871 -20.5824 0.8362
-23.9863 -22.1251 0.8612
-23.9854 -23.7734 0.8890
-23.9845 -25.5433 0.9202
-24.5307 -28.0801 0.9770
-23.9794 -29.5243 0.9944
-21.2670 -28.1954 0.9214
-19.7195 -28.1945 0.8958
-18.4385 -28.4883 0.8819
-17.4002 -29.1254 0.8801
-15.6872 -28.5370 0.8433
-14.2502 -28.2828 0.8189
-10.4252 -22.6826 0.6445
-9.3772 -22.4973 0.6284
-8.3763 -22.3202 0.6139
-7.4171 -22.1506 0.6009
-6.4946 -21.9874 0.5891
-5.6046 -21.8300 0.5786
-4.7432 -21.6776 0.5693
-3.9019 -21.5026 0.5603
-1.5655 -10.8264 0.2803
-2.2971 -21.2450 0.5474
-1.5142 -21.0512 0.5405
-0.7401 -20.6037 0.5279
-0.0001 -20.1760 0.9716
0.7098 -19.7656 0.9526
1.3931 -19.3706 0.9355
2.0530 -18.9892 0.9202
2.6922 -18.6197 0.9067
3.3133 -18.2606 0.8947
3.9187 -17.9107 0.8842
4.5103 -17.5687 0.8752
5.0826 -17.2081 0.8662
5.6516 -16.8792 0.8599
6.2215 -16.5795 0.8560
6.7918 -16.2958 0.8540
7.1799 -15.6228 0.8324
7.5487 -14.9832 0.8129
7.9005 -14.3732 0.7955
8.2373 -13.7891 0.7798
8.5609 -13.2279 0.7657
8.8728 -12.6871 0.7532
9.1743 -12.1641 0.7421
5.6753 -6.9883 0.4390
5.7327 -6.5628 0.4254
5.8004 -6.1779 0.4143
5.7774 -5.7269 0.3982
5.9353 -5.4752 0.3958
5.9936 -5.1434 0.3877
5.9497 -4.7457 0.3741
6.0932 -4.5121 0.3733
6.1450 -4.2175 0.3675
6.1951 -3.9325 0.3624
6.1509 -3.6014 0.3526
6.3015 -3.3919 0.3546
6.3478 -3.1284 0.3512
6.2877 -2.8229 0.3426
6.4271 -2.6125 0.3455
6.4709 -2.3634 0.3437
6.4184 -2.0863 0.3373
6.5060 -1.8594 0.3387
6.5482 -1.6196 0.3383
6.5901 -1.3810 0.3383
6.6320 -1.1430 0.3387
6.6738 -0.9049 0.3396
6.7158 -0.6661 0.3409
6.7106 -0.4231 0.3403
6.7529 -0.1828 0.3425
6.8971 0.0610 0.3503
6.8378 0.3062 0.3483
6.9972 0.5656 0.3578
7.0427 0.8246 0.3621
7.0892 1.0893 0.3669
7.0192 1.3381 0.3662
7.1740 1.6365 0.3777
7.2244 1.9232 0.3844
7.2295 2.2054 0.3893
7.3427 2.5314 0.4007
7.3991 2.8519 0.4098
7.4579 3.1866 0.4198
7.3958 3.4791 0.4238
7.5719 3.8999 0.4423
7.6444 4.2912 0.4560
7.6661 4.6730 0.4677
7.2040 4.7542 0.4503
6.7758 4.8295 0.4347
6.3768 4.8996 0.4207
6.0032 4.9653 0.4081
5.6518 5.0270 0.3967
5.7198 5.4676 0.4156
5.8066 5.9641 0.4377
5.7770 6.3764 0.4530
6.0269 7.1524 0.4929
6.1357 7.8359 0.5251
6.1423 8.4528 0.5518
6.3023 9.3622 0.5966
6.5574 10.5392 0.6568
6.7155 11.7106 0.7149
6.9899 13.2717 0.7950
7.1941 14.9365 0.8793
7.3500 16.7756 0.9721
6.6889 16.8919 0.9649
6.0374 17.0064 0.9590
5.9350 18.8374 1.0501
7.2250 26.1757 1.4444
6.8703 28.8988 1.5807
5.8197 29.0835 1.5788
5.8810 36.0784 1.9464
2.3788 18.8284 1.0107
3.5883 39.8650 2.1320
2.1546 39.9646 2.1320
0.7531 41.9500 2.2351
-0.7534 41.9514 2.2351
-2.2592 41.9014 2.2351
-3.7627 41.7998 2.2351
-5.2620 41.6469 2.2351
-6.4436 39.5283 2.1318
-7.0247 35.1043 1.9050
-9.2703 38.9932 2.1318
-9.9098 35.9021 1.9801
-9.9075 31.4452 1.7519
-9.9056 27.9021 1.5724
-10.0727 25.4369 1.4520
-9.9028 22.6017 1.3087
-9.9017 20.5580 1.2093
-9.9008 18.7983 1.1250
-19.7012 34.3551 2.0953
-10.0125 16.0921 1.0018
-9.8986 14.7045 0.9360
-10.0047 13.7680 0.8978
-9.8976 12.6401 0.8460
-11.9995 14.2402 0.9802
-9.8966 10.9234 0.7749
-12.8623 13.2109 0.9682
-14.7194 14.0705 1.0679
-9.8955 8.8015 0.6936
-29.8415 24.6819 2.0256
-30.6036 23.5142 2.0158
-32.1789 22.9357 2.0610
-9.9009 6.5339 0.6178
-10.0183 6.1068 0.6101
-36.6851 20.5932 2.1843
-37.7452 19.4404 2.2010
-9.8933 4.6540 0.5659
-20.9475 8.9504 1.1771
-38.7384 14.9314 2.1417
-33.6821 11.6118 1.8348
-40.0832 12.2274 2.1545
-9.8923 2.6334 0.5254
-42.1107 9.6059 2.2129
-20.4618 3.9006 1.0653
-18.1103 2.7828 0.9354
-43.1712 5.0549 2.2151
-9.8913 0.7995 0.5048
-22.0153 0.9858 1.1190
-43.0886 0.3812 2.1841
-43.0878 -1.1661 2.1808
-42.1289 -2.6560 2.1318
-42.0825 -4.1741 2.1318
-9.9212 -1.3452 0.5038
-9.8940 -1.7052 0.5043
-43.6293 -9.1431 2.2351
-43.3498 -10.7223 2.2351
-43.0128 -12.2930 2.2351
-42.2988 -13.7494 2.2183
-40.2215 -14.6903 2.1320
-39.7362 -16.1521 2.1320
-39.1967 -17.5976 2.1320
-28.6943 -14.1412 1.5847
-35.8444 -19.2938 2.0133
-29.2846 -17.1462 1.6757
-27.6666 -17.5619 1.6156
-27.6640 -18.9867 1.6517
-24.8314 -18.3877 1.5187
-24.0407 -19.1757 1.5093
-23.9871 -20.5842 1.5492
-22.9713 -21.1907 1.5296
-23.9854 -23.7753 1.6507
-24.0727 -25.6392 1.7168
-24.5288 -28.0801 1.8178
-24.0835 -29.6545 1.8604
-21.2655 -28.1954 1.7179
-19.7181 -28.1945 1.6717
-18.2292 -28.1668 1.6286
-16.9834 -28.4295 1.6059
-15.4066 -28.0285 1.5496
-14.2034 -28.1916 1.5281
-10.4246 -22.6825 1.2075
-9.3766 -22.4972 1.1781
-8.3758 -22.3202 1.1515
-7.4167 -22.1505 1.1277
-6.4943 -21.9874 1.1062
-5.6043 -21.8299 1.0869
-4.7429 -21.6776 1.0697
-3.9017 -21.5026 1.0531
-1.5653 -10.8251 0.5269
-2.2970 -21.2449 1.0293
-1.5141 -21.0512 1.0165
-0.7400 -20.6037 0.9929
-0.0001 -20.1760 1.4276
0.7098 -19.7656 1.3996
1.3930 -19.3707 1.3744
2.0529 -18.9893 1.3519
2.6921 -18.6198 1.3319
3.3131 -18.2607 1.3141
3.9184 -17.9108 1.2986
4.5100 -17.5689 1.2852
5.0823 -17.2083 1.2718
5.6513 -16.8794 1.2622
6.2212 -16.5797 1.2563
6.7916 -16.2962 1.2531
7.1796 -15.6233 1.2210
7.5484 -14.9837 1.1922
7.9002 -14.3736 1.1662
8.2370 -13.7895 1.1428
8.5606 -13.2284 1.1219
8.8725 -12.6876 1.1031
9.1740 -12.1646 1.0864
5.6753 -6.9887 0.6425
5.7326 -6.5632 0.6224
5.8003 -6.1783 0.6058
5.7777 -5.7277 0.5821
5.9352 -5.4757 0.5784
5.9936 -5.1438 0.5662
5.9501 -4.7464 0.5462
6.0931 -4.5125 0.5447
6.1449 -4.2179 0.5360
6.1950 -3.9329 0.5283
6.1512 -3.6020 0.5137
6.3014 -3.3923 0.5164
6.3478 -3.1287 0.5112
6.2880 -2.8235 0.4985
6.4270 -2.6129 0.5023
6.4708 -2.3638 0.4994
6.4183 -2.0867 0.4898
6.5060 -1.8598 0.4917
6.5481 -1.6200 0.4908
6.5901 -1.3814 0.4905
6.6319 -1.1434 0.4909
6.6738 -0.9053 0.4918
6.7157 -0.6665 0.4935
6.7106 -0.4234 0.4923
6.7528 -0.1832 0.4952
6.8970 0.0606 0.5062
6.8382 0.3058 0.5030
6.9971 0.5652 0.5165
7.0426 0.8242 0.5224
7.0892 1.0889 0.5290
7.0195 1.3377 0.5277
7.1739 1.6360 0.5441
7.2243 1.9228 0.5534
7.2304 2.2052 0.5603
7.3426 2.5309 0.5763
7.3990 2.8514 0.5891
7.4578 3.1861 0.6032
7.3962 3.4789 0.6086
7.5718 3.8993 0.6349
7.6443 4.2907 0.6541
7.6667 4.6729 0.6707
7.2046 4.7541 0.6455
6.7763 4.8294 0.6229
6.3773 4.8995 0.6025
6.0036 4.9652 0.5843
5.6522 5.0270 0.5678
5.7197 5.4671 0.5945
5.8065 5.9635 0.6259
5.7775 6.3765 0.6476
6.0268 7.1517 0.7044
6.1356 7.8352 0.7501
6.1429 8.4531 0.7882
6.2032 9.2144 0.8384
6.5573 10.5383 0.9374
6.7365 11.7465 1.0233
7.1417 13.5591 1.1588
7.4927 15.5556 1.3062
7.3504 16.7756 1.3863
6.6892 16.8918 1.3758
6.0377 17.0063 1.3671
5.9346 18.8350 1.4965
6.0645 21.9701 1.7278
6.6500 27.9706 2.1801
5.5157 27.5629 2.1320
4.5217 27.7379 2.1320
2.3787 18.8262 1.4397
2.5189 27.9837 2.1320
1.5857 29.4109 2.2351
0.5287 29.4483 2.2351
-0.5289 29.4490 2.2351
-1.5860 29.4130 2.2351
-2.6413 29.3403 2.2351
-3.6936 29.2311 2.2351
-4.7416 29.0854 2.2351
-5.7842 28.9034 2.2351
-6.5051 27.3601 2.1318
-7.4856 27.1177 2.1318
-8.4575 26.8414 2.1318
-9.4196 26.5313 2.1318
-9.9041 25.0095 2.0359
-9.9028 22.6003 1.8666
-9.9017 20.5567 1.7252
-9.9008 18.7971 1.6054
-9.9000 17.2625 1.5028
-10.0132 16.0921 1.4304
-9.8986 14.7035 1.3368
-10.0050 13.7674 1.2826
-9.8976 12.6392 1.2090
-12.0000 14.2396 1.4013
-9.8966 10.9225 1.1082
-11.8367 12.1565 1.2747
-13.9769 13.3595 1.4512
-9.8955 8.8008 0.9931
-20.7351 17.1484 2.0158
-22.5721 17.3416 2.1304
-23.1913 16.5280 2.1293
-9.9013 6.5335 0.8860
-9.9999 6.0949 0.8738
-24.2349 13.6027 2.0714
-17.0915 8.8017 1.4313
-9.8933 4.6534 0.8131
-20.3971 8.7139 1.6476
-18.4249 7.1005 1.4651
-20.6618 7.1218 1.6196
-25.5835 7.8027 1.9799
-9.8923 2.6328 0.7568
-16.5885 3.7830 1.2564
-15.9281 3.0354 1.1959
-18.0707 2.7756 1.3467
-15.1992 1.7788 1.1258
-9.8913 0.7989 0.7292
-29.3499 1.3126 2.1560
-29.3916 0.2584 2.1543
-29.7448 -0.8067 2.1782
-29.1015 -1.8364 2.1318
-29.0532 -2.8834 2.1318
-9.9207 -1.3457 0.7301
-9.8940 -1.7058 0.7313
-30.0708 -6.3035 2.2351
-29.8618 -7.3879 2.2351
-29.6135 -8.4653 2.2351
-29.3259 -9.5343 2.2351
-28.9993 -10.5934 2.2351
-28.6341 -11.6411 2.2351
-28.2306 -12.6761 2.2351
-27.7890 -13.6968 2.2351
-26.0506 -14.0238 2.1320
-25.5585 -14.9663 2.1320
-25.0319 -15.8911 2.1320
-24.4712 -16.7971 2.1320
-23.8771 -17.6827 2.1320
-23.3270 -18.6080 2.1390
-22.6661 -19.4522 2.1390
-21.9740 -20.2723 2.1390
-21.2516 -21.0670 2.1390
-20.4998 -21.8354 2.1390
-19.7196 -22.5762 2.1390
-18.9120 -23.2884 2.1390
-18.0780 -23.9707 2.1390
-17.2187 -24.6222 2.1390
-16.3353 -25.2420 2.1390
-15.4368 -25.8420 2.1401
-14.5083 -26.3958 2.1401
-13.5595 -26.9151 2.1401
-10.1335 -22.0506 1.7223
-9.3760 -22.4971 1.7289
-8.3753 -22.3201 1.6903
-7.4162 -22.1504 1.6556
-6.4939 -21.9873 1.6243
-5.6040 -21.8299 1.5963
-4.7426 -21.6775 1.5712
-3.9015 -21.5026 1.5471
-1.5650 -10.8238 0.7741
-2.2969 -21.2449 1.5122
-1.5140 -21.0511 1.4935
-0.7400 -20.6037 1.4588
-0.0001 -20.1760 1.8851
0.6898 -19.2115 1.7962
1.3539 -18.8276 1.7638
2.0527 -18.9893 1.7849
2.6919 -18.6199 1.7584
3.2884 -18.1253 1.7221
3.9182 -17.9110 1.7143
4.5097 -17.5690 1.6964
5.0820 -17.2084 1.6786
5.6510 -16.8795 1.6658
6.2208 -16.5799 1.6578
6.7913 -16.2967 1.6534
7.1794 -15.6237 1.6109
7.5482 -14.9842 1.5726
7.9000 -14.3741 1.5381
8.2368 -13.7900 1.5070
8.5603 -13.2289 1.4792
8.8722 -12.6881 1.4542
9.1737 -12.1651 1.4320
5.5596 -6.8468 0.8294
5.7326 -6.5636 0.8201
5.8002 -6.1787 0.7980
5.7781 -5.7285 0.7667
5.9351 -5.4760 0.7615
5.9935 -5.1442 0.7454
5.9504 -4.7471 0.7189
6.0931 -4.5129 0.7166
6.1448 -4.2183 0.7050
6.1949 -3.9332 0.6947
6.1515 -3.6026 0.6755
6.3014 -3.3927 0.6787
6.3477 -3.1291 0.6717
6.2883 -2.8240 0.6549
6.4270 -2.6133 0.6597
6.4708 -2.3642 0.6556
6.4183 -2.0871 0.6429
6.5059 -1.8602 0.6452
6.5481 -1.6204 0.6438
6.5900 -1.3818 0.6432
6.6318 -1.1438 0.6435
6.6737 -0.9057 0.6446
6.7157 -0.6669 0.6465
6.7105 -0.4238 0.6448
6.7528 -0.1835 0.6484
6.8969 0.0602 0.6627
6.8385 0.3054 0.6583
6.9970 0.5648 0.6758
7.0426 0.8238 0.6832
7.0891 1.0885 0.6917
7.0199 1.3374 0.6899
7.1739 1.6356 0.7110
7.2243 1.9223 0.7230
7.2313 2.2051 0.7318
7.3426 2.5304 0.7525
7.3989 2.8509 0.7690
7.4577 3.1856 0.7871
7.3967 3.4786 0.7941
7.5717 3.8988 0.8281
7.4784 4.1971 0.8345
7.5494 4.6009 0.8610
7.2052 4.7540 0.8413
6.7768 4.8293 0.8117
6.3777 4.8994 0.7850
6.0041 4.9651 0.7611
5.6526 5.0269 0.7395
5.7196 5.4666 0.7739
5.8064 5.9629 0.8147
5.7111 6.3027 0.8331
5.7725 6.8494 0.8779
5.9474 7.5944 0.9459
6.2763 8.6361 1.0475
6.4480 9.5775 1.1334
6.5571 10.5373 1.2190
5.7580 10.0396 1.1373
7.1415 13.5578 1.5064
7.4924 15.5541 1.6979
7.3509 16.7755 1.8019
6.5134 16.4469 1.7410
6.0380 17.0063 1.7766
6.1383 19.4805 2.0113
5.7596 20.8643 2.1320
5.0056 21.0531 2.1320
4.2457 21.2154 2.1320
3.4807 21.3510 2.1320
2.3680 18.7411 1.8619
1.9391 21.5415 2.1320
1.2207 22.6405 2.2351
0.4070 22.6693 2.2351
-0.4072 22.6697 2.2351
-1.2210 22.6417 2.2351
-2.0333 22.5852 2.2351
-2.8433 22.5003 2.2351
-3.6499 22.3872 2.2351
-4.4522 22.2458 2.2351
-5.2492 22.0764 2.2351
-6.0400 21.8792 2.2351
-6.5083 20.6541 2.1318
-7.2480 20.4135 2.1318
-7.9790 20.1471 2.1318
-8.7006 19.8552 2.1318
-9.4117 19.5380 2.1318
-9.9008 18.7958 2.0874
-9.9000 17.2613 1.9543
-9.8993 15.9079 1.8392
-9.8986 14.7024 1.7389
-9.8981 13.6192 1.6509
-9.8976 12.6382 1.5731
-9.8971 11.7433 1.5041
-9.8966 10.9217 1.4426
-12.0944 12.4202 1.6957
-13.9866 13.3677 1.8911
-9.8955 8.8000 1.2935
-16.9142 13.9872 2.1423
-17.1926 13.2074 2.1145
-10.0049 7.1295 1.1973
-9.9018 6.5331 1.1552
-10.0001 6.0943 1.1395
-18.8195 10.5618 2.0981
-17.1013 8.8057 1.8685
-9.8933 4.6527 1.0611
-11.9847 5.1193 1.2637
-18.4203 7.0976 1.9125
-10.0070 3.4486 1.0245
-16.4966 5.0303 1.6678
-9.8923 2.6323 0.9890
-13.7912 3.1443 1.3654
-17.9937 3.4280 1.7665
-11.9675 1.8375 1.1665
-13.2373 1.5484 1.2828
-9.8913 0.7984 0.9543
-21.8939 0.9779 2.1054
-22.6047 0.1974 2.1696
-22.7517 -0.6183 2.1823
-22.8154 -1.4410 2.1899
-22.1689 -2.2014 2.1320
-9.9201 -1.3462 0.9571
-9.8940 -1.7064 0.9590
-14.8323 -3.1100 1.4462
-21.7079 -5.3719 2.1320
-22.5618 -6.4508 2.2351
-22.3363 -7.2632 2.2351
-22.0813 -8.0676 2.2351
-21.7971 -8.8629 2.2351
-21.4840 -9.6481 2.2351
-21.1423 -10.4221 2.2351
-20.7724 -11.1838 2.2351
-20.3747 -11.9322 2.2351
-19.9497 -12.6662 2.2351
-19.4980 -13.3848 2.2351
-18.5356 -13.7283 2.1782
-17.6622 -14.0905 2.1320
-17.1578 -14.7263 2.1320
-16.6302 -15.3436 2.1320
-16.0800 -15.9416 2.1320
-15.5078 -16.5196 2.1320
-14.9146 -17.0765 2.1320
-14.3009 -17.6116 2.1320
-13.7197 -18.1930 2.1401
-13.0653 -18.6842 2.1401
-12.3929 -19.1512 2.1401
-11.7033 -19.5935 2.1401
-10.9978 -20.0103 2.1401
-10.2771 -20.4011 2.1401
-9.5422 -20.7654 2.1401
-8.7941 -21.1024 2.1401
-8.0340 -21.4118 2.1401
-7.1955 -21.4925 2.1203
-6.4812 -21.9458 2.1401
-5.4246 -21.1321 2.0399
-4.5908 -20.9847 2.0081
-3.9013 -21.5025 2.0425
-1.5647 -10.8224 1.0219
-2.2968 -21.2449 1.9967
-1.4762 -20.5257 1.9228
-0.7269 -20.2394 1.8922
-0.0001 -18.4170 2.1401
0.6608 -18.4046 2.1401
1.3207 -18.3679 2.1401
1.9789 -18.3071 2.1401
2.6343 -18.2222 2.1401
3.2141 -17.7171 2.0933
3.8480 -17.5913 2.0937
4.5095 -17.5692 2.1094
5.0817 -17.2086 2.0872
5.6507 -16.8797 2.0711
6.2205 -16.5801 2.0610
6.5386 -15.6913 1.9790
6.9122 -15.0433 1.9280
7.5479 -14.9846 1.9547
7.8997 -14.3746 1.9116
7.8987 -13.2249 1.7960
8.2090 -12.6869 1.7626
8.8719 -12.6886 1.8068
9.1734 -12.1656 1.7789
5.6752 -6.9896 1.0517
5.7325 -6.5640 1.0185
5.8002 -6.1791 0.9910
5.7325 -5.6838 0.9445
5.7748 -5.3286 0.9199
5.8186 -4.9945 0.8983
5.8863 -4.6965 0.8827
5.9640 -4.4177 0.8705
6.0147 -4.1294 0.8563
6.0638 -3.8504 0.8436
6.1375 -3.5948 0.8359
6.2768 -3.3799 0.8384
6.3476 -3.1295 0.8329
6.2886 -2.8245 0.8119
6.4269 -2.6137 0.8177
6.4707 -2.3646 0.8126
6.4183 -2.0875 0.7966
6.5058 -1.8606 0.7993
6.5480 -1.6208 0.7974
6.5899 -1.3822 0.7966
6.6318 -1.1442 0.7968
6.6736 -0.9060 0.7980
6.7156 -0.6673 0.8003
6.7104 -0.4242 0.7980
6.7527 -0.1839 0.8023
6.8969 0.0598 0.8198
6.8389 0.3051 0.8143
6.9969 0.5643 0.8357
6.9897 0.8172 0.8384
6.9505 1.0668 0.8384
6.9564 1.3249 0.8450
7.0218 1.6005 0.8600
7.0712 1.8812 0.8744
7.1222 2.1714 0.8905
7.1317 2.4573 0.9028
7.2030 2.7750 0.9245
7.2819 3.1100 0.9490
7.5068 3.5299 0.9949
7.5716 3.8983 1.0221
7.6441 4.2895 1.0527
7.6680 4.6726 1.0791
7.2058 4.7539 1.0381
6.7774 4.8292 1.0014
6.3782 4.8994 0.9684
6.0045 4.9650 0.9387
5.6530 5.0268 0.9119
5.5439 5.2982 0.9249
5.8063 5.9624 1.0043
5.9034 6.5144 1.0614
6.0122 7.1333 1.1269
6.1353 7.8338 1.2025
6.2762 8.6353 1.2907
6.4478 9.5765 1.3965
6.5569 10.5363 1.5017
6.7063 11.6924 1.6317
7.1413 13.5565 1.8555
7.4921 15.5526 2.0912
7.2211 16.4783 2.1801
6.5138 16.4469 2.1442
6.0166 16.9450 2.1801
5.2839 16.7680 2.1320
4.6775 16.9434 2.1320
4.0653 17.0974 2.1320
3.4483 17.2299 2.1320
2.8271 17.3405 2.1320
2.2024 17.4291 2.1320
1.6512 18.3418 2.2351
0.9915 18.3885 2.2351
0.3305 18.4121 2.2351
-0.3308 18.4123 2.2351
-0.9918 18.3894 2.2351
-1.6515 18.3432 2.2351
-2.3094 18.2738 2.2351
-2.9644 18.1814 2.2351
-3.6159 18.0660 2.2351
-4.2630 17.9277 2.2351
-4.9050 17.7667 2.2351
-5.5410 17.5832 2.2351
-6.1704 17.3774 2.2351
-6.4785 16.3573 2.1318
-7.0639 16.1191 2.1318
-7.6406 15.8604 2.1318
-8.2081 15.5814 2.1318
-8.7657 15.2825 2.1318
-9.3125 14.9640 2.1318
-9.8481 14.6262 2.1318
-9.8981 13.6182 2.0345
-9.8976 12.6372 1.9389
-9.8971 11.7424 1.8540
-9.8966 10.9208 1.7784
-9.8962 10.1620 1.7107
-9.8959 9.4572 1.6499
-9.8955 8.7992 1.5952
-9.8952 8.1820 1.5458
-9.8949 7.6005 1.5012
-9.9294 7.0751 1.4660
-9.9023 6.5328 1.4255
-10.0004 6.0938 1.4063
-12.2702 6.8854 1.6885
-16.4219 8.4548 2.2151
-9.8933 4.6521 1.3102
-12.0271 5.1366 1.5661
-17.2726 6.6544 2.2151
-10.0047 3.4472 1.2654
-17.7198 5.4022 2.2136
-9.8923 2.6316 1.2222
-13.3033 3.0322 1.6279
-10.0102 1.9064 1.2149
-10.0057 1.5357 1.2059
-10.0026 1.1695 1.1988
-9.8913 0.7978 1.1803
-10.0491 0.4482 1.1955
-10.0469 0.0871 1.1932
-10.0446 -0.2736 1.1924
-10.0424 -0.6349 1.1931
-10.0401 -0.9976 1.1954
-9.9196 -1.3467 1.1851
-9.8940 -1.7069 1.1877
-14.8506 -3.1147 1.7936
-17.5214 -4.3369 2.1320
-17.3676 -4.9668 2.1320
-17.1909 -5.5911 2.1320
-17.8134 -6.5093 2.2351
-12.5984 -5.1234 1.6016
-17.3256 -7.7817 2.2351
-17.0472 -8.4045 2.2351
-16.7462 -9.0171 2.2351
-16.4229 -9.6189 2.2351
-16.0778 -10.2090 2.2351
-15.7113 -10.7864 2.2351
-15.3238 -11.3506 2.2351
-14.9158 -11.9006 2.2351
-14.4878 -12.4357 2.2351
-14.0403 -12.9552 2.2351
-13.5739 -13.4582 2.2351
-12.8880 -13.7299 2.2007
-12.0198 -13.7631 2.1344
-11.5110 -14.1769 2.1320
-11.0001 -14.5878 2.1320
-10.4743 -14.9800 2.1320
-9.9342 -15.3529 2.1320
-9.3807 -15.7059 2.1320
-8.8144 -16.0385 2.1320
-8.2360 -16.3504 2.1320
-7.6465 -16.6409 2.1320
-7.0465 -16.9097 2.1320
-6.4370 -17.1565 2.1320
-5.8406 -17.4468 2.1401
-5.2119 -17.6491 2.1401
-4.5761 -17.8282 2.1401
-3.9341 -17.9840 2.1401
-3.2866 -18.1162 2.1401
-1.5644 -10.8211 1.2707
-1.9792 -18.3088 2.1401
-1.3210 -18.3691 2.1401
-0.6610 -18.4052 2.1401
-0.0001 -15.3864 2.1401
0.5521 -15.3760 2.1401
1.1033 -15.3456 2.1401
1.6532 -15.2950 2.1401
2.2007 -15.2243 2.1401
2.7453 -15.1337 2.1401
3.2861 -15.0233 2.1401
3.8224 -14.8932 2.1401
4.3536 -14.7436 2.1401
4.8788 -14.5748 2.1401
5.3973 -14.3869 2.1401
5.9086 -14.1803 2.1401
6.4119 -13.9552 2.1401
6.9064 -13.7120 2.1401
7.3916 -13.4510 2.1401
7.8669 -13.1725 2.1401
8.2087 -12.6873 2.1086
8.7848 -12.5649 2.1401
9.1731 -12.1662 2.1278
5.6751 -6.9901 1.2579
5.7324 -6.5645 1.2181
5.8001 -6.1796 1.1851
5.8642 -5.8148 1.1553
5.9252 -5.4678 1.1285
5.9834 -5.1365 1.1043
6.0392 -4.8190 1.0825
6.0929 -4.5136 1.0630
6.1447 -4.2191 1.0455
6.1948 -3.9340 1.0299
6.2435 -3.6573 1.0160
6.2908 -3.3878 1.0039
6.3371 -3.1247 0.9933
6.3824 -2.8671 0.9842
6.4271 -2.6141 0.9766
6.3337 -2.3149 0.9498
6.3759 -2.0741 0.9449
6.5058 -1.8609 0.9543
6.5479 -1.6212 0.9519
6.5899 -1.3826 0.9508
6.6317 -1.1445 0.9509
6.6736 -0.9064 0.9522
6.7155 -0.6677 0.9548
6.6662 -0.4218 0.9457
6.3428 -0.1731 0.8989
6.8976 0.0594 0.9779
6.9407 0.3092 0.9856
6.9853 0.5630 0.9948
7.0308 0.8216 1.0055
7.0772 1.0858 1.0177
7.1248 1.3565 1.0315
7.1737 1.6347 1.0471
7.2241 1.9214 1.0645
7.2762 2.2178 1.0839
7.3302 2.5253 1.1055
7.3865 2.8453 1.1293
7.4452 3.1793 1.1557
7.5068 3.5294 1.1849
7.5715 3.8977 1.2171
7.6439 4.2889 1.2535
7.6687 4.6725 1.2849
7.2064 4.7538 1.2360
6.7779 4.8291 1.1921
6.3787 4.8993 1.1527
6.0050 4.9650 1.1172
5.6534 5.0268 1.0853
5.7195 5.4656 1.1354
5.8062 5.9618 1.1950
5.9033 6.5138 1.2628
6.0121 7.1326 1.3406
6.1352 7.8330 1.4305
6.2761 8.6345 1.5352
6.4476 9.5755 1.6609
6.1647 9.9053 1.6792
6.2065 10.8203 1.7959
6.1315 11.6390 1.8946
6.5683 13.6339 2.1801
6.0729 13.8574 2.1801
5.4472 13.7529 2.1320
4.9488 13.9367 2.1320
4.4443 14.1027 2.1320
3.9343 14.2507 2.1320
3.4195 14.3807 2.1320
2.9006 14.4924 2.1320
2.3781 14.5857 2.1320
1.8526 14.6605 2.1320
1.3890 15.4283 2.2351
0.8340 15.4677 2.2351
0.2780 15.4876 2.2351
-0.2783 15.4877 2.2351
-0.8343 15.4683 2.2351
-1.3893 15.4293 2.2351
-1.9426 15.3707 2.2351
-2.4936 15.2927 2.2351
-3.0415 15.1952 2.2351
-3.5857 15.0785 2.2351
-4.1256 14.9426 2.2351
-4.6604 14.7877 2.2351
-5.1895 14.6141 2.2351
-5.7123 14.4217 2.2351
-6.2281 14.2110 2.2351
-6.4251 13.3363 2.1318
-6.9019 13.1009 2.1318
-7.3703 12.8488 2.1318
-7.8296 12.5802 2.1318
-8.2793 12.2954 2.1318
-8.7188 11.9948 2.1318
-9.1475 11.6787 2.1318
-9.5650 11.3475 2.1318
-9.8966 10.9199 2.1160
-9.8962 10.1611 2.0356
-9.8959 9.4563 1.9635
-9.8955 8.7984 1.8985
-9.8952 8.1813 1.8400
-9.8949 7.5998 1.7871
-9.8946 7.0496 1.7392
-9.8943 6.5268 1.6959
-9.8941 6.0283 1.6568
-9.8938 5.5512 1.6214
-9.8936 5.0930 1.5894
-9.8933 4.6514 1.5606
-9.8931 4.2246 1.5347
-9.8929 3.8106 1.5115
-9.9013 3.4110 1.4922
-9.9170 3.0227 1.4763
-9.8923 2.6310 1.4567
-9.9545 2.2684 1.4520
-10.0360 1.9108 1.4520
-10.1047 1.5502 1.4520
-12.0453 1.4076 1.7213
-9.8913 0.7972 1.4076
-13.7973 0.6146 1.9578
-13.1237 0.1131 1.8592
-15.6409 -0.4269 2.2151
-15.6258 -0.9887 2.2151
-15.5905 -1.5500 2.2151
-9.9191 -1.3472 1.4143
-9.8940 -1.7075 1.4177
-14.7874 -3.1024 2.1320
-14.6759 -3.6335 2.1320
-14.5453 -4.1605 2.1320
-14.3957 -4.6829 2.1320
-14.2272 -5.1997 2.1320
-12.5852 -5.1188 1.9111
-14.5033 -6.5150 2.2351
-14.2686 -7.0355 2.2351
-14.0151 -7.5475 2.2351
-13.7431 -8.0503 2.2351
-13.4528 -8.5431 2.2351
-13.1448 -9.0253 2.2351
-12.8193 -9.4963 2.2351
-12.4767 -9.9555 2.2351
-12.1185 -10.4029 2.2353
-11.7454 -10.8385 2.2357
-11.3553 -11.2595 2.2359
-10.9482 -11.6643 2.2358
-10.5276 -12.0554 2.2359
-10.0928 -12.4311 2.2359
-9.6428 -12.7887 2.2356
-9.1800 -13.1299 2.2354
-8.7051 -13.4542 2.2351
-8.0597 -13.4951 2.1917
-7.3665 -13.4049 2.1320
-6.8828 -13.6647 2.1320
-6.3898 -13.9068 2.1320
-5.8881 -14.1307 2.1320
-5.3785 -14.3362 2.1320
-4.8617 -14.5231 2.1320
-4.3382 -14.6910 2.1320
-3.8089 -14.8396 2.1320
-3.2744 -14.9689 2.1320
-2.7355 -15.0785 2.1320
-1.5506 -10.7256 1.5075
-1.6534 -15.2962 2.1401
-1.1035 -15.3464 2.1401
-0.5522 -15.3765 2.1401
-0.0001 -13.1736 2.1357
0.4727 -13.1695 2.1365
0.9453 -13.1483 2.1373
1.4182 -13.1224 2.1401
1.8880 -13.0619 2.1401
2.3552 -12.9844 2.1401
2.8193 -12.8899 2.1401
3.2795 -12.7786 2.1401
3.7353 -12.6506 2.1401
4.1860 -12.5061 2.1401
4.6311 -12.3453 2.1401
5.0700 -12.1685 2.1401
5.5020 -11.9758 2.1401
5.9267 -11.7676 2.1401
6.3433 -11.5442 2.1401
6.7515 -11.3057 2.1401
7.1506 -11.0527 2.1401
7.5401 -10.7854 2.1401
7.9195 -10.5042 2.1401
5.6750 -6.9906 1.4653
5.7323 -6.5649 1.4189
5.8000 -6.1800 1.3804
5.8641 -5.8152 1.3456
5.9251 -5.4682 1.3143
5.9834 -5.1369 1.2860
6.0392 -4.8194 1.2606
6.0928 -4.5140 1.2377
6.1446 -4.2195 1.2172
6.1947 -3.9344 1.1990
6.2434 -3.6577 1.1828
6.2907 -3.3882 1.1686
6.3370 -3.1251 1.1561
6.3823 -2.8674 1.1455
6.4270 -2.6145 1.1365
6.4763 -2.3674 1.1301
6.4500 -2.0986 1.1122
6.5057 -1.8613 1.1102
6.5479 -1.6215 1.1074
6.5898 -1.3829 1.1060
6.6316 -1.1449 1.1060
6.6735 -0.9068 1.1075
6.7155 -0.6681 1.1104
6.7437 -0.4271 1.1124
6.7877 -0.1857 1.1185
6.9032 0.0591 1.1378
6.9406 0.3088 1.1457
6.9852 0.5626 1.1563
7.0307 0.8212 1.1686
7.0771 1.0854 1.1827
7.1247 1.3561 1.1987
7.1736 1.6343 1.2167
7.2240 1.9210 1.2368
7.2761 2.2174 1.2593
7.3302 2.5248 1.2842
7.3864 2.8448 1.3118
7.4451 3.1788 1.3423
7.5067 3.5289 1.3761
7.5714 3.8972 1.4134
7.6438 4.2884 1.4555
7.6693 4.6724 1.4921
7.2069 4.7537 1.4351
6.7784 4.8290 1.3841
6.3792 4.8992 1.3382
6.0054 4.9649 1.2970
5.6539 5.0267 1.2598
5.7194 5.4651 1.3178
5.8061 5.9612 1.3868
5.9032 6.5132 1.4655
6.0119 7.1320 1.5557
6.1350 7.8323 1.6598
6.4085 8.8161 1.8190
6.4474 9.5745 1.9270
6.1650 9.9053 1.9483
5.9570 10.3847 1.9998
5.9474 11.2887 2.1319
5.5371 11.4928 2.1320
5.1197 11.6816 2.1320
4.6959 11.8554 2.1320
4.2664 12.0142 2.1320
3.8315 12.1576 2.1320
3.3920 12.2855 2.1320
2.9482 12.3978 2.1320
2.5008 12.4943 2.1320
2.0503 12.5749 2.1320
1.6746 13.2508 2.2351
1.1976 13.3017 2.2351
0.7191 13.3357 2.2351
0.2397 13.3528 2.2351
-0.2400 13.3530 2.2351
-0.7194 13.3362 2.2351
-1.1979 13.3024 2.2351
-1.6749 13.2518 2.2351
-2.1499 13.1843 2.2351
-2.6223 13.1000 2.2351
-3.0914 12.9991 2.2351
-3.5568 12.8817 2.2351
-4.0178 12.7478 2.2351
-4.4738 12.5977 2.2351
-4.9243 12.4315 2.2351
-5.3688 12.2494 2.2351
-5.8066 12.0517 2.2351
-6.2373 11.8385 2.2351
-6.3526 11.0738 2.1318
-6.7482 10.8418 2.1318
-7.1359 10.5966 2.1320
-7.5143 10.3370 2.1320
-7.8834 10.0640 2.1320
-8.2427 9.7780 2.1320
-8.5918 9.4793 2.1320
-8.9301 9.1684 2.1320
-9.2573 8.8454 2.1320
-9.5730 8.5109 2.1320
-9.8768 8.1653 2.1320
-9.8949 7.5990 2.0747
-9.8946 7.0488 2.0193
-9.8943 6.5261 1.9692
-9.8941 6.0276 1.9239
-9.8938 5.5506 1.8829
-9.8936 5.0923 1.8459
-9.8933 4.6508 1.8126
-9.8931 4.2239 1.7827
-9.8929 3.8100 1.7559
-9.8927 3.4074 1.7321
-9.8925 3.0147 1.7111
-9.8923 2.6304 1.6927
-9.8921 2.2535 1.6768
-9.8919 1.8827 1.6633
-9.8917 1.5170 1.6521
-9.8915 1.1553 1.6431
-9.8913 0.7966 1.6363
-9.8935 0.4401 1.6321
-9.8933 0.0847 1.6296
-9.8931 -0.2706 1.6292
-9.8929 -0.6266 1.6309
-9.8927 -0.9841 1.6347
-9.8925 -1.3442 1.6406
-9.8940 -1.7081 1.6491
-12.7112 -2.6675 2.1320
-12.6142 -3.1238 2.1320
-12.5009 -3.5765 2.1320
-12.3712 -4.0251 2.1320
-12.2253 -4.4689 2.1320
-12.0635 -4.9074 2.1320
-11.8858 -5.3400 2.1320
-12.2580 -6.0450 2.2351
-12.0406 -6.4850 2.2354
-11.8068 -6.9169 2.2355
-11.5574 -7.3402 2.2357
-11.2928 -7.7545 2.2358
-11.0131 -8.1591 2.2360
-10.7200 -8.5545 2.2364
-10.4132 -8.9398 2.2370
-10.0924 -9.3140 2.2375
-9.7575 -9.6759 2.2379
-9.4069 -10.0229 2.2377
-9.0434 -10.3566 2.2375
-8.6680 -10.6770 2.2372
-8.2811 -10.9836 2.2369
-7.8832 -11.2758 2.2366
-7.4749 -11.5536 2.2363
-7.0566 -11.8164 2.2360
-6.6291 -12.0637 2.2357
-6.1927 -12.2954 2.2354
-5.7481 -12.5110 2.2351
-5.2195 -12.5269 2.2026
-4.6149 -12.3014 2.1320
-4.1712 -12.4614 2.1320
-3.7220 -12.6051 2.1320
-3.2678 -12.7323 2.1320
-2.8092 -12.8429 2.1320
-2.3468 -12.9368 2.1320
-1.5482 -10.7100 1.7546
-1.4141 -13.0825 2.1334
-0.9442 -13.1307 2.1343
-0.4726 -13.1607 2.1350
-0.0001 -11.5320 2.1371
0.4135 -11.5207 2.1365
0.8263 -11.4943 2.1358
1.2377 -11.4528 2.1351
1.6471 -11.3962 2.1343
2.0540 -11.3248 2.1336
2.4579 -11.2384 2.1328
2.8689 -11.1796 2.1401
3.2677 -11.0679 2.1401
3.6622 -10.9417 2.1401
4.0517 -10.8014 2.1401
4.4357 -10.6469 2.1401
4.8139 -10.4787 2.1401
5.1856 -10.2968 2.1401
5.5503 -10.1016 2.1401
5.9077 -9.8934 2.1401
6.2571 -9.6723 2.1401
6.5982 -9.4388 2.1401
6.9305 -9.1932 2.1401
5.6750 -6.9910 1.6743
5.7323 -6.5654 1.6212
5.7999 -6.1804 1.5771
5.8640 -5.8157 1.5373
5.9250 -5.4687 1.5014
5.9833 -5.1373 1.4691
6.0391 -4.8198 1.4399
6.0928 -4.5144 1.4137
6.1446 -4.2199 1.3903
6.1947 -3.9348 1.3693
6.2433 -3.6581 1.3508
6.2907 -3.3886 1.3344
6.3369 -3.1255 1.3202
6.3822 -2.8678 1.3079
6.4269 -2.6149 1.2976
6.4816 -2.3698 1.2913
6.4832 -2.1098 1.2763
6.5056 -1.8617 1.2673
6.5478 -1.6219 1.2640
6.5897 -1.3833 1.2623
6.6316 -1.1453 1.2623
6.6734 -0.9072 1.2638
6.7154 -0.6684 1.2671
6.7784 -0.4297 1.2759
6.8227 -0.1870 1.2827
6.9048 0.0587 1.2984
6.9405 0.3084 1.3070
6.9852 0.5622 1.3190
7.0306 0.8207 1.3330
7.0771 1.0849 1.3490
7.1246 1.3556 1.3671
7.1735 1.6338 1.3876
7.2239 1.9205 1.4104
7.2760 2.2169 1.4359
7.3301 2.5243 1.4642
7.3863 2.8443 1.4956
7.4450 3.1783 1.5303
7.5066 3.5284 1.5688
7.5713 3.8966 1.6112
7.6437 4.2878 1.6591
7.6700 4.6723 1.7008
7.2076 4.7536 1.6358
6.7790 4.8289 1.5775
6.3797 4.8991 1.5252
6.0059 4.9648 1.4781
5.6543 5.0266 1.4356
5.7194 5.4645 1.5016
5.8060 5.9606 1.5801
5.9031 6.5126 1.6696
6.1388 7.2819 1.8097
6.1349 7.8316 1.8909
6.4084 8.8152 2.0721
6.4031 9.5082 2.1801
6.0560 9.7294 2.1801
5.5755 9.7189 2.1320
5.2217 9.9106 2.1320
4.8613 10.0895 2.1320
4.4950 10.2556 2.1320
4.1230 10.4084 2.1320
3.7459 10.5478 2.1319
3.3641 10.6738 2.1319
2.9782 10.7862 2.1319
2.5886 10.8848 2.1319
2.1959 10.9704 2.1320
1.8046 11.0671 2.1370
1.4704 11.6348 2.2351
1.0516 11.6796 2.2351
0.6314 11.7095 2.2351
0.2105 11.7245 2.2351
-0.2107 11.7246 2.2351
-0.6317 11.7098 2.2351
-1.0519 11.6801 2.2351
-1.4707 11.6356 2.2351
-1.8878 11.5762 2.2351
-2.3026 11.5020 2.2351
-2.7145 11.4133 2.2351
-3.1230 11.3099 2.2351
-3.5277 11.1922 2.2351
-3.9280 11.0601 2.2351
-4.3235 10.9139 2.2351
-4.7136 10.7538 2.2351
-5.0978 10.5799 2.2351
-5.4758 10.3924 2.2351
-5.8469 10.1916 2.2351
-6.2107 9.9777 2.2351
-6.2640 9.3012 2.1320
-6.5959 9.0729 2.1320
-6.9196 8.8329 2.1320
-7.2347 8.5815 2.1320
-7.5407 8.3190 2.1320
-7.8373 8.0457 2.1320
-8.1241 7.7619 2.1320
-8.4007 7.4680 2.1320
-8.6668 7.1643 2.1320
-8.9220 6.8512 2.1320
-9.1659 6.5291 2.1320
-9.3984 6.1984 2.1320
-9.6190 5.8594 2.1320
-9.8275 5.5127 2.1320
-9.8936 5.0917 2.1043
-9.8933 4.6501 2.0665
-9.8931 4.2233 2.0325
-9.8929 3.8094 2.0021
-9.8927 3.4068 1.9751
-9.8925 3.0141 1.9512
-9.8923 2.6298 1.9304
-9.8921 2.2529 1.9124
-9.8919 1.8821 1.8971
-9.8917 1.5164 1.8845
-9.8915 1.1547 1.8744
-9.8913 0.7960 1.8668
-9.8935 0.4396 1.8621
-9.8933 0.0841 1.8593
-9.8931 -0.2712 1.8590
-9.8929 -0.6271 1.8610
-9.8927 -0.9847 1.8655
-9.8925 -1.3448 1.8724
-9.8941 -1.7087 1.8822
-11.1360 -2.3376 2.1320
-11.0503 -2.7372 2.1320
-10.9503 -3.1335 2.1320
-10.8360 -3.5262 2.1320
-10.7075 -3.9147 2.1320
-10.5651 -4.2985 2.1320
-10.4088 -4.6771 2.1320
-10.2389 -5.0499 2.1320
-10.5424 -5.6788 2.2352
-10.3379 -6.0570 2.2355
-10.1196 -6.4278 2.2359
-9.8880 -6.7906 2.2362
-9.6431 -7.1449 2.2365
-9.3854 -7.4903 2.2368
-9.1152 -7.8262 2.2370
-8.8329 -8.1523 2.2373
-8.5388 -8.4681 2.2376
-8.2332 -8.7731 2.2378
-7.9167 -9.0670 2.2381
-7.5882 -9.3476 2.2380
-7.2492 -9.6157 2.2377
-6.9007 -9.8713 2.2374
-6.5430 -10.1140 2.2371
-6.1767 -10.3437 2.2369
-5.8023 -10.5599 2.2366
-5.4202 -10.7623 2.2363
-5.0310 -10.9508 2.2360
-4.6351 -11.1250 2.2357
-4.2332 -11.2848 2.2354
-3.8258 -11.4299 2.2352
-3.3891 -11.4783 2.2191
-2.8607 -11.1468 2.1335
-2.4600 -11.2472 2.1342
-2.0558 -11.3332 2.1349
-1.5459 -10.6942 2.0027
-1.2388 -11.4610 2.1365
-0.8270 -11.5016 2.1371
-0.4140 -11.5274 2.1377
-0.0001 -10.2283 2.1348
0.3667 -10.2185 2.1342
0.7329 -10.1952 2.1335
1.0977 -10.1585 2.1328
1.4609 -10.1085 2.1321
1.8224 -10.0482 2.1320
2.1815 -9.9754 2.1320
2.5377 -9.8896 2.1320
2.8905 -9.7909 2.1320
3.2394 -9.6795 2.1320
3.5841 -9.5555 2.1320
3.9388 -9.4548 2.1401
4.2747 -9.3056 2.1401
4.6048 -9.1443 2.1401
4.9289 -8.9712 2.1401
5.2464 -8.7866 2.1401
5.5569 -8.5905 2.1401
5.8600 -8.3834 2.1401
6.1553 -8.1655 2.1401
5.6749 -6.9915 1.8851
5.7322 -6.5658 1.8252
5.7999 -6.1809 1.7755
5.8797 -5.8317 1.7353
5.9250 -5.4691 1.6902
5.9832 -5.1377 1.6537
6.0390 -4.8202 1.6208
6.0927 -4.5148 1.5912
6.1445 -4.2203 1.5648
6.1946 -3.9352 1.5411
6.2432 -3.6585 1.5202
6.2906 -3.3890 1.5017
6.3369 -3.1259 1.4856
6.3822 -2.8682 1.4717
6.4268 -2.6153 1.4601
6.4819 -2.3703 1.4529
6.5171 -2.1212 1.4434
6.5056 -1.8621 1.4258
6.5477 -1.6223 1.4219
6.5897 -1.3837 1.4200
6.6315 -1.1457 1.4198
6.6734 -0.9076 1.4215
6.7153 -0.6689 1.4251
6.8138 -0.4324 1.4424
6.8707 -0.1888 1.4527
6.9048 0.0583 1.4601
6.9405 0.3080 1.4697
6.9851 0.5617 1.4831
7.0305 0.8203 1.4988
7.0770 1.0845 1.5167
7.1246 1.3552 1.5370
7.1735 1.6333 1.5599
7.2239 1.9200 1.5855
7.2760 2.2164 1.6141
7.3300 2.5239 1.6458
7.3862 2.8437 1.6810
7.5536 3.2242 1.7450
7.5065 3.5278 1.7630
7.5712 3.8961 1.8107
7.6436 4.2872 1.8643
7.6707 4.6722 1.9114
7.0393 4.6421 1.7951
6.6884 4.7639 1.7488
6.3802 4.8990 1.7138
6.0063 4.9647 1.6608
5.6547 5.0265 1.6130
5.7193 5.4640 1.6868
5.8059 5.9600 1.7750
6.0276 6.6495 1.9151
6.1387 7.2812 2.0328
6.1348 7.8308 2.1239
6.0026 8.2566 2.1801
5.5751 8.2780 2.1320
5.2730 8.4708 2.1320
4.9642 8.6528 2.1320
4.6493 8.8237 2.1320
4.3286 8.9832 2.1320
4.0025 9.1313 2.1320
3.6713 9.2676 2.1320
3.3356 9.3921 2.1320
2.9958 9.5045 2.1320
2.6522 9.6049 2.1320
2.3052 9.6928 2.1320
1.9554 9.7684 2.1319
1.6808 10.3073 2.2351
1.3094 10.3604 2.2351
0.9364 10.4003 2.2351
0.5623 10.4270 2.2351
0.1874 10.4404 2.2351
-0.1877 10.4405 2.2351
-0.5625 10.4273 2.2351
-0.9367 10.4008 2.2351
-1.3097 10.3610 2.2351
-1.6811 10.3081 2.2351
-2.0504 10.2419 2.2351
-2.4172 10.1627 2.2351
-2.7810 10.0706 2.2351
-3.1413 9.9655 2.2351
-3.4977 9.8478 2.2351
-3.8498 9.7174 2.2351
-4.1970 9.5746 2.2351
-4.5391 9.4196 2.2351
-4.8754 9.2524 2.2351
-5.2057 9.0734 2.2351
-5.5296 8.8827 2.2351
-5.8465 8.6806 2.2351
-6.1560 8.4672 2.2351
-6.2519 7.9799 2.1638
-6.4403 7.6387 2.1320
-6.7125 7.4048 2.1320
-6.9763 7.1612 2.1320
-7.2313 6.9083 2.1320
-7.4772 6.6464 2.1320
-7.7137 6.3758 2.1320
-7.9405 6.0969 2.1320
-8.1573 5.8100 2.1320
-8.3638 5.5154 2.1320
-8.5598 5.2135 2.1320
-8.7449 4.9048 2.1320
-8.9189 4.5895 2.1320
-9.0816 4.2680 2.1320
-9.2329 3.9408 2.1320
-9.3723 3.6083 2.1320
-9.4999 3.2709 2.1320
-9.6153 2.9290 2.1320
-9.7185 2.5830 2.1320
-9.8093 2.2335 2.1320
-9.8876 1.8807 2.1320
-9.8917 1.5158 2.1188
-9.8915 1.1541 2.1076
-9.8913 0.7955 2.0992
-9.8935 0.4390 2.0940
-6.9800 0.0589 1.4753
-9.8931 -0.2718 2.0907
-9.8929 -0.6277 2.0932
-9.8927 -0.9853 2.0983
-9.8925 -1.3454 2.1062
-9.8941 -1.7093 2.1173
-9.8989 -2.0786 2.1320
-9.8222 -2.4336 2.1320
-9.7328 -2.7857 2.1320
-9.6307 -3.1346 2.1320
-9.5160 -3.4797 2.1320
-9.3890 -3.8206 2.1320
-9.2496 -4.1568 2.1320
-9.0982 -4.4879 2.1320
-9.3670 -5.0463 2.2351
-9.1846 -5.3819 2.2354
-8.9901 -5.7109 2.2356
-8.7836 -6.0328 2.2359
-8.5656 -6.3471 2.2362
-8.3362 -6.6535 2.2364
-8.0958 -6.9516 2.2367
-7.8446 -7.2408 2.2369
-7.5831 -7.5209 2.2372
-7.3114 -7.7915 2.2374
-7.0300 -8.0521 2.2377
-6.7392 -8.3025 2.2379
-6.4395 -8.5422 2.2381
-6.1298 -8.7691 2.2379
-5.8119 -8.9845 2.2376
-5.4865 -9.1883 2.2374
-5.1538 -9.3802 2.2371
-4.8143 -9.5599 2.2368
-4.4685 -9.7271 2.2366
-4.1169 -9.8817 2.2363
-3.7598 -10.0235 2.2360
-3.3979 -10.1522 2.2358
-3.0315 -10.2678 2.2355
-2.6612 -10.3700 2.2353
-2.2875 -10.4588 2.2351
-1.8661 -10.2879 2.1826
-1.4647 -10.1330 2.1371
-1.1000 -10.1769 2.1366
-0.7340 -10.2075 2.1360
-0.3672 -10.2247 2.1354
-0.0001 -9.1785 2.1325
0.3291 -9.1704 2.1320
0.6578 -9.1524 2.1320
0.9857 -9.1224 2.1320
1.3123 -9.0807 2.1320
1.6371 -9.0271 2.1320
1.9597 -8.9617 2.1320
2.2797 -8.8847 2.1320
2.5967 -8.7962 2.1320
2.9102 -8.6962 2.1320
3.2198 -8.5849 2.1320
3.5252 -8.4626 2.1320
3.8259 -8.3292 2.1320
4.1214 -8.1850 2.1320
4.4116 -8.0303 2.1320
4.7137 -7.8950 2.1401
4.9928 -7.7190 2.1401
5.2652 -7.5331 2.1401
5.5307 -7.3375 2.1401
5.6749 -6.9920 2.0979
5.7321 -6.5662 2.0312
5.7998 -6.1813 1.9758
5.8791 -5.8316 1.9308
6.0114 -5.5493 1.9082
6.0705 -5.2131 1.8669
6.1271 -4.8910 1.8297
6.0926 -4.5153 1.7705
6.1444 -4.2207 1.7409
6.1945 -3.9356 1.7146
6.2432 -3.6589 1.6912
6.2905 -3.3894 1.6706
6.3368 -3.1263 1.6526
6.3821 -2.8686 1.6371
6.4267 -2.6157 1.6241
5.5152 -2.0172 1.3751
6.4121 -2.0875 1.5796
6.4542 -1.8478 1.5732
6.4961 -1.6099 1.5689
6.5377 -1.3732 1.5667
6.5792 -1.1371 1.5665
6.6207 -0.9009 1.5683
6.6623 -0.6640 1.5721
6.7042 -0.4258 1.5780
6.7464 -0.1858 1.5860
6.9047 0.0578 1.6234
6.9404 0.3075 1.6340
6.9850 0.5613 1.6488
7.0305 0.8199 1.6661
7.0769 1.0841 1.6859
7.1245 1.3547 1.7085
7.1734 1.6329 1.7338
7.2238 1.9196 1.7622
7.2759 2.2160 1.7939
7.4369 2.5602 1.8558
7.4939 2.8847 1.8954
7.5535 3.2236 1.9392
7.5064 3.5273 1.9591
7.5711 3.8955 2.0120
7.6434 4.2866 2.0716
7.6714 4.6720 2.1240
6.6370 4.3763 1.8806
6.2423 4.4457 1.8134
6.0117 4.6156 1.7940
6.0068 4.9646 1.8452
5.6551 5.0265 1.7920
5.7192 5.4635 1.8739
5.8058 5.9594 1.9717
6.0275 6.6488 2.1274
5.7958 6.8740 2.1320
5.5438 7.0760 2.1320
5.2849 7.2688 2.1320
5.0193 7.4522 2.1320
4.7474 7.6260 2.1320
4.4695 7.7900 2.1320
4.1861 7.9440 2.1320
3.8974 8.0878 2.1320
3.6038 8.2212 2.1320
3.3057 8.3441 2.1320
3.0035 8.4563 2.1320
2.6975 8.5577 2.1320
2.3881 8.6481 2.1320
2.0786 8.7394 2.1349
1.7982 8.9824 2.1772
1.5135 9.2808 2.2351
1.1791 9.3287 2.2351
0.8432 9.3647 2.2351
0.5063 9.3887 2.2351
0.1688 9.4008 2.2351
-0.1690 9.4009 2.2351
-0.5066 9.3890 2.2351
-0.8435 9.3651 2.2351
-1.1794 9.3292 2.2351
-1.5138 9.2814 2.2351
-1.8463 9.2218 2.2351
-2.1766 9.1504 2.2351
-2.5041 9.0673 2.2351
-2.8285 8.9727 2.2351
-3.1494 8.8665 2.2351
-3.4663 8.7490 2.2351
-3.7789 8.6203 2.2351
-4.0868 8.4805 2.2351
-4.3896 8.3298 2.2351
-4.6869 8.1685 2.2351
-4.9783 7.9966 2.2351
-5.2635 7.8144 2.2351
-5.5421 7.6222 2.2351
-5.8137 7.4201 2.2351
-6.0780 7.2084 2.2351
-6.2465 6.8901 2.2039
-6.2798 6.4457 2.1320
-6.5091 6.2179 2.1320
-6.7303 5.9819 2.1320
-6.9429 5.7382 2.1320
-7.1468 5.4869 2.1320
-7.3417 5.2285 2.1320
-7.5273 4.9632 2.1320
-7.7033 4.6914 2.1320
-7.8696 4.4133 2.1320
-8.0259 4.1294 2.1320
-8.1721 3.8400 2.1320
-8.3078 3.5455 2.1320
-8.4330 3.2461 2.1320
-8.5474 2.9424 2.1320
-8.6509 2.6347 2.1320
-8.7434 2.3233 2.1320
-8.8247 2.0087 2.1320
-8.8947 1.6913 2.1320
-8.9533 1.3715 2.1320
-9.0004 1.0496 2.1320
-9.0360 0.7261 2.1320
-9.0600 0.4014 2.1320
-6.9731 0.0584 1.6387
-9.0729 -0.2498 2.1320
-9.0618 -0.5755 2.1320
-9.0390 -0.9008 2.1320
-9.0045 -1.2252 2.1320
-8.9584 -1.5482 2.1320
-8.9006 -1.8695 2.1320
-8.8313 -2.1886 2.1320
-8.7505 -2.5052 2.1320
-8.6584 -2.8187 2.1320
-8.5550 -3.1288 2.1320
-8.4404 -3.4351 2.1320
-8.3148 -3.7372 2.1320
-8.4260 -4.1569 2.1965
-8.4200 -4.5366 2.2352
-8.2555 -4.8381 2.2354
-8.0802 -5.1335 2.2356
-7.8943 -5.4225 2.2359
-7.6980 -5.7048 2.2361
-7.4915 -5.9799 2.2363
-7.2751 -6.2474 2.2366
-7.0491 -6.5071 2.2368
-6.8138 -6.7585 2.2370
-6.5694 -7.0013 2.2372
-6.3163 -7.2352 2.2375
-6.0548 -7.4599 2.2377
-5.7853 -7.6750 2.2379
-5.5081 -7.8803 2.2381
-5.2226 -8.0740 2.2379
-4.9300 -8.2569 2.2377
-4.6310 -8.4292 2.2374
-4.3259 -8.5905 2.2372
-4.0151 -8.7408 2.2369
-3.6992 -8.8797 2.2367
-3.3783 -9.0070 2.2365
-3.0531 -9.1227 2.2362
-2.7239 -9.2265 2.2360
-2.3912 -9.3182 2.2358
-2.0553 -9.3978 2.2355
-1.7168 -9.4652 2.2353
-1.3760 -9.5204 2.2351
-1.0028 -9.2790 2.1685
-0.6661 -9.2648 2.1581
-0.3295 -9.1750 2.1330
-0.0001 -8.3654 2.1432
0.2984 -8.3162 2.1320
0.5965 -8.2999 2.1320
0.8938 -8.2728 2.1320
1.1900 -8.2349 2.1320
1.4845 -8.1864 2.1320
1.7771 -8.1272 2.1320
2.0673 -8.0574 2.1320
2.3548 -7.9772 2.1320
2.6391 -7.8867 2.1320
2.9199 -7.7859 2.1320
3.1969 -7.6750 2.1320
3.4696 -7.5541 2.1320
3.7377 -7.4235 2.1320
4.0009 -7.2833 2.1320
4.2588 -7.1337 2.1320
4.5111 -6.9749 2.1320
4.7574 -6.8070 2.1320
4.9974 -6.6305 2.1320
5.2506 -6.4698 2.1401
5.4780 -6.2757 2.1401
5.6982 -6.0735 2.1401
5.8785 -5.8315 2.1284
6.0113 -5.5498 2.1036
6.0704 -5.2136 2.0580
6.1270 -4.8914 2.0170
6.0926 -4.5157 1.9516
6.1443 -4.2211 1.9190
6.1945 -3.9360 1.8899
6.3342 -3.7127 1.8913
6.3823 -3.4393 1.8682
6.4292 -3.1723 1.8480
6.4752 -2.9109 1.8306
6.4266 -2.6161 1.7898
6.4818 -2.3711 1.7809
6.1150 -1.9912 1.6600
6.1803 -1.7698 1.6600
6.2375 -1.5463 1.6600
6.2867 -1.3209 1.6600
6.3277 -1.0940 1.6600
6.3605 -0.8658 1.6600
6.3851 -0.6367 1.6600
6.4014 -0.4070 1.6600
6.4095 -0.1769 1.6600
6.9047 0.0574 1.7883
7.0416 0.3116 1.8262
7.0869 0.5691 1.8428
7.1330 0.8314 1.8620
7.1801 1.0994 1.8841
7.1244 1.3543 1.8817
7.1733 1.6324 1.9096
7.2237 1.9191 1.9408
7.2758 2.2155 1.9757
7.4368 2.5597 2.0438
7.4939 2.8842 2.0873
7.5534 3.2231 2.1355
7.5063 3.5268 2.1574
7.4500 3.8327 2.1801
7.3052 4.0964 2.1801
7.1511 4.3547 2.1801
6.6376 4.3762 2.0708
6.2428 4.4456 1.9968
6.0116 4.6151 1.9752
6.0073 4.9646 2.0316
5.6555 5.0264 1.9731
5.7191 5.4629 2.0630
5.7024 5.8528 2.1320
5.4872 6.0523 2.1320
5.2650 6.2440 2.1320
5.0362 6.4276 2.1320
4.8011 6.6028 2.1320
4.5599 6.7696 2.1320
4.3129 6.9276 2.1320
4.0606 7.0768 2.1320
3.8031 7.2168 2.1320
3.5409 7.3476 2.1320
3.2742 7.4689 2.1320
3.0034 7.5806 2.1320
2.7288 7.6826 2.1320
2.4509 7.7748 2.1320
2.1698 7.8571 2.1320
1.8860 7.9293 2.1320
1.6772 8.3777 2.2351
1.3751 8.4321 2.2351
1.0713 8.4756 2.2351
0.7662 8.5084 2.2351
0.4600 8.5302 2.2351
0.1533 8.5412 2.2351
-0.1536 8.5412 2.2351
-0.4603 8.5304 2.2351
-0.7664 8.5087 2.2351
-1.0716 8.4760 2.2351
-1.3755 8.4326 2.2351
-1.6776 8.3784 2.2351
-1.9776 8.3134 2.2351
-2.2752 8.2378 2.2351
-2.5699 8.1517 2.2351
-2.8614 8.0552 2.2351
-3.1493 7.9483 2.2351
-3.4333 7.8313 2.2351
-3.7130 7.7041 2.2351
-3.9880 7.5671 2.2351
-4.2580 7.4204 2.2351
-4.5226 7.2641 2.2351
-4.7816 7.0985 2.2351
-5.0346 6.9237 2.2351
-5.2812 6.7400 2.2351
-5.5212 6.5476 2.2351
-5.7543 6.3466 2.2351
-5.9801 6.1375 2.2351
-6.1983 5.9204 2.2351
-6.2486 5.5533 2.1792
-6.3061 5.2114 2.1320
-6.4911 4.9830 2.1320
-6.6679 4.7482 2.1320
-6.8363 4.5071 2.1320
-6.9959 4.2601 2.1320
-7.1467 4.0074 2.1320
-7.2885 3.7495 2.1320
-7.4209 3.4865 2.1320
-7.5439 3.2190 2.1320
-7.6573 2.9470 2.1320
-7.7610 2.6712 2.1320
-7.8547 2.3917 2.1320
-7.9384 2.1089 2.1320
-8.0119 1.8232 2.1320
-8.0752 1.5350 2.1320
-8.1281 1.2446 2.1320
-8.1706 0.9523 2.1320
-8.2026 0.6586 2.1320
-8.2241 0.3639 2.1320
-6.9661 0.0579 1.8035
-8.2352 -0.2272 2.1320
-8.2248 -0.5229 2.1320
-8.2038 -0.8181 2.1320
-8.1723 -1.1124 2.1320
-8.1301 -1.4056 2.1320
-8.0774 -1.6971 2.1320
-8.0142 -1.9866 2.1320
-7.9406 -2.2738 2.1320
-7.8567 -2.5582 2.1320
-7.7626 -2.8395 2.1320
-7.6584 -3.1174 2.1320
-7.7600 -3.4884 2.1930
-7.7791 -3.8383 2.2351
-7.6395 -4.1167 2.2353
-7.4900 -4.3900 2.2355
-7.3306 -4.6578 2.2357
-7.1617 -4.9199 2.2359
-6.9833 -5.1757 2.2361
-6.7958 -5.4251 2.2363
-6.5992 -5.6676 2.2365
-6.3940 -5.9029 2.2367
-6.1803 -6.1307 2.2370
-5.9585 -6.3508 2.2372
-5.7288 -6.5627 2.2374
-5.4914 -6.7663 2.2376
-5.2468 -6.9612 2.2378
-4.9953 -7.1471 2.2380
-4.7369 -7.3237 2.2381
-4.4715 -7.4896 2.2379
-4.2003 -7.6458 2.2377
-3.9235 -7.7921 2.2374
-3.6417 -7.9282 2.2372
-3.3550 -8.0541 2.2370
-3.0640 -8.1695 2.2367
-2.7690 -8.2743 2.2365
-2.4704 -8.3684 2.2363
-2.1686 -8.4516 2.2361
-1.8640 -8.5238 2.2358
-1.5570 -8.5849 2.2356
-1.2480 -8.6349 2.2354
-0.9374 -8.6736 2.2352
-0.6256 -8.7014 2.2351
-0.2999 -8.3525 2.1413
-0.0001 -7.8194 2.1921
0.2727 -7.6000 2.1320
0.5451 -7.5851 2.1320
0.8168 -7.5604 2.1320
1.0874 -7.5259 2.1320
1.3566 -7.4815 2.1320
1.6240 -7.4275 2.1320
1.8892 -7.3638 2.1320
2.1519 -7.2906 2.1320
2.4118 -7.2079 2.1320
2.6685 -7.1158 2.1320
2.9216 -7.0146 2.1320
3.1709 -6.9042 2.1320
3.4160 -6.7850 2.1320
3.6566 -6.6569 2.1320
3.8923 -6.5203 2.1320
4.1229 -6.3752 2.1320
4.3481 -6.2219 2.1320
4.5676 -6.0607 2.1320
4.7810 -5.8916 2.1320
4.9881 -5.7149 2.1320
5.1887 -5.5310 2.1320
5.4029 -5.3602 2.1401
5.5903 -5.1615 2.1401
5.7703 -4.9563 2.1401
5.9428 -4.7448 2.1401
6.0925 -4.5161 2.1348
6.1443 -4.2215 2.0991
6.1944 -3.9364 2.0672
6.3342 -3.7131 2.0687
6.3822 -3.4397 2.0433
6.4291 -3.1727 2.0212
6.4751 -2.9113 2.0022
6.4265 -2.6164 1.9575
6.4817 -2.3715 1.9477
6.0843 -1.9816 1.8063
6.1242 -1.7541 1.7990
6.1639 -1.5284 1.7939
6.2034 -1.3038 1.7913
6.2428 -1.0797 1.7909
6.2822 -0.8556 1.7929
6.3217 -0.6308 1.7971
6.3614 -0.4048 1.8038
6.4015 -0.1770 1.8128
6.9046 0.0570 1.9553
7.0416 0.3112 1.9966
7.0868 0.5686 2.0146
7.1329 0.8310 2.0356
7.1800 1.0990 2.0597
7.1243 1.3538 2.0571
7.1732 1.6320 2.0875
7.2236 1.9186 2.1215
7.2757 2.2150 2.1595
7.2575 2.4975 2.1801
7.1608 2.7556 2.1801
7.0550 3.0100 2.1801
6.9402 3.2603 2.1801
6.8165 3.5063 2.1801
6.6842 3.7477 2.1801
6.5434 3.9841 2.1801
6.3942 4.2153 2.1801
6.2370 4.4410 2.1801
6.0115 4.6146 2.1585
5.7688 4.7670 2.1320
5.5924 4.9698 2.1320
5.4089 5.1662 2.1320
5.2187 5.3558 2.1320
5.0218 5.5385 2.1320
4.8185 5.7140 2.1320
4.6092 5.8821 2.1320
4.3941 6.0427 2.1320
4.1734 6.1954 2.1320
3.9475 6.3401 2.1320
3.7165 6.4767 2.1320
3.4809 6.6050 2.1320
3.2409 6.7247 2.1320
2.9969 6.8359 2.1320
2.7491 6.9382 2.1320
2.4978 7.0317 2.1320
2.2433 7.1161 2.1320
1.9861 7.1915 2.1320
1.7872 7.5132 2.2071
1.5352 7.6681 2.2351
1.2587 7.7179 2.2351
0.9806 7.7578 2.2351
0.7013 7.7878 2.2351
0.4211 7.8078 2.2351
0.1403 7.8178 2.2351
-0.1406 7.8179 2.2351
-0.4213 7.8079 2.2351
-0.7016 7.7880 2.2351
-0.9809 7.7581 2.2351
-1.2590 7.7183 2.2351
-1.5356 7.6686 2.2351
-1.8102 7.6091 2.2351
-2.0826 7.5399 2.2351
-2.3523 7.4610 2.2351
-2.6191 7.3726 2.2351
-2.8826 7.2747 2.2351
-3.1425 7.1674 2.2351
