ply
format ascii 1.0
element vertex 2163
property float32 x
property float32 y
property float32 z
end_header
5.9292 1.5797 0.7277
5.9721 1.8231 0.7404
6.0167 2.0756 0.7545
5.9419 2.2916 0.7548
6.0990 2.6074 0.7860
6.1496 2.8943 0.8053
6.1937 3.1915 0.8254
6.1468 3.4520 0.8350
6.1061 3.7235 0.8469
6.1675 4.0717 0.8750
6.2835 4.4802 0.9135
6.2983 4.8410 0.9402
6.5400 5.4110 1.0045
6.6253 5.8947 1.0493
6.7187 6.4245 1.0998
6.8946 7.0835 1.1693
7.0026 7.7314 1.2337
7.1323 8.4664 1.3091
7.2790 9.2985 1.3963
7.4469 10.2508 1.4980
7.6526 11.3709 1.6202
9.7489 15.6723 2.1816
9.1810 16.0138 2.1816
8.6011 16.3346 2.1816
8.0099 16.6342 2.1816
7.4083 16.9124 2.1816
6.7970 17.1687 2.1816
6.1768 17.4028 2.1816
5.4262 17.2261 2.1335
4.8047 17.4107 2.1335
4.1769 17.5728 2.1335
3.5436 17.7121 2.1335
2.9056 17.8284 2.1335
2.2639 17.9217 2.1335
1.6974 18.8611 2.2366
1.0194 18.9100 2.2366
0.3399 18.9345 2.2366
-0.3399 18.9344 2.2366
-1.0193 18.9098 2.2366
-1.6973 18.8607 2.2366
-2.3731 18.7871 2.2366
-3.0458 18.6891 2.2366
-3.7145 18.5670 2.2366
-4.3784 18.4208 2.2366
-5.0365 18.2508 2.2366
-5.6879 18.0571 2.2366
-6.2515 17.6135 2.2082
-6.6460 16.7874 2.1334
-7.2437 16.5367 2.1334
-7.8319 16.2646 2.1334
-8.4098 15.9714 2.1334
-8.9767 15.6576 2.1334
-9.5319 15.3236 2.1334
-9.8965 14.7052 2.0956
-9.8965 13.6228 1.9910
-9.8966 12.6423 1.8987
-9.8966 11.7479 1.8168
-9.8966 10.9265 1.7439
-9.8966 10.1679 1.6787
-9.8966 9.4632 1.6202
-6.8164 6.0648 1.0798
-9.8966 8.1882 1.5204
-9.8966 7.6067 1.4777
-9.9954 7.1269 1.4535
-10.0018 6.6031 1.4193
-15.8652 9.6748 2.2010
-9.8967 5.5579 1.3447
-16.5932 8.5502 2.2117
-16.8451 7.9282 2.2063
-10.0092 4.2790 1.2903
-17.3715 6.6996 2.2073
-9.8967 3.4141 1.2414
-17.7879 5.4301 2.2058
-17.9490 4.7821 2.2035
-18.0594 4.1234 2.1979
-10.0158 1.9114 1.2101
-9.8968 1.5228 1.1885
-10.0004 1.1730 1.1954
-10.0044 0.8107 1.1919
-10.0074 0.4502 1.1898
-10.0094 0.0906 1.1891
-9.8968 -0.2658 1.1764
-9.8968 -0.6219 1.1785
-10.0016 -0.9899 1.1947
-10.0034 -1.3543 1.2002
-10.0068 -1.7225 1.2075
-10.0219 -2.0981 1.2178
-9.8968 -2.4458 1.2128
-16.9671 -4.8455 2.0996
-16.7507 -5.4413 2.0960
-16.6460 -6.0761 2.1093
-10.0101 -4.0667 1.2864
-9.8969 -4.4410 1.2917
-16.4161 -8.0865 2.1795
-10.0075 -5.3844 1.3537
-15.8870 -9.2981 2.1932
-9.8969 -6.2799 1.3967
-10.0563 -6.8995 1.4535
-9.9270 -7.3485 1.4723
-9.8969 -7.8916 1.5091
-9.8970 -8.4903 1.5549
-9.8970 -9.1271 1.6056
-9.8970 -9.8075 1.6619
-9.8970 -10.5381 1.7246
-9.8970 -11.3269 1.7946
-9.8970 -12.1833 1.8730
-9.8970 -13.1189 1.9612
-9.8971 -14.1481 2.0608
-9.7122 -15.0031 2.1334
-9.1664 -15.3405 2.1334
-8.6089 -15.6581 2.1334
-8.0405 -15.9557 2.1334
-7.4619 -16.2326 2.1334
-6.8738 -16.4887 2.1334
-6.2770 -16.7237 2.1334
-5.9468 -17.7569 2.2366
-5.3052 -17.9579 2.2366
-4.6569 -18.1359 2.2366
-4.0026 -18.2906 2.2366
-3.3433 -18.4218 2.2366
-2.6797 -18.5294 2.2366
-2.0128 -18.6133 2.2366
-1.3433 -18.6733 2.2366
-0.6720 -18.7093 2.2366
0.0000 -15.7093 2.2366
0.5640 -15.6992 2.2366
1.1272 -15.6691 2.2366
1.6891 -15.6188 2.2366
2.1451 -14.8319 2.1335
2.6762 -14.7458 2.1335
2.2345 -10.2105 1.4879
3.7277 -14.5169 2.1335
4.2467 -14.3744 2.1335
4.7602 -14.2135 2.1335
5.2677 -14.0343 2.1335
5.7685 -13.8371 2.1335
6.4032 -13.9291 2.1816
5.7501 -11.4102 1.8181
5.9533 -10.8278 1.7581
5.9934 -10.0302 1.6623
6.1004 -9.4235 1.5969
6.1994 -8.8621 1.5384
6.2916 -8.3395 1.4858
6.3778 -7.8509 1.4385
6.4699 -7.4044 1.3982
6.4902 -6.9104 1.3479
6.5621 -6.5025 1.3133
6.6305 -6.1145 1.2821
6.6958 -5.7440 1.2538
6.7680 -5.3965 1.2301
6.8740 -5.0883 1.2152
6.9245 -4.7506 1.1930
6.9811 -4.4295 1.1744
7.0361 -4.1178 1.1578
7.0896 -3.8143 1.1432
7.1419 -3.5179 1.1303
7.1931 -3.2276 1.1192
7.2433 -2.9425 1.1097
7.2928 -2.6619 1.1017
7.3417 -2.3847 1.0953
7.3901 -2.1104 1.0903
7.4381 -1.8380 1.0867
7.4859 -1.5670 1.0846
7.5336 -1.2967 1.0839
7.5813 -1.0262 1.0846
7.6333 -0.7554 1.0872
7.6934 -0.4833 1.0924
6.2492 -0.1677 0.8858
5.6632 0.0514 0.8023
5.6903 0.2561 0.8068
5.7210 0.4637 0.8129
5.7584 0.6755 0.8209
5.7965 0.8920 0.8303
5.7668 1.1006 0.8310
5.7704 1.3176 0.8377
5.7359 1.5283 0.8399
5.7595 1.7583 0.8519
5.8024 2.0018 0.8682
5.8585 2.2595 0.8880
5.9413 2.5401 0.9137
5.9907 2.8196 0.9361
6.2029 3.1963 0.9864
6.2591 3.5152 1.0146
6.3188 3.8534 1.0459
6.3823 4.2136 1.0806
6.4569 4.6040 1.1204
6.2983 4.8411 1.1221
6.5400 5.4112 1.1989
6.6253 5.8949 1.2524
6.7187 6.4246 1.3127
6.8946 7.0837 1.3956
7.0027 7.7316 1.4726
7.1323 8.4666 1.5626
7.2790 9.2987 1.6667
7.5397 10.3787 1.8104
7.6527 11.3713 1.9342
8.1665 13.1288 2.1816
7.6907 13.4146 2.1816
7.2048 13.6831 2.1816
6.7096 13.9340 2.1816
6.2055 14.1668 2.1816
5.5679 14.0643 2.1335
5.0598 14.2559 2.1335
4.5451 14.4291 2.1335
3.9920 14.4659 2.1163
3.4703 14.6005 2.1163
2.9681 14.8358 2.1335
2.4337 14.9332 2.1335
1.8962 15.0113 2.1335
1.4217 15.7980 2.2366
0.8538 15.8390 2.2366
0.2847 15.8595 2.2366
-0.2847 15.8594 2.2366
-0.8537 15.8388 2.2366
-1.4217 15.7977 2.2366
-1.9877 15.7362 2.2366
-2.5512 15.6542 2.2366
-3.1113 15.5520 2.2366
-3.6674 15.4297 2.2366
-4.2186 15.2874 2.2366
-4.7643 15.1253 2.2366
-5.3039 14.9437 2.2366
-5.8364 14.7427 2.2366
-6.2516 14.2721 2.1980
-6.5605 13.6245 2.1334
-7.0447 13.3792 2.1334
-7.5198 13.1166 2.1334
-7.9850 12.8370 2.1334
-8.4398 12.5409 2.1334
-8.8835 12.2286 2.1334
-9.3157 11.9006 2.1334
-9.7358 11.5572 2.1334
-9.8966 10.9268 2.0815
-9.8966 10.1681 2.0036
-9.8966 9.4635 1.9338
-6.8155 6.0642 1.2886
-9.8966 8.1884 1.8145
-9.8966 7.6069 1.7635
-9.8967 7.0567 1.7175
-9.8967 6.5339 1.6760
-9.8967 6.0353 1.6384
-9.8967 5.5581 1.6046
-9.8967 5.0998 1.5741
-9.8967 4.6581 1.5468
-9.8967 4.2311 1.5223
-9.8967 3.8170 1.5005
-9.8967 3.4142 1.4812
-9.9299 3.0315 1.4691
-9.9428 2.6492 1.4563
-10.0108 2.2859 1.4535
-10.0846 1.9247 1.4535
-9.8968 1.5229 1.4179
-15.5448 1.8236 2.2166
-15.5975 1.2643 2.2166
-15.6301 0.7034 2.2166
-15.6426 0.1419 2.2166
-9.8968 -0.2656 1.4031
-9.8968 -0.6217 1.4056
-15.5591 -1.5398 2.2166
-15.3663 -2.0801 2.1987
-10.0070 -1.7224 1.4401
-10.0298 -2.0996 1.4535
-9.8968 -2.4456 1.4463
-9.9334 -2.8367 1.4658
-9.9191 -3.2220 1.4801
-9.9029 -3.6146 1.4963
-9.8969 -4.0206 1.5165
-9.8969 -4.4409 1.5402
-9.8969 -4.8750 1.5667
-9.8969 -5.3247 1.5962
-9.8969 -5.7921 1.6289
-9.8969 -6.2797 1.6652
-9.8969 -6.7900 1.7054
-9.8969 -7.3260 1.7498
-9.8969 -7.8914 1.7991
-9.8970 -8.4901 1.8535
-9.8970 -9.1269 1.9140
-9.8970 -9.8072 1.9811
-9.8970 -10.5379 2.0557
-9.8703 -11.2961 2.1334
-9.4574 -11.6419 2.1334
-9.0325 -11.9727 2.1334
-8.5960 -12.2880 2.1334
-8.1486 -12.5875 2.1334
-7.6907 -12.8708 2.1334
-7.2231 -13.1375 2.1334
-6.7463 -13.3873 2.1334
-6.2646 -13.6278 2.1346
-6.0467 -14.5045 2.2366
-5.5218 -14.7113 2.2366
-4.9898 -14.8993 2.2366
-4.4515 -15.0681 2.2366
-3.9076 -15.2175 2.2366
-3.3586 -15.3475 2.2366
-2.8054 -15.4577 2.2366
-2.2486 -15.5480 2.2366
-1.6890 -15.6185 2.2366
-1.1272 -15.6688 2.2366
-0.5639 -15.6991 2.2366
0.0000 -13.5200 2.2366
0.4854 -13.5113 2.2366
0.9702 -13.4854 2.2366
1.4537 -13.4421 2.2366
1.8462 -12.7647 2.1335
2.3033 -12.6906 2.1335
2.2246 -10.1650 1.7212
3.2082 -12.4935 2.1335
3.6548 -12.3708 2.1335
4.0967 -12.2322 2.1335
4.5335 -12.0779 2.1335
4.9644 -11.9080 2.1335
5.3891 -11.7229 2.1335
5.7501 -11.4101 2.1127
5.9533 -10.8277 2.0430
6.0711 -10.1599 1.9567
6.1004 -9.4234 1.8557
6.1995 -8.8619 1.7877
6.3731 -8.4474 1.7490
6.3778 -7.8507 1.6716
6.4699 -7.4043 1.6249
6.4448 -6.8620 1.5555
6.5386 -6.4792 1.5208
6.6305 -6.1144 1.4900
6.6959 -5.7438 1.4572
6.8072 -5.4276 1.4379
6.8770 -5.0904 1.4129
6.9245 -4.7505 1.3866
6.9811 -4.4294 1.3650
7.0361 -4.1177 1.3458
7.0896 -3.8142 1.3288
7.1419 -3.5178 1.3138
7.1931 -3.2275 1.3009
7.2433 -2.9425 1.2899
7.2928 -2.6618 1.2807
7.3417 -2.3846 1.2732
7.3901 -2.1102 1.2674
7.4381 -1.8379 1.2634
7.4859 -1.5669 1.2609
7.5336 -1.2966 1.2601
7.5813 -1.0261 1.2609
7.6333 -0.7553 1.2641
7.6934 -0.4832 1.2701
6.2485 -0.1676 1.0298
5.5023 0.0500 0.9064
5.5375 0.2493 0.9129
5.5732 0.4518 0.9207
5.6096 0.6582 0.9299
5.6468 0.8690 0.9405
5.6849 1.0851 0.9526
5.8759 1.3418 0.9919
5.9173 1.5767 1.0076
5.9601 1.8196 1.0253
6.0045 2.0716 1.0449
6.0508 2.3338 1.0667
6.0991 2.6076 1.0908
6.1497 2.8946 1.1176
6.2029 3.1965 1.1473
6.2591 3.5153 1.1801
6.3188 3.8535 1.2165
6.3823 4.2138 1.2569
6.4642 4.6093 1.3046
6.2983 4.8412 1.3052
6.5400 5.4113 1.3946
6.6253 5.8951 1.4568
6.6919 6.3991 1.5208
6.8946 7.0839 1.6235
7.1275 7.8696 1.7436
7.1323 8.4668 1.8178
7.4088 9.4647 1.9735
7.5395 10.3787 2.1060
7.4198 11.0255 2.1816
7.0199 11.2856 2.1816
6.6108 11.5311 2.1816
6.1931 11.7618 2.1816
5.6401 11.7133 2.1335
5.2164 11.9089 2.1335
4.7859 12.0891 2.1335
4.3491 12.2537 2.1335
3.9067 12.4025 2.1335
3.4591 12.5352 2.1335
3.0071 12.6517 2.1335
2.5511 12.7518 2.1335
2.0918 12.8355 2.1335
1.7086 13.5260 2.2366
1.2220 13.5788 2.2366
0.7338 13.6140 2.2366
0.2447 13.6316 2.2366
-0.2447 13.6315 2.2366
-0.7338 13.6139 2.2366
-1.2219 13.5786 2.2366
-1.7085 13.5257 2.2366
-2.1928 13.4553 2.2366
-2.6742 13.3675 2.2366
-3.1522 13.2625 2.2366
-3.6260 13.1402 2.2366
-4.0951 13.0010 2.2366
-4.5589 12.8450 2.2366
-5.0167 12.6724 2.2366
-5.4680 12.4834 2.2366
-5.9121 12.2783 2.2366
-6.2516 11.8732 2.2024
-6.4651 11.2772 2.1338
-6.8639 11.0349 2.1334
-7.2549 10.7805 2.1334
-7.6365 10.5123 2.1334
-8.0082 10.2304 2.1334
-8.3694 9.9354 2.1334
-8.7197 9.6276 2.1334
-9.0587 9.3075 2.1334
-9.3859 8.9753 2.1334
-6.7484 6.0046 1.4841
-9.8966 8.1887 2.1106
-9.8966 7.6071 2.0512
-9.8967 7.0569 1.9977
-9.8967 6.5341 1.9493
-9.8967 6.0355 1.9056
-9.8967 5.5583 1.8662
-9.8967 5.0999 1.8307
-9.8967 4.6582 1.7989
-9.8967 4.2312 1.7704
-9.8967 3.8172 1.7450
-9.8967 3.4144 1.7225
-9.8967 3.0215 1.7027
-9.8967 2.6371 1.6856
-9.8967 2.2600 1.6709
-9.8968 1.8890 1.6587
-9.8968 1.5231 1.6487
-9.8968 1.1612 1.6409
-9.8968 0.8023 1.6353
-9.8968 0.4455 1.6319
-9.8968 0.0899 1.6305
-9.8968 -0.2655 1.6313
-9.8968 -0.6216 1.6342
-9.8968 -0.9793 1.6392
-9.8968 -1.3395 1.6463
-9.8968 -1.7033 1.6557
-9.8968 -2.0716 1.6673
-9.8968 -2.4455 1.6813
-9.8968 -2.8261 1.6977
-9.8969 -3.2146 1.7166
-9.8969 -3.6122 1.7382
-9.8969 -4.0204 1.7627
-9.8969 -4.4407 1.7902
-9.8969 -4.8748 1.8210
-9.8969 -5.3245 1.8552
-9.8969 -5.7920 1.8932
-9.8969 -6.2795 1.9354
-9.8969 -6.7898 1.9821
-9.8969 -7.3258 2.0337
-9.8969 -7.8912 2.0908
-9.8015 -8.4080 2.1334
-9.4923 -8.7535 2.1334
-9.1710 -9.0877 2.1334
-8.8380 -9.4101 2.1334
-8.4936 -9.7203 2.1334
-8.1384 -10.0180 2.1334
-7.7728 -10.3028 2.1334
-7.3973 -10.5743 2.1334
-7.0124 -10.8322 2.1334
-6.6185 -11.0761 2.1334
-6.2609 -11.3872 2.1487
-6.0869 -12.0784 2.2366
-5.6490 -12.2884 2.2366
-5.2039 -12.4826 2.2366
-4.7522 -12.6607 2.2366
-4.2944 -12.8225 2.2366
-3.8311 -12.9679 2.2366
-3.3630 -13.0966 2.2366
-2.8906 -13.2084 2.2366
-2.4144 -13.3033 2.2366
-1.9353 -13.3812 2.2366
-1.4536 -13.4418 2.2366
-0.9701 -13.4852 2.2366
-0.4853 -13.5113 2.2366
0.0000 -11.8554 2.2366
0.4257 -11.8478 2.2366
0.8507 -11.8250 2.2366
1.2747 -11.7871 2.2366
1.6971 -11.7339 2.2366
2.0197 -11.1280 2.1335
2.2201 -10.1443 1.9589
2.8132 -10.9551 2.1335
3.2048 -10.8474 2.1335
3.5923 -10.7258 2.1335
3.9752 -10.5905 2.1335
4.3531 -10.4415 2.1335
4.7254 -10.2790 2.1335
5.0917 -10.1034 2.1335
5.4515 -9.9147 2.1335
5.8043 -9.7133 2.1335
6.1005 -9.4233 2.1164
6.1995 -8.8618 2.0389
6.3731 -8.4473 1.9947
6.4604 -7.9523 1.9312
6.0812 -6.9593 1.7419
6.1144 -6.5100 1.6832
6.2634 -6.2062 1.6616
6.4828 -5.9780 1.6616
6.6491 -5.7036 1.6505
6.7113 -5.3510 1.6170
6.8770 -5.0903 1.6116
6.9245 -4.7504 1.5816
6.9811 -4.4293 1.5570
7.0361 -4.1176 1.5351
7.0896 -3.8141 1.5157
7.1419 -3.5177 1.4987
7.1931 -3.2274 1.4840
7.2434 -2.9423 1.4714
7.2929 -2.6616 1.4610
7.3417 -2.3845 1.4525
7.3901 -2.1101 1.4459
7.4381 -1.8378 1.4413
7.4859 -1.5668 1.4385
7.5336 -1.2964 1.4376
7.5813 -1.0260 1.4386
7.6334 -0.7552 1.4422
7.6935 -0.4831 1.4491
6.2478 -0.1675 1.1748
5.6632 0.0516 1.0644
5.6903 0.2563 1.0704
5.7210 0.4639 1.0784
5.7584 0.6757 1.0892
5.7966 0.8922 1.1016
5.8357 1.1140 1.1158
5.8759 1.3419 1.1318
5.9173 1.5768 1.1498
5.9601 1.8197 1.1700
6.0046 2.0717 1.1924
6.0508 2.3339 1.2173
6.0991 2.6077 1.2449
6.1497 2.8947 1.2754
6.2029 3.1966 1.3093
6.2592 3.5154 1.3468
6.3188 3.8536 1.3884
6.3823 4.2139 1.4345
6.4642 4.6094 1.4890
6.2984 4.8414 1.4897
6.4770 5.3593 1.5763
6.5615 5.8384 1.6467
6.4057 6.1255 1.6616
6.2767 6.4492 1.6870
7.1276 7.8698 1.9901
7.1324 8.4671 2.0749
7.1755 9.1668 2.1816
6.8424 9.4192 2.1816
6.5004 9.6594 2.1816
6.1499 9.8872 2.1816
5.6638 9.8795 2.1335
5.3059 10.0771 2.1335
4.9411 10.2616 2.1335
4.5698 10.4329 2.1335
4.1926 10.5907 2.1335
3.8100 10.7348 2.1335
3.4224 10.8651 2.1335
3.0303 10.9813 2.1335
2.6343 11.0833 2.1335
2.2348 11.1710 2.1335
1.8325 11.2443 2.1335
1.4967 11.8492 2.2366
1.0705 11.8954 2.2366
0.6429 11.9262 2.2366
0.2144 11.9416 2.2366
-0.2143 11.9416 2.2366
-0.6428 11.9261 2.2366
-1.0704 11.8952 2.2366
-1.4966 11.8489 2.2366
-1.9209 11.7873 2.2366
-2.3427 11.7104 2.2366
-2.7614 11.6184 2.2366
-3.1765 11.5114 2.2366
-3.5875 11.3895 2.2366
-3.9938 11.2529 2.2366
-4.3949 11.1018 2.2366
-4.7902 10.9363 2.2366
-5.1794 10.7567 2.2366
-5.5618 10.5632 2.2366
-5.9370 10.3561 2.2366
-6.2517 10.0509 2.2179
-6.3560 9.4449 2.1334
-6.6904 9.2100 2.1334
-7.0161 8.9632 2.1334
-7.3326 8.7048 2.1334
-7.6397 8.4353 2.1334
-7.9367 8.1549 2.1334
-8.2235 7.8640 2.1334
-6.7396 5.9969 1.6916
-8.7647 7.2523 2.1334
-9.0184 6.9323 2.1334
-9.2604 6.6034 2.1334
-9.4904 6.2660 2.1334
-9.7081 5.9207 2.1334
-9.8967 5.5585 2.1298
-9.8967 5.1001 2.0893
-9.8967 4.6584 2.0529
-9.8967 4.2314 2.0203
-9.8967 3.8173 1.9913
-9.8967 3.4146 1.9656
-9.8967 3.0217 1.9430
-9.8967 2.6373 1.9234
-9.8967 2.2602 1.9067
-9.8968 1.8892 1.8926
-9.8968 1.5233 1.8812
-9.8968 1.1613 1.8723
-9.8968 0.8025 1.8659
-9.8968 0.4457 1.8619
-9.8968 0.0901 1.8604
-9.8968 -0.2653 1.8612
-9.8968 -0.6214 1.8645
-9.8968 -0.9791 1.8701
-9.8968 -1.3394 1.8783
-9.8968 -1.7031 1.8889
-9.8968 -2.0714 1.9021
-9.8968 -2.4453 1.9180
-9.8968 -2.8259 1.9367
-9.8969 -3.2144 1.9583
-9.8969 -3.6120 1.9829
-9.8969 -4.0202 2.0108
-9.8969 -4.4405 2.0421
-9.8969 -4.8746 2.0772
-9.8969 -5.3243 2.1162
-9.7769 -5.7215 2.1334
-9.5641 -6.0682 2.1334
-9.3391 -6.4069 2.1334
-9.1021 -6.7373 2.1334
-8.8535 -7.0590 2.1334
-8.5935 -7.3715 2.1334
-8.3225 -7.6745 2.1334
-8.0409 -7.9676 2.1334
-7.7490 -8.2504 2.1334
-7.4471 -8.5225 2.1334
-7.1358 -8.7837 2.1334
-6.8153 -9.0335 2.1334
-6.4861 -9.2716 2.1334
-6.2553 -9.6626 2.1704
-6.0842 -10.1818 2.2366
-5.7144 -10.3930 2.2366
-5.3373 -10.5908 2.2366
-4.9534 -10.7750 2.2366
-4.5631 -10.9453 2.2366
-4.1670 -11.1016 2.2366
-3.7656 -11.2436 2.2366
-3.3594 -11.3711 2.2366
-2.9489 -11.4840 2.2366
-2.5347 -11.5821 2.2366
-2.1172 -11.6654 2.2366
-1.6970 -11.7337 2.2366
-1.2746 -11.7869 2.2366
-0.8507 -11.8249 2.2366
-0.4256 -11.8478 2.2366
0.0000 -10.5459 2.2366
0.3786 -10.5392 2.2366
0.7568 -10.5189 2.2366
1.1339 -10.4851 2.2366
1.5097 -10.4378 2.2366
1.8036 -9.9368 2.1417
2.1509 -9.8282 2.1335
2.5025 -9.7449 2.1335
2.8508 -9.6491 2.1335
3.1955 -9.5409 2.1335
3.5361 -9.4204 2.1335
3.8722 -9.2878 2.1335
4.2034 -9.1433 2.1335
4.5292 -8.9870 2.1335
4.8492 -8.8191 2.1335
5.1630 -8.6399 2.1335
5.4702 -8.4495 2.1335
5.7704 -8.2482 2.1335
6.1999 -8.2175 2.1816
6.4604 -7.9521 2.1712
5.8990 -6.7507 1.8997
6.0379 -6.4284 1.8687
6.2213 -6.1645 1.8555
6.2862 -5.7966 1.8115
6.3482 -5.4453 1.7716
6.5017 -5.1837 1.7612
6.8770 -5.0901 1.8120
6.9423 -4.7624 1.7828
7.0716 -4.4866 1.7733
7.1273 -4.1708 1.7484
7.1815 -3.8633 1.7263
7.1419 -3.5175 1.6852
7.1931 -3.2273 1.6687
7.2434 -2.9422 1.6546
7.2929 -2.6615 1.6428
7.3418 -2.3844 1.6333
7.3901 -2.1100 1.6259
7.4382 -1.8377 1.6207
7.4859 -1.5667 1.6176
7.5336 -1.2963 1.6167
7.5813 -1.0259 1.6177
7.6334 -0.7551 1.6218
7.6935 -0.4829 1.6297
6.2472 -0.1674 1.3210
5.6633 0.0516 1.1970
5.6903 0.2564 1.2038
5.7211 0.4640 1.2129
5.7584 0.6758 1.2250
5.7966 0.8923 1.2390
5.8357 1.1141 1.2550
5.8759 1.3420 1.2730
5.9173 1.5769 1.2933
5.9602 1.8198 1.3159
6.0046 2.0718 1.3411
6.0508 2.3340 1.3691
6.0991 2.6078 1.4002
6.1497 2.8948 1.4346
6.2030 3.1967 1.4727
6.2592 3.5156 1.5149
6.3188 3.8538 1.5617
6.3824 4.2140 1.6136
6.4642 4.6096 1.6749
6.2465 4.8016 1.6619
6.0693 5.0221 1.6616
6.1505 5.4728 1.7363
6.2373 5.9647 1.8200
6.1807 6.3507 1.8687
6.2245 6.8728 1.9551
6.6664 7.9140 2.1816
6.3785 8.1488 2.1816
6.0823 8.3730 2.1816
5.6509 8.3972 2.1335
5.3462 8.5952 2.1335
5.0346 8.7821 2.1335
4.7164 8.9576 2.1335
4.3920 9.1216 2.1335
4.0620 9.2738 2.1335
3.7267 9.4140 2.1335
3.3866 9.5421 2.1335
3.0420 9.6578 2.1335
2.6935 9.7611 2.1335
2.3415 9.8517 2.1335
1.9871 9.9326 2.1342
1.7075 10.4777 2.2366
1.3304 10.5324 2.2366
0.9515 10.5734 2.2366
0.5714 10.6008 2.2366
0.1906 10.6145 2.2366
-0.1905 10.6145 2.2366
-0.5714 10.6008 2.2366
-0.9514 10.5733 2.2366
-1.3303 10.5322 2.2366
-1.7074 10.4774 2.2366
-2.0823 10.4092 2.2366
-2.4545 10.3274 2.2366
-2.8235 10.2323 2.2366
-3.1888 10.1240 2.2366
-3.5500 10.0027 2.2366
-3.9065 9.8684 2.2366
-4.2580 9.7213 2.2366
-4.6039 9.5617 2.2366
-4.9439 9.3898 2.2366
-5.2774 9.2058 2.2366
-5.6040 9.0098 2.2366
-5.9234 8.8023 2.2366
-6.2351 8.5834 2.2366
-6.2623 8.0004 2.1421
-6.5183 7.7383 2.1334
-6.7913 7.4987 2.1334
-7.0555 7.2495 2.1334
-7.3105 6.9910 2.1334
-6.7307 5.9891 1.9003
-7.7918 6.4474 2.1334
-8.0174 6.1630 2.1334
-8.2326 5.8706 2.1334
-8.4372 5.5708 2.1334
-8.6308 5.2638 2.1334
-8.8133 4.9501 2.1334
-8.9843 4.6301 2.1334
-9.1437 4.3042 2.1334
-9.2913 3.9727 2.1334
-9.4269 3.6363 2.1334
-9.5503 3.2952 2.1334
-9.6613 2.9499 2.1334
-9.7598 2.6009 2.1334
-9.8457 2.2487 2.1334
-9.8968 1.8893 2.1286
-9.8968 1.5234 2.1157
-9.8968 1.1615 2.1057
-9.8968 0.8027 2.0984
-9.8968 0.4459 2.0939
-9.8968 0.0902 2.0922
-9.8968 -0.2652 2.0931
-9.8968 -0.6213 2.0967
-9.8968 -0.9790 2.1030
-9.8968 -1.3392 2.1121
-9.8968 -1.7030 2.1241
-9.8711 -2.0659 2.1334
-9.7894 -2.4186 2.1334
-9.6952 -2.7682 2.1334
-9.5885 -3.1141 2.1334
-9.4694 -3.4559 2.1334
-9.3382 -3.7932 2.1334
-9.1951 -4.1255 2.1334
-9.0401 -4.4525 2.1334
-8.8735 -4.7736 2.1334
-8.6955 -5.0886 2.1334
-8.5064 -5.3969 2.1334
-8.3063 -5.6982 2.1334
-8.0956 -5.9922 2.1334
-7.8746 -6.2784 2.1334
-7.6434 -6.5564 2.1334
-7.4025 -6.8260 2.1334
-7.1520 -7.0867 2.1334
-6.8925 -7.3383 2.1334
-6.6241 -7.5804 2.1334
-6.3472 -7.8128 2.1334
-6.2520 -8.2866 2.2002
-6.0486 -8.6461 2.2366
-5.7340 -8.8571 2.2366
-5.4120 -9.0567 2.2366
-5.0831 -9.2446 2.2366
-4.7476 -9.4206 2.2366
-4.4062 -9.5845 2.2366
-4.0590 -9.7361 2.2366
-3.7067 -9.8751 2.2366
-3.3497 -10.0015 2.2366
-2.9884 -10.1149 2.2366
-2.6232 -10.2154 2.2366
-2.2547 -10.3028 2.2366
-1.8834 -10.3768 2.2366
-1.5096 -10.4376 2.2366
-1.1339 -10.4849 2.2366
-0.7567 -10.5188 2.2366
-0.3786 -10.5391 2.2366
0.0000 -9.4879 2.2366
0.3407 -9.4818 2.2366
0.6809 -9.4636 2.2366
1.0202 -9.4331 2.2366
1.3582 -9.3906 2.2366
1.6945 -9.3359 2.2366
1.9352 -8.8421 2.1335
2.2514 -8.7671 2.1335
2.5648 -8.6809 2.1335
2.8749 -8.5835 2.1335
3.1813 -8.4751 2.1335
3.4837 -8.3558 2.1335
3.7816 -8.2257 2.1335
4.0747 -8.0850 2.1335
4.3625 -7.9339 2.1335
4.6448 -7.7727 2.1335
4.9212 -7.6013 2.1335
5.1912 -7.4202 2.1335
5.4546 -7.2295 2.1335
5.7110 -7.0296 2.1335
5.7831 -6.6179 2.0701
6.0076 -6.3960 2.0668
6.0742 -6.0185 2.0138
6.1375 -5.6593 1.9660
6.1980 -5.3164 1.9228
6.5019 -5.1837 1.9579
6.8770 -5.0900 2.0143
6.9426 -4.7625 1.9819
7.0716 -4.4864 1.9713
7.1273 -4.1707 1.9436
7.1815 -3.8632 1.9192
7.1419 -3.5174 1.8734
7.1931 -3.2272 1.8551
7.2434 -2.9421 1.8394
7.3874 -2.6959 1.8500
7.4369 -2.4151 1.8393
7.4859 -2.1372 1.8310
7.5345 -1.8614 1.8252
7.4860 -1.5666 1.7985
7.5336 -1.2962 1.7974
7.5813 -1.0258 1.7986
7.6334 -0.7549 1.8032
7.6935 -0.4828 1.8119
6.2465 -0.1673 1.4686
5.6633 0.0517 1.3309
5.6903 0.2565 1.3384
5.7211 0.4641 1.3486
5.7584 0.6759 1.3621
5.7966 0.8924 1.3777
5.8357 1.1142 1.3954
5.8759 1.3421 1.4155
5.9173 1.5770 1.4380
5.9602 1.8199 1.4632
6.0046 2.0719 1.4913
6.0508 2.3341 1.5225
6.0991 2.6079 1.5570
6.1497 2.8949 1.5953
6.2030 3.1968 1.6377
6.2592 3.5157 1.6846
6.4315 3.9226 1.7676
6.4864 4.2828 1.8236
6.4643 4.6097 1.8626
6.2464 4.8017 1.8482
6.0714 5.0239 1.8484
5.9521 5.2963 1.8687
6.0293 5.7659 1.9565
6.1218 6.2902 2.0583
5.9580 6.5788 2.0812
5.9942 7.1162 2.1816
5.6089 7.1658 2.1335
5.3485 7.3629 2.1335
5.0811 7.5506 2.1335
4.8071 7.7285 2.1335
4.5268 7.8965 2.1335
4.2407 8.0543 2.1335
3.9491 8.2017 2.1335
3.6523 8.3385 2.1335
3.3508 8.4646 2.1335
3.0450 8.5797 2.1335
2.7352 8.6837 2.1335
2.4218 8.7765 2.1335
2.1053 8.8580 2.1335
1.8015 9.0054 2.1520
1.5353 9.4208 2.2366
1.1962 9.4699 2.2366
0.8555 9.5069 2.2366
0.5138 9.5315 2.2366
0.1714 9.5438 2.2366
-0.1713 9.5438 2.2366
-0.5137 9.5314 2.2366
-0.8555 9.5068 2.2366
-1.1961 9.4698 2.2366
-1.5352 9.4206 2.2366
-1.8723 9.3592 2.2366
-2.2069 9.2858 2.2366
-2.5387 9.2003 2.2366
-2.8671 9.1030 2.2366
-3.1919 8.9939 2.2366
-3.5125 8.8731 2.2366
-3.8285 8.7410 2.2366
-4.1396 8.5975 2.2366
-4.4453 8.4430 2.2366
-4.7452 8.2775 2.2366
-5.0389 8.1014 2.2366
-5.3261 7.9149 2.2366
-5.6064 7.7181 2.2366
-5.8794 7.5114 2.2366
-6.1448 7.2950 2.2366
-6.2517 6.9031 2.1840
-6.3442 6.5189 2.1334
-6.5736 6.2865 2.1334
-6.7218 5.9813 2.1105
-7.0065 5.7978 2.1334
-7.2095 5.5421 2.1334
-7.4031 5.2793 2.1334
-7.5871 5.0097 2.1334
-7.7613 4.7337 2.1334
-7.9255 4.4516 2.1334
-8.0794 4.1639 2.1334
-8.2228 3.8708 2.1334
-8.3556 3.5728 2.1334
-8.4776 3.2703 2.1334
-8.5887 2.9636 2.1334
-8.6886 2.6531 2.1334
-8.7773 2.3393 2.1334
-8.8547 2.0225 2.1334
-8.9206 1.7031 2.1334
-8.9751 1.3817 2.1334
-9.0179 1.0585 2.1334
-9.0491 0.7340 2.1334
-9.0686 0.4087 2.1334
-9.0765 0.0829 2.1334
-9.0726 -0.2429 2.1334
-9.0571 -0.5684 2.1334
-9.0299 -0.8930 2.1334
-8.9910 -1.2165 2.1334
-8.9406 -1.5383 2.1334
-8.8787 -1.8580 2.1334
-8.8053 -2.1754 2.1334
-8.7207 -2.4898 2.1334
-8.6248 -2.8009 2.1334
-8.5178 -3.1084 2.1334
-8.3999 -3.4119 2.1334
-8.2712 -3.7108 2.1334
-8.1318 -4.0050 2.1334
-7.9821 -4.2939 2.1334
-7.8220 -4.5773 2.1334
-7.6520 -4.8547 2.1334
-7.4721 -5.1258 2.1334
-7.2826 -5.3903 2.1334
-7.0838 -5.6478 2.1334
-6.8760 -5.8979 2.1334
-6.6593 -6.1405 2.1334
-6.4340 -6.3751 2.1334
-6.2596 -6.6644 2.1537
-6.2476 -7.1494 2.2366
-5.9864 -7.3686 2.2366
-5.7177 -7.5783 2.2366
-5.4416 -7.7782 2.2366
-5.1585 -7.9681 2.2366
-4.8689 -8.1477 2.2366
-4.5730 -8.3168 2.2366
-4.2713 -8.4752 2.2366
-3.9641 -8.6227 2.2366
-3.6518 -8.7591 2.2366
-3.3348 -8.8842 2.2366
-3.0136 -8.9979 2.2366
-2.6886 -9.1000 2.2366
-2.3601 -9.1904 2.2366
-2.0285 -9.2690 2.2366
-1.6944 -9.3357 2.2366
-1.3581 -9.3904 2.2366
-1.0201 -9.4330 2.2366
-0.6808 -9.4635 2.2366
-0.3406 -9.4818 2.2366
0.0000 -8.6144 2.2366
0.3093 -8.6089 2.2366
0.6182 -8.5923 2.2366
0.9263 -8.5647 2.2366
1.2332 -8.5260 2.2366
1.5385 -8.4764 2.2366
1.7949 -8.2009 2.1795
2.0442 -7.9599 2.1335
2.3287 -7.8816 2.1335
2.6102 -7.7932 2.1335
2.8884 -7.6947 2.1335
3.1630 -7.5863 2.1335
3.4334 -7.4682 2.1335
3.6995 -7.3405 2.1335
3.9608 -7.2033 2.1335
4.2171 -7.0568 2.1335
4.4680 -6.9012 2.1335
4.7131 -6.7367 2.1335
4.9523 -6.5636 2.1335
5.1850 -6.3819 2.1335
5.4112 -6.1921 2.1335
5.6304 -5.9943 2.1335
5.9307 -5.8762 2.1658
5.9529 -5.4890 2.1004
6.0581 -5.1963 2.0701
6.5021 -5.1838 2.1567
6.7618 -5.0046 2.1816
6.9377 -4.7590 2.1816
7.0716 -4.4863 2.1715
7.1273 -4.1706 2.1410
7.1815 -3.8631 2.1140
7.1420 -3.5173 2.0637
7.1932 -3.2270 2.0435
7.2434 -2.9420 2.0262
7.3874 -2.6958 2.0379
7.4369 -2.4150 2.0261
7.4859 -2.1371 2.0171
7.5345 -1.8613 2.0107
7.4860 -1.5665 1.9812
7.5337 -1.2961 1.9801
6.9917 -0.9459 1.8273
7.0358 -0.6957 1.8310
7.6935 -0.4827 1.9961
6.2458 -0.1671 1.6178
5.6633 0.0518 1.4663
5.6903 0.2565 1.4746
5.7211 0.4642 1.4857
5.7584 0.6760 1.5006
5.7966 0.8925 1.5178
5.8357 1.1143 1.5374
5.8759 1.3422 1.5595
5.9174 1.5771 1.5844
5.9602 1.8201 1.6121
6.0046 2.0720 1.6431
6.0509 2.3342 1.6774
6.0992 2.6081 1.7155
6.1498 2.8950 1.7577
6.2030 3.1969 1.8044
6.3708 3.5785 1.8893
6.4315 3.9227 1.9476
6.4862 4.2829 2.0093
6.4643 4.6099 2.0523
6.2463 4.8017 2.0364
5.8806 4.8662 1.9727
5.9455 5.2906 2.0567
5.7897 5.5369 2.0701
5.7586 5.9172 2.1335
5.5429 6.1205 2.1335
5.3200 6.3159 2.1335
5.0902 6.5032 2.1335
4.8538 6.6821 2.1335
4.6111 6.8524 2.1335
4.3624 7.0138 2.1335
4.1081 7.1662 2.1335
3.8484 7.3094 2.1335
3.5838 7.4431 2.1335
3.3144 7.5673 2.1335
3.0408 7.6816 2.1335
2.7633 7.7861 2.1335
2.4821 7.8804 2.1335
2.1977 7.9647 2.1335
1.9105 8.0386 2.1335
1.6991 8.4936 2.2366
1.3932 8.5493 2.2366
1.0855 8.5939 2.2366
0.7764 8.6274 2.2366
0.4662 8.6497 2.2366
0.1555 8.6609 2.2366
-0.1554 8.6609 2.2366
-0.4662 8.6497 2.2366
-0.7763 8.6273 2.2366
-1.0854 8.5937 2.2366
-1.3931 8.5491 2.2366
-1.6990 8.4934 2.2366
-2.0027 8.4268 2.2366
-2.3038 8.3493 2.2366
-2.6019 8.2609 2.2366
-2.8966 8.1619 2.2366
-3.1876 8.0524 2.2366
-3.4744 7.9325 2.2366
-3.7567 7.8024 2.2366
-4.0341 7.6622 2.2366
-4.3063 7.5121 2.2366
-4.5729 7.3523 2.2366
-4.8335 7.1830 2.2366
-5.0879 7.0045 2.2366
-5.3357 6.8169 2.2366
-5.5766 6.6206 2.2366
-5.8103 6.4158 2.2366
-6.0363 6.2027 2.2366
-6.2517 5.9788 2.2356
-6.2566 5.5675 2.1646
-6.3589 5.2620 2.1334
-6.5431 5.0299 2.1334
-6.7189 4.7915 2.1334
-6.8860 4.5468 2.1334
-7.0441 4.2964 2.1334
-7.1932 4.0404 2.1334
-7.3329 3.7793 2.1334
-7.4632 3.5133 2.1334
-7.5838 3.2429 2.1334
-7.6946 2.9683 2.1334
-7.7954 2.6900 2.1334
-7.8862 2.4082 2.1334
-7.9668 2.1234 2.1334
-8.0371 1.8359 2.1334
-8.0970 1.5460 2.1334
-8.1465 1.2543 2.1334
-8.1854 0.9609 2.1334
-8.2139 0.6664 2.1334
-8.2317 0.3711 2.1334
-8.2389 0.0754 2.1334
-8.2354 -0.2204 2.1334
-8.2214 -0.5158 2.1334
-8.1968 -0.8105 2.1334
-8.1616 -1.1041 2.1334
-8.1159 -1.3963 2.1334
-8.0598 -1.6865 2.1334
-7.9933 -1.9746 2.1334
-7.9165 -2.2601 2.1334
-7.8295 -2.5425 2.1334
-7.7325 -2.8217 2.1334
-7.6255 -3.0972 2.1334
-7.5087 -3.3686 2.1334
-7.3823 -3.6357 2.1334
-7.2464 -3.8980 2.1334
-7.1011 -4.1553 2.1334
-6.9468 -4.4072 2.1334
-6.7836 -4.6533 2.1334
-6.6116 -4.8935 2.1334
-6.4312 -5.1273 2.1334
-6.2630 -5.3720 2.1403
-6.2520 -5.7648 2.2061
-6.1241 -6.0679 2.2366
-5.9019 -6.2834 2.2366
-5.6721 -6.4908 2.2366
-5.4351 -6.6898 2.2366
-5.1911 -6.8802 2.2366
-4.9405 -7.0618 2.2366
-4.6835 -7.2342 2.2366
-4.4206 -7.3973 2.2366
-4.1519 -7.5509 2.2366
-3.8780 -7.6948 2.2366
-3.5991 -7.8287 2.2366
-3.3156 -7.9526 2.2366
-3.0278 -8.0662 2.2366
-2.7362 -8.1694 2.2366
-2.4411 -8.2622 2.2366
-2.1428 -8.3443 2.2366
-1.8418 -8.4157 2.2366
-1.5384 -8.4762 2.2366
-1.2331 -8.5259 2.2366
-0.9262 -8.5646 2.2366
-0.6181 -8.5922 2.2366
-0.3092 -8.6089 2.2366
0.0000 -7.8804 2.2366
0.2830 -7.8753 2.2366
0.5655 -7.8602 2.2366
0.8474 -7.8349 2.2366
1.1281 -7.7995 2.2366
1.4075 -7.7541 2.2366
1.6850 -7.6987 2.2366
1.8700 -7.2816 2.1335
2.1303 -7.2100 2.1335
2.3878 -7.1290 2.1335
2.6423 -7.0389 2.1335
2.8934 -6.9398 2.1335
3.1408 -6.8317 2.1335
3.3842 -6.7148 2.1335
3.6233 -6.5893 2.1335
3.8577 -6.4552 2.1335
4.0872 -6.3129 2.1335
4.3114 -6.1624 2.1335
4.5301 -6.0040 2.1335
4.7430 -5.8378 2.1335
4.9499 -5.6641 2.1335
5.1504 -5.4831 2.1335
5.3442 -5.2950 2.1335
5.5313 -5.1001 2.1335
5.7112 -4.8986 2.1335
6.0164 -4.7964 2.1816
6.1852 -4.5777 2.1816
6.3460 -4.3530 2.1816
6.4987 -4.1227 2.1816
6.6431 -3.8871 2.1816
6.7789 -3.6464 2.1816
6.9060 -3.4010 2.1816
7.0242 -3.1511 2.1816
7.1334 -2.8972 2.1816
7.2334 -2.6394 2.1816
7.3242 -2.3783 2.1816
7.4055 -2.1140 2.1816
7.4773 -1.8470 2.1816
7.4860 -1.5663 2.1661
7.5337 -1.2960 2.1649
6.0014 -0.8118 1.7149
6.0366 -0.5968 1.7176
7.6904 -0.4824 2.1816
6.2452 -0.1670 1.7686
5.6633 0.0519 1.6032
5.6903 0.2566 1.6123
5.7211 0.4643 1.6245
5.7585 0.6761 1.6408
5.7966 0.8926 1.6596
5.8357 1.1143 1.6810
5.9807 1.3662 1.7356
6.0229 1.6053 1.7633
6.0665 1.8526 1.7942
6.1117 2.1091 1.8287
6.0953 2.3515 1.8477
6.0992 2.6082 1.8759
6.1498 2.8951 1.9220
6.2030 3.1971 1.9731
6.3708 3.5786 2.0659
6.4315 3.9229 2.1297
6.4402 4.2526 2.1816
6.2839 4.4813 2.1816
6.1195 4.7043 2.1816
5.8805 4.8662 2.1572
5.6399 5.0188 2.1335
5.4565 5.2184 2.1335
5.2660 5.4112 2.1335
5.0687 5.5970 2.1335
4.8649 5.7757 2.1335
4.6547 5.9469 2.1335
4.4385 6.1105 2.1335
4.2166 6.2662 2.1335
3.9891 6.4138 2.1335
3.7565 6.5531 2.1335
3.5191 6.6840 2.1335
3.2771 6.8063 2.1335
3.0308 6.9198 2.1335
2.7806 7.0243 2.1335
2.5268 7.1198 2.1335
2.2697 7.2061 2.1335
2.0096 7.2831 2.1335
1.7942 7.5493 2.1912
1.5537 7.7667 2.2366
1.2740 7.8176 2.2366
0.9926 7.8584 2.2366
0.7099 7.8890 2.2366
0.4263 7.9094 2.2366
0.1422 7.9196 2.2366
-0.1421 7.9196 2.2366
-0.4263 7.9094 2.2366
-0.7098 7.8889 2.2366
-0.9925 7.8583 2.2366
-1.2739 7.8175 2.2366
-1.5536 7.7666 2.2366
-1.8313 7.7056 2.2366
-2.1066 7.6348 2.2366
-2.3792 7.5540 2.2366
-2.6487 7.4635 2.2366
-2.9148 7.3634 2.2366
-3.1770 7.2538 2.2366
-3.4352 7.1348 2.2366
-3.6889 7.0066 2.2366
-3.9378 6.8694 2.2366
-4.1816 6.7233 2.2366
-4.4200 6.5686 2.2366
-4.6526 6.4053 2.2366
-4.8792 6.2339 2.2366
-5.0995 6.0544 2.2366
-5.3132 5.8671 2.2366
-5.5200 5.6722 2.2366
-5.7197 5.4701 2.2366
-5.9119 5.2609 2.2366
-6.0965 5.0450 2.2366
-6.2518 4.8061 2.2290
-6.2548 4.4606 2.1717
-6.2972 4.1582 2.1334
-6.4635 3.9424 2.1405
-6.5782 3.6951 2.1334
-6.7060 3.4563 2.1334
-6.8252 3.2131 2.1334
-6.9356 2.9658 2.1334
-7.0369 2.7148 2.1334
-7.1292 2.4602 2.1334
-7.2123 2.2025 2.1334
-7.2861 1.9421 2.1334
-7.3504 1.6791 2.1334
-7.4053 1.4141 2.1334
-7.4506 1.1472 2.1334
-7.4863 0.8790 2.1334
-7.5123 0.6096 2.1334
-7.5287 0.3395 2.1334
-7.5353 0.0691 2.1334
-7.5322 -0.2014 2.1334
-7.5195 -0.4716 2.1334
-7.4970 -0.7412 2.1334
-7.4649 -1.0098 2.1334
-7.4232 -1.2770 2.1334
-7.3719 -1.5425 2.1334
-7.3111 -1.8060 2.1334
-7.2409 -2.0671 2.1334
-7.1614 -2.3255 2.1334
-7.0727 -2.5808 2.1334
-6.9749 -2.8328 2.1334
-6.8681 -3.0811 2.1334
-6.7525 -3.3254 2.1334
-6.6283 -3.5654 2.1334
-6.4955 -3.8008 2.1334
-6.3544 -4.0312 2.1334
-6.2599 -4.2940 2.1522
-6.2519 -4.6271 2.2054
-6.1675 -4.9170 2.2366
-5.9866 -5.1349 2.2366
-5.7980 -5.3461 2.2366
-5.6020 -5.5504 2.2366
-5.3988 -5.7476 2.2366
-5.1886 -5.9374 2.2366
-4.9718 -6.1195 2.2366
-4.7487 -6.2937 2.2366
-4.5194 -6.4598 2.2366
-4.2844 -6.6175 2.2366
-4.0438 -6.7668 2.2366
-3.7981 -6.9073 2.2366
-3.5475 -7.0389 2.2366
-3.2924 -7.1615 2.2366
-3.0331 -7.2748 2.2366
-2.7698 -7.3788 2.2366
-2.5031 -7.4733 2.2366
-2.2331 -7.5581 2.2366
-1.9602 -7.6332 2.2366
-1.6849 -7.6985 2.2366
-1.4074 -7.7539 2.2366
-1.1281 -7.7994 2.2366
-0.8473 -7.8348 2.2366
-0.5655 -7.8601 2.2366
-0.2829 -7.8753 2.2366
0.0000 -7.2543 2.2366
0.2605 -7.2497 2.2366
0.5206 -7.2357 2.2366
0.7801 -7.2124 2.2366
1.0385 -7.1798 2.2366
1.2957 -7.1380 2.2366
1.5511 -7.0870 2.2366
1.7939 -6.9853 2.2234
1.9610 -6.6371 2.1335
2.1981 -6.5626 2.1335
2.4324 -6.4796 2.1335
2.6636 -6.3883 2.1335
2.8913 -6.2888 2.1335
3.1154 -6.1812 2.1335
3.3354 -6.0656 2.1335
3.5512 -5.9422 2.1335
3.7624 -5.8111 2.1335
3.9688 -5.6726 2.1335
4.1701 -5.5267 2.1335
4.3661 -5.3737 2.1335
4.5565 -5.2138 2.1335
4.7410 -5.0472 2.1335
4.9194 -4.8740 2.1335
5.0916 -4.6946 2.1335
5.2572 -4.5090 2.1335
5.4160 -4.3177 2.1335
5.5679 -4.1207 2.1335
5.7127 -3.9185 2.1335
5.9820 -3.7948 2.1816
6.1148 -3.5778 2.1816
6.2398 -3.3563 2.1816
6.3567 -3.1303 2.1816
6.4655 -2.9004 2.1816
6.5660 -2.6666 2.1816
6.6580 -2.4294 2.1816
6.7415 -2.1890 2.1816
6.8163 -1.9457 2.1816
6.8823 -1.6999 2.1816
6.9395 -1.4519 2.1816
6.9877 -1.2019 2.1816
5.9925 -0.8105 1.8605
6.0304 -0.5961 1.8642
7.0783 -0.4439 2.1816
6.2445 -0.1669 1.9214
5.6633 0.0520 1.7419
5.6904 0.2567 1.7517
5.7211 0.4644 1.7650
5.7585 0.6762 1.7828
5.7966 0.8927 1.8032
5.8358 1.1145 1.8265
5.9807 1.3663 1.8858
6.0229 1.6055 1.9159
6.0665 1.8527 1.9495
6.1117 2.1092 1.9870
6.0951 2.3515 2.0076
6.0992 2.6083 2.0383
6.1498 2.8953 2.0885
6.2030 3.1972 2.1440
6.1915 3.4780 2.1816
6.0631 3.6983 2.1816
5.7963 3.8275 2.1335
5.6555 4.0333 2.1335
5.5075 4.2340 2.1335
5.3523 4.4293 2.1335
5.1903 4.6188 2.1335
5.0215 4.8024 2.1335
4.8461 4.9798 2.1335
4.6646 5.1509 2.1335
4.4769 5.3153 2.1335
4.2835 5.4728 2.1335
4.0845 5.6233 2.1335
3.8803 5.7665 2.1335
3.6710 5.9023 2.1335
3.4569 6.0305 2.1335
3.2384 6.1510 2.1335
3.0157 6.2635 2.1335
2.7890 6.3679 2.1335
2.5588 6.4641 2.1335
2.3252 6.5519 2.1335
2.0886 6.6313 2.1335
1.8493 6.7022 2.1335
1.6853 7.0912 2.2366
1.4297 7.1472 2.2366
1.1723 7.1940 2.2366
0.9134 7.2315 2.2366
0.6533 7.2597 2.2366
0.3923 7.2785 2.2366
0.1309 7.2879 2.2366
-0.1308 7.2879 2.2366
-0.3923 7.2785 2.2366
-0.6532 7.2597 2.2366
-0.9133 7.2315 2.2366
-1.1722 7.1939 2.2366
-1.4297 7.1471 2.2366
-1.6852 7.0910 2.2366
-1.9386 7.0258 2.2366
-2.1894 6.9515 2.2366
-2.4374 6.8683 2.2366
-2.6822 6.7762 2.2366
-2.9236 6.6753 2.2366
-3.1612 6.5658 2.2366
-3.3946 6.4479 2.2366
-3.6237 6.3216 2.2366
-3.8481 6.1872 2.2366
-4.0675 6.0448 2.2366
-4.2816 5.8946 2.2366
-4.4902 5.7369 2.2366
-4.6929 5.5717 2.2366
-4.8896 5.3994 2.2366
-5.0799 5.2201 2.2366
-5.2637 5.0341 2.2366
-5.4406 4.8416 2.2366
-5.6105 4.6429 2.2366
-5.7731 4.4383 2.2366
-5.9283 4.2279 2.2366
-6.0758 4.0121 2.2366
-6.2154 3.7912 2.2366
-6.2518 3.5119 2.2031
-6.2570 3.2251 2.1629
-6.2814 2.9572 2.1334
-6.3830 2.7297 2.1334
-6.4763 2.4986 2.1334
-6.5613 2.2643 2.1334
-6.6378 2.0272 2.1334
-6.7057 1.7875 2.1334
-6.7650 1.5455 2.1334
-6.8155 1.3016 2.1334
-6.8573 1.0560 2.1334
-6.8902 0.8091 2.1334
-6.9142 0.5612 2.1334
-6.9293 0.3126 2.1334
-6.9355 0.0637 2.1334
-6.9327 -0.1853 2.1334
-6.9210 -0.4340 2.1334
-6.9003 -0.6821 2.1334
-6.8708 -0.9293 2.1334
-6.8325 -1.1752 2.1334
-6.7853 -1.4196 2.1334
-6.7294 -1.6622 2.1334
-6.6648 -1.9025 2.1334
-6.5917 -2.1404 2.1334
-6.5101 -2.3754 2.1334
-6.4201 -2.6074 2.1334
-6.3219 -2.8360 2.1334
-6.2607 -3.0831 2.1489
-6.2519 -3.3628 2.1861
-6.2519 -3.6581 2.2307
-6.1322 -3.8901 2.2366
-5.9882 -4.1075 2.2366
-5.8364 -4.3195 2.2366
-5.6772 -4.5260 2.2366
-5.5107 -4.7266 2.2366
-5.3371 -4.9210 2.2366
-5.1567 -5.1092 2.2366
-4.9697 -5.2907 2.2366
-4.7763 -5.4654 2.2366
-4.5767 -5.6331 2.2366
-4.3713 -5.7934 2.2366
-4.1603 -5.9464 2.2366
-3.9439 -6.0916 2.2366
-3.7225 -6.2290 2.2366
-3.4963 -6.3584 2.2366
-3.2657 -6.4796 2.2366
-3.0308 -6.5924 2.2366
-2.7921 -6.6967 2.2366
-2.5498 -6.7925 2.2366
-2.3042 -6.8795 2.2366
-2.0557 -6.9576 2.2366
-1.8045 -7.0267 2.2366
-1.5510 -7.0869 2.2366
-1.2956 -7.1379 2.2366
-1.0385 -7.1797 2.2366
-0.7800 -7.2123 2.2366
-0.5205 -7.2356 2.2366
-0.2604 -7.2496 2.2366
0.0000 -6.7135 2.2366
0.2411 -6.7092 2.2366
0.4818 -6.6962 2.2366
0.7219 -6.6747 2.2366
0.9611 -6.6445 2.2366
1.1991 -6.6058 2.2366
1.4355 -6.5586 2.2366
1.6701 -6.5030 2.2366
1.8149 -6.1422 2.1335
2.0343 -6.0732 2.1335
2.2511 -5.9964 2.1335
2.4650 -5.9120 2.1335
2.6758 -5.8198 2.1335
2.8831 -5.7202 2.1335
3.0867 -5.6132 2.1335
3.2864 -5.4990 2.1335
3.4819 -5.3777 2.1335
3.6729 -5.2495 2.1335
3.8592 -5.1145 2.1335
4.0405 -4.9729 2.1335
4.2167 -4.8249 2.1335
4.3874 -4.6706 2.1335
4.5525 -4.5104 2.1335
4.7118 -4.3443 2.1335
4.8650 -4.1726 2.1335
5.0120 -3.9955 2.1335
5.1525 -3.8132 2.1335
5.2865 -3.6260 2.1335
5.4136 -3.4341 2.1335
5.5338 -3.2378 2.1335
5.6469 -3.0373 2.1335
5.7527 -2.8328 2.1335
5.9830 -2.6838 2.1816
6.0759 -2.4675 2.1816
6.1611 -2.2479 2.1816
6.2383 -2.0255 2.1816
6.3074 -1.8004 2.1816
6.3685 -1.5729 2.1816
6.4214 -1.3434 2.1816
6.4660 -1.1121 2.1816
5.9926 -0.8104 2.0106
6.0304 -0.5960 2.0146
6.5496 -0.4106 2.1816
6.2438 -0.1668 2.0762
5.6633 0.0521 1.8825
5.6904 0.2568 1.8932
5.7211 0.4645 1.9076
5.7585 0.6763 1.9267
5.7967 0.8928 1.9488
5.8358 1.1146 1.9740
5.9807 1.3664 2.0381
6.0229 1.6056 2.0707
6.0665 1.8528 2.1070
6.1117 2.1093 2.1475
6.0949 2.3515 2.1697
6.0400 2.5831 2.1816
5.8128 2.7367 2.1335
5.7113 2.9438 2.1335
5.6023 3.1471 2.1335
5.4861 3.3464 2.1335
5.3628 3.5414 2.1335
5.2326 3.7318 2.1335
5.0956 3.9175 2.1335
4.9521 4.0981 2.1335
4.8021 4.2735 2.1335
4.6459 4.4433 2.1335
4.4837 4.6075 2.1335
4.3156 4.7657 2.1335
4.1420 4.9177 2.1335
3.9631 5.0635 2.1335
3.7790 5.2027 2.1335
3.5900 5.3352 2.1335
3.3963 5.4608 2.1335
3.1983 5.5794 2.1335
2.9961 5.6908 2.1335
2.7900 5.7949 2.1335
2.5803 5.8915 2.1335
2.3673 5.9805 2.1335
2.1512 6.0617 2.1335
1.9323 6.1352 2.1335
1.7936 6.5003 2.2366
1.5592 6.5606 2.2366
1.3227 6.6125 2.2366
1.0846 6.6557 2.2366
0.8450 6.6905 2.2366
0.6044 6.7165 2.2366
0.3630 6.7339 2.2366
0.1211 6.7426 2.2366
-0.1210 6.7426 2.2366
-0.3629 6.7339 2.2366
-0.6043 6.7165 2.2366
-0.8450 6.6904 2.2366
-1.0845 6.6556 2.2366
-1.3227 6.6123 2.2366
-1.5591 6.5605 2.2366
-1.7935 6.5002 2.2366
-2.0256 6.4314 2.2366
-2.2550 6.3544 2.2366
-2.4815 6.2692 2.2366
-2.7048 6.1759 2.2366
-2.9246 6.0747 2.2366
-3.1407 5.9656 2.2366
-3.3526 5.8488 2.2366
-3.5602 5.7244 2.2366
-3.7632 5.5927 2.2366
-3.9613 5.4538 2.2366
-4.1543 5.3078 2.2366
-4.3419 5.1551 2.2366
-4.5238 4.9956 2.2366
-4.6999 4.8298 2.2366
-4.8700 4.6577 2.2366
-5.0337 4.4796 2.2366
-5.1909 4.2958 2.2366
-5.3414 4.1065 2.2366
-5.4850 3.9119 2.2366
-5.6215 3.7122 2.2366
-5.7507 3.5078 2.2366
-5.8725 3.2989 2.2366
-5.9867 3.0858 2.2366
-6.0931 2.8687 2.2366
-6.1917 2.6480 2.2366
-6.2518 2.4121 2.2257
-6.2518 2.1576 2.1969
-6.2546 1.9103 2.1725
-6.2598 1.6687 2.1523
-6.2642 1.4312 2.1350
-6.3063 1.2044 2.1334
-6.3450 0.9772 2.1334
-6.3755 0.7488 2.1334
-6.3977 0.5194 2.1334
-6.4117 0.2894 2.1334
-6.4175 0.0590 2.1334
-6.4149 -0.1714 2.1334
-6.4041 -0.4015 2.1334
-6.3851 -0.6311 2.1334
-6.3578 -0.8598 2.1334
-6.3223 -1.0874 2.1334
-6.2787 -1.3135 2.1334
-6.2616 -1.5465 2.1452
-6.2568 -1.7859 2.1643
-6.2519 -2.0299 2.1866
-6.2519 -2.2811 2.2140
-6.2285 -2.5295 2.2366
-6.1333 -2.7512 2.2366
-6.0301 -2.9694 2.2366
-5.9192 -3.1838 2.2366
-5.8007 -3.3940 2.2366
-5.6747 -3.5998 2.2366
-5.5414 -3.8010 2.2366
-5.4011 -3.9972 2.2366
-5.2538 -4.1882 2.2366
-5.0997 -4.3739 2.2366
-4.9391 -4.5539 2.2366
-4.7721 -4.7280 2.2366
-4.5991 -4.8960 2.2366
-4.4201 -5.0577 2.2366
-4.2354 -5.2129 2.2366
-4.0453 -5.3613 2.2366
-3.8501 -5.5029 2.2366
-3.6499 -5.6373 2.2366
-3.4450 -5.7645 2.2366
-3.2357 -5.8842 2.2366
-3.0222 -5.9964 2.2366
-2.8049 -6.1008 2.2366
-2.5839 -6.1974 2.2366
-2.3597 -6.2860 2.2366
-2.1324 -6.3665 2.2366
-1.9024 -6.4388 2.2366
-1.6700 -6.5028 2.2366
-1.4354 -6.5585 2.2366
-1.1990 -6.6057 2.2366
-0.9610 -6.6444 2.2366
-0.7219 -6.6746 2.2366
-0.4817 -6.6962 2.2366
-0.2410 -6.7091 2.2366
0.0000 -6.2411 2.2366
0.2241 -6.2371 2.2366
0.4479 -6.2251 2.2366
0.6711 -6.2051 2.2366
0.8935 -6.1770 2.2366
1.1147 -6.1410 2.2366
1.3345 -6.0972 2.2366
1.5526 -6.0454 2.2366
1.7687 -5.9859 2.2366
1.8912 -5.6459 2.1335
2.0927 -5.5745 2.1335
2.2916 -5.4959 2.1335
2.4875 -5.4103 2.1335
2.6802 -5.3177 2.1335
2.8695 -5.2182 2.1335
3.0552 -5.1120 2.1335
3.2369 -4.9992 2.1335
3.4144 -4.8800 2.1335
3.5876 -4.7545 2.1335
3.7562 -4.6228 2.1335
3.9199 -4.4852 2.1335
4.0786 -4.3418 2.1335
4.2321 -4.1928 2.1335
4.3802 -4.0384 2.1335
4.5226 -3.8788 2.1335
4.6592 -3.7141 2.1335
4.7898 -3.5447 2.1335
4.9143 -3.3707 2.1335
5.0325 -3.1923 2.1335
5.1442 -3.0097 2.1335
5.2493 -2.8233 2.1335
5.3476 -2.6332 2.1335
5.4391 -2.4397 2.1335
5.5235 -2.2430 2.1335
5.6009 -2.0434 2.1335
5.6711 -1.8412 2.1335
5.7339 -1.6365 2.1335
5.7894 -1.4298 2.1335
5.9690 -1.2486 2.1816
6.0104 -1.0336 2.1816
5.9926 -0.8103 2.1630
6.0304 -0.5959 2.1674
6.0881 -0.3816 2.1816
6.0983 -0.1628 2.1816
5.6633 0.0522 2.0252
5.6904 0.2569 2.0367
5.7212 0.4646 2.0522
5.7585 0.6764 2.0728
5.7967 0.8929 2.0966
5.8358 1.1147 2.1237
5.9504 1.3596 2.1816
5.7682 1.5377 2.1335
5.7097 1.7439 2.1335
5.6438 1.9479 2.1335
5.5706 2.1494 2.1335
5.4903 2.3481 2.1335
5.4028 2.5438 2.1335
5.3084 2.7363 2.1335
5.2071 2.9252 2.1335
5.0991 3.1104 2.1335
4.9845 3.2917 2.1335
4.8635 3.4686 2.1335
4.7361 3.6412 2.1335
4.6026 3.8090 2.1335
4.4632 3.9720 2.1335
4.3180 4.1299 2.1335
4.1672 4.2824 2.1335
4.0111 4.4294 2.1335
3.8497 4.5708 2.1335
3.6834 4.7062 2.1335
3.5122 4.8356 2.1335
3.3366 4.9587 2.1335
3.1566 5.0755 2.1335
2.9725 5.1857 2.1335
2.7846 5.2892 2.1335
2.5931 5.3859 2.1335
0.8579 1.9587 0.7632
2.2002 5.5584 2.1335
1.9993 5.6339 2.1335
1.8036 5.7267 2.1427
1.6670 6.0415 2.2366
1.4491 6.0975 2.2366
1.2294 6.1457 2.2366
1.0080 6.1859 2.2366
0.7854 6.2182 2.2366
0.5617 6.2424 2.2366
0.3373 6.2586 2.2366
0.1125 6.2666 2.2366
-0.1125 6.2666 2.2366
-0.3373 6.2585 2.2366
-0.5617 6.2424 2.2366
-0.7853 6.2181 2.2366
-1.0079 6.1858 2.2366
-1.2293 6.1456 2.2366
-1.4490 6.0974 2.2366
-1.6669 6.0414 2.2366
-1.8826 5.9775 2.2366
-2.0958 5.9059 2.2366
-2.3063 5.8268 2.2366
-0.8578 1.9587 0.7632
-0.9276 1.9267 0.7632
-2.9190 5.5446 2.2366
-3.1159 5.4360 2.2366
-3.3089 5.3205 2.2366
-3.4976 5.1981 2.2366
-3.6817 5.0690 2.2366
-3.8611 4.9333 2.2366
-4.0354 4.7914 2.2366
-4.2046 4.6432 2.2366
-4.3683 4.4891 2.2366
-4.5263 4.3292 2.2366
-4.6785 4.1637 2.2366
-4.8247 3.9928 2.2366
-4.9646 3.8169 2.2366
-5.0980 3.6360 2.2366
-5.2249 3.4505 2.2366
-5.3450 3.2605 2.2366
-5.4583 3.0663 2.2366
-5.5644 2.8683 2.2366
-5.6634 2.6665 2.2366
-5.7551 2.4614 2.2366
-5.8393 2.2530 2.2366
-5.9160 2.0418 2.2366
-5.9850 1.8281 2.2366
-6.0463 1.6119 2.2366
-6.0998 1.3938 2.2366
-6.1455 1.1738 2.2366
-6.1832 0.9524 2.2366
-6.2129 0.7298 2.2366
-6.2346 0.5063 2.2366
-6.2483 0.2821 2.2366
-6.2519 0.0576 2.2359
-6.2515 -0.1669 2.2366
-6.2410 -0.3911 2.2366
-6.2225 -0.6149 2.2366
-6.1959 -0.8378 2.2366
-6.1614 -1.0596 2.2366
-6.1189 -1.2800 2.2366
-6.0686 -1.4987 2.2366
-6.0104 -1.7155 2.2366
-5.9445 -1.9300 2.2366
-5.8710 -2.1420 2.2366
-5.7899 -2.3512 2.2366
-5.7014 -2.5574 2.2366
-5.6055 -2.7602 2.2366
-5.5024 -2.9595 2.2366
-5.3923 -3.1549 2.2366
-5.2752 -3.3463 2.2366
-5.1513 -3.5333 2.2366
-5.0209 -3.7157 2.2366
-4.8839 -3.8933 2.2366
-4.7407 -4.0659 2.2366
-4.5915 -4.2333 2.2366
-4.4363 -4.3952 2.2366
-4.2754 -4.5514 2.2366
-4.1090 -4.7017 2.2366
-3.9374 -4.8460 2.2366
-3.7607 -4.9840 2.2366
-3.5792 -5.1156 2.2366
-3.3931 -5.2405 2.2366
-3.2026 -5.3588 2.2366
-3.0080 -5.4701 2.2366
-2.8096 -5.5744 2.2366
-2.6075 -5.6715 2.2366
-2.4022 -5.7613 2.2366
-2.1937 -5.8437 2.2366
-1.9824 -5.9185 2.2366
-1.7686 -5.9858 2.2366
-1.5525 -6.0453 2.2366
-1.3344 -6.0970 2.2366
-1.1147 -6.1410 2.2366
-0.8934 -6.1770 2.2366
-0.6711 -6.2050 2.2366
-0.4478 -6.2251 2.2366
-0.2241 -6.2371 2.2366
0.0000 -5.8247 2.2366
0.2092 -5.8209 2.2366
0.4180 -5.8097 2.2366
0.6264 -5.7910 2.2366
0.8339 -5.7648 2.2366
1.0404 -5.7312 2.2366
1.2455 -5.6903 2.2366
1.4490 -5.6420 2.2366
1.6507 -5.5864 2.2366
1.7967 -5.3637 2.1718
1.9531 -5.2025 2.1335
2.1387 -5.1291 2.1335
2.3215 -5.0492 2.1335
2.5014 -4.9627 2.1335
2.6781 -4.8699 2.1335
2.8513 -4.7708 2.1335
3.0209 -4.6655 2.1335
3.1866 -4.5542 2.1335
3.3482 -4.4371 2.1335
3.5055 -4.3142 2.1335
3.6583 -4.1858 2.1335
3.8064 -4.0519 2.1335
3.9496 -3.9129 2.1335
4.0878 -3.7687 2.1335
4.2207 -3.6197 2.1335
4.3482 -3.4661 2.1335
4.4700 -3.3079 2.1335
4.5862 -3.1455 2.1335
4.6965 -2.9790 2.1335
4.8007 -2.8087 2.1335
4.8987 -2.6347 2.1335
4.9905 -2.4573 2.1335
5.0758 -2.2767 2.1335
5.1546 -2.0931 2.1335
5.2268 -1.9069 2.1335
5.2922 -1.7181 2.1335
5.3509 -1.5271 2.1335
5.4026 -1.3341 2.1335
5.4474 -1.1394 2.1335
5.4852 -0.9432 2.1335
5.5159 -0.7457 2.1335
5.5395 -0.5473 2.1335
5.5560 -0.3481 2.1335
5.5653 -0.1485 2.1335
5.5675 0.0514 2.1335
5.5624 0.2512 2.1335
5.5502 0.4508 2.1335
5.5309 0.6498 2.1335
5.5044 0.8479 2.1335
5.4708 1.0450 2.1335
5.4301 1.2408 2.1335
5.3825 1.4350 2.1335
5.3279 1.6274 2.1335
5.2664 1.8177 2.1335
5.1981 2.0057 2.1335
5.1231 2.1911 2.1335
5.0415 2.3738 2.1335
4.9534 2.5533 2.1335
4.8588 2.7297 2.1335
4.7580 2.9025 2.1335
4.6510 3.0716 2.1335
4.5381 3.2367 2.1335
4.4192 3.3977 2.1335
4.2947 3.5543 2.1335
4.1646 3.7063 2.1335
4.0291 3.8536 2.1335
3.8884 3.9959 2.1335
3.7427 4.1331 2.1335
3.5921 4.2650 2.1335
3.4368 4.3913 2.1335
3.2772 4.5120 2.1335
3.1133 4.6269 2.1335
2.9453 4.7358 2.1335
2.7735 4.8387 2.1335
2.5982 4.9353 2.1335
0.8656 1.7979 0.7633
0.8005 1.8278 0.7633
0.7344 1.8554 0.7633
0.6674 1.8806 0.7632
0.5994 1.9033 0.7632
0.5307 1.9236 0.7632
0.4614 1.9414 0.7632
0.3914 1.9567 0.7632
0.9405 5.7719 2.2366
0.7328 5.8020 2.2366
0.5241 5.8246 2.2366
0.3148 5.8397 2.2366
0.1050 5.8472 2.2366
-0.1049 5.8472 2.2366
-0.3147 5.8396 2.2366
-0.5240 5.8245 2.2366
-0.7327 5.8019 2.2366
-0.9405 5.7718 2.2366
-0.3914 1.9567 0.7632
-0.4614 1.9414 0.7632
-0.5307 1.9236 0.7632
-0.5994 1.9033 0.7632
-0.6673 1.8806 0.7633
-0.7344 1.8554 0.7633
-0.8005 1.8278 0.7633
-0.8656 1.7979 0.7633
-0.9295 1.7657 0.7633
-2.9074 5.0723 2.2366
-3.0874 4.9645 2.2366
-3.2635 4.8503 2.2366
-3.4353 4.7298 2.2366
-3.6027 4.6033 2.2366
-3.7654 4.4708 2.2366
-3.9232 4.3326 2.2366
-4.0760 4.1888 2.2366
-4.2235 4.0396 2.2366
-4.3655 3.8852 2.2366
-4.5019 3.7258 2.2366
-4.6324 3.5616 2.2366
-4.7570 3.3929 2.2366
-4.8754 3.2198 2.2366
-4.9875 3.0425 2.2366
-5.0932 2.8614 2.2366
-5.1923 2.6765 2.2366
-5.2846 2.4883 2.2366
-5.3702 2.2969 2.2366
-5.4488 2.1025 2.2366
-5.5204 1.9054 2.2366
-5.5848 1.7059 2.2366
-5.6421 1.5043 2.2366
-5.6920 1.3007 2.2366
-5.7346 1.0955 2.2366
-5.7698 0.8888 2.2366
-5.7976 0.6811 2.2366
-5.8179 0.4725 2.2366
-5.8307 0.2634 2.2366
-5.8360 0.0539 2.2366
-5.8337 -0.1556 2.2366
-5.8240 -0.3649 2.2366
-5.8067 -0.5737 2.2366
-5.7819 -0.7817 2.2366
-5.7497 -0.9887 2.2366
-5.7101 -1.1944 2.2366
-5.6632 -1.3985 2.2366
-5.6089 -1.6008 2.2366
-5.5475 -1.8010 2.2366
-5.4789 -1.9988 2.2366
-5.4032 -2.1941 2.2366
-5.3206 -2.3865 2.2366
-5.2312 -2.5758 2.2366
-5.1350 -2.7618 2.2366
-5.0322 -2.9442 2.2366
-4.9230 -3.1227 2.2366
-4.8074 -3.2973 2.2366
-4.6857 -3.4676 2.2366
-4.5579 -3.6333 2.2366
-4.4243 -3.7944 2.2366
-4.2850 -3.9506 2.2366
-4.1402 -4.1017 2.2366
-3.9900 -4.2475 2.2366
-3.8348 -4.3878 2.2366
-3.6746 -4.5225 2.2366
-3.5097 -4.6513 2.2366
-3.3403 -4.7741 2.2366
-3.1666 -4.8907 2.2366
-2.9889 -5.0011 2.2366
-2.8073 -5.1050 2.2366
-2.6221 -5.2024 2.2366
-2.4336 -5.2930 2.2366
-2.2419 -5.3768 2.2366
-2.0473 -5.4537 2.2366
-1.8502 -5.5236 2.2366
-1.6506 -5.5863 2.2366
-1.4489 -5.6419 2.2366
-1.2454 -5.6902 2.2366
-1.0403 -5.7312 2.2366
-0.8338 -5.7648 2.2366
-0.6263 -5.7909 2.2366
-0.4180 -5.8097 2.2366
-0.2091 -5.8209 2.2366
0.0000 -5.4543 2.2366
0.1959 -5.4508 2.2366
0.3915 -5.4403 2.2366
0.5866 -5.4228 2.2366
0.7809 -5.3983 2.2366
0.9742 -5.3668 2.2366
1.1663 -5.3285 2.2366
1.3569 -5.2832 2.2366
1.5458 -5.2312 2.2366
1.7327 -5.1725 2.2366
1.8289 -4.8717 2.1335
2.0027 -4.8030 2.1335
2.1739 -4.7281 2.1335
2.3424 -4.6472 2.1335
2.5078 -4.5602 2.1335
2.6700 -4.4674 2.1335
2.8288 -4.3688 2.1335
2.9840 -4.2646 2.1335
3.1353 -4.1549 2.1335
3.2826 -4.0398 2.1335
3.4257 -3.9195 2.1335
3.5643 -3.7942 2.1335
3.6984 -3.6639 2.1335
3.8278 -3.5290 2.1335
3.9522 -3.3894 2.1335
4.0716 -3.2455 2.1335
4.1857 -3.0974 2.1335
4.2945 -2.9453 2.1335
4.3977 -2.7894 2.1335
4.4953 -2.6299 2.1335
4.5871 -2.4670 2.1335
4.6730 -2.3008 2.1335
4.7529 -2.1317 2.1335
4.8266 -1.9599 2.1335
4.8942 -1.7854 2.1335
4.9555 -1.6087 2.1335
5.0104 -1.4299 2.1335
5.0588 -1.2492 2.1335
5.1007 -1.0668 2.1335
5.1361 -0.8831 2.1335
5.1648 -0.6982 2.1335
5.1869 -0.5124 2.1335
5.2023 -0.3259 2.1335
5.2110 -0.1389 2.1335
5.2130 0.0482 2.1335
5.2083 0.2353 2.1335
5.1968 0.4222 2.1335
5.1787 0.6085 2.1335
5.1538 0.7940 2.1335
5.1224 0.9786 2.1335
5.0843 1.1619 2.1335
5.0396 1.3437 2.1335
4.9885 1.5238 2.1335
4.9309 1.7020 2.1335
4.8669 1.8780 2.1335
4.7967 2.0516 2.1335
4.7203 2.2226 2.1335
4.6377 2.3907 2.1335
4.5492 2.5558 2.1335
4.4548 2.7176 2.1335
4.3547 2.8759 2.1335
4.2489 3.0305 2.1335
4.1376 3.1812 2.1335
4.0210 3.3278 2.1335
3.8991 3.4702 2.1335
3.7723 3.6081 2.1335
3.6405 3.7413 2.1335
3.5041 3.8697 2.1335
3.3631 3.9932 2.1335
3.2178 4.1115 2.1335
3.0682 4.2245 2.1335
2.9148 4.3320 2.1335
2.7575 4.4340 2.1335
2.5967 4.5303 2.1335
0.8704 1.6533 0.7634
0.8105 1.6835 0.7634
0.7496 1.7115 0.7634
0.6877 1.7373 0.7633
0.6249 1.7609 0.7633
0.5613 1.7822 0.7633
0.4970 1.8012 0.7633
0.4320 1.8178 0.7633
0.3665 1.8322 0.7633
0.3005 1.8442 0.7633
0.2341 1.8537 0.7633
0.1675 1.8610 0.7633
0.1006 1.8658 0.7633
0.0335 1.8682 0.7633
-0.0335 1.8682 0.7633
-0.1005 1.8658 0.7633
-0.1674 1.8610 0.7633
-0.2341 1.8538 0.7633
-0.3005 1.8441 0.7633
-0.3665 1.8322 0.7633
-0.4320 1.8178 0.7633
-0.4969 1.8012 0.7633
-0.5613 1.7822 0.7633
-0.6248 1.7609 0.7633
-0.6876 1.7373 0.7634
-0.7495 1.7115 0.7634
-0.8105 1.6835 0.7634
-0.8704 1.6533 0.7634
-0.9291 1.6210 0.7634
-2.8906 4.6481 2.2366
-3.0554 4.5412 2.2366
-3.2163 4.4284 2.2366
-3.3730 4.3099 2.2366
-3.5254 4.1859 2.2366
-3.6731 4.0565 2.2366
-3.8162 3.9219 2.2366
-3.9543 3.7822 2.2366
-4.0873 3.6377 2.2366
-4.2150 3.4885 2.2366
-4.3372 3.3347 2.2366
