ply
format ascii 1.0
element vertex 2144
property float32 x
property float32 y
property float32 z
end_header
2.3463 -2.4978 0.2586
2.4652 -2.4424 0.2616
2.5873 -2.3855 0.2651
2.7130 -2.3269 0.2689
2.8430 -2.2664 0.2732
2.9776 -2.2036 0.2781
6.4676 -4.4362 0.5880
6.5961 -4.1843 0.5850
6.7098 -3.9259 0.5814
7.0425 -3.7879 0.5973
7.3458 -3.6173 0.6109
7.6955 -3.4520 0.6284
8.4290 -3.4231 0.6769
9.3826 -3.4234 0.7421
10.5445 -3.4237 0.8226
7.2315 -2.0641 0.5572
6.6396 -1.6399 0.5061
6.4967 -1.3591 0.4904
6.5348 -1.1240 0.4892
6.5086 -0.8802 0.4839
6.5350 -0.6459 0.4831
6.4262 -0.4029 0.4730
6.5934 -0.1761 0.4838
6.6636 0.0613 0.4881
7.2133 0.3255 0.5281
7.4091 0.6015 0.5429
7.8845 0.9260 0.5789
7.8839 1.2142 0.5809
6.8879 1.3155 0.5099
6.8435 1.5635 0.5097
7.9448 2.1179 0.5962
7.9420 2.4256 0.6012
7.8439 2.7070 0.5999
7.3583 2.8389 0.5694
6.6173 2.8299 0.5189
6.6092 3.1116 0.5260
7.9425 4.0938 0.6425
7.8538 4.4119 0.6469
7.4832 4.5645 0.6287
6.8526 4.5251 0.5882
6.5554 4.6752 0.5761
7.3710 5.6667 0.6644
7.0609 5.8432 0.6542
6.7252 5.9848 0.6419
6.5865 6.2993 0.6491
6.4149 6.5920 0.6544
6.3649 7.0286 0.6739
8.2803 9.8308 0.9126
7.7192 9.8625 0.8884
7.2648 10.0017 0.8761
6.9008 10.2555 0.8753
6.6140 10.6344 0.8861
6.4390 11.2327 0.9154
7.1113 13.5073 1.0785
6.5037 13.5083 1.0585
2.4086 5.4994 0.4236
5.9597 15.0559 1.1419
5.9307 16.7116 1.2499
8.2000 26.0353 1.9231
7.2626 26.3208 1.9229
6.4418 27.1054 1.9613
5.8315 29.1517 2.0923
4.8796 29.9440 2.1347
3.8025 30.1058 2.1347
2.7200 30.2270 2.1347
1.7125 31.7714 2.2377
0.5712 31.8134 2.2377
-0.5709 31.8126 2.2377
-1.7121 31.7691 2.2377
-2.8508 31.6829 2.2377
-3.9853 31.5542 2.2377
-5.1139 31.3833 2.2377
-6.1511 30.7504 2.2076
-7.0082 29.4892 2.1345
-8.0587 29.2069 2.1345
-9.0976 28.8857 2.1345
-10.1232 28.5261 2.1345
-11.3598 28.6983 2.1777
-12.3749 28.2549 2.1777
-13.3722 27.7744 2.1777
-14.3502 27.2573 2.1777
-15.3077 26.7046 2.1777
-13.1130 21.0841 1.7581
-13.6182 20.2386 1.7287
-14.1656 19.5025 1.7097
-14.4995 18.5256 1.6702
-14.6909 17.4421 1.6206
-14.8711 16.4218 1.5760
-15.0415 15.4568 1.5358
-11.2623 10.7712 1.1109
-11.2612 10.0216 1.0759
-11.5057 9.5216 1.0671
-11.9028 9.1508 1.0740
-12.5084 8.9208 1.1004
-11.8165 7.8031 1.0155
-13.0668 7.9704 1.0990
-13.2553 7.4462 1.0931
-11.7827 6.0732 0.9543
-13.3645 6.2921 1.0649
-13.5472 5.7935 1.0636
-12.0557 4.6513 0.9341
-13.6783 4.7206 1.0475
-13.7702 4.2056 1.0438
-12.7496 3.3987 0.9579
-12.5744 2.8728 0.9377
-12.5239 2.3918 0.9283
-12.7517 1.9639 0.9407
-13.1197 1.5408 0.9646
-18.9093 1.5350 1.3874
-14.1627 0.6391 1.0383
-13.5513 0.1246 0.9939
-13.3320 -0.3562 0.9796
-13.2919 -0.8334 0.9796
-13.4159 -1.3260 0.9931
-13.8485 -1.8728 1.0309
-15.0815 -2.5939 1.1305
-14.3527 -3.0027 1.0848
-13.2886 -3.2821 1.0141
-14.6601 -4.1846 1.1311
-14.1217 -4.5852 1.1031
-13.6511 -4.9808 1.0810
-14.8066 -6.0132 1.1905
-14.1251 -6.3362 1.1548
-15.1203 -7.4458 1.2588
-14.7368 -7.9266 1.2514
-14.7673 -8.6404 1.2811
-16.5557 -10.5023 1.4698
-15.9112 -10.9137 1.4482
-15.4705 -11.4494 1.4462
-15.5490 -12.3956 1.4959
-16.5832 -14.2231 1.6453
-15.6134 -14.3958 1.6010
-14.7019 -14.5661 1.5618
-15.0595 -16.0320 1.6615
-15.4775 -17.7103 1.7783
-17.8131 -21.9241 2.1377
-7.5483 -10.0038 0.9492
-6.9992 -10.0039 0.9255
-7.9979 -12.3529 1.1164
-14.4453 -24.1713 2.1377
-7.2411 -13.1683 1.1417
-12.6567 -25.1123 2.1377
-11.7400 -25.5354 2.1377
-10.8097 -25.9263 2.1377
-9.8520 -26.2445 2.1345
-8.8993 -26.5694 2.1345
-7.9365 -26.8609 2.1345
-6.9645 -27.1190 2.1345
-6.1670 -28.1772 2.1996
-5.2394 -28.8653 2.2377
-4.1988 -29.0289 2.2377
-3.1533 -29.1564 2.2377
-2.1042 -29.2478 2.2377
-1.0527 -29.3029 2.2377
0.0001 -22.6009 2.2377
0.8116 -22.5872 2.2377
1.6223 -22.5452 2.2377
2.3191 -21.4396 2.1347
2.4545 -16.9678 1.6968
3.8531 -21.2253 2.1347
4.6138 -21.0781 2.1347
5.3691 -20.9045 2.1347
5.5752 -18.8675 1.9452
6.3203 -18.8677 1.9667
6.5509 -17.4491 1.8415
2.1580 -5.1752 0.5538
2.3405 -5.0902 0.5531
2.5229 -5.0052 0.5530
2.7057 -4.9200 0.5537
2.8894 -4.8344 0.5551
6.6970 -10.3426 1.2137
6.0334 -8.6226 1.0360
6.5024 -8.6169 1.0620
2.1166 -2.6048 0.3300
2.2303 -2.5518 0.3329
2.3465 -2.4977 0.3364
2.4654 -2.4423 0.3404
2.5875 -2.3854 0.3449
2.7132 -2.3268 0.3500
2.8432 -2.2663 0.3557
2.9778 -2.2035 0.3621
6.4678 -4.4358 0.7660
6.5963 -4.1839 0.7622
6.7101 -3.9255 0.7578
6.9163 -3.7195 0.7648
7.2617 -3.5753 0.7875
7.6965 -3.4519 0.8198
8.4306 -3.4231 0.8834
9.3844 -3.4234 0.9689
10.3871 -3.3718 1.0581
6.8246 -1.9475 0.6869
6.6393 -1.6394 0.6612
6.4964 -1.3586 0.6410
6.5348 -1.1235 0.6396
6.5086 -0.8798 0.6329
6.5350 -0.6455 0.6321
6.4262 -0.4025 0.6191
6.5937 -0.1757 0.6335
6.6640 0.0617 0.6393
6.9459 0.3139 0.6662
7.4103 0.6021 0.7116
7.8845 0.9265 0.7590
7.8841 1.2147 0.7618
6.9104 1.3202 0.6711
6.3328 1.4473 0.6190
7.9420 2.1176 0.7824
7.9420 2.4261 0.7896
7.8439 2.7076 0.7881
7.3565 2.8387 0.7481
6.5452 2.7995 0.6747
6.2906 2.9621 0.6583
7.9425 4.0944 0.8452
7.8534 4.4122 0.8512
7.4819 4.5643 0.8273
6.9104 4.5639 0.7810
6.3797 4.5504 0.7383
7.3047 5.6163 0.8674
6.9944 5.7888 0.8539
6.7636 6.0196 0.8509
6.5863 6.2997 0.8557
6.4600 6.6389 0.8690
6.4286 7.0996 0.8979
8.2795 9.8308 1.2040
7.7186 9.8626 1.1723
7.3171 10.0746 1.1648
6.9554 10.3375 1.1648
6.6138 10.6348 1.1701
6.5535 11.4335 1.2305
7.1108 13.5073 1.4246
6.5033 13.5083 1.3984
2.4080 5.4984 0.5596
5.4261 13.7089 1.3740
5.3426 15.0557 1.4882
6.9084 21.9359 2.1417
6.1186 22.1765 2.1417
5.3029 22.3144 2.1347
4.4997 22.4955 2.1347
3.6902 22.6468 2.1347
2.8756 22.7680 2.1347
2.0569 22.8589 2.1347
1.2950 24.0264 2.2377
0.4319 24.0579 2.2377
-0.4317 24.0575 2.2377
-1.2947 24.0250 2.2377
-2.1558 23.9607 2.2377
-3.0138 23.8645 2.2377
-3.8676 23.7365 2.2377
-4.7158 23.5772 2.2377
-5.5574 23.3865 2.2377
-6.1604 22.3286 2.1570
-6.8829 21.8555 2.1345
-6.4720 18.2388 1.8035
-8.4260 21.2883 2.1345
-9.1803 20.9625 2.1345
-9.9217 20.6093 2.1345
-10.6654 20.2599 2.1377
-11.3791 19.8527 2.1377
-12.0769 19.4197 2.1377
-12.7579 18.9616 2.1377
-13.4211 18.4791 2.1377
-14.0656 17.9728 2.1377
-14.6907 17.4434 2.1377
-14.8709 16.4231 2.0784
-15.0413 15.4581 2.0249
-11.2627 10.7727 1.4644
-11.3572 10.1081 1.4298
-11.5053 9.5222 1.4057
-11.9937 9.2217 1.4253
-11.0928 7.9122 1.2849
-11.8146 7.8028 1.3364
-12.2264 7.4588 1.3532
-11.4107 6.4109 1.2378
-11.5786 5.9689 1.2332
-12.5899 5.9283 1.3188
-12.6771 5.4224 1.3081
-11.7817 4.5464 1.1993
-13.6784 4.7216 1.3757
-13.7700 4.2065 1.3703
-12.6727 3.3791 1.2496
-12.5228 2.8619 1.2253
-12.6874 2.4240 1.2334
-12.7511 1.9646 1.2333
-13.0412 1.5324 1.2567
-18.9228 1.5374 1.8190
-14.0154 0.6334 1.3457
-13.6800 0.1267 1.3137
-13.3322 -0.3553 1.2821
-13.4019 -0.8393 1.2923
-13.3728 -1.3208 1.2947
-13.7348 -1.8566 1.3368
-15.0816 -2.5929 1.4777
-14.3551 -3.0022 1.4177
-13.0949 -3.2333 1.3053
-14.2859 -4.0768 1.4392
-14.1238 -4.5849 1.4401
-13.3047 -4.8535 1.3749
-14.4109 -5.8514 1.5115
-14.1270 -6.3360 1.5062
-13.1397 -6.4695 1.4262
-14.7371 -7.9256 1.6310
-14.7688 -8.6401 1.6694
-16.5570 -10.5018 1.9147
-15.9471 -10.9371 1.8901
-15.4708 -11.4483 1.8829
-15.5488 -12.3940 1.9470
-16.5587 -14.2007 2.1377
-15.6144 -14.3953 2.0829
-14.7283 -14.5908 2.0349
-14.9008 -15.8615 2.1377
-14.3113 -16.3744 2.1377
-13.7047 -16.8660 2.1377
-7.5489 -10.0038 1.2336
-6.9998 -10.0039 1.2026
-7.9979 -12.3519 1.4502
-11.1217 -18.6085 2.1377
-7.2416 -13.1683 1.4827
-9.7328 -19.3094 2.1345
-9.0291 -19.6374 2.1345
-8.3146 -19.9405 2.1345
-6.9873 -18.6121 1.9649
-6.8571 -20.4708 2.1345
-6.1727 -20.8902 2.1544
-5.6268 -21.9088 2.2377
-4.8354 -22.0915 2.2377
-4.0382 -22.2465 2.2377
-3.2363 -22.3736 2.2377
-2.4306 -22.4727 2.2377
-1.6220 -22.5437 2.2377
-0.8114 -22.5864 2.2377
0.0001 -18.3712 2.2377
0.6598 -18.3599 2.2377
1.3188 -18.3256 2.2377
1.8917 -17.4870 2.1421
2.0417 -14.1131 1.7364
2.4250 -13.3578 1.6529
3.7500 -17.1308 2.1347
4.3637 -16.9888 2.1347
4.9722 -16.8254 2.1347
5.5747 -16.6407 2.1347
6.1909 -16.4891 2.1417
2.1581 -5.1752 0.6816
2.3406 -5.0901 0.6808
2.5230 -5.0051 0.6808
2.7059 -4.9199 0.6817
2.8896 -4.8343 0.6835
5.6358 -8.7030 1.2576
6.0293 -8.6160 1.2749
6.5030 -8.6169 1.3081
2.1168 -2.6048 0.4065
2.2305 -2.5518 0.4102
2.3466 -2.4977 0.4145
2.4655 -2.4422 0.4195
2.5877 -2.3853 0.4251
2.7134 -2.3267 0.4315
2.8434 -2.2662 0.4386
2.9780 -2.2034 0.4466
6.4680 -4.4354 0.9447
6.5965 -4.1835 0.9402
6.7567 -3.9522 0.9414
6.9642 -3.7448 0.9502
7.2622 -3.5750 0.9720
7.6974 -3.4517 1.0121
8.4321 -3.4231 1.0909
9.6748 -3.5286 1.2335
10.5293 -3.4172 1.3248
6.9263 -1.9761 0.8612
6.6391 -1.6388 0.8169
6.4962 -1.3581 0.7921
6.3906 -1.0983 0.7733
6.3539 -0.8584 0.7639
6.3900 -0.6307 0.7643
6.4263 -0.4020 0.7658
6.5939 -0.1753 0.7838
6.7384 0.0629 0.8000
6.9922 0.3165 0.8301
7.8852 0.6412 0.9374
7.8845 0.9270 0.9398
7.8842 1.2153 0.9435
6.9074 1.3201 0.8310
6.1910 1.4153 0.7498
7.9420 2.1182 0.9696
7.9420 2.4267 0.9787
7.8440 2.7082 0.9772
7.3555 2.8389 0.9276
6.6344 2.8382 0.8483
6.2933 2.9638 0.8171
6.1273 3.1591 0.8090
7.4327 4.1765 0.9998
7.2874 4.4462 1.0003
6.9096 4.5639 0.9695
6.3971 4.5633 0.9193
6.0522 4.6539 0.8925
6.9539 5.7559 1.0546
6.7245 5.9854 1.0510
6.5861 6.3001 1.0633
6.4148 6.5931 1.0725
6.3652 7.0301 1.1050
8.2788 9.8308 1.4966
7.7180 9.8627 1.4575
7.3167 10.0749 1.4483
6.9551 10.3378 1.4485
6.6136 10.6353 1.4552
6.5535 11.4344 1.5307
7.1103 13.5073 1.7721
6.4593 13.4180 1.7281
2.4074 5.4975 0.6962
5.3504 13.5183 1.6859
5.3592 15.1034 1.8578
5.4528 17.3153 2.1039
4.8999 17.7605 2.1347
4.2604 17.9288 2.1347
3.6149 18.0734 2.1347
2.9645 18.1943 2.1347
2.3100 18.2911 2.1347
1.7321 19.2507 2.2377
1.0403 19.3014 2.2377
0.3470 19.3267 2.2377
-0.3467 19.3264 2.2377
-1.0400 19.3006 2.2377
-1.7318 19.2492 2.2377
-2.4211 19.1725 2.2377
-3.1070 19.0704 2.2377
-3.7887 18.9432 2.2377
-4.4651 18.7910 2.2377
-5.1352 18.6141 2.2377
-5.7982 18.4127 2.2377
-6.1665 17.3791 2.1383
-6.7717 17.1100 2.1345
-7.3786 16.8497 2.1345
-7.9752 16.5674 2.1345
-8.5609 16.2635 2.1345
-9.1348 15.9384 2.1345
-9.6961 15.5927 2.1345
-10.2597 15.2500 2.1377
-10.7945 14.8639 2.1377
-11.3145 14.4587 2.1377
-11.8190 14.0349 2.1377
-12.3073 13.5932 2.1377
-12.7790 13.1343 2.1377
-11.2632 10.7743 1.8195
-11.3571 10.1090 1.7761
-11.5048 9.5229 1.7458
-11.9929 9.2221 1.7698
-10.5732 7.5424 1.5205
-11.7051 7.7314 1.6436
-11.8942 7.2571 1.6338
-10.9501 6.1529 1.4740
-11.6926 6.0286 1.5450
-12.2495 5.7690 1.5915
-12.3344 5.2767 1.5783
-11.5188 4.4458 1.4538
-13.6785 4.7226 1.7053
-13.7699 4.2075 1.6983
-12.6734 3.3802 1.5485
-12.5227 2.8628 1.5179
-12.6873 2.4248 1.5277
-12.7505 1.9654 1.5272
-13.0401 1.5332 1.5557
-17.9670 1.4610 2.1377
-14.0167 0.6345 1.6655
-13.6809 0.1276 1.6255
-13.3325 -0.3544 1.5860
-13.4017 -0.8384 1.5982
-13.3749 -1.3201 1.6011
-13.7331 -1.8554 1.6524
-15.0817 -2.5919 1.8263
-14.3578 -3.0018 1.7522
-13.0811 -3.2290 1.6109
-13.8554 -3.9529 1.7241
-13.7875 -4.4747 1.7361
-13.0737 -4.7683 1.6681
-13.9990 -5.6831 1.8125
-14.1101 -6.3274 1.8567
-13.1993 -6.4978 1.7679
-14.7374 -7.9246 2.0123
-14.7703 -8.6398 2.0594
-14.9886 -9.5058 2.1377
-14.6267 -10.0303 2.1377
-14.2469 -10.5414 2.1377
-13.8494 -11.0383 2.1377
-13.4350 -11.5206 2.1377
-13.0041 -11.9876 2.1377
-12.5573 -12.4388 2.1377
-12.0951 -12.8738 2.1377
-11.6182 -13.2919 2.1377
-11.1271 -13.6927 2.1377
-7.5495 -10.0038 1.5193
-7.0004 -10.0039 1.4809
-7.6112 -11.7539 1.6992
-9.0203 -15.0914 2.1345
-7.2422 -13.1683 1.8253
-7.9074 -15.6868 2.1345
-7.3363 -15.9546 2.1345
-6.7563 -16.2022 2.1345
-6.1759 -16.4497 2.1372
-5.8423 -17.4400 2.2377
-5.2109 -17.6340 2.2377
-4.5733 -17.8058 2.2377
-3.9302 -17.9551 2.2377
-3.2824 -18.0817 2.2377
-2.6307 -18.1856 2.2377
-1.9758 -18.2666 2.2377
-1.3185 -18.3245 2.2377
-0.6596 -18.3594 2.2377
0.0001 -15.4617 2.2377
0.5554 -15.4521 2.2377
1.1100 -15.4230 2.2377
1.6633 -15.3744 2.2377
2.0417 -14.1121 2.0631
2.4252 -13.3578 1.9641
3.1560 -14.4162 2.1347
3.6724 -14.2963 2.1347
4.1843 -14.1582 2.1347
4.6911 -14.0021 2.1347
5.1923 -13.8283 2.1347
2.1582 -5.1751 0.8101
2.3408 -5.0901 0.8092
2.5232 -5.0050 0.8093
2.7061 -4.9198 0.8104
2.8898 -4.8342 0.8126
5.5793 -8.6151 1.4802
6.0299 -8.6161 1.5160
6.4471 -8.5421 1.5420
2.1169 -2.6047 0.4834
2.2306 -2.5517 0.4879
2.3468 -2.4976 0.4931
2.4657 -2.4422 0.4990
2.5878 -2.3853 0.5058
2.7136 -2.3267 0.5134
2.8436 -2.2661 0.5219
2.9783 -2.2033 0.5315
6.4682 -4.4350 1.1244
6.5967 -4.1831 1.1192
6.7108 -3.9249 1.1131
7.0438 -3.7870 1.1443
7.3472 -3.6163 1.1709
7.6984 -3.4516 1.2055
8.4336 -3.4231 1.2996
9.5160 -3.4700 1.4452
10.5293 -3.4165 1.5783
6.8232 -1.9462 1.0109
6.6388 -1.6383 0.9735
6.4959 -1.3576 0.9441
6.4444 -1.1071 0.9295
6.3349 -0.8554 0.9080
6.4417 -0.6354 0.9188
6.4783 -0.4048 0.9206
6.5941 -0.1748 0.9349
6.7389 0.0633 0.9544
6.9927 0.3170 0.9905
7.4127 0.6033 1.0516
7.8845 0.9276 1.1217
7.8844 1.2159 1.1263
6.9048 1.3201 0.9917
6.2058 1.4191 0.8974
7.1904 1.9183 1.0483
7.1916 2.1979 1.0585
7.1929 2.4839 1.0703
7.1942 2.7772 1.0839
6.6333 2.8382 1.0134
6.1456 2.8947 0.9534
6.1303 3.1611 0.9674
7.0215 3.9459 1.1289
7.0202 4.2838 1.1519
6.9089 4.5639 1.1590
6.3965 4.5634 1.0992
6.0272 4.6351 1.0629
7.0597 5.8441 1.2805
6.7242 5.9858 1.2570
6.5859 6.3005 1.2719
6.4147 6.5936 1.2831
6.5371 7.2206 1.3578
8.2781 9.8308 1.7907
7.7175 9.8627 1.7441
7.2907 10.0399 1.7272
6.9327 10.3054 1.7282
6.6133 10.6357 1.7419
6.5535 11.4352 1.8324
7.1097 13.5072 2.1214
6.2825 13.0516 2.0124
2.4069 5.4966 0.8334
5.3659 13.5587 2.0247
5.1422 14.4929 2.1347
4.6200 14.6716 2.1347
4.0914 14.8310 2.1347
3.5573 14.9710 2.1347
3.0183 15.0913 2.1347
2.4752 15.1919 2.1347
1.9286 15.2724 2.1347
1.4461 16.0734 2.2377
0.8685 16.1156 2.2377
0.2897 16.1367 2.2377
-0.2895 16.1364 2.2377
-0.8683 16.1150 2.2377
-1.4458 16.0724 2.2377
-2.0214 16.0086 2.2377
-2.5942 15.9238 2.2377
-3.1634 15.8180 2.2377
-3.7283 15.6915 2.2377
-4.2880 15.5444 2.2377
-4.8419 15.3769 2.2377
-5.3891 15.1893 2.2377
-5.9290 14.9818 2.2377
-6.1679 14.0862 2.1363
-6.6614 13.8391 2.1345
-7.1511 13.5862 2.1345
-7.6310 13.3157 2.1345
-8.1006 13.0279 2.1345
-8.5591 12.7233 2.1345
-9.0060 12.4023 2.1345
-9.4407 12.0653 2.1345
-9.8627 11.7129 2.1345
-10.2869 11.3628 2.1377
-10.6822 10.9803 2.1377
-11.0631 10.5840 2.1377
-11.2877 10.0482 2.1113
-11.5043 9.5235 2.0877
-11.9648 9.2015 2.1113
-10.6438 7.5937 1.8301
-11.3718 7.5122 1.9088
-11.6221 7.0920 1.9081
-10.8419 6.0930 1.7442
-11.6903 6.0283 1.8459
-11.8953 5.6030 1.8466
-11.9777 5.1250 1.8310
-11.5754 4.4685 1.7451
-13.6786 4.7237 2.0368
-13.7697 4.2084 2.0280
-12.6742 3.3813 1.8490
-12.5227 2.8637 1.8121
-12.6868 2.4256 1.8234
-12.7499 1.9662 1.8225
-13.0390 1.5340 1.8562
-15.0588 1.2255 2.1377
-14.0181 0.6355 1.9870
-13.6818 0.1286 1.9389
-13.3328 -0.3535 1.8915
-13.4015 -0.8375 1.9058
-13.3770 -1.3194 1.9092
-13.7315 -1.8542 1.9696
-14.8109 -2.5443 2.1377
-14.3602 -3.0013 2.0885
-13.0827 -3.2285 1.9197
-13.4802 -3.8449 1.9985
-13.3912 -4.3451 2.0086
-13.0749 -4.7678 1.9870
-13.5984 -5.5195 2.0969
-13.6395 -6.1154 2.1372
-13.2001 -6.4972 2.1050
-13.1511 -7.0706 2.1377
-12.8803 -7.5333 2.1377
-12.5934 -7.9857 2.1377
-12.2908 -8.4275 2.1377
-11.9730 -8.8579 2.1377
-11.6403 -9.2766 2.1377
-11.2932 -9.6829 2.1377
-10.9321 -10.0766 2.1377
-10.5575 -10.4569 2.1377
-10.1545 -10.8072 2.1345
-9.7550 -11.1593 2.1345
-6.6655 -8.2016 1.5227
-8.9205 -11.8195 2.1345
-8.4867 -12.1270 2.1345
-8.0424 -12.4188 2.1345
-7.5883 -12.6946 2.1345
-7.1250 -12.9542 2.1345
-6.6529 -13.1972 2.1345
-6.1756 -13.4294 2.1355
-5.9601 -14.2917 2.2377
-5.4416 -14.4927 2.2377
-4.9164 -14.6752 2.2377
-4.3853 -14.8391 2.2377
-3.8489 -14.9842 2.2377
-3.3078 -15.1103 2.2377
-2.7626 -15.2173 2.2377
-2.2141 -15.3050 2.2377
-1.6629 -15.3733 2.2377
-1.1097 -15.4223 2.2377
-0.5552 -15.4518 2.2377
0.0001 -13.3358 2.2377
0.4791 -13.3275 2.2377
0.9574 -13.3023 2.2377
1.4347 -13.2603 2.2377
1.8830 -13.0140 2.2060
2.2735 -12.5211 2.1347
2.7221 -12.4331 2.1347
3.1674 -12.3294 2.1347
3.6088 -12.2099 2.1347
4.0458 -12.0749 2.1347
4.4779 -11.9246 2.1347
2.1584 -5.1750 0.9394
2.3409 -5.0900 0.9384
2.5234 -5.0050 0.9386
2.7062 -4.9198 0.9399
2.8900 -4.8341 0.9425
5.5795 -8.6148 1.7169
6.0305 -8.6163 1.7586
5.3598 -7.1008 1.4871
2.1170 -2.6046 0.5608
2.2308 -2.5516 0.5660
2.3469 -2.4975 0.5721
2.4659 -2.4421 0.5791
2.5880 -2.3852 0.5870
2.7138 -2.3266 0.5959
2.8438 -2.2660 0.6058
2.9784 -2.2032 0.6169
6.4684 -4.4346 1.3052
6.5969 -4.1826 1.2993
6.7111 -3.9245 1.2924
7.0443 -3.7867 1.3288
7.3476 -3.6160 1.3598
7.6993 -3.4514 1.4002
8.4352 -3.4231 1.5097
9.6787 -3.5286 1.7074
10.5293 -3.4157 1.8335
7.2268 -2.0607 1.2439
6.6385 -1.6377 1.1311
6.4956 -1.3571 1.0970
6.3905 -1.0974 1.0712
6.3540 -0.8576 1.0586
6.3902 -0.6298 1.0594
6.4265 -0.4012 1.0617
6.5943 -0.1744 1.0869
6.6654 0.0631 1.0976
7.2162 0.3276 1.1887
7.4139 0.6039 1.2232
7.8845 0.9281 1.3046
7.8845 1.2164 1.3102
6.9023 1.3201 1.1533
6.0710 1.3887 1.0214
7.0198 1.8732 1.1908
7.0210 2.1463 1.2026
7.0222 2.4255 1.2161
7.0234 2.7118 1.2316
6.6323 2.8383 1.1794
6.0037 2.8283 1.0844
5.9862 3.0873 1.0999
6.8433 3.8463 1.2811
6.8421 4.1756 1.3074
6.8408 4.5195 1.3365
6.3958 4.5635 1.2801
5.8821 4.5241 1.2084
7.0593 5.8444 1.4916
6.7239 5.9861 1.4644
6.5857 6.3009 1.4819
6.4146 6.5941 1.4950
6.5371 7.2213 1.5823
8.2773 9.8308 2.0867
7.7169 9.8628 2.0325
7.2841 10.0316 2.0113
6.9221 10.2904 2.0113
6.6131 10.6362 2.0304
6.3974 11.1637 2.0852
6.1569 11.6980 2.1417
5.7161 11.8758 2.1347
2.4063 5.4956 0.9714
4.8523 12.2616 2.1347
4.4102 12.4307 2.1347
3.9622 12.5835 2.1347
3.5088 12.7198 2.1347
3.0506 12.8396 2.1347
2.5883 12.9425 2.1347
2.1225 13.0284 2.1347
1.7337 13.7299 2.2377
1.2401 13.7841 2.2377
0.7448 13.8202 2.2377
0.2484 13.8382 2.2377
-0.2482 13.8381 2.2377
-0.7445 13.8198 2.2377
-1.2398 13.7834 2.2377
-1.7334 13.7288 2.2377
-2.2246 13.6563 2.2377
-2.7128 13.5659 2.2377
-3.1973 13.4578 2.2377
-3.6775 13.3320 2.2377
-4.1526 13.1888 2.2377
-4.6221 13.0284 2.2377
-5.0853 12.8510 2.2377
-5.5416 12.6568 2.2377
-5.9904 12.4462 2.2377
-6.1662 11.7160 2.1456
-6.5464 11.4241 2.1345
-6.9497 11.1779 2.1345
-7.3435 10.9172 2.1345
-7.7275 10.6425 2.1345
-8.1010 10.3540 2.1345
-8.4636 10.0523 2.1345
-8.8149 9.7377 2.1345
-9.1543 9.4107 2.1345
-9.4815 9.0717 2.1345
-9.7960 8.7213 2.1345
-10.0974 8.3598 2.1345
-10.4012 8.0000 2.1377
-10.6414 7.5929 2.1309
-10.9361 7.2253 2.1377
-11.1819 6.8243 2.1377
-10.8539 6.1006 2.0330
-11.4691 5.9151 2.1084
-11.5507 5.4416 2.0874
-11.6307 4.9774 2.0695
-11.5702 4.4674 2.0301
-12.3367 4.2612 2.1377
-12.4737 3.8132 2.1377
-12.5944 3.3609 2.1377
-12.5227 2.8645 2.1081
-12.6280 2.4152 2.1113
-12.7493 1.9670 2.1198
-12.9117 1.5199 2.1377
-12.9493 1.0547 2.1377
-12.9702 0.5889 2.1377
-12.9743 0.1228 2.1377
-10.0183 -0.2649 1.6523
-10.0243 -0.6257 1.6570
-12.8866 -1.2702 2.1377
-12.8242 -1.7308 2.1377
-12.7455 -2.1887 2.1377
-12.6505 -2.6431 2.1377
-12.5393 -3.0935 2.1377
-12.4123 -3.5395 2.1377
-12.2694 -3.9803 2.1377
-12.1111 -4.4154 2.1377
-11.9374 -4.8444 2.1377
-11.7487 -5.2667 2.1377
-11.5451 -5.6818 2.1377
-11.3271 -6.0891 2.1377
-11.0948 -6.4882 2.1377
-10.8487 -6.8785 2.1377
-10.5889 -7.2596 2.1377
-10.3159 -7.6311 2.1377
-10.0148 -7.9803 2.1345
-9.7169 -8.3306 2.1345
-9.4070 -8.6699 2.1345
-9.0853 -8.9979 2.1345
-8.7524 -9.3142 2.1345
-8.4087 -9.6183 2.1345
-6.6577 -8.1914 1.7643
-7.6904 -10.1887 2.1345
-7.3168 -10.4543 2.1345
-6.9341 -10.7065 2.1345
-6.5430 -10.9449 2.1345
-6.1726 -11.2219 2.1445
-6.0145 -11.9298 2.2377
-5.5806 -12.1348 2.2377
-5.1399 -12.3242 2.2377
-4.6929 -12.4979 2.2377
-4.2402 -12.6558 2.2377
-3.7822 -12.7975 2.2377
-3.3196 -12.9229 2.2377
-2.8530 -13.0320 2.2377
-2.3828 -13.1245 2.2377
-1.9098 -13.2004 2.2377
-1.4344 -13.2595 2.2377
-0.9572 -13.3018 2.2377
-0.4788 -13.3273 2.2377
0.0001 -11.7131 2.2377
0.4208 -11.7058 2.2377
0.8410 -11.6836 2.2377
1.2602 -11.6466 2.2377
1.6778 -11.5948 2.2377
1.9969 -10.9971 2.1347
2.3909 -10.9196 2.1347
2.7820 -10.8283 2.1347
3.1696 -10.7231 2.1347
3.5533 -10.6043 2.1347
3.9327 -10.4720 2.1347
2.1585 -5.1750 1.0698
2.3411 -5.0899 1.0686
2.5235 -5.0049 1.0689
2.7064 -4.9197 1.0704
2.8902 -4.8341 1.0734
5.5801 -8.6148 1.9556
5.8936 -8.4199 1.9575
5.3604 -7.1010 1.6939
2.1172 -2.6046 0.6388
2.2309 -2.5516 0.6448
2.3471 -2.4974 0.6518
2.4660 -2.4420 0.6597
2.5882 -2.3851 0.6688
2.7140 -2.3265 0.6789
2.8440 -2.2659 0.6903
2.9787 -2.2031 0.7030
6.4686 -4.4342 1.4875
6.5971 -4.1822 1.4808
6.7115 -3.9242 1.4731
7.0447 -3.7864 1.5146
7.3481 -3.6156 1.5501
7.7003 -3.4513 1.5963
8.4368 -3.4231 1.7215
9.6806 -3.5286 1.9471
10.3964 -3.3718 2.0642
7.1091 -2.0267 1.3954
6.6382 -1.6372 1.2898
6.4954 -1.3566 1.2511
6.5348 -1.1217 1.2494
6.5086 -0.8780 1.2368
6.5350 -0.6437 1.2359
6.4265 -0.4007 1.2112
6.5946 -0.1739 1.2402
6.6658 0.0636 1.2525
7.2169 0.3281 1.3565
7.8852 0.6428 1.4846
7.8846 0.9287 1.4890
7.8847 1.2170 1.4954
6.8999 1.3201 1.3160
5.9410 1.3594 1.1411
6.8410 1.8260 1.3249
6.8422 2.0921 1.3381
6.8433 2.3642 1.3533
6.8446 2.6432 1.3706
6.6312 2.8383 1.3467
5.9400 2.7988 1.2253
5.7062 2.9434 1.1975
5.8281 3.2762 1.2463
6.6586 4.0641 1.4534
6.6573 4.3988 1.4859
6.3951 4.5635 1.4623
5.9317 4.5628 1.3923
5.6896 4.7109 1.3736
6.7236 5.9864 1.6733
6.5855 6.3014 1.6934
6.4145 6.5947 1.7086
6.5371 7.2219 1.8084
7.4329 8.8287 2.1417
7.1140 9.0930 2.1417
6.7855 9.3457 2.1417
6.4480 9.5864 2.1417
6.1018 9.8146 2.1417
5.7286 9.9974 2.1347
5.3677 10.1993 2.1347
4.9996 10.3880 2.1347
2.4057 5.4947 1.1104
4.2438 10.7248 2.1347
3.8571 10.8723 2.1347
3.4651 11.0057 2.1347
3.0686 11.1247 2.1347
2.6678 11.2292 2.1347
2.2635 11.3190 2.1347
1.8918 11.6126 2.1756
1.5161 12.0073 2.2377
1.0844 12.0546 2.2377
0.6513 12.0862 2.2377
0.2173 12.1019 2.2377
-0.2170 12.1018 2.2377
-0.6511 12.0858 2.2377
-1.0842 12.0541 2.2377
-1.5158 12.0065 2.2377
-1.9454 11.9433 2.2377
-2.3724 11.8644 2.2377
-2.7961 11.7700 2.2377
-3.2161 11.6603 2.2377
-3.6317 11.5354 2.2377
-4.0424 11.3954 2.2377
-4.4477 11.2405 2.2377
-4.8469 11.0711 2.2377
-5.2397 10.8873 2.2377
-5.6254 10.6893 2.2377
-6.0035 10.4775 2.2377
-6.1621 9.9119 2.1635
-6.4243 9.5515 2.1345
-6.7605 9.3116 2.1345
-7.0876 9.0597 2.1345
-7.4053 8.7962 2.1345
-7.7131 8.5214 2.1345
-8.0106 8.2357 2.1345
-8.2974 7.9396 2.1345
-8.5731 7.6333 2.1345
-8.8375 7.3174 2.1345
-9.0901 6.9923 2.1345
-9.3306 6.6584 2.1345
-9.5588 6.3162 2.1345
-9.7743 5.9660 2.1345
-9.9770 5.6085 2.1345
-10.1665 5.2441 2.1345
-10.3583 4.8807 2.1377
-10.5211 4.5034 2.1377
-10.6701 4.1206 2.1377
-10.8050 3.7329 2.1377
-10.9259 3.3408 2.1377
-11.0324 2.9449 2.1377
-11.1246 2.5455 2.1377
-11.2023 2.1433 2.1377
-11.2654 1.7389 2.1377
-11.3140 1.3326 2.1377
-11.3478 0.9251 2.1377
-11.3670 0.5169 2.1377
-11.3716 0.1084 2.1377
-11.3614 -0.2997 2.1377
-11.3367 -0.7069 2.1377
-11.2974 -1.1128 2.1377
-11.2436 -1.5167 2.1377
-11.1754 -1.9183 2.1377
-11.0930 -2.3169 2.1377
-10.9964 -2.7121 2.1377
-10.8858 -3.1034 2.1377
-10.7614 -3.4903 2.1377
-10.6233 -3.8722 2.1377
-10.4717 -4.2488 2.1377
-10.3069 -4.6196 2.1377
-10.1136 -4.9765 2.1345
-9.9233 -5.3337 2.1345
-9.7205 -5.6837 2.1345
-9.5054 -6.0261 2.1345
-9.2785 -6.3604 2.1345
-9.0398 -6.6864 2.1345
-8.7899 -7.0035 2.1345
-8.5289 -7.3113 2.1345
-8.2573 -7.6096 2.1345
-7.9754 -7.8980 2.1345
-7.6836 -8.1760 2.1345
-7.3822 -8.4434 2.1345
-6.6499 -8.1811 2.0072
-6.7523 -8.9451 2.1345
-6.4245 -9.1787 2.1345
-6.1677 -9.5223 2.1621
-6.0235 -10.0751 2.2377
-5.6562 -10.2821 2.2377
-5.2818 -10.4758 2.2377
-4.9010 -10.6562 2.2377
-4.5141 -10.8229 2.2377
-4.1217 -10.9758 2.2377
-3.7241 -11.1147 2.2377
-3.3220 -11.2394 2.2377
-2.9157 -11.3498 2.2377
-2.5059 -11.4458 2.2377
-2.0930 -11.5272 2.2377
-1.6775 -11.5939 2.2377
-1.2599 -11.6460 2.2377
-0.8408 -11.6832 2.2377
-0.4206 -11.7056 2.2377
0.0001 -10.4327 2.2377
0.3748 -10.4262 2.2377
0.7491 -10.4064 2.2377
1.1225 -10.3733 2.2377
1.4945 -10.3271 2.2377
1.8646 -10.2677 2.2377
2.1296 -9.7255 2.1347
2.4779 -9.6440 2.1347
2.8231 -9.5502 2.1347
3.1648 -9.4442 2.1347
3.5026 -9.3261 2.1347
2.1587 -5.1749 1.2012
2.3412 -5.0899 1.2000
2.5237 -5.0048 1.2003
2.7066 -4.9196 1.2021
2.8904 -4.8340 1.2054
5.4241 -8.3733 2.1347
5.7221 -8.1742 2.1343
5.3611 -7.1013 1.9026
2.1173 -2.6045 0.7175
2.2311 -2.5515 0.7243
2.3473 -2.4974 0.7321
2.4662 -2.4419 0.7411
2.5884 -2.3850 0.7513
2.7142 -2.3264 0.7627
2.8442 -2.2658 0.7756
2.9789 -2.2030 0.7899
6.4689 -4.4338 1.6712
6.5973 -4.1818 1.6638
6.7118 -3.9238 1.6553
7.0452 -3.7861 1.7021
7.3037 -3.5932 1.7314
7.7013 -3.4511 1.7942
8.4383 -3.4231 1.9351
9.2516 -3.3715 2.0915
9.5964 -3.1117 2.1417
7.2244 -2.0590 1.5940
6.6380 -1.6366 1.4499
6.4951 -1.3561 1.4064
6.5084 -1.1167 1.3990
6.5082 -0.8775 1.3906
6.5081 -0.6405 1.3840
6.4266 -0.4003 1.3620
6.5948 -0.1735 1.3947
6.6663 0.0640 1.4087
7.2176 0.3287 1.5259
7.8852 0.6433 1.6699
7.8848 0.9292 1.6749
7.8849 1.2176 1.6823
6.8975 1.3202 1.4800
5.8154 1.3311 1.2566
5.8070 1.5504 1.2654
6.6580 2.0363 1.4651
6.6591 2.3010 1.4818
6.6603 2.5725 1.5009
6.6301 2.8383 1.5153
6.0212 2.8375 1.3979
5.7151 2.9484 1.3499
5.6932 3.2008 1.3703
6.4677 3.9482 1.5892
6.4665 4.2733 1.6248
6.3944 4.5635 1.6461
5.9312 4.5629 1.5673
5.5093 4.5621 1.4975
5.3240 4.7408 1.4919
6.5853 6.3018 1.9067
6.4144 6.5952 1.9239
6.4564 7.1335 2.0113
6.6003 7.8404 2.1417
6.3168 8.0749 2.1417
6.0250 8.2989 2.1417
5.7063 8.4844 2.1347
5.3997 8.6861 2.1347
5.0860 8.8766 2.1347
4.7655 9.0556 2.1347
4.4385 9.2229 2.1347
2.4051 5.4937 1.2505
3.7673 9.5214 2.1347
3.4240 9.6521 2.1347
3.0760 9.7703 2.1347
2.7239 9.8758 2.1347
2.3681 9.9684 2.1347
2.0092 10.0480 2.1347
1.7272 10.6030 2.2377
1.3458 10.6588 2.2377
0.9626 10.7008 2.2377
0.5781 10.7288 2.2377
0.1929 10.7427 2.2377
-0.1926 10.7426 2.2377
-0.5779 10.7285 2.2377
-0.9623 10.7003 2.2377
-1.3455 10.6582 2.2377
-1.7268 10.6022 2.2377
-2.1058 10.5323 2.2377
-2.4820 10.4487 2.2377
-2.8549 10.3515 2.2377
-3.2239 10.2408 2.2377
-3.5886 10.1167 2.2377
-3.9484 9.9795 2.2377
-4.3029 9.8293 2.2377
-4.6518 9.6664 2.2377
-4.9943 9.4909 2.2377
-5.3302 9.3032 2.2377
-5.6589 9.1034 2.2377
-5.9801 8.8919 2.2377
-6.1571 8.4812 2.1893
-6.2937 8.0455 2.1345
-6.5761 7.8119 2.1345
-6.8497 7.5682 2.1345
-7.1141 7.3148 2.1345
-7.3692 7.0521 2.1345
-7.6145 6.7805 2.1345
-7.8496 6.5002 2.1345
-8.0744 6.2118 2.1345
-8.2885 5.9155 2.1345
-8.4917 5.6118 2.1345
-8.6836 5.3010 2.1345
-8.8642 4.9837 2.1345
-9.0330 4.6602 2.1345
-9.1900 4.3309 2.1345
-9.3350 3.9964 2.1345
-9.4677 3.6570 2.1345
-9.5880 3.3132 2.1345
-9.6959 2.9654 2.1345
-9.7910 2.6142 2.1345
-9.8734 2.2599 2.1345
-9.9430 1.9031 2.1345
-9.9997 1.5442 2.1345
-10.0434 1.1837 2.1345
-10.0741 0.8220 2.1345
-10.0918 0.4596 2.1345
-10.0964 0.0970 2.1345
-10.0881 -0.2654 2.1345
-10.0667 -0.6270 2.1345
-10.0325 -0.9875 2.1345
-9.9853 -1.3463 2.1345
-9.9254 -1.7030 2.1345
-9.8528 -2.0572 2.1345
-9.7676 -2.4083 2.1345
-9.6699 -2.7561 2.1345
-9.5599 -3.0999 2.1345
-9.4378 -3.4394 2.1345
-9.3037 -3.7742 2.1345
-9.1578 -4.1039 2.1345
-9.0003 -4.4280 2.1345
-8.8314 -4.7461 2.1345
-8.6513 -5.0579 2.1345
-8.4604 -5.3629 2.1345
-8.2588 -5.6608 2.1345
-8.0468 -5.9512 2.1345
-7.8247 -6.2337 2.1345
-7.5928 -6.5081 2.1345
-7.3513 -6.7740 2.1345
-7.1006 -7.0310 2.1345
-6.8411 -7.2788 2.1345
-6.5730 -7.5172 2.1345
-6.2967 -7.7459 2.1345
-6.1616 -8.1619 2.1874
-5.9977 -8.5682 2.2377
-5.6845 -8.7756 2.2377
-5.3642 -8.9716 2.2377
-5.0372 -9.1562 2.2377
-4.7040 -9.3290 2.2377
-4.3649 -9.4899 2.2377
-4.0204 -9.6386 2.2377
-3.6710 -9.7749 2.2377
-3.3170 -9.8988 2.2377
-2.9588 -10.0101 2.2377
-2.5970 -10.1086 2.2377
-2.2320 -10.1942 2.2377
-1.8643 -10.2668 2.2377
-1.4942 -10.3264 2.2377
-1.1222 -10.3728 2.2377
-0.7489 -10.4060 2.2377
-0.3746 -10.4260 2.2377
0.0001 -9.3957 2.2377
0.3376 -9.3898 2.2377
0.6747 -9.3719 2.2377
1.0110 -9.3421 2.2377
1.3460 -9.3003 2.2377
1.6794 -9.2468 2.2377
1.9180 -8.7584 2.1347
2.2316 -8.6849 2.1347
2.5425 -8.6003 2.1347
2.8502 -8.5047 2.1347
3.1544 -8.3982 2.1347
2.1588 -5.1749 1.3340
2.3414 -5.0898 1.3326
2.5239 -5.0047 1.3329
2.7068 -4.9195 1.3350
2.8905 -4.8339 1.3388
4.8841 -7.5391 2.1347
5.1532 -7.3608 2.1347
5.3618 -7.1016 2.1134
2.1175 -2.6044 0.7970
2.2312 -2.5514 0.8045
2.3474 -2.4973 0.8132
2.4664 -2.4419 0.8232
2.5885 -2.3849 0.8346
2.7144 -2.3263 0.8473
2.8444 -2.2657 0.8616
2.9791 -2.2029 0.8776
6.4691 -4.4334 1.8568
6.5975 -4.1814 1.8486
6.7122 -3.9235 1.8392
7.0456 -3.7858 1.8913
7.3490 -3.6149 1.9358
7.7023 -3.4510 1.9941
8.4039 -3.4086 2.1417
8.5247 -3.1060 2.1417
8.6346 -2.7992 2.1417
7.1068 -2.0250 1.7428
6.6377 -1.6361 1.6115
6.4949 -1.3556 1.5633
6.5348 -1.1208 1.5615
6.5086 -0.8770 1.5459
6.5350 -0.6427 1.5450
6.4267 -0.3998 1.5143
6.5950 -0.1730 1.5507
6.6668 0.0645 1.5664
7.2184 0.3292 1.6969
7.8852 0.6439 1.8569
7.8849 0.9298 1.8627
7.8850 1.2182 1.8709
6.8951 1.3202 1.6454
5.6939 1.3037 1.3685
5.6692 1.5141 1.3741
6.4665 1.9782 1.5828
6.4676 2.2353 1.6009
6.4687 2.4990 1.6216
6.4699 2.7703 1.6451
6.0205 2.8376 1.5550
5.4231 2.7981 1.4251
5.2837 2.9710 1.4150
5.2842 3.2261 1.4447
6.2809 4.1512 1.7561
6.2796 4.4822 1.7989
5.9307 4.5630 1.7440
5.5084 4.5619 1.6663
5.3318 4.7482 1.6628
5.4496 5.2155 1.7562
6.4156 6.5969 2.1417
6.1767 6.8251 2.1417
5.9298 7.0445 2.1417
5.6563 7.2311 2.1347
5.3948 7.4315 2.1347
5.1261 7.6224 2.1347
4.8506 7.8033 2.1347
4.5686 7.9743 2.1347
4.2806 8.1349 2.1347
3.9868 8.2849 2.1347
2.4045 5.4927 1.3918
3.3838 8.5527 2.1347
3.0753 8.6700 2.1347
2.7627 8.7760 2.1347
2.4465 8.8706 2.1347
2.1269 8.9537 2.1347
1.8891 9.4479 2.2347
1.5512 9.5235 2.2377
1.2087 9.5736 2.2377
0.8645 9.6112 2.2377
0.5192 9.6363 2.2377
0.1732 9.6488 2.2377
-0.1730 9.6487 2.2377
-0.5190 9.6361 2.2377
-0.8643 9.6108 2.2377
-1.2084 9.5731 2.2377
-1.5509 9.5228 2.2377
-1.8913 9.4602 2.2377
-2.2292 9.3852 2.2377
-2.5641 9.2980 2.2377
-2.8956 9.1987 2.2377
-3.2232 9.0874 2.2377
-3.5465 8.9644 2.2377
-3.8650 8.8297 2.2377
-4.1784 8.6835 2.2377
-4.4862 8.5261 2.2377
-4.7881 8.3577 2.2377
-5.0835 8.1784 2.2377
-5.3722 7.9886 2.2377
-5.6537 7.7885 2.2377
-5.9278 7.5784 2.2377
-6.1574 7.3152 2.2246
-6.1690 6.8168 2.1397
-6.3920 6.5730 2.1345
-6.6214 6.3372 2.1345
-6.8420 6.0933 2.1345
-7.0537 5.8417 2.1345
-7.2559 5.5828 2.1345
-7.4487 5.3167 2.1345
-7.6315 5.0440 2.1345
-7.8044 4.7649 2.1345
-7.9670 4.4799 2.1345
-8.1192 4.1894 2.1345
-8.2607 3.8936 2.1345
-8.3914 3.5930 2.1345
-8.5111 3.2881 2.1345
-8.6197 2.9792 2.1345
-8.7170 2.6667 2.1345
-8.8030 2.3511 2.1345
-8.8776 2.0326 2.1345
-8.9406 1.7119 2.1345
-8.9920 1.3892 2.1345
-9.0317 1.0651 2.1345
-9.0598 0.7399 2.1345
-9.0762 0.4140 2.1345
-9.0808 0.0879 2.1345
-9.0738 -0.2380 2.1345
-9.0550 -0.5633 2.1345
-9.0247 -0.8876 2.1345
-8.9827 -1.2105 2.1345
-8.9292 -1.5314 2.1345
-8.8643 -1.8502 2.1345
-8.7881 -2.1662 2.1345
-8.7007 -2.4792 2.1345
-8.6021 -2.7887 2.1345
-8.4927 -3.0944 2.1345
-8.3724 -3.3958 2.1345
-8.2414 -3.6926 2.1345
-8.1001 -3.9845 2.1345
-7.9484 -4.2709 2.1345
-7.7867 -4.5517 2.1345
-7.6152 -4.8265 2.1345
-7.4340 -5.0948 2.1345
-7.2435 -5.3564 2.1345
-7.0438 -5.6110 2.1345
-6.8353 -5.8582 2.1345
-6.6182 -6.0978 2.1345
-6.3927 -6.3294 2.1345
-6.1728 -6.5671 2.1392
-6.1613 -7.0457 2.2222
-5.9438 -7.3110 2.2377
-5.6757 -7.5176 2.2377
-5.4006 -7.7145 2.2377
-5.1187 -7.9015 2.2377
-4.8304 -8.0782 2.2377
-4.5361 -8.2446 2.2377
-4.2361 -8.4004 2.2377
-3.9308 -8.5455 2.2377
-3.6207 -8.6796 2.2377
-3.3060 -8.8025 2.2377
-2.9873 -8.9143 2.2377
-2.6648 -9.0146 2.2377
-2.3390 -9.1034 2.2377
-2.0102 -9.1806 2.2377
-1.6790 -9.2461 2.2377
-1.3457 -9.2998 2.2377
-1.0107 -9.3417 2.2377
-0.6745 -9.3716 2.2377
-0.3374 -9.3896 2.2377
0.0001 -8.5378 2.2377
0.3068 -8.5324 2.2377
0.6132 -8.5162 2.2377
0.9187 -8.4890 2.2377
1.2232 -8.4511 2.2377
1.5261 -8.4023 2.2377
1.8271 -8.3428 2.2377
2.0279 -7.8916 2.1347
2.3104 -7.8146 2.1347
2.5900 -7.7277 2.1347
2.8664 -7.6308 2.1347
2.1590 -5.1748 1.4681
2.3415 -5.0897 1.4667
2.5240 -5.0047 1.4671
2.7070 -4.9194 1.4693
2.8907 -4.8338 1.4735
4.4377 -6.8494 2.1347
4.6820 -6.6872 2.1347
4.9204 -6.5164 2.1347
2.1176 -2.6044 0.8773
2.2314 -2.5514 0.8856
2.3476 -2.4972 0.8952
2.4665 -2.4418 0.9063
2.5887 -2.3849 0.9188
2.7146 -2.3262 0.9329
2.8446 -2.2656 0.9486
2.9793 -2.2028 0.9662
6.4693 -4.4330 2.0443
6.5978 -4.1810 2.0354
6.7125 -3.9231 2.0252
6.9188 -3.7170 2.0450
7.2075 -3.5448 2.0905
7.5124 -3.3654 2.1417
7.6315 -3.0947 2.1417
7.7409 -2.8199 2.1417
7.8405 -2.5412 2.1417
7.2220 -2.0573 1.9505
6.6374 -1.6355 1.7748
6.4946 -1.3550 1.7218
6.5084 -1.1157 1.7129
6.5085 -0.8766 1.7028
6.5350 -0.6423 1.7019
6.4267 -0.3994 1.6682
6.5953 -0.1726 1.7084
6.6673 0.0650 1.7258
7.2192 0.3298 1.8697
7.8852 0.6445 2.0460
7.8851 0.9304 2.0524
7.8852 1.2188 2.0616
6.8926 1.3202 1.8125
5.7723 1.3220 1.5288
5.2833 1.4114 1.4112
6.2802 1.9216 1.6940
6.2813 2.1714 1.7136
6.2824 2.4275 1.7358
6.2835 2.6909 1.7610
6.0197 2.8377 1.7138
5.4967 2.8366 1.5922
5.3273 2.9959 1.5727
5.3296 3.2543 1.6062
6.1004 4.0324 1.8803
6.0992 4.3539 1.9261
5.9302 4.5631 1.9226
5.5075 4.5616 1.8368
5.3396 4.7557 1.8360
5.4496 5.2160 1.9363
5.7994 5.9640 2.1347
5.5834 6.1701 2.1347
5.3600 6.3682 2.1347
5.1295 6.5582 2.1347
4.8922 6.7398 2.1347
4.6484 6.9127 2.1347
4.3985 7.0766 2.1347
4.1427 7.2314 2.1347
3.8814 7.3769 2.1347
3.6150 7.5129 2.1347
2.3722 5.4195 1.5144
3.0682 7.7554 2.1347
2.7884 7.8616 2.1347
2.5049 7.9577 2.1347
2.2182 8.0434 2.1347
1.9284 8.1186 2.1347
1.7151 8.5785 2.2377
1.4064 8.6351 2.2377
1.0959 8.6805 2.2377
0.7838 8.7145 2.2377
0.4708 8.7373 2.2377
0.1571 8.7486 2.2377
-0.1568 8.7485 2.2377
-0.4705 8.7371 2.2377
-0.7836 8.7142 2.2377
-1.0956 8.6801 2.2377
-1.4061 8.6346 2.2377
-1.7148 8.5778 2.2377
-2.0212 8.5099 2.2377
-2.3249 8.4310 2.2377
-2.6254 8.3410 2.2377
-2.9225 8.2403 2.2377
-3.2157 8.1288 2.2377
-3.5046 8.0068 2.2377
-3.7888 7.8744 2.2377
-4.0680 7.7319 2.2377
-4.3418 7.5793 2.2377
-4.6098 7.4169 2.2377
-4.8717 7.2450 2.2377
-5.1271 7.0637 2.2377
-5.3757 6.8733 2.2377
-5.6173 6.6742 2.2377
-5.8514 6.4664 2.2377
-6.0777 6.2504 2.2377
-6.1578 5.8941 2.1886
-6.2058 5.5274 2.1345
-6.3980 5.2993 2.1345
-6.5817 5.0646 2.1345
-6.7567 4.8234 2.1345
-6.9229 4.5762 2.1345
-7.0799 4.3232 2.1345
-7.2277 4.0648 2.1345
-7.3660 3.8013 2.1345
-7.4947 3.5331 2.1345
-7.6136 3.2606 2.1345
-7.7225 2.9840 2.1345
-7.8213 2.7039 2.1345
-7.9100 2.4204 2.1345
-7.9883 2.1341 2.1345
-8.0563 1.8452 2.1345
-8.1138 1.5542 2.1345
-8.1608 1.2614 2.1345
-8.1973 0.9673 2.1345
-8.2231 0.6721 2.1345
-8.2383 0.3763 2.1345
-8.2428 0.0804 2.1345
-8.2368 -0.2155 2.1345
-8.2201 -0.5108 2.1345
-8.1929 -0.8052 2.1345
-8.1551 -1.0984 2.1345
-8.1069 -1.3898 2.1345
-8.0483 -1.6793 2.1345
-7.9795 -1.9663 2.1345
-7.9004 -2.2506 2.1345
-7.8112 -2.5317 2.1345
-7.7121 -2.8094 2.1345
-7.6032 -3.0832 2.1345
-7.4845 -3.3529 2.1345
-7.3564 -3.6181 2.1345
-7.2190 -3.8784 2.1345
-7.0723 -4.1336 2.1345
-6.9168 -4.3833 2.1345
-6.7525 -4.6271 2.1345
-6.5796 -4.8649 2.1345
-6.3985 -5.0963 2.1345
-6.2092 -5.3211 2.1345
-6.1609 -5.6759 2.1873
-6.0885 -6.0276 2.2377
-5.8663 -6.2405 2.2377
-5.6368 -6.4453 2.2377
-5.4001 -6.6418 2.2377
-5.1567 -6.8296 2.2377
-4.9069 -7.0087 2.2377
-4.6508 -7.1787 2.2377
-4.3890 -7.3395 2.2377
-4.1217 -7.4908 2.2377
-3.8492 -7.6325 2.2377
-3.5718 -7.7644 2.2377
-3.2901 -7.8864 2.2377
-3.0042 -7.9983 2.2377
-2.7146 -8.0999 2.2377
-2.4215 -8.1912 2.2377
-2.1255 -8.2720 2.2377
-1.8268 -8.3422 2.2377
-1.5258 -8.4018 2.2377
-1.2229 -8.4506 2.2377
-0.9185 -8.4887 2.2377
-0.6129 -8.5159 2.2377
-0.3066 -8.5323 2.2377
0.0001 -7.8158 2.2377
0.2809 -7.8108 2.2377
0.5614 -7.7959 2.2377
0.8411 -7.7710 2.2377
1.1198 -7.7362 2.2377
1.3971 -7.6915 2.2377
1.6727 -7.6371 2.2377
1.8878 -7.3456 2.1706
2.1151 -7.1534 2.1347
2.3710 -7.0737 2.1347
2.6240 -6.9849 2.1347
2.1591 -5.1747 1.6039
2.3417 -5.0896 1.6023
2.5242 -5.0046 1.6028
2.7071 -4.9193 1.6053
2.8909 -4.8337 1.6099
4.0620 -6.2690 2.1347
4.2856 -6.1204 2.1347
4.5037 -5.9640 2.1347
2.1178 -2.6043 0.9585
2.2315 -2.5513 0.9676
2.3477 -2.4971 0.9782
2.4667 -2.4417 0.9903
2.5889 -2.3848 1.0040
2.7148 -2.3261 1.0194
2.8448 -2.2655 1.0367
2.9796 -2.2027 1.0559
6.2020 -4.2494 2.1417
6.3528 -4.0253 2.1417
6.4955 -3.7958 2.1417
6.6300 -3.5614 2.1417
6.7561 -3.3222 2.1417
6.8736 -3.0786 2.1417
6.9823 -2.8309 2.1417
7.0822 -2.5793 2.1417
7.1730 -2.3243 2.1417
6.8190 -1.9420 2.0131
6.6371 -1.6350 1.9400
6.4943 -1.3545 1.8821
6.5348 -1.1198 1.8802
6.5086 -0.8761 1.8616
6.5350 -0.6418 1.8606
6.4268 -0.3989 1.8238
6.5955 -0.1721 1.8680
6.6678 0.0655 1.8871
7.1022 0.3249 2.0113
7.5484 0.6174 2.1417
7.5244 0.8883 2.1417
6.4560 0.9983 1.8458
6.3261 1.2122 1.8192
5.7700 1.3219 1.6712
5.3263 1.4233 1.5559
6.1290 1.8758 1.8082
6.1001 2.1092 1.8201
6.1011 2.3580 1.8438
6.1023 2.6138 1.8706
6.0189 2.8378 1.8744
5.4954 2.8364 1.7413
5.3341 3.0002 1.7226
5.3366 3.2590 1.7594
5.9148 3.9102 1.9944
5.9136 4.2220 2.0431
5.8841 4.5282 2.0870
5.5069 4.5616 2.0094
5.3476 4.7633 2.0117
5.4496 5.2166 2.1186
5.3004 5.4513 2.1347
5.1028 5.6395 2.1347
4.8985 5.8205 2.1347
4.6878 5.9940 2.1347
4.4708 6.1598 2.1347
4.2479 6.3176 2.1347
4.0195 6.4673 2.1347
3.7857 6.6087 2.1347
3.5469 6.7416 2.1347
3.3034 6.8657 2.1347
2.3694 5.4135 1.6554
2.2405 5.6638 1.7060
2.5479 7.1841 2.1347
2.2889 7.2717 2.1347
2.0268 7.3500 2.1347
1.8471 7.7769 2.2377
1.5671 7.8388 2.2377
1.2851 7.8905 2.2377
1.0013 7.9319 2.2377
0.7162 7.9630 2.2377
0.4301 7.9838 2.2377
0.1435 7.9941 2.2377
-0.1433 7.9941 2.2377
-0.4299 7.9836 2.2377
-0.7160 7.9628 2.2377
-1.0010 7.9316 2.2377
-1.2848 7.8901 2.2377
-1.5668 7.8383 2.2377
-1.8468 7.7763 2.2377
-2.1243 7.7042 2.2377
-2.3989 7.6221 2.2377
-2.6704 7.5301 2.2377
-2.9383 7.4284 2.2377
-3.2024 7.3170 2.2377
-3.4622 7.1962 2.2377
-3.7173 7.0660 2.2377
-3.9676 6.9267 2.2377
-4.2126 6.7785 2.2377
-4.4520 6.6215 2.2377
-4.6856 6.4559 2.2377
-4.9129 6.2821 2.2377
-5.1337 6.1002 2.2377
-5.3478 5.9105 2.2377
-5.5548 5.7132 2.2377
-5.7545 5.5086 2.2377
-5.9466 5.2970 2.2377
-6.1309 5.0787 2.2377
-6.1581 4.7392 2.1849
-6.1762 4.4096 2.1345
-6.3283 4.1837 2.1345
-6.4721 3.9526 2.1345
-6.6074 3.7165 2.1345
-6.7340 3.4757 2.1345
-6.8519 3.2307 2.1345
-6.9608 2.9816 2.1345
-7.0606 2.7288 2.1345
-7.1512 2.4728 2.1345
-7.2325 2.2137 2.1345
-7.3044 1.9519 2.1345
-7.3668 1.6878 2.1345
-7.4197 1.4218 2.1345
-7.4629 1.1541 2.1345
-7.4965 0.8851 2.1345
-7.5204 0.6152 2.1345
-7.5345 0.3447 2.1345
-7.5390 0.0740 2.1345
-7.5337 -0.1966 2.1345
-7.5187 -0.4667 2.1345
-7.4941 -0.7360 2.1345
-7.4598 -1.0042 2.1345
-7.4160 -1.2708 2.1345
-7.3626 -1.5356 2.1345
-7.2999 -1.7983 2.1345
-7.2278 -2.0584 2.1345
-7.1464 -2.3157 2.1345
-7.0560 -2.5698 2.1345
-6.9565 -2.8205 2.1345
-6.8482 -3.0673 2.1345
-6.7312 -3.3100 2.1345
-6.6056 -3.5484 2.1345
-6.4717 -3.7820 2.1345
-6.3295 -4.0106 2.1345
-6.1793 -4.2339 2.1345
-6.1608 -4.5547 2.1839
-6.1389 -4.8891 2.2377
-5.9575 -5.1048 2.2377
-5.7686 -5.3139 2.2377
-5.5724 -5.5161 2.2377
-5.3692 -5.7111 2.2377
-5.1592 -5.8987 2.2377
-4.9428 -6.0787 2.2377
-4.7201 -6.2508 2.2377
-4.4914 -6.4148 2.2377
-4.2572 -6.5705 2.2377
-4.0176 -6.7178 2.2377
-3.7729 -6.8565 2.2377
-3.5235 -6.9863 2.2377
-3.2697 -7.1072 2.2377
-3.0118 -7.2189 2.2377
-2.7501 -7.3214 2.2377
-2.4850 -7.4145 2.2377
-2.2168 -7.4981 2.2377
-1.9458 -7.5722 2.2377
-1.6724 -7.6365 2.2377
-1.3968 -7.6911 2.2377
-1.1196 -7.7359 2.2377
-0.8409 -7.7707 2.2377
-0.5611 -7.7957 2.2377
-0.2807 -7.8107 2.2377
0.0001 -7.1990 2.2377
0.2588 -7.1944 2.2377
0.5171 -7.1807 2.2377
0.7748 -7.1578 2.2377
1.0315 -7.1257 2.2377
1.2870 -7.0845 2.2377
1.5408 -7.0342 2.2377
1.7927 -6.9750 2.2377
1.9483 -6.5886 2.1347
2.1840 -6.5152 2.1347
2.4170 -6.4333 2.1347
2.6469 -6.3433 2.1347
2.8735 -6.2451 2.1347
2.5395 -5.0344 1.7506
3.3157 -6.0247 2.1347
3.5307 -5.9029 2.1347
3.7412 -5.7734 2.1347
3.9471 -5.6365 2.1347
4.1479 -5.4923 2.1347
2.1179 -2.6042 1.0408
2.2317 -2.5512 1.0508
2.3479 -2.4971 1.0623
2.4669 -2.4416 1.0754
2.5891 -2.3847 1.0903
2.7150 -2.3260 1.1071
2.8450 -2.2654 1.1258
2.9798 -2.2026 1.1468
5.6922 -3.8995 2.1347
5.8304 -3.6937 2.1347
5.9809 -3.4946 2.1417
6.1046 -3.2787 2.1417
6.2205 -3.0584 2.1417
6.3285 -2.8340 2.1417
6.4284 -2.6058 2.1417
6.5202 -2.3742 2.1417
6.6036 -2.1393 2.1417
6.6786 -1.9015 2.1417
6.6368 -1.6344 2.1073
6.4940 -1.3540 2.0445
6.4348 -1.1022 2.0113
6.4726 -0.8708 2.0113
6.5022 -0.6381 2.0113
6.4269 -0.3984 1.9815
6.5958 -0.1716 2.0296
6.6682 0.0660 2.0506
6.9603 0.3189 2.1417
6.9470 0.5688 2.1417
6.9247 0.8180 2.1417
5.5077 0.8521 1.7112
5.4771 1.0499 1.7116
5.7676 1.3218 1.8154
5.3326 1.4253 1.6928
6.0773 1.8605 1.9485
6.0089 2.0782 1.9485
5.9327 2.2933 1.9486
5.9158 2.5344 1.9710
5.9169 2.7902 2.0027
5.4942 2.8362 1.8922
5.3410 3.0045 1.8748
5.3437 3.2638 1.9150
5.7447 3.7983 2.1056
5.6839 4.0585 2.1347
5.5363 4.2611 2.1347
5.3815 4.4583 2.1347
5.2196 4.6498 2.1347
5.0508 4.8354 2.1347
4.8754 5.0148 2.1347
4.6936 5.1878 2.1347
4.5056 5.3541 2.1347
4.3117 5.5136 2.1347
4.1121 5.6660 2.1347
3.9070 5.8111 2.1347
3.6968 5.9487 2.1347
3.4817 6.0786 2.1347
3.2620 6.2007 2.1347
3.0381 6.3148 2.1347
2.3666 5.4074 1.7978
2.2344 5.6488 1.8499
2.3432 6.6074 2.1347
2.1050 6.6879 2.1347
1.8924 6.8631 2.1673
1.6987 7.1524 2.2377
1.4412 7.2093 2.2377
1.1818 7.2568 2.2377
0.9208 7.2949 2.2377
0.6586 7.3235 2.2377
0.3956 7.3425 2.2377
0.1320 7.3520 2.2377
-0.1318 7.3520 2.2377
-0.3953 7.3424 2.2377
-0.6584 7.3233 2.2377
-0.9206 7.2946 2.2377
-1.1815 7.2564 2.2377
-1.4409 7.2089 2.2377
-1.6984 7.1519 2.2377
-1.9536 7.0857 2.2377
-2.2062 7.0103 2.2377
-2.4559 6.9257 2.2377
-2.7023 6.8322 2.2377
-2.9452 6.7299 2.2377
-3.1841 6.6188 2.2377
-3.4189 6.4992 2.2377
-3.6491 6.3712 2.2377
-3.8745 6.2349 2.2377
-4.0948 6.0907 2.2377
-4.3096 5.9385 2.2377
-4.5188 5.7788 2.2377
-4.7220 5.6116 2.2377
-4.9190 5.4372 2.2377
-5.1095 5.2558 2.2377
-5.2933 5.0677 2.2377
-5.4702 4.8732 2.2377
-5.6398 4.6724 2.2377
-5.8021 4.4657 2.2377
-5.9567 4.2534 2.2377
-6.1035 4.0356 2.2377
-6.1584 3.7615 2.2076
-6.1636 3.4674 2.1642
-6.1956 3.1984 2.1345
-6.3042 2.9730 2.1345
-6.4046 2.7439 2.1345
-6.4966 2.5114 2.1345
-6.5802 2.2758 2.1345
-6.6552 2.0375 2.1345
-6.7216 1.7967 2.1345
-6.7792 1.5537 2.1345
-6.8280 1.3089 2.1345
-6.8680 1.0626 2.1345
-6.8991 0.8151 2.1345
-6.9213 0.5667 2.1345
-6.9345 0.3178 2.1345
-6.9388 0.0686 2.1345
-6.9342 -0.1804 2.1345
-6.9206 -0.4291 2.1345
-6.8982 -0.6770 2.1345
-6.8668 -0.9238 2.1345
-6.8267 -1.1693 2.1345
-6.7777 -1.4131 2.1345
-6.7202 -1.6550 2.1345
-6.6540 -1.8945 2.1345
-6.5793 -2.1314 2.1345
-6.4962 -2.3655 2.1345
-6.4048 -2.5963 2.1345
-6.3053 -2.8236 2.1345
-6.1977 -3.0472 2.1345
-6.1656 -3.3115 2.1638
-6.1604 -3.5995 2.2066
-6.1102 -3.8711 2.2377
-5.9654 -4.0868 2.2377
-5.8130 -4.2971 2.2377
-5.6532 -4.5017 2.2377
-5.4863 -4.7005 2.2377
-5.3124 -4.8932 2.2377
-5.1319 -5.0795 2.2377
-4.9448 -5.2592 2.2377
-4.7515 -5.4320 2.2377
-4.5522 -5.5979 2.2377
-4.3472 -5.7565 2.2377
-4.1367 -5.9077 2.2377
-3.9210 -6.0512 2.2377
-3.7004 -6.1869 2.2377
-3.4751 -6.3147 2.2377
-3.2454 -6.4344 2.2377
-3.0117 -6.5458 2.2377
-2.7742 -6.6488 2.2377
-2.5332 -6.7433 2.2377
-2.2890 -6.8291 2.2377
-2.0419 -6.9062 2.2377
-1.7923 -6.9745 2.2377
-1.5405 -7.0338 2.2377
-1.2867 -7.0841 2.2377
-1.0313 -7.1254 2.2377
-0.7746 -7.1575 2.2377
-0.5169 -7.1805 2.2377
-0.2585 -7.1944 2.2377
0.0001 -6.6656 2.2377
0.2396 -6.6614 2.2377
0.4788 -6.6486 2.2377
0.7174 -6.6274 2.2377
0.9552 -6.5976 2.2377
1.1917 -6.5595 2.2377
1.4267 -6.5129 2.2377
1.6600 -6.4580 2.2377
1.8848 -6.3736 2.2303
2.0222 -6.0322 2.1347
2.2379 -5.9563 2.1347
2.4508 -5.8729 2.1347
2.6606 -5.7819 2.1347
2.5383 -5.0316 1.8898
3.0700 -5.5777 2.1347
3.2690 -5.4648 2.1347
3.4639 -5.3449 2.1347
3.6544 -5.2181 2.1347
3.8403 -5.0845 2.1347
2.1180 -2.6042 1.1243
2.2319 -2.5511 1.1351
2.3481 -2.4970 1.1475
2.4671 -2.4415 1.1617
2.5893 -2.3846 1.1778
2.7152 -2.3259 1.1960
2.8452 -2.2653 1.2163
2.9800 -2.2025 1.2389
5.2692 -3.6092 2.1347
5.3970 -3.4186 2.1347
5.5180 -3.2236 2.1347
5.6320 -3.0243 2.1347
5.7388 -2.8210 2.1347
5.8383 -2.6139 2.1347
5.9498 -2.4113 2.1417
6.0346 -2.1969 2.1417
6.1117 -1.9794 2.1417
6.1809 -1.7593 2.1417
6.2423 -1.5368 2.1417
6.2956 -1.3122 2.1417
6.3409 -1.0857 2.1417
6.3780 -0.8576 2.1417
6.4070 -0.6283 2.1417
6.4277 -0.3981 2.1417
6.4401 -0.1671 2.1417
6.4443 0.0642 2.1417
6.4401 0.2956 2.1417
6.4277 0.5267 2.1417
6.4069 0.7573 2.1417
5.4484 0.8433 1.8296
5.4484 1.0448 1.8404
5.4485 1.2491 1.8537
5.3389 1.4274 1.8320
5.9127 1.8106 2.0492
5.9137 2.0457 2.0730
5.8791 2.2731 2.0874
5.7960 2.4835 2.0875
5.7460 2.7101 2.1025
5.4933 2.8361 2.0453
5.3480 3.0089 2.0295
5.3509 3.2687 2.0732
5.3869 3.5621 2.1347
5.2571 3.7542 2.1347
5.1205 3.9415 2.1347
4.9772 4.1238 2.1347
4.8274 4.3009 2.1347
4.6712 4.4724 2.1347
4.5089 4.6383 2.1347
4.3407 4.7982 2.1347
4.1667 4.9519 2.1347
3.9873 5.0993 2.1347
3.8027 5.2402 2.1347
3.6130 5.3743 2.1347
3.4186 5.5014 2.1347
3.2196 5.6215 2.1347
3.0165 5.7343 2.1347
2.8093 5.8397 2.1347
2.3637 5.4013 1.9419
2.2282 5.6336 1.9951
2.1667 6.1101 2.1347
1.9464 6.1846 2.1347
1.8067 6.5529 2.2377
1.5707 6.6140 2.2377
1.3326 6.6666 2.2377
1.0928 6.7105 2.2377
0.8514 6.7456 2.2377
0.6090 6.7721 2.2377
0.3658 6.7897 2.2377
0.1221 6.7985 2.2377
-0.1218 6.7984 2.2377
-0.3655 6.7896 2.2377
-0.6088 6.7719 2.2377
-0.8512 6.7454 2.2377
-1.0925 6.7101 2.2377
-1.3323 6.6662 2.2377
-1.5704 6.6136 2.2377
-1.8064 6.5524 2.2377
-2.0400 6.4827 2.2377
-2.2709 6.4046 2.2377
-2.4988 6.3182 2.2377
-2.7234 6.2236 2.2377
-2.9444 6.1210 2.2377
-3.1615 6.0104 2.2377
-3.3744 5.8921 2.2377
-3.5829 5.7662 2.2377
-3.7867 5.6329 2.2377
-3.9854 5.4923 2.2377
-4.1789 5.3446 2.2377
-4.3669 5.1901 2.2377
-4.5492 5.0289 2.2377
-4.7255 4.8613 2.2377
-4.8955 4.6874 2.2377
-5.0592 4.5076 2.2377
-5.2162 4.3220 2.2377
-5.3664 4.1309 2.2377
-5.5095 3.9346 2.2377
-5.6454 3.7333 2.2377
-5.7740 3.5272 2.2377
-5.8950 3.3168 2.2377
-6.0083 3.1021 2.2377
-6.1137 2.8836 2.2377
-6.1587 2.6390 2.2188
-6.1588 2.3813 2.1874
-6.1647 2.1326 2.1616
-6.1705 1.8896 2.1392
-6.2184 1.6627 2.1345
-6.2719 1.4379 2.1345
-6.3173 1.2115 2.1345
-6.3712 0.9862 2.1401
-6.3834 0.7546 2.1345
-6.4041 0.5248 2.1345
-6.4165 0.2945 2.1345
-6.4206 0.0640 2.1345
-6.4165 -0.1665 2.1345
-6.4041 -0.3966 2.1345
-6.3835 -0.6260 2.1345
-6.3717 -0.8567 2.1402
-6.3176 -1.0817 2.1345
-6.2725 -1.3073 2.1345
-6.2194 -1.5312 2.1345
-6.1715 -1.7567 2.1391
-6.1659 -1.9970 2.1613
-6.1600 -2.2426 2.1868
-6.1601 -2.4966 2.2180
-6.1184 -2.7394 2.2377
-6.0142 -2.9565 2.2377
-5.9023 -3.1695 2.2377
-5.7828 -3.3784 2.2377
-5.6561 -3.5829 2.2377
-5.5221 -3.7826 2.2377
-5.3812 -3.9774 2.2377
-5.2334 -4.1669 2.2377
-5.0789 -4.3510 2.2377
-4.9181 -4.5295 2.2377
-4.7510 -4.7020 2.2377
-4.5779 -4.8685 2.2377
-4.3991 -5.0286 2.2377
-4.2146 -5.1822 2.2377
-4.0249 -5.3291 2.2377
-3.8300 -5.4692 2.2377
-3.6304 -5.6022 2.2377
-3.4261 -5.7279 2.2377
-3.2176 -5.8463 2.2377
-3.0050 -5.9572 2.2377
-2.7886 -6.0604 2.2377
-2.5687 -6.1558 2.2377
-2.3456 -6.2434 2.2377
-2.1195 -6.3229 2.2377
-1.8907 -6.3943 2.2377
-1.6596 -6.4575 2.2377
-1.4264 -6.5125 2.2377
-1.1914 -6.5591 2.2377
-0.9549 -6.5974 2.2377
-0.7172 -6.6272 2.2377
-0.4786 -6.6485 2.2377
-0.2394 -6.6613 2.2377
0.0001 -6.1993 2.2377
0.2229 -6.1953 2.2377
0.4454 -6.1835 2.2377
0.6673 -6.1637 2.2377
0.8884 -6.1360 2.2377
1.1084 -6.1005 2.2377
1.3270 -6.0571 2.2377
1.5439 -6.0061 2.2377
1.7589 -5.9473 2.2377
1.8933 -5.6471 2.1488
2.0814 -5.5394 2.1347
2.2794 -5.4617 2.1347
2.4745 -5.3770 2.1347
2.5371 -5.0288 2.0310
2.8552 -5.1870 2.1347
3.0402 -5.0820 2.1347
3.2214 -4.9704 2.1347
3.3986 -4.8524 2.1347
3.5714 -4.7281 2.1347
2.1182 -2.6041 1.2091
2.2320 -2.5511 1.2206
2.3483 -2.4969 1.2340
2.4673 -2.4414 1.2493
2.5895 -2.3845 1.2667
2.7154 -2.3258 1.2862
2.8454 -2.2652 1.3081
2.9802 -2.2024 1.3324
4.8995 -3.3556 2.1347
5.0183 -3.1783 2.1347
5.1307 -2.9969 2.1347
5.2366 -2.8115 2.1347
5.3358 -2.6224 2.1347
5.4282 -2.4299 2.1347
5.5137 -2.2341 2.1347
5.5921 -2.0353 2.1347
5.6634 -1.8338 2.1347
5.7274 -1.6298 2.1347
5.7841 -1.4235 2.1347
5.8335 -1.2153 2.1347
5.8753 -1.0055 2.1347
5.9290 -0.7968 2.1417
5.9558 -0.5836 2.1417
5.9749 -0.3696 2.1417
5.9863 -0.1549 2.1417
5.9900 0.0601 2.1417
5.9861 0.2752 2.1417
5.9743 0.4900 2.1417
5.9549 0.7044 2.1417
5.4484 0.8437 1.9685
5.4484 1.0452 1.9801
5.4485 1.2495 1.9945
5.3453 1.4296 1.9736
5.7241 1.7532 2.1347
5.6593 1.9581 2.1347
5.5872 2.1606 2.1347
5.5077 2.3604 2.1347
5.4212 2.5573 2.1347
5.3275 2.7510 2.1347
5.2269 2.9412 2.1347
5.1195 3.1278 2.1347
5.0054 3.3104 2.1347
4.8848 3.4888 2.1347
4.7578 3.6627 2.1347
4.6246 3.8321 2.1347
4.4853 3.9965 2.1347
