ply
format ascii 1.0
element vertex 2092
property float32 x
property float32 y
property float32 z
end_header
6.6173 -0.6539 -0.2650
6.8768 -0.4310 -0.2732
10.0863 -0.2693 -0.3978
14.3587 1.1658 -0.5588
10.0858 1.1846 -0.3917
7.6433 1.1772 -0.2967
7.3039 1.3950 -0.2837
7.0166 1.6031 -0.2731
6.7031 1.7869 -0.2618
6.5880 2.0121 -0.2586
6.4487 2.2256 -0.2547
6.5669 2.5337 -0.2614
2.2553 0.9645 -0.0906
6.4501 3.0368 -0.2620
6.6961 3.4514 -0.2754
7.9142 4.4459 -0.3302
7.9137 4.8272 -0.3355
7.9695 5.2627 -0.3439
7.9690 5.6834 -0.3508
7.9684 6.1260 -0.3585
7.9115 6.5472 -0.3646
7.9681 7.0909 -0.3770
7.9664 7.6190 -0.3880
7.9094 8.1277 -0.3975
7.9086 8.7332 -0.4113
7.5925 9.0143 -0.4098
7.2471 9.2594 -0.4073
6.9054 9.5069 -0.4056
6.5973 9.8044 -0.4065
6.5563 10.5416 -0.4256
7.6563 13.3565 -0.5262
7.1755 13.6292 -0.5250
6.6683 13.8501 -0.5225
6.4694 14.7709 -0.5468
7.8954 19.9458 -0.7257
7.5257 21.2061 -0.7597
6.8345 21.6994 -0.7667
6.3768 23.1105 -0.8066
6.4287 27.0501 -0.9341
6.7134 33.5600 -1.1485
6.3273 38.8272 -1.3188
6.8139 53.9464 -1.8215
6.6331 73.7105 -2.4780
-9.4504 57.9970 -1.9730
-11.2589 56.2867 -1.9299
-13.3757 56.2839 -1.9479
-15.5287 56.2810 -1.9693
-11.6372 36.9498 -1.3092
-12.9386 36.4599 -1.3103
-6.5312 16.5001 -0.6025
-6.9544 15.8790 -0.5901
-7.2416 15.0413 -0.5698
-7.5291 14.3012 -0.5533
-14.5070 25.3082 -1.0018
-15.1713 24.3939 -0.9899
-15.4579 22.9730 -0.9574
-15.6632 21.5646 -0.9250
-14.7766 18.8798 -0.8353
-15.1239 17.9565 -0.8212
-15.9163 17.5762 -0.8328
-15.3442 15.7681 -0.7761
-15.5398 14.8625 -0.7618
-16.1720 14.3920 -0.7705
-17.0308 14.0942 -0.7905
-17.2617 13.2709 -0.7823
-17.4619 12.4538 -0.7743
-17.5552 11.5930 -0.7633
-17.7468 10.8253 -0.7581
-17.8310 10.0168 -0.7497
-17.4094 8.9737 -0.7217
-16.8271 7.9225 -0.6889
-16.8343 7.1995 -0.6818
-17.4279 6.7242 -0.6993
-18.5024 6.3858 -0.7368
-24.7965 7.5736 -0.9812
-50.4552 13.4507 -1.9870
-43.6734 9.9786 -1.7141
-16.2337 3.1006 -0.6358
-16.2329 2.5002 -0.6354
-16.2321 1.9066 -0.6357
-16.2313 1.3179 -0.6369
-16.2306 0.7327 -0.6389
-16.2298 0.1495 -0.6417
-16.2290 -0.4333 -0.6454
-16.2282 -1.0172 -0.6499
-16.2274 -1.6036 -0.6552
-16.2267 -2.1942 -0.6614
-16.2259 -2.7905 -0.6685
-16.2251 -3.3941 -0.6765
-16.2243 -4.0068 -0.6855
-16.2234 -4.6305 -0.6955
-16.2226 -5.2670 -0.7066
-15.9289 -5.8116 -0.7058
-15.9780 -6.4885 -0.7213
-16.2699 -7.2980 -0.7493
-16.2690 -8.0110 -0.7655
-16.2680 -8.7497 -0.7832
-16.2670 -9.5175 -0.8025
-16.2659 -10.3180 -0.8237
-16.2648 -11.1558 -0.8468
-16.2636 -12.0358 -0.8722
-16.2342 -12.9414 -0.8984
-16.1968 -13.8912 -0.9268
-16.2597 -14.9912 -0.9641
-23.1451 -22.9304 -1.4251
-24.9732 -26.5850 -1.6008
-24.1382 -27.6196 -1.6149
-23.2486 -28.6131 -1.6281
-22.7161 -30.1050 -1.6702
-23.1317 -33.0608 -1.7919
-31.3454 -48.4122 -2.5678
-30.6612 -51.3039 -2.6675
-18.3067 -33.2907 -1.6995
-16.7781 -33.2886 -1.6711
-15.3041 -33.2867 -1.6455
-13.8781 -33.2848 -1.6226
-12.4944 -33.2829 -1.6022
-11.1477 -33.2811 -1.5842
-9.9880 -33.8035 -1.5930
-9.9812 -38.8650 -1.8155
-10.3884 -47.4642 -2.2005
-9.4228 -51.9125 -2.3914
-10.5787 -97.8141 -4.4642
2.1034 -58.5475 -1.3378
4.1971 -58.3402 -1.3346
5.1437 -47.5624 -1.0904
6.1751 -42.6954 -0.9819
5.2719 -29.0466 -0.6707
6.3565 -29.0451 -0.6741
7.2228 -28.1272 -0.6568
6.1874 -20.9431 -0.4926
6.8557 -20.4699 -0.4854
7.4246 -19.7803 -0.4734
5.9449 -14.2597 -0.3449
6.0987 -13.2666 -0.3246
6.4973 -12.8927 -0.3196
6.8604 -12.4773 -0.3137
5.9654 -9.9830 -0.2549
5.9666 -9.2165 -0.2394
6.1887 -8.8465 -0.2340
6.4825 -8.5923 -0.2319
6.7929 -8.3616 -0.2307
7.1464 -8.1784 -0.2310
7.4314 -7.9124 -0.2293
7.4307 -7.3631 -0.2193
7.4865 -6.9037 -0.2119
7.4858 -6.4215 -0.2036
7.4253 -5.9204 -0.1944
7.3919 -5.4716 -0.1867
7.4912 -5.1393 -0.1828
7.4836 -4.7483 -0.1768
7.3851 -4.3220 -0.1691
7.4262 -3.9953 -0.1650
7.4258 -3.6576 -0.1604
6.9095 -3.1003 -0.1453
6.1391 -2.4939 -0.1258
5.9520 -2.1724 -0.1190
6.0737 -1.9728 -0.1186
6.0734 -1.7343 -0.1160
6.0731 -1.5007 -0.1136
6.0509 -1.2666 -0.1110
6.1561 -1.0595 -0.1108
6.2291 -0.8431 -0.1102
6.6162 -0.6547 -0.1151
6.8773 -0.4320 -0.1179
10.0863 -0.2707 -0.1704
14.3587 1.1639 -0.2341
10.0858 1.1832 -0.1629
7.6466 1.1767 -0.1224
7.3050 1.3942 -0.1161
7.0176 1.6024 -0.1109
6.7035 1.7861 -0.1055
6.5884 2.0113 -0.1033
6.4489 2.2248 -0.1010
6.5669 2.5327 -0.1028
2.2548 0.9640 -0.0353
6.4499 3.0357 -0.1013
6.6954 3.4501 -0.1056
7.9142 4.4447 -0.1256
7.9137 4.8260 -0.1266
7.9695 5.2615 -0.1287
7.9690 5.6821 -0.1302
7.9684 6.1247 -0.1320
7.9115 6.5458 -0.1332
7.9671 7.0887 -0.1367
7.9664 7.6176 -0.1396
7.9094 8.1262 -0.1419
7.9086 8.7317 -0.1458
7.5936 9.0141 -0.1442
7.2479 9.2588 -0.1423
6.9061 9.5064 -0.1408
6.5977 9.8035 -0.1402
6.5563 10.5400 -0.1459
7.6574 13.3563 -0.1793
7.1762 13.6286 -0.1779
6.6690 13.8494 -0.1761
6.4793 14.7915 -0.1837
7.8954 19.9432 -0.2423
7.5267 21.2059 -0.2527
6.8352 21.6989 -0.2540
6.3758 23.1038 -0.2663
6.4295 27.0499 -0.3076
6.7144 33.5610 -0.3773
6.3957 39.2426 -0.4370
6.8385 54.1357 -0.5984
6.6350 73.7241 -0.8105
-9.5713 58.7299 -0.6572
-11.2856 56.4109 -0.6379
-13.3778 56.2839 -0.6444
-12.9107 46.7853 -0.5435
-11.6384 36.9481 -0.4363
-12.9406 36.4599 -0.4386
-6.9070 17.4468 -0.2142
-12.8728 29.3877 -0.3691
-6.9094 14.3489 -0.1848
-7.5560 14.3501 -0.1898
-14.5090 25.3076 -0.3445
-15.1717 24.3905 -0.3425
-15.4584 22.9699 -0.3335
-15.6638 21.5617 -0.3244
-14.7773 18.8774 -0.2949
-15.1256 17.9553 -0.2922
-15.9186 17.5755 -0.2985
-15.3443 15.7652 -0.2803
-15.5447 14.8642 -0.2774
-16.1741 14.3909 -0.2827
-17.0346 14.0942 -0.2923
-17.2621 13.2682 -0.2916
-17.4623 12.4512 -0.2910
-17.5557 11.5904 -0.2892
-17.7472 10.8228 -0.2896
-17.8315 10.0143 -0.2887
-17.4042 8.9684 -0.2802
-16.8275 7.9202 -0.2697
-16.8350 7.1974 -0.2692
-17.4308 6.7228 -0.2784
-18.5180 6.3885 -0.2959
-24.7970 7.5702 -0.3969
-50.4552 13.4437 -0.8102
-43.0655 9.8338 -0.6946
-15.9406 3.0424 -0.2586
-15.9398 2.4529 -0.2604
-15.9391 1.8700 -0.2625
-15.9383 1.2920 -0.2650
-15.9375 0.7174 -0.2678
-15.9368 0.1447 -0.2709
-15.9360 -0.4276 -0.2744
-15.9353 -1.0009 -0.2782
-15.9345 -1.5768 -0.2824
-15.9337 -2.1567 -0.2870
-15.9330 -2.7422 -0.2920
-15.9322 -3.3350 -0.2974
-15.9314 -3.9367 -0.3032
-15.9306 -4.5491 -0.3095
-15.9297 -5.1741 -0.3163
-15.9289 -5.8138 -0.3236
-15.9780 -6.4908 -0.3325
-15.9771 -7.1689 -0.3411
-15.9762 -7.8692 -0.3503
-15.9752 -8.5947 -0.3602
-15.9742 -9.3486 -0.3709
-15.9732 -10.1348 -0.3825
-15.9721 -10.9576 -0.3950
-15.9709 -11.8218 -0.4086
-15.9697 -12.7332 -0.4234
-15.9684 -13.6981 -0.4395
-15.9671 -14.7242 -0.4571
-23.1883 -22.9774 -0.6920
-25.0164 -26.6357 -0.7799
-24.1170 -27.6000 -0.7873
-23.1809 -28.5346 -0.7946
-23.1780 -30.7220 -0.8367
-23.1748 -33.1277 -0.8839
-31.2521 -48.2755 -1.2639
-30.5036 -51.0477 -1.3133
-18.3040 -33.2907 -0.8429
-15.8547 -31.4611 -0.7850
-15.3020 -33.2867 -0.8195
-13.8762 -33.2848 -0.8095
-12.4928 -33.2829 -0.8007
-11.1462 -33.2811 -0.7928
-9.8318 -33.2794 -0.7859
-9.0125 -35.0975 -0.8225
-9.0044 -41.1456 -0.9579
-9.0154 -49.6736 -1.1499
-10.5777 -97.8141 -2.2459
3.3515 -93.3099 -0.0290
2.3536 -32.7213 -0.0096
5.1437 -47.5704 -0.0128
6.1741 -42.6954 -0.0102
5.2711 -29.0466 -0.0058
6.3555 -29.0451 -0.0044
7.1448 -27.8277 -0.0027
6.1868 -20.9443 -0.0007
6.8549 -20.4706 0.0008
7.4246 -19.7833 0.0024
5.9440 -14.2599 0.0031
6.0983 -13.2676 0.0042
6.4966 -12.8933 0.0056
6.8595 -12.4777 0.0070
5.9645 -9.9831 0.0070
5.9664 -9.2178 0.0079
6.1883 -8.8474 0.0091
6.5048 -8.6234 0.0106
6.8186 -8.3948 0.0120
6.4132 -7.3407 0.0122
6.8647 -7.3104 0.0141
7.3753 -7.3097 0.0162
7.4865 -6.9051 0.0175
6.5053 -5.5816 0.0161
6.9980 -5.5809 0.0183
7.3920 -5.4729 0.0204
7.4841 -5.1357 0.0218
6.4088 -4.0674 0.0196
6.9469 -4.0666 0.0222
7.4262 -3.9965 0.0249
7.4258 -3.6588 0.0260
6.9091 -3.1011 0.0253
6.1397 -2.4950 0.0235
5.9522 -2.1733 0.0237
6.0737 -1.9736 0.0252
6.0734 -1.7352 0.0262
6.0731 -1.5015 0.0273
6.0506 -1.2674 0.0282
6.1557 -1.0603 0.0299
6.2283 -0.8439 0.0314
6.6151 -0.6555 0.0346
6.8778 -0.4329 0.0373
10.0863 -0.2720 0.0568
14.3587 1.1620 0.0903
10.0858 1.1819 0.0658
7.6500 1.1762 0.0518
7.3061 1.3934 0.0514
7.0186 1.6017 0.0512
6.7039 1.7853 0.0508
6.5888 2.0105 0.0518
6.4490 2.2239 0.0527
6.5669 2.5318 0.0558
2.2543 0.9634 0.0199
6.4498 3.0347 0.0592
6.6947 3.4487 0.0640
7.9142 4.4435 0.0788
7.9137 4.8248 0.0822
7.9695 5.2602 0.0864
6.8961 4.9160 0.0781
7.9684 6.1234 0.0943
7.7597 6.4190 0.0962
7.9671 7.0873 0.1035
7.9664 7.6162 0.1087
7.9094 8.1248 0.1135
7.9086 8.7301 0.1196
6.8918 8.1796 0.1100
7.2019 9.1985 0.1217
6.8247 9.3928 0.1224
6.5981 9.8027 0.1259
6.4012 10.2891 0.1305
7.6584 13.3561 0.1674
7.1039 13.4893 0.1673
6.6696 13.8488 0.1700
6.3615 14.5207 0.1767
7.3173 18.4803 0.2231
7.1861 20.2437 0.2426
6.7727 21.4980 0.2559
6.2610 22.6851 0.2685
6.3300 26.6280 0.3136
6.7071 33.5207 0.3930
6.3964 39.2425 0.4584
2.8528 22.5811 0.2630
2.2399 24.8859 0.2891
-9.4503 57.9783 0.6742
-11.2624 56.2867 0.6563
-13.3798 56.2839 0.6585
-15.5335 56.2810 0.6611
-11.6397 36.9465 0.4361
-12.5893 35.4649 0.4209
-6.9080 17.4468 0.2084
-7.6636 17.4927 0.2104
-6.9126 14.3533 0.1745
-7.5572 14.3501 0.1755
-14.4863 25.2639 0.3120
-15.1720 24.3870 0.3044
-15.2857 22.7095 0.2868
-15.3594 21.1392 0.2704
-14.6636 18.7289 0.2430
-15.1274 17.9541 0.2366
-15.9209 17.5748 0.2355
-15.3443 15.7622 0.2152
-15.5495 14.8658 0.2071
-16.0518 14.2791 0.2033
-17.0383 14.0943 0.2056
-17.0792 13.1247 0.1966
-17.4655 12.4505 0.1920
-17.5562 11.5878 0.1846
-17.7477 10.8202 0.1785
-17.8319 10.0118 0.1718
-17.3991 8.9630 0.1607
-16.8279 7.9178 0.1491
-16.8358 7.1952 0.1432
-17.4337 6.7214 0.1424
-18.5336 6.3912 0.1454
-24.7976 7.5669 0.1870
-50.4552 13.4366 0.3658
-43.4698 9.9200 0.3030
-16.2337 3.0961 0.1088
-16.2329 2.4958 0.1047
-16.2321 1.9022 0.1007
-16.2313 1.3135 0.0969
-16.2305 0.7284 0.0932
-16.2298 0.1452 0.0896
-16.2290 -0.4376 0.0862
-16.2282 -1.0215 0.0828
-16.2274 -1.6080 0.0796
-16.2267 -2.1985 0.0765
-16.2259 -2.7949 0.0734
-16.2251 -3.3985 0.0705
-16.2243 -4.0113 0.0676
-16.2234 -4.6350 0.0648
-16.2226 -5.2715 0.0620
-16.2217 -5.9230 0.0594
-16.2708 -6.6121 0.0569
-16.2699 -7.3027 0.0543
-16.2690 -8.0158 0.0518
-16.2680 -8.7546 0.0493
-16.2670 -9.5224 0.0468
-16.2659 -10.3231 0.0444
-16.2648 -11.1610 0.0420
-16.2636 -12.0412 0.0396
-16.2624 -12.9692 0.0373
-16.2611 -13.9519 0.0350
-16.2597 -14.9970 0.0327
-23.1883 -22.9817 0.0433
-38.9862 -41.5172 0.0673
-30.4323 -34.8334 0.0482
-37.4162 -46.0652 0.0540
-23.6398 -31.3392 0.0307
-27.0305 -38.6453 0.0312
-26.4854 -40.9185 0.0267
-26.4809 -44.3224 0.0227
-18.3014 -33.2907 0.0128
-15.8789 -31.5136 0.0086
-15.2998 -33.2867 0.0057
-13.8743 -33.2848 0.0027
-12.4911 -33.2829 0.0001
-11.1448 -33.2811 -0.0022
-9.8306 -33.2794 -0.0042
-6.4882 -25.2700 -0.0045
-9.0044 -41.1506 -0.0092
-9.7749 -53.8647 -0.0139
-10.5766 -97.8141 -0.0298
-0.0004 -96.9782 2.1533
3.2700 -91.0631 2.0241
4.3658 -60.7064 1.3530
6.1085 -56.5029 1.2648
6.1731 -42.6954 0.9615
5.2702 -29.0466 0.6591
6.3545 -29.0451 0.6653
7.1437 -27.8277 0.6444
6.1862 -20.9455 0.4913
6.4895 -19.3823 0.4612
6.6051 -17.6024 0.4257
5.9420 -14.2574 0.3510
6.0977 -13.2685 0.3332
6.4229 -12.7491 0.3271
6.8587 -12.4781 0.3277
5.8907 -9.8612 0.2657
5.9267 -9.1581 0.2536
6.1227 -8.7551 0.2497
6.3821 -8.4623 0.2491
6.6926 -8.2411 0.2509
6.4132 -7.3420 0.2318
6.7796 -7.2211 0.2370
7.2852 -7.2218 0.2470
7.4865 -6.9065 0.2469
6.4939 -5.5730 0.2088
6.8415 -5.4573 0.2150
7.3921 -5.4742 0.2276
7.4938 -5.1435 0.2265
6.4088 -4.0684 0.1906
6.7255 -3.9381 0.1971
7.3115 -3.9358 0.2116
7.4258 -3.6599 0.2125
6.3241 -2.8395 0.1793
6.1402 -2.4962 0.1728
5.9523 -2.1742 0.1665
5.9120 -1.9220 0.1646
5.9086 -1.6889 0.1639
5.9429 -1.4702 0.1646
6.0502 -1.2681 0.1675
6.1553 -1.0611 0.1706
6.2275 -0.8446 0.1729
6.4333 -0.6383 0.1793
6.7575 -0.4263 0.1892
8.3470 -0.2262 0.2351
86.4623 0.7615 2.4533
85.7340 3.8358 2.4533
14.1087 1.1398 0.4076
8.8223 1.0326 0.2577
7.6533 1.1757 0.2263
7.0738 1.3482 0.2119
6.8376 1.5594 0.2079
6.7043 1.7845 0.2071
6.5892 2.0097 0.2070
6.4492 2.2230 0.2064
6.4096 2.4703 0.2092
2.2538 0.9629 0.0751
6.4496 3.0337 0.2198
6.6940 3.4474 0.2336
7.8451 4.4035 0.2808
7.8446 4.7814 0.2884
7.2840 4.8066 0.2755
6.8961 4.9149 0.2688
7.9684 6.1221 0.3207
7.6507 6.3274 0.3185
7.1120 6.3253 0.3068
6.9767 6.6687 0.3126
7.8414 8.0535 0.3657
7.2950 8.0514 0.3551
6.8918 8.1783 0.3510
7.1523 9.1338 0.3822
6.8253 9.3922 0.3840
6.5986 9.8018 0.3922
6.4014 10.2878 0.4035
7.6595 13.3560 0.5143
7.1777 13.6275 0.5160
6.6702 13.8482 0.5164
6.4811 14.7915 0.5439
6.7317 16.9992 0.6172
6.5739 18.5167 0.6646
6.3656 20.2030 0.7178
7.0309 25.4715 0.8969
6.3387 26.6613 0.9315
6.0757 30.3617 1.0537
6.3971 39.2424 1.3543
2.8531 22.5813 0.7759
2.2401 24.8860 0.8522
3.3616 62.3520 2.1302
1.1750 65.4504 2.2333
-1.1758 65.4616 2.2333
-3.5267 65.4031 2.2333
-5.8762 65.2748 2.2333
-7.8428 62.0682 2.1300
-10.0768 61.8122 2.1300
-12.5554 62.7389 2.1733
-14.8223 62.3421 2.1733
-13.4287 48.6474 1.7086
-11.1689 35.4469 1.2559
-11.9278 33.5962 1.2020
-6.9091 17.4468 0.6312
-7.6647 17.4927 0.6407
-8.0164 16.6427 0.6180
-7.5584 14.3501 0.5409
-13.8868 24.2143 0.9280
-13.9606 22.4361 0.8754
-14.1969 21.0883 0.8391
-15.3951 21.1846 0.8611
-14.6644 18.7266 0.7789
-15.1291 17.9529 0.7656
-15.9232 17.5741 0.7699
-15.3444 15.7592 0.7107
-15.5543 14.8675 0.6919
-16.1784 14.3888 0.6927
-15.7447 13.0214 0.6503
-17.1495 13.1758 0.6847
-16.2061 11.5500 0.6265
-17.3710 11.4628 0.6515
-17.7481 10.8177 0.6468
-17.8052 9.9941 0.6316
-17.3939 8.9577 0.6014
-16.8283 7.9155 0.5681
-16.8365 7.1931 0.5557
-17.4366 6.7200 0.5634
-18.5494 6.3940 0.5876
-23.9964 7.3190 0.7461
-50.4552 13.4296 1.5420
-42.7638 9.7530 1.2862
-16.2337 3.0939 0.4811
-16.2329 2.4936 0.4747
-16.2321 1.9000 0.4689
-16.2313 1.3114 0.4637
-16.2305 0.7262 0.4592
-16.2298 0.1430 0.4552
-16.2290 -0.4398 0.4519
-16.2282 -1.0237 0.4491
-16.2274 -1.6101 0.4470
-16.2267 -2.2007 0.4454
-16.2259 -2.7971 0.4443
-16.2251 -3.4007 0.4439
-16.1985 -4.0071 0.4434
-16.1977 -4.6298 0.4442
-16.2226 -5.2738 0.4463
-16.2217 -5.9253 0.4484
-16.2708 -6.6144 0.4525
-16.2699 -7.3051 0.4561
-16.2690 -8.0182 0.4603
-16.2680 -8.7571 0.4654
-16.2670 -9.5249 0.4714
-16.2659 -10.3256 0.4784
-16.2648 -11.1636 0.4864
-16.2636 -12.0438 0.4955
-16.2624 -12.9720 0.5059
-16.2353 -13.9326 0.5168
-16.2597 -14.9998 0.5310
-23.1883 -22.9859 0.7788
-39.4416 -42.0096 1.3660
-17.7466 -20.3166 0.6357
-18.1086 -22.2983 0.6731
-17.4138 -23.0891 0.6740
-18.4387 -26.3659 0.7460
-22.2940 -34.4483 0.9467
-22.2902 -37.3137 0.9981
-18.2987 -33.2907 0.8685
-15.8672 -31.4947 0.8028
-15.2977 -33.2867 0.8309
-13.8725 -33.2848 0.8149
-12.4894 -33.2829 0.8008
-11.1433 -33.2811 0.7883
-9.8293 -33.2794 0.7773
-9.9830 -38.8864 0.8973
-9.0044 -41.1555 0.9398
-9.7749 -53.8709 1.2193
-10.6779 -73.8476 1.6596
-10.3913 -96.1098 2.1481
-6.9124 -96.1052 2.1398
-2.5089 -69.8496 1.5518
-0.0004 -49.9053 2.2333
1.7901 -49.8624 2.2333
2.1041 -29.2627 1.3137
5.0975 -47.1593 2.1251
6.1721 -42.6954 1.9341
5.2694 -29.0466 1.3247
6.3535 -29.0451 1.3356
7.1426 -27.8277 1.2922
5.7256 -19.3888 0.9106
5.8798 -17.5640 0.8355
6.0350 -16.0853 0.7763
5.9426 -14.2609 0.6994
6.0972 -13.2695 0.6624
6.4951 -12.8944 0.6564
6.8578 -12.4786 0.6488
5.9627 -9.9834 0.5312
5.9660 -9.2203 0.5029
6.1874 -8.8491 0.4958
6.5033 -8.6245 0.4974
6.8171 -8.3959 0.4995
6.3849 -7.3110 0.4497
6.7783 -7.2211 0.4603
7.2836 -7.2216 0.4783
7.4865 -6.9079 0.4766
6.4936 -5.5739 0.4018
6.8883 -5.4958 0.4152
7.3921 -5.4755 0.4351
7.4933 -5.1445 0.4315
6.4055 -4.0673 0.3616
6.7892 -3.9764 0.3764
7.3806 -3.9742 0.4026
7.4249 -3.6606 0.3992
6.3258 -2.8412 0.3358
6.1408 -2.4973 0.3223
5.9525 -2.1751 0.3094
5.9122 -1.9228 0.3048
5.9085 -1.6897 0.3025
5.9428 -1.4710 0.3027
6.0498 -1.2689 0.3069
6.1549 -1.0619 0.3114
6.2268 -0.8454 0.3147
6.4325 -0.6391 0.3251
6.7559 -0.4271 0.3419
10.8385 -0.2952 0.5499
48.1685 0.4178 2.4533
47.9212 2.1376 2.4533
13.5269 1.0910 0.6969
9.6995 1.1340 0.5036
7.6567 1.1751 0.4011
7.0752 1.3475 0.3745
6.8384 1.5587 0.3661
6.7048 1.7837 0.3636
6.5896 2.0090 0.3624
6.4493 2.2222 0.3603
6.4098 2.4694 0.3641
2.2533 0.9624 0.1304
6.4494 3.0327 0.3806
6.6934 3.4460 0.4034
7.9135 4.4406 0.4880
7.8869 4.8060 0.4984
7.2858 4.8067 0.4725
6.8719 4.8965 0.4583
7.9684 6.1208 0.5474
7.6520 6.3272 0.5425
7.1133 6.3253 0.5216
6.6613 6.3661 0.5064
6.4708 6.6446 0.5111
7.2962 8.0513 0.6003
6.7523 8.0114 0.5803
6.3984 8.1696 0.5761
6.9083 9.5048 0.6537
6.5990 9.8009 0.6588
6.4016 10.2866 0.6769
7.6605 13.3558 0.8618
7.1297 13.5343 0.8577
6.6947 13.8970 0.8663
6.4004 14.6055 0.8969
6.7326 16.9991 1.0298
6.0292 16.9801 1.0161
5.9225 18.7944 1.1125
6.3726 23.0836 1.3532
6.4318 27.0496 1.5725
5.7807 28.8841 1.6672
6.0726 37.2479 2.1372
2.8534 22.5814 1.2895
2.2403 24.8861 1.4161
2.0285 37.6231 2.1356
0.7072 39.3924 2.2333
-0.7079 39.3964 2.2333
-2.1226 39.3550 2.2333
-3.5356 39.2681 2.2333
-4.9459 39.1357 2.2333
-6.2097 38.0846 2.1832
-7.3945 36.9440 2.1300
-8.7242 36.6882 2.1300
-10.0464 36.3892 2.1300
-11.0933 35.2012 2.0800
-11.3472 31.9559 1.9086
-6.9102 17.4468 1.0547
-7.6659 17.4927 1.0717
-8.0164 16.6401 1.0347
-7.5596 14.3501 0.9070
-12.9003 22.4907 1.4470
-13.9907 22.4807 1.4747
-14.1147 20.9626 1.4044
-15.3984 21.1855 1.4522
-14.7787 18.8693 1.3257
-15.1308 17.9517 1.2953
-15.9710 17.6235 1.3088
-15.3444 15.7562 1.2069
-15.5561 14.8663 1.1774
-16.1806 14.3877 1.1813
-15.5447 12.8533 1.0971
-16.6412 12.7823 1.1378
-15.7938 11.2535 1.0481
-16.9270 11.1670 1.0923
-16.0879 9.8031 1.0113
-17.8130 9.9956 1.0926
-17.0824 8.7947 1.0241
-16.7485 7.8755 0.9829
-16.8850 7.2113 0.9714
-17.3324 6.6773 0.9790
-18.5651 6.3968 1.0310
-24.7988 7.5602 1.3559
-38.0961 10.1346 2.0535
-38.4611 8.7664 2.0466
-16.2337 3.0917 0.8539
-16.2329 2.4914 0.8451
-16.2321 1.8978 0.8375
-16.2313 1.3092 0.8310
-16.2305 0.7240 0.8256
-16.2298 0.1408 0.8213
-16.2290 -0.4420 0.8181
-16.2282 -1.0259 0.8159
-16.2274 -1.6123 0.8148
-16.2266 -2.2029 0.8147
-16.2259 -2.7992 0.8157
-16.2251 -3.4029 0.8178
-16.1985 -4.0094 0.8198
-16.1976 -4.6321 0.8241
-16.2226 -5.2760 0.8310
-16.2217 -5.9276 0.8379
-16.2708 -6.6167 0.8487
-16.2699 -7.3074 0.8583
-16.2690 -8.0206 0.8694
-16.2680 -8.7595 0.8821
-16.2670 -9.5274 0.8966
-16.2659 -10.3282 0.9129
-16.2648 -11.1662 0.9313
-16.2636 -12.0465 0.9519
-16.2624 -12.9747 0.9750
-16.2353 -13.9354 0.9993
-16.2597 -15.0027 1.0299
-18.7034 -18.5436 1.2221
-18.0031 -19.1787 1.2167
-17.3642 -19.8822 1.2173
-17.8309 -21.9599 1.3007
-17.2868 -22.9245 1.3166
-17.7631 -25.4037 1.4176
-22.2940 -34.4535 1.8721
-22.2902 -37.3193 1.9783
-18.2961 -33.2907 1.7250
-15.8449 -31.4550 1.5960
-15.2956 -33.2867 1.6568
-13.8706 -33.2848 1.6280
-12.4878 -33.2829 1.6023
-11.1419 -33.2811 1.5796
-9.8281 -33.2794 1.5597
-9.9818 -38.8866 1.8025
-9.0044 -41.1604 1.8898
-8.4849 -46.7670 2.1302
-6.8055 -47.0716 2.1302
-5.3618 -49.5971 2.2333
-3.5796 -49.7726 2.2333
-1.7914 -49.8753 2.2333
-0.0004 -33.1630 2.2333
1.1894 -33.1369 2.2333
2.1211 -29.5052 1.9929
2.6374 -24.4037 1.6542
4.5193 -31.2675 2.1302
5.2686 -29.0466 1.9917
6.3526 -29.0451 2.0073
7.1415 -27.8277 1.9413
5.2232 -17.6901 1.2475
5.4485 -16.2782 1.1622
6.0340 -16.0854 1.1645
5.9432 -14.2645 1.0487
6.0968 -13.2705 0.9924
6.4461 -12.7992 0.9753
6.8819 -12.5244 0.9740
6.0538 -10.1376 0.8061
5.9658 -9.2215 0.7511
6.1869 -8.8500 0.7398
6.4103 -8.5026 0.7310
6.0084 -7.4013 0.6557
6.3052 -7.2211 0.6607
6.7768 -7.2209 0.6840
7.2819 -7.2213 0.7100
6.0934 -5.6236 0.5753
6.3562 -5.4571 0.5827
6.8865 -5.4957 0.6143
7.3922 -5.4768 0.6430
6.1491 -4.2226 0.5227
6.2027 -3.9395 0.5162
6.7874 -3.9765 0.5541
7.3786 -3.9743 0.5919
7.4249 -3.6617 0.5863
6.9077 -3.1036 0.5378
6.1414 -2.4984 0.4722
5.9526 -2.1761 0.4527
6.0737 -1.9762 0.4575
6.0734 -1.7377 0.4538
6.0731 -1.5041 0.4507
6.0494 -1.2696 0.4466
6.1545 -1.0626 0.4526
6.2261 -0.8461 0.4567
6.6118 -0.6578 0.4843
6.8791 -0.4358 0.5039
9.2696 -0.2537 0.6799
29.0622 0.2481 2.1372
28.9501 1.2875 2.1372
13.5026 1.0872 1.0020
9.7108 1.1340 0.7252
7.6601 1.1746 0.5765
7.3093 1.3911 0.5551
7.0216 1.5995 0.5388
6.7052 1.7829 0.5205
6.5900 2.0082 0.5182
6.4494 2.2213 0.5145
6.5669 2.5290 0.5322
2.2528 0.9618 0.1857
6.4493 3.0317 0.5417
6.6927 3.4447 0.5736
7.9135 4.4394 0.6932
7.8891 4.8061 0.7074
7.2877 4.8068 0.6701
6.7474 4.8067 0.6373
6.3751 4.8958 0.6197
7.6533 6.3270 0.7672
7.1149 6.3254 0.7371
6.6188 6.3242 0.7102
6.2682 6.4354 0.6982
7.2975 8.0514 0.8461
6.7861 8.0501 0.8213
6.3289 8.0795 0.8019
6.8574 9.4333 0.9127
6.5995 9.8001 0.9260
6.4435 10.3524 0.9571
7.6615 13.3557 1.2101
7.1792 13.6264 1.2120
6.6715 13.8469 1.2109
6.4828 14.7915 1.2737
6.7335 16.9992 1.4435
6.0368 16.9992 1.4254
5.3454 16.9608 1.4063
5.5880 20.2390 1.6615
6.2444 26.2585 2.1372
5.2773 26.3654 2.1302
4.3253 26.5271 2.1302
3.3688 26.6569 2.1302
2.4088 26.7548 2.1302
1.5162 28.1188 2.2333
0.5054 28.1544 2.2333
-0.5061 28.1566 2.2333
-1.5172 28.1250 2.2333
-2.5269 28.0599 2.2333
-3.5343 27.9612 2.2333
-4.5383 27.8292 2.2333
-5.5378 27.6636 2.2333
-6.2300 26.1951 2.1300
-7.1720 25.9739 2.1300
-8.1070 25.7212 2.1300
-9.0339 25.4373 2.1300
-6.9112 17.4468 1.4792
-7.6672 17.4927 1.5038
-8.0164 16.6375 1.4524
-7.5608 14.3501 1.2739
-12.9499 22.5735 2.0412
-13.6421 21.9170 2.0218
-14.1172 20.9629 1.9763
-15.4014 21.1859 2.0448
-14.7792 18.8666 1.8678
-15.1325 17.9505 1.8264
-15.9740 17.6236 1.8469
-15.3445 15.7532 1.7042
-15.5574 14.8645 1.6641
-16.1828 14.3867 1.6711
-15.6096 12.9041 1.5597
-14.9358 11.4698 1.4470
-15.6697 11.1625 1.4749
-16.4415 10.8440 1.5064
-15.7599 9.6008 1.4080
-17.8208 9.9972 1.5552
-17.3836 8.9471 1.4842
-16.8291 7.9108 1.4081
-16.8380 7.1887 1.3827
-17.4424 6.7171 1.4078
-18.5808 6.3995 1.4762
-24.7994 7.5569 1.9421
-27.5976 7.3379 2.1333
-27.9217 6.3603 2.1333
-16.2337 3.0895 1.2275
-16.2329 2.4892 1.2164
-16.2321 1.8956 1.2070
-16.2313 1.3070 1.1992
-16.2305 0.7218 1.1929
-16.2298 0.1386 1.1883
-16.2290 -0.4442 1.1851
-16.2282 -1.0280 1.1835
-16.2274 -1.6145 1.1834
-16.2266 -2.2051 1.1849
-16.2259 -2.8015 1.1879
-16.2251 -3.4052 1.1926
-16.1985 -4.0116 1.1970
-16.1976 -4.6343 1.2050
-16.2226 -5.2783 1.2167
-16.2217 -5.9299 1.2283
-16.2708 -6.6191 1.2457
-16.2699 -7.3098 1.2615
-16.2690 -8.0231 1.2794
-16.2680 -8.7619 1.2998
-16.2670 -9.5299 1.3227
-16.2659 -10.3307 1.3484
-16.2648 -11.1688 1.3772
-16.2636 -12.0491 1.4094
-16.2624 -12.9774 1.4453
-16.2353 -13.9382 1.4829
-16.2597 -15.0056 1.5299
-18.6840 -18.5278 1.8155
-18.0010 -19.1799 1.8111
-17.9912 -20.6037 1.8795
-17.8614 -22.0012 1.9434
-17.9798 -23.8474 2.0443
-17.8889 -25.5878 2.1333
-16.9878 -26.2574 2.1333
-16.0602 -26.8928 2.1333
-15.1074 -27.4928 2.1333
-14.1309 -28.0563 2.1333
-13.3783 -29.1182 2.1733
-12.3395 -29.6147 2.1733
-11.2812 -30.0711 2.1733
-10.0018 -29.8796 2.1300
-8.9310 -30.2456 2.1300
-7.8460 -30.5699 2.1300
-6.7484 -30.8518 2.1300
-5.9135 -32.5979 2.2333
-4.7421 -32.8032 2.2333
-3.5631 -32.9625 2.2333
-2.3786 -33.0757 2.2333
-1.1904 -33.1426 2.2333
-0.0004 -24.8133 2.2333
0.8897 -24.7946 2.2333
1.7783 -24.7420 2.2333
2.1450 -19.8514 1.7981
3.3820 -23.4024 2.1302
4.2175 -23.2556 2.1302
5.0465 -23.0770 2.1302
4.9593 -19.3273 1.8004
5.1964 -17.6022 1.6572
5.3837 -16.0872 1.5330
6.0331 -16.0854 1.5538
5.9438 -14.2681 1.3993
6.0962 -13.2715 1.3235
6.4936 -12.8954 1.3098
6.8561 -12.4795 1.2932
5.9587 -9.9799 1.0570
5.9656 -9.2227 1.0001
6.1865 -8.8508 0.9846
6.4411 -8.5450 0.9771
5.8298 -7.1825 0.8460
6.3041 -7.2212 0.8780
6.7757 -7.2211 0.9084
5.8908 -5.8429 0.7625
5.9140 -5.4592 0.7409
6.3999 -5.4957 0.7779
6.8849 -5.4956 0.8139
7.3923 -5.4781 0.8517
5.9851 -4.1110 0.6734
6.2614 -3.9778 0.6893
6.7857 -3.9766 0.7323
7.3767 -3.9744 0.7818
7.4249 -3.6628 0.7741
6.4423 -2.8954 0.6618
6.1420 -2.4996 0.6226
5.9528 -2.1770 0.5964
6.0737 -1.9771 0.6024
6.0734 -1.7386 0.5971
6.0731 -1.5049 0.5926
6.0490 -1.2704 0.5868
6.1541 -1.0634 0.5942
6.2253 -0.8469 0.5991
6.6106 -0.6586 0.6349
6.8796 -0.4368 0.6603
10.7372 -0.2953 1.0312
22.2110 0.1866 2.1372
22.1405 0.9816 2.1372
14.3588 1.1542 1.3923
9.7222 1.1340 0.9481
7.6634 1.1741 0.7526
7.0780 1.3461 0.7009
6.8399 1.5572 0.6839
6.7056 1.7820 0.6779
6.5904 2.0074 0.6746
6.4496 2.2205 0.6693
6.4101 2.4677 0.6753
2.2523 0.9613 0.2412
6.4491 3.0306 0.7034
6.6920 3.4433 0.7443
7.9135 4.4382 0.8990
7.8913 4.8062 0.9172
7.2896 4.8069 0.8684
6.7489 4.8067 0.8255
6.3376 4.8660 0.7974
7.6548 6.3269 0.9927
7.1164 6.3255 0.9533
6.6201 6.3243 0.9181
6.2285 6.3934 0.8964
7.2133 7.9571 1.0801
6.7873 8.0501 1.0604
6.3059 8.0488 1.0310
5.9210 8.1439 1.0166
6.5999 9.7992 1.1942
6.5563 10.5320 1.2554
7.6626 13.3555 1.5597
7.1800 13.6259 1.5617
6.6721 13.8463 1.5599
6.4837 14.7915 1.6404
6.7344 16.9992 1.8587
5.8688 16.5240 1.7837
5.3583 16.9996 1.8142
5.5675 20.1623 2.1302
4.8375 20.3396 2.1302
4.1022 20.4921 2.1302
3.3624 20.6196 2.1302
2.6190 20.7219 2.1302
1.8727 20.7991 2.1302
1.1788 21.8601 2.2333
0.3929 21.8879 2.2333
-0.3936 21.8891 2.2333
-1.1797 21.8638 2.2333
-1.9646 21.8119 2.2333
-2.7475 21.7335 2.2333
-3.5276 21.6286 2.2333
-4.3041 21.4972 2.2333
-5.0760 21.3396 2.2333
-5.8426 21.1559 2.2333
-6.2977 19.9777 2.1300
-6.7704 19.0609 2.0554
-7.7274 19.5040 2.1300
-8.4302 19.2306 2.1300
-9.1240 18.9333 2.1300
-7.5621 14.3501 1.6423
-10.4975 18.2955 2.1333
-11.1605 17.9272 2.1333
-11.8115 17.5361 2.1333
-12.4495 17.1224 2.1333
-13.0738 16.6866 2.1333
-13.6838 16.2290 2.1333
-14.2786 15.7500 2.1333
-14.8574 15.2503 2.1333
-15.4198 14.7300 2.1333
-15.9647 14.1899 2.1333
-15.4148 12.7403 1.9940
-15.6676 12.0291 1.9661
-15.6752 11.1637 1.9121
-15.9329 10.5060 1.8928
-15.8549 9.6561 1.8377
-17.8287 9.9988 2.0196
-17.3784 8.9418 1.9272
-16.8295 7.9085 1.8300
-16.8387 7.1865 1.7981
-17.4453 6.7157 1.8322
-18.5967 6.4023 1.9237
-20.9089 6.3684 2.1333
-21.1693 5.6257 2.1333
-21.4040 4.8726 2.1333
-16.2337 3.0872 1.6024
-16.2329 2.4870 1.5889
-16.2321 1.8933 1.5777
-16.2313 1.3048 1.5685
-16.2305 0.7196 1.5614
-16.2298 0.1364 1.5564
-16.2290 -0.4464 1.5533
-16.2282 -1.0302 1.5523
-16.2274 -1.6167 1.5533
-16.2266 -2.2073 1.5563
-16.2259 -2.8037 1.5614
-16.2251 -3.4074 1.5686
-16.1985 -4.0138 1.5754
-16.1976 -4.6366 1.5871
-16.2226 -5.2806 1.6036
-16.2217 -5.9322 1.6200
-13.0875 -5.3260 1.3224
-13.1097 -5.8919 1.3424
-13.0626 -6.4438 1.3576
-16.2680 -8.7644 1.7188
-16.2670 -9.5324 1.7502
-16.2659 -10.3333 1.7854
-16.2648 -11.1714 1.8247
-16.2636 -12.0518 1.8684
-16.2624 -12.9802 1.9171
-16.2353 -13.9411 1.9681
-13.0324 -12.0296 1.6284
-16.5239 -16.3888 2.1333
-15.9506 -16.9983 2.1333
-15.3540 -17.5866 2.1333
-14.7347 -18.1529 2.1333
-14.0937 -18.6961 2.1333
-13.4318 -19.2155 2.1333
-12.7499 -19.7100 2.1333
-12.0489 -20.1789 2.1333
-11.3299 -20.6213 2.1333
-10.5939 -21.0367 2.1333
-9.8268 -21.3914 2.1300
-9.0612 -21.7497 2.1300
-6.5127 -17.3625 1.6750
-7.4898 -22.3782 2.1300
-6.6865 -22.6473 2.1300
-6.1276 -23.8776 2.2223
-5.2955 -24.2124 2.2333
-4.4252 -24.3967 2.2333
-3.5482 -24.5476 2.2333
-2.6659 -24.6649 2.2333
-1.7796 -24.7483 2.2333
-0.8906 -24.7979 2.2333
-0.0004 -19.8063 2.2333
0.7100 -19.7918 2.2333
1.4193 -19.7505 2.2333
2.0283 -18.7739 2.1302
2.6996 -18.6836 2.1302
3.3669 -18.5681 2.1302
4.0291 -18.4275 2.1302
4.6852 -18.2621 2.1302
5.1957 -17.6024 2.0748
5.2286 -15.6261 1.8639
5.8596 -15.6253 1.8890
5.9443 -14.2718 1.7514
6.0957 -13.2725 1.6559
6.4928 -12.8960 1.6384
6.8552 -12.4799 1.6172
5.9600 -9.9838 1.3220
5.9654 -9.2240 1.2502
6.1860 -8.8517 1.2304
5.5735 -7.3953 1.0563
5.8601 -7.2211 1.0621
6.3030 -7.2212 1.0961
6.6829 -7.1235 1.1184
5.7158 -5.6705 0.9231
5.9524 -5.4957 0.9302
6.3985 -5.4958 0.9698
6.7447 -5.3849 0.9938
6.9262 -5.1340 0.9943
5.8289 -4.0047 0.8169
6.2598 -3.9779 0.8581
6.7841 -3.9767 0.9112
7.3748 -3.9745 0.9724
7.4249 -3.6640 0.9626
6.4646 -2.9065 0.8255
6.1426 -2.5007 0.7737
5.9529 -2.1779 0.7408
5.9126 -1.9255 0.7280
5.9081 -1.6921 0.7208
5.9424 -1.4734 0.7194
6.0486 -1.2712 0.7275
6.1537 -1.0642 0.7364
6.2246 -0.8476 0.7421
6.4301 -0.6415 0.7648
6.8523 -0.4360 0.8141
8.8986 -0.2460 1.0574
17.9587 0.1484 2.1372
17.9093 0.7916 2.1372
14.3587 1.1523 1.7204
10.1244 1.1796 1.2196
7.6668 1.1736 0.9297
7.1626 1.3612 0.8754
6.9004 1.5700 0.8512
6.7060 1.7812 0.8361
6.5908 2.0066 0.8316
6.4994 2.2367 0.8311
6.4596 2.4858 0.8382
2.2518 0.9607 0.2970
6.5056 3.0562 0.8733
6.6913 3.4420 0.9157
7.9135 4.4370 1.1058
7.8935 4.8063 1.1281
7.2914 4.8069 1.0676
6.7505 4.8067 1.0145
6.2117 4.7683 0.9600
7.0486 5.8247 1.1225
7.0498 6.2651 1.1593
6.6214 6.3243 1.1269
6.1233 6.2843 1.0812
6.0040 6.6218 1.1027
6.7885 8.0502 1.3006
6.3070 8.0489 1.2643
5.8608 8.0597 1.2334
6.6004 9.7983 1.4636
6.5563 10.5304 1.5382
7.6636 13.3554 1.9110
7.1807 13.6253 1.9130
6.6728 13.8457 1.9104
6.4781 14.7765 2.0068
6.3253 15.9643 2.1372
5.7256 16.1189 2.1302
5.1403 16.3058 2.1302
4.5492 16.4726 2.1302
3.9531 16.6189 2.1302
3.3524 16.7447 2.1302
2.1427 13.1384 1.6610
2.1405 16.9343 2.1302
1.6047 17.8205 2.2333
0.9634 17.8653 2.2333
0.3210 17.8881 2.2333
-0.3218 17.8889 2.2333
-0.9643 17.8678 2.2333
-1.6057 17.8247 2.2333
-2.2455 17.7596 2.2333
-2.8829 17.6727 2.2333
-3.5171 17.5640 2.2333
-4.1475 17.4337 2.2333
-4.7734 17.2817 2.2333
-5.3940 17.1083 2.2333
-6.0086 16.9136 2.2333
-6.3107 15.9259 2.1300
-6.8836 15.7002 2.1300
-6.9036 14.3234 1.9741
-8.0058 15.1898 2.1300
-8.5539 14.9056 2.1300
-9.0922 14.6025 2.1300
-9.6204 14.2806 2.1300
-10.1377 13.9404 2.1300
-10.6598 13.6030 2.1333
-11.1542 13.2265 2.1333
-11.6360 12.8327 2.1333
-12.1043 12.4219 2.1333
-12.5588 11.9946 2.1333
-12.9987 11.5513 2.1333
-13.4236 11.0922 2.1333
-13.8329 10.6180 2.1333
-14.2259 10.1292 2.1333
-14.6023 9.6261 2.1333
-14.9614 9.1095 2.1333
-15.3027 8.5798 2.1333
-15.6258 8.0376 2.1333
-15.9302 7.4835 2.1333
-16.2154 6.9181 2.1333
-16.4810 6.3421 2.1333
-16.7266 5.7561 2.1333
-16.9517 5.1607 2.1333
-17.1560 4.5567 2.1333
-17.3391 3.9448 2.1333
-16.2337 3.0850 1.9788
-16.2329 2.4847 1.9631
-16.2321 1.8911 1.9500
-16.2313 1.3026 1.9395
-16.2305 0.7174 1.9315
-16.2298 0.1342 1.9261
-16.2290 -0.4486 1.9232
-16.2282 -1.0324 1.9227
-16.2274 -1.6189 1.9248
-16.2266 -2.2095 1.9293
-16.2258 -2.8059 1.9365
-16.2250 -3.4096 1.9462
-16.1985 -4.0161 1.9556
-16.1976 -4.6388 1.9708
-16.2226 -5.2829 1.9921
-16.2217 -5.9345 2.0134
-13.0377 -5.3076 1.6380
-13.0613 -5.8720 1.6635
-13.0159 -6.4227 1.6832
-16.2197 -8.7408 2.1333
-15.9211 -9.3322 2.1333
-15.6005 -9.9130 2.1333
-15.2582 -10.4825 2.1333
-14.8946 -11.0398 2.1333
-14.5101 -11.5840 2.1333
-12.5551 -10.7831 1.8988
-13.6802 -12.6300 2.1333
-13.2358 -13.1301 2.1333
-10.3455 -11.0270 1.7279
-9.9984 -11.4543 1.7353
-11.7920 -14.5299 2.1333
-11.2758 -14.9605 2.1333
-10.7434 -15.3719 2.1333
-7.7453 -11.9753 1.6206
-7.3304 -12.2783 1.6234
-9.0420 -16.4596 2.1300
-8.4528 -16.7875 2.1300
-7.8512 -17.0933 2.1300
-7.2382 -17.3764 2.1300
-6.5051 -17.3446 2.0948
-6.1350 -18.3325 2.1848
-5.5978 -18.9621 2.2333
-4.9162 -19.1595 2.2333
-4.2274 -19.3311 2.2333
-3.5324 -19.4767 2.2333
-2.8322 -19.5959 2.2333
-2.1278 -19.6886 2.2333
-1.4204 -19.7546 2.2333
-0.7109 -19.7938 2.2333
-0.0004 -16.4666 2.2333
0.5902 -16.4548 2.2333
1.1798 -16.4209 2.2333
1.7677 -16.3650 2.2333
2.2443 -15.5352 2.1302
2.1415 -11.8122 1.6297
3.3501 -15.3243 2.1302
3.8959 -15.1880 2.1302
4.4361 -15.0315 2.1302
4.9698 -14.8549 2.1302
5.4963 -14.6587 2.1302
5.9449 -14.2754 2.1055
6.0952 -13.2735 1.9900
6.4920 -12.8966 1.9686
6.8543 -12.4804 1.9429
5.9594 -9.9844 1.5880
5.9652 -9.2252 1.5016
6.1856 -8.8526 1.4775
5.4121 -7.1824 1.2316
5.8591 -7.2213 1.2748
6.3018 -7.2212 1.3152
5.5163 -5.8811 1.1077
5.5509 -5.5079 1.0755
5.9513 -5.4958 1.1154
6.3972 -5.4958 1.1627
6.5651 -5.2426 1.1597
5.5120 -4.0866 0.9483
5.7345 -3.9408 0.9629
6.2582 -3.9779 1.0276
6.7821 -3.9766 1.0910
7.3728 -3.9746 1.1639
7.4249 -3.6651 1.1522
6.4664 -2.9082 0.9881
6.1432 -2.5019 0.9257
6.0088 -2.1992 0.8943
5.9681 -1.9445 0.8786
5.9581 -1.7073 0.8688
5.9928 -1.4867 0.8668
6.0483 -1.2719 0.8690
6.1533 -1.0650 0.8794
6.2882 -0.8572 0.8951
6.4959 -0.6490 0.9221
6.8507 -0.4368 0.9711
10.0863 -0.2802 1.4297
15.0601 0.1224 2.1372
15.0230 0.6620 2.1372
14.2344 1.1404 2.0326
10.5835 1.2316 1.5189
7.6702 1.1730 1.1078
7.0807 1.3446 1.0305
6.8415 1.5556 1.0047
6.7064 1.7804 0.9951
6.5912 2.0057 0.9895
6.4996 2.2358 0.9885
6.4584 2.4844 0.9966
2.2513 0.9602 0.3530
6.4488 3.0286 1.0289
6.6906 3.4406 1.0880
7.9135 4.4358 1.3137
7.8957 4.8064 1.3402
7.2930 4.8067 1.2680
6.7521 4.8067 1.2047
6.2632 4.8068 1.1489
5.9772 4.9383 1.1296
6.8708 6.1048 1.3405
6.6227 6.3243 1.3370
6.1622 6.3230 1.2904
5.8245 6.4227 1.2685
5.4081 6.4122 1.2284
6.3081 8.0490 1.4989
5.8528 8.0475 1.4598
5.3950 8.0076 1.4176
6.5563 10.5288 1.8225
7.2348 12.6062 2.1372
6.7727 12.8492 2.1372
6.3027 13.0760 2.1372
5.8064 13.2426 2.1302
5.3241 13.4355 2.1302
4.8356 13.6115 2.1302
4.3416 13.7705 2.1302
3.8426 13.9122 2.1302
3.3393 14.0367 2.1302
2.8320 14.1437 2.1302
2.1430 13.1384 1.9663
1.8671 14.7698 2.1994
1.3557 15.0538 2.2333
0.8139 15.0918 2.2333
0.2712 15.1111 2.2333
-0.2719 15.1117 2.2333
-0.8147 15.0936 2.2333
-1.3567 15.0568 2.2333
-1.8971 15.0013 2.2333
-2.4354 14.9272 2.2333
-2.9710 14.8346 2.2333
-3.5033 14.7235 2.2333
-4.0317 14.5940 2.2333
-4.5554 14.4464 2.2333
-5.0741 14.2807 2.2333
-5.5869 14.0971 2.2333
-6.0934 13.8957 2.2333
-6.2882 13.0445 2.1300
-6.7575 12.8192 2.1300
-7.2191 12.5777 2.1300
-7.6724 12.3200 2.1300
-8.1168 12.0466 2.1300
-6.9723 9.5860 1.7366
-8.9770 11.4536 2.1300
-9.3918 11.1346 2.1300
-9.7956 10.8010 2.1300
-10.1879 10.4532 2.1300
-10.5845 10.1069 2.1333
-10.9530 9.7313 2.1333
-11.3086 9.3425 2.1333
-11.6508 8.9410 2.1333
-11.9791 8.5273 2.1333
-12.2932 8.1019 2.1333
-12.5925 7.6651 2.1333
-12.8767 7.2175 2.1333
-13.1452 6.7596 2.1333
-13.3979 6.2918 2.1333
-13.6342 5.8148 2.1333
-13.8539 5.3291 2.1333
-14.0566 4.8352 2.1333
-14.2419 4.3337 2.1333
-14.4095 3.8252 2.1333
-14.5592 3.3103 2.1333
-14.6908 2.7897 2.1333
-14.8039 2.2639 2.1333
-14.8983 1.7337 2.1333
-14.9738 1.1996 2.1333
-15.0302 0.6623 2.1333
-15.0675 0.1226 2.1333
-15.0854 -0.4190 2.1333
-15.0838 -0.9617 2.1333
-15.0627 -1.5048 2.1333
-15.0220 -2.0475 2.1333
-14.9616 -2.5893 2.1333
-14.8816 -3.1294 2.1333
-14.7819 -3.6669 2.1333
-14.6627 -4.2013 2.1333
-14.5239 -4.7318 2.1333
-14.3658 -5.2576 2.1333
-14.1883 -5.7780 2.1333
-13.9917 -6.2924 2.1333
-13.7762 -6.7999 2.1333
-13.5419 -7.2998 2.1333
-10.3961 -6.0953 1.6689
-13.0183 -8.2742 2.1333
-12.7294 -8.7473 2.1333
-12.4230 -9.2099 2.1333
-12.0994 -9.6615 2.1333
-11.7590 -10.1014 2.1333
-11.4021 -10.5289 2.1333
-11.0294 -10.9434 2.1333
-10.3659 -11.0507 2.0781
-10.0221 -11.4834 2.0883
-9.8053 -12.0840 2.1300
-9.3743 -12.4397 2.1300
-8.9301 -12.7794 2.1300
-8.4732 -13.1027 2.1300
-8.0042 -13.4090 2.1300
-7.5237 -13.6978 2.1300
-7.0325 -13.9688 2.1300
-6.5312 -14.2213 2.1300
-6.1416 -14.7457 2.1728
-5.7678 -15.3809 2.2333
-5.2150 -15.5856 2.2333
-4.6547 -15.7695 2.2333
-4.0877 -15.9325 2.2333
-3.5147 -16.0741 2.2333
-2.9367 -16.1942 2.2333
-2.3545 -16.2926 2.2333
-1.7689 -16.3692 2.2333
-1.1808 -16.4237 2.2333
-0.5910 -16.4562 2.2333
-0.0004 -14.0782 2.2333
0.5045 -14.0683 2.2333
1.0085 -14.0396 2.2333
1.5111 -13.9921 2.2333
1.9187 -13.2832 2.1302
2.1428 -11.8214 1.9074
2.2421 -10.2578 1.6675
3.3312 -12.9883 2.1302
3.7933 -12.8553 2.1302
4.2500 -12.7053 2.1302
4.7006 -12.5385 2.1302
5.1444 -12.3551 2.1302
5.5810 -12.1556 2.1302
6.0293 -11.9795 2.1372
6.4508 -11.7476 2.1372
5.9598 -9.9867 1.8559
4.8282 -7.4681 1.4202
5.0177 -7.1824 1.4003
5.4403 -7.2211 1.4462
5.8581 -7.2213 1.4887
5.0592 -5.7984 1.2331
5.2359 -5.5832 1.2277
5.5373 -5.4956 1.2526
5.9501 -5.4959 1.3018
6.3878 -5.4889 1.3550
6.3857 -5.1005 1.3163
5.5145 -4.0894 1.1069
5.7889 -3.9792 1.1339
6.2566 -3.9779 1.1982
6.7801 -3.9765 1.2717
7.3708 -3.9747 1.3565
7.4250 -3.6663 1.3430
6.9060 -3.1070 1.2297
6.1437 -2.5030 1.0786
5.9532 -2.1798 1.0321
5.9129 -1.9273 1.0137
5.9079 -1.6937 1.0031
5.9422 -1.4750 1.0006
6.0478 -1.2727 1.0114
6.1529 -1.0658 1.0232
6.2231 -0.8491 1.0305
6.4285 -0.6431 1.0615
6.8811 -0.4397 1.1344
10.0863 -0.2816 1.6622
12.9557 0.1035 2.1372
12.9264 0.5678 2.1372
12.8807 1.0301 2.1372
10.3803 1.2065 1.7307
7.6736 1.1725 1.2873
7.3137 1.3879 1.2361
7.0257 1.5965 1.1979
6.7068 1.7796 1.1551
6.5916 2.0049 1.1484
6.4500 2.2178 1.1383
6.5669 2.5252 1.1756
2.2508 0.9596 0.4093
6.4486 3.0275 1.1932
6.6899 3.4392 1.2614
7.9136 4.4347 1.5229
7.8979 4.8065 1.5538
7.2947 4.8067 1.4698
6.7537 4.8067 1.3962
6.2646 4.8068 1.3313
5.8201 4.8075 1.2740
5.5100 4.8947 1.2450
6.5398 6.2439 1.5288
6.1634 6.3232 1.4944
5.6988 6.2830 1.4368
5.3105 6.2953 1.3962
6.3026 8.0406 1.7333
5.8539 8.0476 1.6896
5.4217 8.0459 1.6485
6.4026 10.2803 2.0591
6.2537 10.8950 2.1372
5.8355 11.0696 2.1302
5.4311 11.2660 2.1302
5.0203 11.4480 2.1302
4.6036 11.6156 2.1302
4.1815 11.7686 2.1302
3.7545 11.9067 2.1302
3.3232 12.0299 2.1302
2.2671 9.5285 1.6722
2.0323 10.1484 1.7675
2.0079 12.3088 2.1302
1.6398 12.9698 2.2333
1.1725 13.0190 2.2333
0.7040 13.0520 2.2333
0.2345 13.0687 2.2333
-0.2352 13.0692 2.2333
-0.7047 13.0533 2.2333
-1.1735 13.0212 2.2333
-1.6409 12.9729 2.2333
-2.1064 12.9084 2.2333
-2.5695 12.8278 2.2333
-3.0297 12.7311 2.2333
-3.4865 12.6185 2.2333
-3.9391 12.4901 2.2333
-4.3873 12.3459 2.2333
-4.8304 12.1863 2.2333
-5.2679 12.0112 2.2333
-5.6993 11.8209 2.2333
-6.1241 11.6157 2.2333
-6.2393 10.8687 2.1300
-6.4379 10.3361 2.0682
-6.9655 10.3361 2.1154
-7.3887 10.1567 2.1300
-6.7542 8.6160 1.8551
-8.1123 9.6159 2.1300
-8.4599 9.3265 2.1300
-8.7975 9.0248 2.1300
-9.1247 8.7113 2.1300
-9.4410 8.3861 2.1300
-9.7460 8.0497 2.1300
-10.0392 7.7025 2.1300
-10.3362 7.3561 2.1333
-10.6054 6.9878 2.1333
-10.8617 6.6098 2.1333
-11.1048 6.2226 2.1333
-11.3344 5.8266 2.1333
-11.5501 5.4223 2.1333
-11.7516 5.0101 2.1333
-11.9387 4.5906 2.1333
-12.1110 4.1642 2.1333
-12.2682 3.7314 2.1333
-12.4101 3.2927 2.1333
-12.5365 2.8487 2.1333
-12.6472 2.3999 2.1333
-12.7419 1.9468 2.1333
-10.0151 1.1640 1.6665
-10.0165 0.8011 1.6586
-10.0211 0.4402 1.6535
-12.9580 0.1036 2.1333
-12.9706 -0.3620 2.1333
-12.9665 -0.8285 2.1333
-12.9456 -1.2951 2.1333
-12.9079 -1.7612 2.1333
-12.8533 -2.2262 2.1333
-12.7819 -2.6896 2.1333
-12.6937 -3.1507 2.1333
-12.5887 -3.6088 2.1333
-12.4669 -4.0634 2.1333
-12.3287 -4.5138 2.1333
-12.1739 -4.9595 2.1333
-12.0029 -5.3997 2.1333
-11.8157 -5.8340 2.1333
-10.0064 -5.3956 1.8382
-10.0058 -5.8680 1.8734
-11.1593 -7.0945 2.1333
-10.9097 -7.4986 2.1333
-10.6453 -7.8937 2.1333
-10.3662 -8.2793 2.1333
-10.0575 -8.6415 2.1300
-9.7507 -9.0057 2.1300
-9.4304 -9.3587 2.1300
-9.0971 -9.6999 2.1300
-8.7511 -10.0289 2.1300
-8.3929 -10.3452 2.1300
-8.0230 -10.6482 2.1300
-7.6418 -10.9376 2.1300
-7.2499 -11.2129 2.1300
-6.8479 -11.4737 2.1300
-6.4361 -11.7195 2.1300
-6.1442 -12.2061 2.1757
-5.8568 -12.7546 2.2333
-5.3984 -12.9632 2.2333
-4.9323 -13.1546 2.2333
-4.4593 -13.3287 2.2333
-3.9799 -13.4852 2.2333
-3.4949 -13.6237 2.2333
-3.0049 -13.7442 2.2333
-2.5107 -13.8464 2.2333
-2.0129 -13.9301 2.2333
-1.5122 -13.9952 2.2333
-1.0094 -14.0416 2.2333
-0.5052 -14.0693 2.2333
-0.0004 -12.2837 2.2333
0.4401 -12.2752 2.2333
0.8798 -12.2503 2.2333
1.3183 -12.2091 2.2333
1.7550 -12.1518 2.2333
2.0936 -11.5515 2.1359
2.0582 -9.4178 1.7543
2.3721 -9.2502 1.7384
3.3101 -11.2194 2.1302
3.7088 -11.0891 2.1302
4.1022 -10.9442 2.1302
4.4899 -10.7849 2.1302
4.8713 -10.6115 2.1302
5.2458 -10.4242 2.1302
5.6129 -10.2233 2.1302
5.9918 -10.0423 2.1372
5.0980 -7.8869 1.7175
5.0435 -7.2207 1.6119
5.4394 -7.2212 1.6558
4.8275 -5.9520 1.4046
4.9078 -5.6259 1.3695
5.1164 -5.4570 1.3733
5.5363 -5.4957 1.4334
5.9489 -5.4959 1.4895
6.2030 -5.3313 1.5056
6.2010 -4.9541 1.4624
5.3756 -3.9873 1.2344
5.7875 -3.9792 1.2966
6.2550 -3.9779 1.3699
6.7782 -3.9765 1.4538
7.3689 -3.9748 1.5505
7.4252 -3.6676 1.5353
6.7720 -3.0477 1.3782
6.1444 -2.5042 1.2328
5.9534 -2.1807 1.1793
6.0737 -1.9806 1.1896
6.0734 -1.7421 1.1779
6.0731 -1.5084 1.1679
6.0475 -1.2735 1.1548
6.1525 -1.0666 1.1682
6.2223 -0.8499 1.1762
6.6061 -0.6618 1.2450
6.8816 -0.4407 1.2946
10.0863 -0.2830 1.8966
11.3568 0.0892 2.1372
11.3330 0.4962 2.1372
11.2947 0.9017 2.1372
10.5835 1.2287 2.0120
7.6770 1.1720 1.4682
7.2567 1.3760 1.3980
7.0268 1.5958 1.3654
6.7073 1.7787 1.3164
6.5921 2.0041 1.3085
6.4501 2.2169 1.2967
6.5669 2.5242 1.3390
2.2503 0.9591 0.4661
6.4485 3.0265 1.3587
6.6892 3.4378 1.4360
7.9138 4.4335 1.7337
7.9001 4.8066 1.7691
7.2966 4.8067 1.6732
6.7553 4.8068 1.5892
6.2661 4.8068 1.5151
5.8206 4.8069 1.4495
5.3690 4.7684 1.3800
6.3093 6.0227 1.6777
6.1647 6.3232 1.6999
5.7349 6.3217 1.6443
5.3554 6.3474 1.6010
6.1229 7.8101 1.9145
5.8550 8.0478 1.9213
5.4223 8.0456 1.8742
5.8269 9.3546 2.1302
5.4840 9.5525 2.1302
5.1345 9.7383 2.1302
4.7789 9.9117 2.1302
4.4177 10.0725 2.1302
4.0512 10.2205 2.1302
3.6799 10.3556 2.1302
3.3043 10.4777 2.1302
2.9248 10.5865 2.1302
2.2673 9.5285 1.9001
2.0323 10.1472 2.0081
1.8529 11.3571 2.2333
1.4433 11.4148 2.2333
1.0321 11.4583 2.2333
0.6196 11.4874 2.2333
0.2064 11.5021 2.2333
-0.2071 11.5025 2.2333
-0.6204 11.4884 2.2333
-1.0329 11.4600 2.2333
-1.4443 11.4172 2.2333
-1.8541 11.3602 2.2333
-2.2616 11.2888 2.2333
-2.6666 11.2034 2.2333
-3.0684 11.1038 2.2333
-3.4667 10.9902 2.2333
-3.8609 10.8628 2.2333
-4.2506 10.7217 2.2333
-4.6353 10.5670 2.2333
-5.0145 10.3989 2.2333
-5.3878 10.2176 2.2333
-5.7548 10.0232 2.2333
-6.1150 9.8160 2.2333
-6.1830 9.1733 2.1349
-6.4982 8.9311 2.1300
-6.8198 8.6981 2.1300
-7.1332 8.4538 2.1300
-7.4382 8.1985 2.1300
-7.7342 7.9324 2.1300
-8.0209 7.6559 2.1300
-8.2979 7.3692 2.1300
-8.5650 7.0727 2.1300
-8.8217 6.7668 2.1300
-9.0676 6.4517 2.1300
-9.3025 6.1278 2.1300
-9.5261 5.7955 2.1300
-9.7380 5.4551 2.1300
-9.9379 5.1072 2.1300
-10.1257 4.7520 2.1300
-10.3166 4.3967 2.1333
-10.4792 4.0278 2.1333
-10.6288 3.6530 2.1333
-10.7652 3.2727 2.1333
-10.8881 2.8873 2.1333
-10.9973 2.4973 2.1333
-11.0926 2.1033 2.1333
-11.1739 1.7057 2.1333
-10.0151 1.1626 1.9006
-10.0146 0.7995 1.8916
-10.0141 0.4385 1.8851
-11.3562 0.0892 2.1333
-11.3654 -0.3188 2.1333
-11.3600 -0.7274 2.1333
-11.3399 -1.1360 2.1333
-11.3051 -1.5440 2.1333
-11.2555 -1.9510 2.1333
-11.1911 -2.3564 2.1333
-11.1121 -2.7597 2.1333
-11.0185 -3.1603 2.1333
-10.9103 -3.5576 2.1333
-10.7876 -3.9512 2.1333
-10.6506 -4.3405 2.1333
-10.4993 -4.7249 2.1333
-10.3341 -5.1040 2.1333
-10.0301 -5.4099 2.1070
-9.9469 -5.8351 2.1300
-7.7801 -4.9474 1.7012
-7.3215 -5.0336 1.6378
-7.3154 -5.4258 1.6773
-7.3149 -5.8435 1.7226
-7.3143 -6.2858 1.7728
-8.5189 -7.8695 2.1300
-8.2381 -8.1769 2.1300
-7.9460 -8.4741 2.1300
-7.6429 -8.7605 2.1300
-7.3293 -9.0357 2.1300
-7.0056 -9.2994 2.1300
-6.6721 -9.5512 2.1300
-6.3294 -9.7907 2.1300
-6.1456 -10.2986 2.1898
-5.8903 -10.7272 2.2333
-5.5048 -10.9374 2.2333
-5.1116 -11.1333 2.2333
-4.7112 -11.3146 2.2333
-4.3042 -11.4810 2.2333
-3.8912 -11.6323 2.2333
-3.4727 -11.7682 2.2333
-3.0494 -11.8886 2.2333
-2.6218 -11.9933 2.2333
-2.1905 -12.0821 2.2333
-1.7562 -12.1549 2.2333
-1.3193 -12.2115 2.2333
-0.8807 -12.2519 2.2333
-0.4408 -12.2760 2.2333
-0.0004 -10.8849 2.2333
0.3899 -10.8774 2.2333
0.7795 -10.8555 2.2333
1.1681 -10.8192 2.2333
1.5549 -10.7686 2.2333
1.9006 -10.4883 2.1883
2.0582 -9.4193 1.9799
2.3717 -9.2502 1.9615
2.9332 -9.9436 2.1302
3.2867 -9.8286 2.1302
3.6355 -9.7006 2.1302
3.9793 -9.5600 2.1302
4.3176 -9.4068 2.1302
4.6498 -9.2414 2.1302
4.9755 -9.0639 2.1302
5.2944 -8.8747 2.1302
4.9885 -7.7188 1.8956
5.0425 -7.2204 1.8176
5.4385 -7.2213 1.8670
5.6434 -6.9593 1.8517
4.8685 -5.5820 1.5318
5.1514 -5.4954 1.5589
5.5353 -5.4958 1.6156
5.9148 -5.4656 1.6694
6.0109 -5.1673 1.6445
5.1529 -4.1177 1.3696
5.3132 -3.9420 1.3749
5.7861 -3.9792 1.4607
6.2534 -3.9780 1.5430
6.7763 -3.9765 1.6373
7.3669 -3.9749 1.7460
7.4254 -3.6688 1.7292
6.9051 -3.1087 1.5826
6.1449 -2.5054 1.3882
5.9535 -2.1817 1.3278
6.0737 -1.9815 1.3392
6.0734 -1.7429 1.3258
6.0731 -1.5092 1.3144
6.0471 -1.2742 1.2994
6.1521 -1.0674 1.3143
6.2215 -0.8507 1.3231
6.6033 -0.6625 1.3998
6.8821 -0.4417 1.4562
9.6123 -0.2710 2.0326
10.0998 0.0779 2.1372
10.0799 0.4399 2.1372
10.0471 0.8007 2.1372
9.5120 1.1030 2.0326
7.6805 1.1714 1.6509
7.3160 1.3862 1.5839
7.0278 1.5950 1.5345
6.7077 1.7779 1.4790
6.5925 2.0033 1.4700
6.4503 2.2161 1.4566
6.5669 2.5233 1.5039
2.2497 0.9585 0.5233
6.4483 3.0254 1.5255
6.6885 3.4364 1.6120
7.9140 4.4324 1.9463
7.9024 4.8067 1.9864
7.2984 4.8068 1.8784
6.4674 4.6009 1.7075
6.2674 4.8068 1.7006
5.8217 4.8067 1.6267
5.4133 4.8068 1.5611
6.1279 5.8484 1.8280
6.1291 6.2856 1.8959
5.7360 6.3217 1.8447
5.3643 6.3568 1.7987
5.9381 7.5730 2.0824
5.7657 7.9237 2.1217
5.4230 8.0453 2.1019
5.1966 8.3414 2.1302
4.8910 8.5184 2.1302
4.5796 8.6846 2.1302
4.2627 8.8397 2.1302
3.9406 8.9835 2.1302
3.6139 9.1160 2.1302
3.2828 9.2369 2.1302
2.9478 9.3461 2.1302
2.6094 9.4435 2.1302
2.2677 9.5290 2.1302
1.9234 9.6025 2.1302
1.6531 10.1316 2.2333
1.2877 10.1832 2.2333
0.9208 10.2221 2.2333
0.5528 10.2481 2.2333
0.1841 10.2612 2.2333
-0.1848 10.2615 2.2333
-0.5536 10.2489 2.2333
-0.9217 10.2234 2.2333
-1.2887 10.1851 2.2333
-1.6542 10.1340 2.2333
-2.0178 10.0701 2.2333
-2.3790 9.9936 2.2333
-2.7374 9.9044 2.2333
-3.0926 9.8028 2.2333
-3.4441 9.6887 2.2333
-3.7916 9.5624 2.2333
-4.1345 9.4239 2.2333
-4.4726 9.2735 2.2333
-4.8053 9.1112 2.2333
-5.1323 8.9373 2.2333
-5.4531 8.7520 2.2333
-5.7675 8.5554 2.2333
-6.0749 8.3478 2.2333
-6.1741 7.8730 2.1629
-6.3809 7.5608 2.1373
-6.6306 7.3069 2.1300
-6.8938 7.0691 2.1300
-7.1488 6.8220 2.1300
-7.3950 6.5659 2.1300
-7.6323 6.3011 2.1300
-7.8602 6.0279 2.1300
-8.0786 5.7465 2.1300
-8.2870 5.4574 2.1300
-8.4853 5.1609 2.1300
-8.6731 4.8572 2.1300
-8.8502 4.5468 2.1300
-9.0164 4.2300 2.1300
-9.1713 3.9073 2.1300
-9.3148 3.5789 2.1300
-9.4467 3.2453 2.1300
-9.5668 2.9069 2.1300
-9.6748 2.5641 2.1300
-9.7707 2.2174 2.1300
-7.4975 1.4206 1.6206
-7.5516 1.1517 1.6206
-7.5960 0.8807 1.6206
-7.6307 0.6081 1.6206
-7.6557 0.3342 1.6206
-7.6709 0.0592 1.6206
-10.0890 -0.2844 2.1300
-10.0829 -0.6470 2.1300
-10.0638 -1.0096 2.1300
-10.0316 -1.3715 2.1300
-9.9863 -1.7325 2.1300
-9.9280 -2.0919 2.1300
-9.8567 -2.4493 2.1300
-9.7724 -2.8043 2.1300
-9.6753 -3.1563 2.1300
-9.5653 -3.5049 2.1300
-9.4427 -3.8496 2.1300
-9.3075 -4.1900 2.1300
-9.1600 -4.5255 2.1300
-9.0001 -4.8558 2.1300
-8.8283 -5.1802 2.1300
-8.6445 -5.4985 2.1300
-7.5422 -5.1865 1.9014
-8.2424 -6.1147 2.1300
-7.7173 -6.1663 2.0485
-7.7956 -6.7009 2.1300
-7.5562 -6.9816 2.1300
-7.3065 -7.2536 2.1300
-7.0468 -7.5165 2.1300
-6.7774 -7.7698 2.1300
-6.4988 -8.0132 2.1300
-6.2112 -8.2464 2.1300
-6.1476 -8.8018 2.2137
-5.8829 -9.1015 2.2333
-5.5558 -9.3116 2.2333
-5.2210 -9.5097 2.2333
-4.8790 -9.6955 2.2333
-4.5302 -9.8685 2.2333
-4.1752 -10.0287 2.2333
-3.8143 -10.1757 2.2333
-3.4482 -10.3094 2.2333
-3.0772 -10.4295 2.2333
-2.7020 -10.5358 2.2333
-2.3231 -10.6283 2.2333
-1.9409 -10.7067 2.2333
-1.5560 -10.7710 2.2333
-1.1690 -10.8210 2.2333
-0.7803 -10.8567 2.2333
-0.3906 -10.8780 2.2333
-0.0004 -9.7628 2.2333
0.3496 -9.7561 2.2333
0.6990 -9.7365 2.2333
1.0475 -9.7041 2.2333
1.3945 -9.6589 2.2333
1.7395 -9.6009 2.2333
1.9860 -9.0904 2.1302
2.3100 -9.0111 2.1302
2.6308 -8.9199 2.1302
2.9479 -8.8170 2.1302
3.2610 -8.7026 2.1302
3.5695 -8.5768 2.1302
3.8731 -8.4398 2.1302
4.1713 -8.2918 2.1302
4.4638 -8.1330 2.1302
4.7501 -7.9637 2.1302
4.9885 -7.7202 2.1127
5.0415 -7.2203 2.0253
5.4376 -7.2215 2.0802
5.4580 -6.7319 1.9955
4.8766 -5.5923 1.7096
5.1502 -5.4952 1.7365
5.5343 -5.4960 1.7996
5.7366 -5.3021 1.8036
4.8648 -4.1829 1.4825
4.9812 -3.9814 1.4746
5.3636 -3.9804 1.5457
5.7847 -3.9793 1.6262
6.2518 -3.9780 1.7177
6.7745 -3.9766 1.8224
7.3648 -3.9750 1.9433
7.4255 -3.6701 1.9250
6.7793 -3.0531 1.7294
6.1456 -2.5066 1.5452
5.9537 -2.1826 1.4777
6.0737 -1.9824 1.4902
6.0734 -1.7438 1.4752
6.0731 -1.5101 1.4624
6.0467 -1.2750 1.4454
6.1517 -1.0682 1.4618
6.2207 -0.8515 1.4714
6.6038 -0.6635 1.5568
6.8826 -0.4427 1.6193
8.6909 -0.2463 2.0434
9.0847 0.0688 2.1372
9.0677 0.3945 2.1372
9.0390 0.7191 2.1372
8.9988 1.0421 2.1372
7.6840 1.1708 1.8355
7.2590 1.3744 1.7462
7.0009 1.5879 1.6984
6.7082 1.7770 1.6433
6.5929 2.0025 1.6331
6.4504 2.2152 1.6179
6.5669 2.5223 1.6703
2.2492 0.9580 0.5810
6.4481 3.0244 1.6940
6.6877 3.4350 1.7897
7.8272 4.3825 2.1372
7.6585 4.6571 2.1372
7.3001 4.8067 2.0857
6.0238 4.2842 1.7653
6.0969 4.6749 1.8361
5.6626 4.6743 1.7561
5.4147 4.8071 1.7329
5.9413 5.6692 1.9667
5.9425 6.0930 2.0396
5.7371 6.3218 2.0471
