ply
format ascii 1.0
element vertex 2156
property float32 x
property float32 y
property float32 z
end_header
-12.6222 -19.4701 2.1568
-11.8802 -19.8517 2.1568
-11.1268 -20.2047 2.1568
-10.3633 -20.5291 2.1568
-9.5907 -20.8245 2.1568
-8.3661 -20.0276 2.0481
-8.0230 -21.3279 2.1568
-7.2300 -21.5358 2.1568
-4.6970 -15.8557 1.5749
-4.0831 -15.8519 1.5638
-4.3816 -19.9498 1.9572
-2.9044 -15.9340 1.5568
-1.4352 -9.8705 0.9617
-2.4148 -22.1713 2.1568
-1.6124 -22.1765 2.1568
-0.8128 -22.1534 2.1568
-0.0170 -17.9181 2.1568
0.6248 -17.8641 2.1568
1.2628 -17.7878 2.1568
1.8962 -17.6894 2.1568
2.5243 -17.5691 2.1568
3.1463 -17.4272 2.1568
3.7616 -17.2641 2.1568
3.4069 -13.3175 1.6817
3.8504 -13.0761 1.6712
3.9518 -11.8344 1.5329
3.8972 -10.4104 1.3686
3.3740 -8.1127 1.0840
3.4636 -7.5512 1.0269
3.6608 -7.2792 1.0091
3.9931 -7.2763 1.0299
4.1808 -7.0091 1.0145
4.3626 -6.7504 1.0008
4.5393 -6.4990 0.9888
4.7113 -6.2542 0.9782
4.8794 -6.0149 0.9691
5.0442 -5.7805 0.9614
4.9812 -5.3105 0.9137
5.1514 -5.1110 0.9119
5.3208 -4.9125 0.9112
5.6681 -4.8678 0.9412
6.0889 -4.8602 0.9825
5.2105 -3.8609 0.8187
5.2640 -3.6151 0.8070
5.2591 -3.3402 0.7880
5.2544 -3.0780 0.7708
5.2498 -2.8270 0.7553
5.1870 -2.5572 0.7331
5.5962 -2.5131 0.7781
6.1566 -2.5031 0.8433
7.5279 -2.7497 1.0174
7.5224 -2.4451 1.0044
7.5170 -2.1480 0.9930
7.5118 -1.8573 0.9830
7.5067 -1.5722 0.9744
7.5016 -1.2917 0.9671
7.4966 -1.0150 0.9610
7.4917 -0.7413 0.9562
7.4868 -0.4700 0.9525
7.4820 -0.2002 0.9500
7.4771 0.0687 0.9487
7.4723 0.3374 0.9485
7.4674 0.6066 0.9495
7.4626 0.8771 0.9516
7.4577 1.1495 0.9549
7.4527 1.4246 0.9594
7.4477 1.7031 0.9652
7.4426 1.9859 0.9722
7.4374 2.2737 0.9805
7.4321 2.5674 0.9902
7.4267 2.8682 1.0013
7.4212 3.1769 1.0140
7.4154 3.4948 1.0283
7.3840 3.8100 1.0408
7.3779 4.1490 1.0587
7.3715 4.5014 1.0786
7.3904 4.8858 1.1045
7.3834 5.2719 1.1291
7.1670 5.5165 1.1236
6.6465 5.5071 1.0704
6.5180 5.8078 1.0806
6.7954 6.5076 1.1624
6.3158 6.4990 1.1173
5.9874 6.6211 1.0984
7.2823 8.6589 1.3892
7.0743 9.0525 1.4077
6.5562 9.0409 1.3653
6.0671 9.0319 1.3273
5.6020 9.0235 1.2927
5.1594 9.0179 1.2616
5.8345 11.1048 1.5197
5.4330 11.3091 1.5164
6.0008 13.7337 1.8071
5.9755 15.1351 1.9573
5.9455 16.8014 2.1385
5.3396 17.0075 2.1337
4.7374 17.2307 2.1337
4.1260 17.4328 2.1337
3.5063 17.6135 2.1337
2.8790 17.7723 2.1337
2.2448 17.9089 2.1337
1.6046 18.0229 2.1337
1.0054 18.9892 2.2368
0.3241 19.0604 2.2368
-0.3611 19.1070 2.2368
-1.0492 19.1289 2.2368
-1.7392 19.1257 2.2368
-2.4303 19.0973 2.2368
-3.1215 19.0436 2.2368
-3.8119 18.9644 2.2368
-4.5005 18.8597 2.2368
-5.1863 18.7294 2.2368
-5.8683 18.5736 2.2368
-6.4721 18.1859 2.2117
-6.8839 17.3461 2.1336
-7.5180 17.1248 2.1336
-8.1446 16.8795 2.1336
-8.7629 16.6105 2.1336
-9.3719 16.3181 2.1336
-9.9705 16.0024 2.1336
-10.2940 15.2722 2.0802
-9.2744 12.7477 1.7773
-9.7070 12.3830 1.7708
-10.4343 12.3699 1.8183
-11.2053 12.3560 1.8711
-11.0923 11.3828 1.7801
-11.2712 10.7653 1.7432
-12.0960 10.7505 1.8074
-12.7986 10.5781 1.8520
-13.7540 10.5609 1.9318
-14.1718 10.0949 1.9362
-11.0182 7.2673 1.4672
-9.9475 6.0607 1.2936
-9.9383 5.5765 1.2644
-9.9295 5.1122 1.2382
-9.9210 4.6656 1.2146
-9.9128 4.2346 1.1935
-9.9049 3.8172 1.1747
-9.8972 3.4119 1.1581
-9.8897 3.0171 1.1434
-9.8824 2.6314 1.1307
-9.8752 2.2536 1.1197
-9.8682 1.8824 1.1105
-9.8612 1.5168 1.1030
-9.8544 1.1558 1.0970
-9.8476 0.7982 1.0927
-9.8409 0.4433 1.0898
-9.8342 0.0899 1.0885
-9.8275 -0.2628 1.0887
-9.8514 -0.6175 1.0938
-10.0914 -0.9970 1.1245
-19.0526 -2.5751 2.1337
-18.9309 -3.2539 2.1337
-18.7834 -3.9268 2.1337
-18.6104 -4.5930 2.1337
-17.3431 -4.9465 2.0098
-19.0681 -6.1862 2.2368
-18.8090 -6.8570 2.2368
-18.5249 -7.5166 2.2368
-18.2162 -8.1641 2.2368
-17.8838 -8.7985 2.2368
-17.5280 -9.4189 2.2368
-17.1496 -10.0245 2.2368
-16.7493 -10.6144 2.2368
-16.3278 -11.1878 2.2368
-15.8857 -11.7440 2.2368
-15.4240 -12.2822 2.2368
-14.9433 -12.8018 2.2368
-14.4445 -13.3021 2.2368
-13.5224 -13.3807 2.1716
-12.7785 -13.5860 2.1337
-12.2557 -14.0047 2.1337
-11.7189 -14.4029 2.1337
-11.1690 -14.7802 2.1337
-10.6067 -15.1362 2.1337
-10.0331 -15.4705 2.1337
-9.4489 -15.7828 2.1337
-8.8551 -16.0729 2.1337
-8.2525 -16.3404 2.1337
-7.6420 -16.5853 2.1337
-7.0245 -16.8073 2.1337
-6.4157 -17.0459 2.1387
-5.7854 -17.2222 2.1387
-5.1943 -17.5226 2.1568
-4.0844 -15.8447 1.9358
-3.9043 -17.7611 2.1568
-3.2561 -17.8452 2.1568
-1.4370 -9.8702 1.1889
-1.9576 -17.9435 2.1568
-1.3090 -17.9580 2.1568
-0.6619 -17.9494 2.1568
-0.0169 -14.9264 2.1387
0.5180 -14.8870 2.1387
1.0501 -14.8290 2.1387
1.5787 -14.7524 2.1387
2.1033 -14.6574 2.1387
2.6232 -14.5442 2.1387
3.1448 -14.4451 2.1434
3.4045 -13.3177 1.9968
3.8481 -13.0762 1.9836
3.9521 -11.8416 1.8200
3.8974 -10.4161 1.6242
3.3741 -8.1164 1.2859
3.4628 -7.5524 1.2175
3.6600 -7.2803 1.1961
3.9923 -7.2774 1.2203
4.1801 -7.0101 1.2018
4.3620 -6.7513 1.1853
4.5386 -6.4999 1.1707
4.7107 -6.2550 1.1579
4.8789 -6.0157 1.1469
5.0436 -5.7813 1.1374
4.9807 -5.3111 1.0808
5.1510 -5.1116 1.0784
5.3203 -4.9131 1.0773
5.6671 -4.8678 1.1125
6.0878 -4.8603 1.1612
5.2105 -3.8616 0.9676
5.2640 -3.6157 0.9536
5.2591 -3.3407 0.9310
5.2544 -3.0784 0.9106
5.2499 -2.8274 0.8922
5.1870 -2.5575 0.8658
5.5956 -2.5131 0.9188
6.0841 -2.4738 0.9842
7.5279 -2.7499 1.2013
7.5224 -2.4453 1.1860
7.5170 -2.1481 1.1724
7.5118 -1.8574 1.1606
7.5067 -1.5722 1.1504
7.5016 -1.2916 1.1418
7.4966 -1.0149 1.1346
7.4917 -0.7412 1.1289
7.4868 -0.4698 1.1247
7.4820 -0.2000 1.1218
7.4771 0.0689 1.1203
7.4723 0.3377 1.1202
7.4674 0.6070 1.1215
7.4626 0.8775 1.1241
7.4576 1.1500 1.1281
7.4527 1.4251 1.1336
7.4477 1.7037 1.1405
7.4426 1.9865 1.1490
7.4374 2.2744 1.1590
7.4321 2.5682 1.1706
7.4267 2.8690 1.1840
7.4211 3.1778 1.1993
7.4154 3.4958 1.2165
7.3839 3.8111 1.2315
7.3778 4.1502 1.2529
7.3715 4.5026 1.2768
7.3904 4.8872 1.3078
7.3834 5.2734 1.3373
7.1649 5.5165 1.3308
6.6446 5.5071 1.2682
6.5214 5.8126 1.2816
6.2220 5.9604 1.2620
6.3138 6.4990 1.3249
5.9873 6.6232 1.3033
7.2841 8.6638 1.6493
7.0727 9.0535 1.6710
6.5546 9.0419 1.6213
6.0655 9.0329 1.5767
5.6003 9.0244 1.5361
5.1573 9.0179 1.4996
5.8344 11.1095 1.8078
5.4302 11.3087 1.8037
5.9653 13.6593 2.1387
5.4695 13.8607 2.1337
4.9786 14.0771 2.1337
4.4792 14.2763 2.1337
3.9721 14.4580 2.1337
3.4578 14.6218 2.1337
2.9369 14.7675 2.1337
2.4100 14.8947 2.1337
1.8778 15.0032 2.1337
1.4057 15.8218 2.2368
0.8387 15.8954 2.2368
0.2682 15.9487 2.2368
-0.3049 15.9813 2.2368
-0.8801 15.9932 2.2368
-1.4564 15.9842 2.2368
-2.0332 15.9542 2.2368
-2.6096 15.9031 2.2368
-3.1849 15.8308 2.2368
-3.7582 15.7374 2.2368
-4.3288 15.6227 2.2368
-4.8959 15.4870 2.2368
-5.4586 15.3302 2.2368
-6.0161 15.1524 2.2368
-6.4077 14.5896 2.1824
-6.7840 14.0544 2.1336
-7.2963 13.8257 2.1336
-7.8006 13.5778 2.1336
-8.2961 13.3109 2.1336
-8.7819 13.0252 2.1336
-9.2575 12.7211 2.1336
-9.7094 12.3830 2.1308
-10.1747 12.0594 2.1336
-10.8301 11.9396 2.1768
-11.0922 11.3803 2.1433
-11.2552 10.7479 2.0963
-11.4275 10.1544 2.0569
-11.7971 9.7487 2.0569
-12.1515 9.3288 2.0569
-12.4901 8.8955 2.0569
-11.0182 7.2662 1.7688
-9.9475 6.0598 1.5598
-9.9383 5.5757 1.5249
-9.9295 5.1116 1.4934
-9.9210 4.6651 1.4652
-9.9128 4.2341 1.4399
-9.9049 3.8169 1.4173
-9.8972 3.4116 1.3973
-9.8897 3.0169 1.3797
-9.8824 2.6313 1.3644
-9.8752 2.2535 1.3513
-9.8682 1.8824 1.3401
-9.8612 1.5169 1.3310
-9.8544 1.1559 1.3238
-9.8476 0.7984 1.3185
-9.8409 0.4435 1.3150
-9.8342 0.0902 1.3133
-9.8275 -0.2623 1.3134
-9.8513 -0.6170 1.3194
-10.0907 -0.9963 1.3562
-15.7988 -2.1344 2.1337
-15.7003 -2.6975 2.1337
-15.5805 -3.2560 2.1337
-15.4399 -3.8092 2.1337
-15.2785 -4.3562 2.1337
-15.0967 -4.8962 2.1337
-15.6146 -5.6907 2.2368
-15.3823 -6.2397 2.2368
-15.1299 -6.7789 2.2368
-14.8577 -7.3076 2.2368
-14.5662 -7.8251 2.2368
-14.2558 -8.3306 2.2368
-13.9272 -8.8235 2.2368
-13.5809 -9.3030 2.2368
-13.2175 -9.7686 2.2368
-12.8376 -10.2197 2.2368
-12.4417 -10.6556 2.2368
-12.0306 -11.0758 2.2368
-11.6072 -11.4820 2.2373
-11.1678 -11.8697 2.2373
-10.7142 -12.2392 2.2372
-10.2484 -12.5914 2.2371
-9.7709 -12.9256 2.2370
-9.2755 -13.2317 2.2353
-8.5600 -13.1940 2.1799
-7.8941 -13.1806 2.1337
-7.4011 -13.4281 2.1337
-6.9003 -13.6570 2.1337
-6.3926 -13.8672 2.1337
-5.8786 -14.0584 2.1337
-5.3591 -14.2306 2.1337
-4.8348 -14.3836 2.1337
-4.3064 -14.5172 2.1337
-3.7746 -14.6316 2.1337
-3.2401 -14.7266 2.1337
-2.7038 -14.8023 2.1337
-1.4389 -9.8700 1.4174
-1.6317 -14.9303 2.1387
-1.0924 -14.9481 2.1387
-0.5539 -14.9467 2.1387
-0.0169 -12.8440 2.1365
0.4437 -12.8183 2.1373
0.9024 -12.7764 2.1381
1.3650 -12.7771 2.1487
1.8198 -12.6982 2.1487
2.2708 -12.6035 2.1487
2.7175 -12.4931 2.1487
3.1593 -12.3673 2.1487
3.5135 -11.9467 2.0996
3.9205 -11.7532 2.0922
3.8977 -10.4217 1.8818
3.3741 -8.1201 1.4894
3.4619 -7.5535 1.4094
3.6592 -7.2814 1.3843
3.9915 -7.2785 1.4120
4.1794 -7.0111 1.3903
4.3613 -6.7523 1.3709
4.5380 -6.5008 1.3538
4.7101 -6.2559 1.3388
4.8783 -6.0165 1.3258
5.0431 -5.7820 1.3147
4.9801 -5.3117 1.2490
5.1505 -5.1121 1.2460
5.3199 -4.9136 1.2446
5.6660 -4.8678 1.2850
6.0868 -4.8603 1.3410
5.2105 -3.8623 1.1175
5.2641 -3.6163 1.1012
5.2591 -3.3412 1.0750
5.2544 -3.0789 1.0514
5.2499 -2.8278 1.0300
5.1870 -2.5578 0.9995
5.5950 -2.5132 1.0604
6.0894 -2.4762 1.1369
7.5279 -2.7502 1.3866
7.5224 -2.4455 1.3688
7.5170 -2.1483 1.3531
7.5118 -1.8575 1.3394
7.5067 -1.5722 1.3277
7.5016 -1.2916 1.3177
7.4966 -1.0148 1.3094
7.4917 -0.7411 1.3029
7.4868 -0.4696 1.2980
7.4820 -0.1998 1.2948
7.4771 0.0692 1.2931
7.4723 0.3381 1.2930
7.4674 0.6074 1.2946
7.4626 0.8780 1.2977
7.4576 1.1505 1.3025
7.4527 1.4257 1.3089
7.4477 1.7043 1.3170
7.4426 1.9871 1.3269
7.4374 2.2751 1.3387
7.4321 2.5690 1.3523
7.4267 2.8699 1.3680
7.4211 3.1787 1.3858
7.4154 3.4968 1.4059
7.3839 3.8121 1.4235
7.3778 4.1513 1.4485
7.3715 4.5039 1.4764
7.3903 4.8886 1.5125
7.3834 5.2749 1.5470
7.1627 5.5164 1.5393
6.6427 5.5072 1.4672
6.5194 5.8126 1.4831
6.2220 5.9622 1.4611
6.3118 6.4989 1.5338
5.9873 6.6252 1.5096
7.2858 8.6688 1.9114
7.0710 9.0546 1.9361
6.5530 9.0429 1.8790
6.0639 9.0339 1.8277
5.5987 9.0253 1.7811
5.1552 9.0180 1.7391
5.8160 11.0792 2.0913
5.4205 11.2936 2.0900
5.1252 11.7416 2.1337
4.7087 11.9391 2.1337
4.2846 12.1221 2.1337
3.8536 12.2901 2.1337
3.4160 12.4430 2.1337
2.9725 12.5804 2.1337
2.5236 12.7021 2.1337
2.0699 12.8078 2.1337
1.6629 13.3069 2.2015
1.2055 13.5971 2.2368
0.7180 13.6564 2.2368
0.2278 13.6982 2.2368
-0.2643 13.7223 2.2368
-0.7579 13.7285 2.2368
-1.2523 13.7169 2.2368
-1.7467 13.6872 2.2368
-2.2406 13.6395 2.2368
-2.7332 13.5738 2.2368
-3.2239 13.4899 2.2368
-3.7120 13.3880 2.2368
-4.1968 13.2681 2.2368
-4.6777 13.1303 2.2368
-5.1538 12.9747 2.2368
-5.6246 12.8013 2.2368
-6.0894 12.6105 2.2368
-6.3642 12.0551 2.1742
-6.6751 11.6150 2.1336
-7.0973 11.3840 2.1336
-7.5117 11.1381 2.1337
-7.9167 10.8757 2.1337
-8.3120 10.5982 2.1337
-8.6972 10.3057 2.1337
-9.0717 9.9988 2.1337
-9.4348 9.6778 2.1337
-9.7860 9.3430 2.1337
-10.1248 8.9951 2.1337
-10.6616 8.8087 2.1768
-10.9802 8.4282 2.1768
-11.2054 7.9793 2.1616
-11.0182 7.2651 2.0723
-9.9474 6.0589 1.8276
-9.9383 5.5749 1.7869
-9.9294 5.1109 1.7502
-9.9210 4.6645 1.7173
-9.9128 4.2337 1.6877
-9.9049 3.8165 1.6614
-9.8972 3.4113 1.6381
-9.8897 3.0167 1.6175
-9.8824 2.6312 1.5996
-9.8752 2.2535 1.5842
-9.8682 1.8825 1.5711
-9.8612 1.5170 1.5604
-9.8544 1.1561 1.5520
-9.8476 0.7987 1.5457
-9.8409 0.4438 1.5415
-9.8342 0.0906 1.5395
-9.8275 -0.2620 1.5395
-9.8513 -0.6166 1.5464
-10.0900 -0.9957 1.5893
-13.4823 -1.8206 2.1337
-13.3997 -2.3013 2.1337
-13.2992 -2.7783 2.1337
-13.1808 -3.2508 2.1337
-13.0449 -3.7182 2.1337
-12.8917 -4.1798 2.1337
-12.7214 -4.6349 2.1337
-12.5850 -5.1035 2.1424
-12.9266 -5.7900 2.2368
-12.6965 -6.2428 2.2368
-12.4498 -6.6863 2.2368
-12.1871 -7.1197 2.2368
-11.9096 -7.5431 2.2370
-11.6178 -7.9560 2.2373
-11.3113 -8.3573 2.2377
-10.9905 -8.7467 2.2380
-10.6559 -9.1234 2.2384
-10.3077 -9.4867 2.2387
-9.9466 -9.8363 2.2389
-9.5732 -10.1718 2.2391
-9.1865 -10.4906 2.2388
-8.7888 -10.7945 2.2386
-8.3810 -11.0831 2.2383
-7.9636 -11.3561 2.2380
-7.5372 -11.6132 2.2377
-7.1026 -11.8541 2.2375
-6.6602 -12.0787 2.2372
-6.2107 -12.2867 2.2369
-5.7065 -12.3729 2.2179
-5.0719 -12.1229 2.1429
-4.6055 -12.2227 2.1337
-4.1564 -12.3577 2.1337
-3.7034 -12.4762 2.1337
-3.2474 -12.5781 2.1337
-2.7887 -12.6634 2.1337
-2.3281 -12.7322 2.1337
-1.4220 -9.7414 1.6259
-1.4036 -12.8212 2.1340
-0.9412 -12.8460 2.1350
-0.4787 -12.8536 2.1358
-0.0169 -11.2831 2.1390
0.3877 -11.2601 2.1393
0.7903 -11.2179 2.1386
1.1904 -11.1615 2.1379
1.5875 -11.0910 2.1371
1.9812 -11.0066 2.1364
2.3709 -10.9085 2.1356
2.7562 -10.7968 2.1348
3.1581 -10.7451 2.1487
3.4526 -10.3561 2.0973
3.8080 -10.1869 2.0922
3.3742 -8.1239 1.6946
3.4611 -7.5547 1.6029
3.6584 -7.2825 1.5740
3.9908 -7.2796 1.6053
4.1787 -7.0122 1.5803
4.3606 -6.7532 1.5580
4.5374 -6.5017 1.5384
4.7095 -6.2567 1.5211
4.8778 -6.0173 1.5061
5.0426 -5.7828 1.4933
4.9796 -5.3123 1.4185
5.1500 -5.1127 1.4150
5.3194 -4.9142 1.4132
5.6650 -4.8679 1.4587
6.0857 -4.8603 1.5222
5.2105 -3.8629 1.2686
5.2641 -3.6169 1.2499
5.2003 -3.3043 1.2065
5.1956 -3.0448 1.1799
5.1912 -2.7965 1.1558
5.1870 -2.5581 1.1342
5.4699 -2.4573 1.1764
5.7918 -2.3555 1.2270
7.5279 -2.7504 1.5732
7.5224 -2.4457 1.5530
7.5170 -2.1484 1.5352
7.5118 -1.8576 1.5197
7.5067 -1.5722 1.5063
7.5016 -1.2916 1.4950
7.4966 -1.0147 1.4856
7.4917 -0.7409 1.4782
7.4868 -0.4694 1.4727
7.4820 -0.1995 1.4691
7.4771 0.0695 1.4672
7.4723 0.3384 1.4672
7.4674 0.6078 1.4691
7.4625 0.8784 1.4727
7.4576 1.1510 1.4782
7.4527 1.4262 1.4856
7.4477 1.7049 1.4950
7.4426 1.9878 1.5063
7.4374 2.2758 1.5198
7.4321 2.5698 1.5354
7.4267 2.8707 1.5534
7.4211 3.1797 1.5738
7.4148 3.4975 1.5967
7.3839 3.8132 1.6170
7.3778 4.1525 1.6456
7.3714 4.5052 1.6775
7.3903 4.8900 1.7189
7.3834 5.2764 1.7583
7.1606 5.5164 1.7493
6.6420 5.5083 1.6679
6.5174 5.8125 1.6859
6.2219 5.9639 1.6618
6.3097 6.4989 1.7442
5.9873 6.6274 1.7176
6.9919 8.3218 2.0874
6.7012 8.5840 2.0884
6.3988 8.8333 2.0888
6.0623 9.0349 2.0806
5.5971 9.0263 2.0280
5.1532 9.0181 1.9803
5.0983 9.7164 2.0889
4.8554 10.1211 2.1337
4.4959 10.3049 2.1337
4.1294 10.4761 2.1337
3.7565 10.6343 2.1337
3.3776 10.7793 2.1337
2.9932 10.9109 2.1337
2.6037 11.0288 2.1337
2.2097 11.1329 2.1336
1.8116 11.2230 2.1336
1.4780 11.8455 2.2368
1.0536 11.9101 2.2368
0.6265 11.9594 2.2368
0.1973 11.9934 2.2368
-0.2336 12.0118 2.2368
-0.6655 12.0147 2.2368
-1.0979 12.0019 2.2368
-1.5302 11.9734 2.2368
-1.9618 11.9291 2.2368
-2.3921 11.8691 2.2368
-2.8206 11.7933 2.2368
-3.2466 11.7018 2.2368
-3.6696 11.5947 2.2368
-4.0890 11.4719 2.2368
-4.5041 11.3337 2.2368
-4.9144 11.1802 2.2368
-5.3193 11.0115 2.2368
-5.7182 10.8277 2.2368
-6.1106 10.6292 2.2368
-6.3269 10.1451 2.1787
-6.5565 9.7189 2.1337
-6.9087 9.4885 2.1337
-7.2525 9.2449 2.1337
-7.5874 8.9885 2.1337
-7.9128 8.7195 2.1337
-8.2283 8.4384 2.1337
-8.5335 8.1455 2.1337
-6.6397 5.8977 1.6049
-9.1106 7.5259 2.1337
-9.3817 7.2000 2.1337
-9.6407 6.8639 2.1337
-9.8871 6.5183 2.1337
-9.9474 6.0580 2.0972
-9.9382 5.5741 2.0507
-9.9294 5.1102 2.0088
-9.9210 4.6640 1.9711
-9.9128 4.2332 1.9373
-9.9049 3.8161 1.9072
-9.8972 3.4111 1.8805
-9.8897 3.0165 1.8569
-9.8824 2.6310 1.8364
-9.8752 2.2534 1.8187
-9.8682 1.8825 1.8038
-9.8612 1.5171 1.7915
-9.8544 1.1562 1.7817
-9.8476 0.7989 1.7745
-9.8409 0.4441 1.7696
-9.8342 0.0909 1.7672
-9.8275 -0.2615 1.7672
-9.8512 -0.6161 1.7750
-10.0893 -0.9951 1.8239
-11.7477 -1.5856 2.1337
-11.6767 -2.0046 2.1337
-11.5901 -2.4203 2.1337
-11.4881 -2.8323 2.1337
-11.3708 -3.2400 2.1337
-11.2386 -3.6427 2.1337
-11.0914 -4.0398 2.1337
-10.9298 -4.4309 2.1337
-10.7538 -4.8154 2.1337
-11.0746 -5.4438 2.2369
-10.8619 -5.8318 2.2371
-10.6350 -6.2112 2.2372
-10.3955 -6.5822 2.2376
-10.1432 -6.9441 2.2380
-9.8779 -7.2962 2.2385
-9.5994 -7.6373 2.2389
-9.3086 -7.9675 2.2391
-9.0061 -8.2863 2.2394
-8.6925 -8.5934 2.2397
-8.3680 -8.8884 2.2399
-8.0316 -9.1688 2.2397
-7.6856 -9.4363 2.2394
-7.3306 -9.6906 2.2391
-6.9671 -9.9314 2.2389
-6.5956 -10.1585 2.2386
-6.2167 -10.3714 2.2383
-5.8308 -10.5702 2.2381
-5.4387 -10.7545 2.2378
-5.0408 -10.9243 2.2375
-4.6376 -11.0792 2.2373
-4.2298 -11.2193 2.2370
-3.8181 -11.3448 2.2368
-3.2947 -11.0915 2.1656
-2.8773 -11.1361 2.1562
-2.4470 -11.1018 2.1347
-2.0444 -11.1685 2.1354
-1.4216 -9.7256 1.8516
-1.2347 -11.2587 2.1370
-0.8287 -11.2818 2.1378
-0.4226 -11.2896 2.1384
-0.0169 -10.0367 2.1379
0.3429 -10.0140 2.1373
0.7011 -9.9782 2.1367
1.0572 -9.9297 2.1360
1.4107 -9.8686 2.1352
1.7613 -9.7950 2.1345
2.1084 -9.7093 2.1337
2.4527 -9.6148 2.1337
2.7929 -9.5084 2.1337
3.1288 -9.3902 2.1337
3.4048 -9.1129 2.0998
3.3743 -8.1277 1.9017
3.4602 -7.5559 1.7980
3.6576 -7.2836 1.7653
3.9891 -7.2791 1.7998
4.1779 -7.0132 1.7720
4.3599 -6.7542 1.7468
4.5367 -6.5027 1.7246
4.7089 -6.2576 1.7050
4.8772 -6.0181 1.6880
5.0421 -5.7835 1.6735
4.9791 -5.3130 1.5895
5.1495 -5.1133 1.5854
5.3190 -4.9147 1.5833
5.6639 -4.8679 1.6340
6.0846 -4.8603 1.7049
5.2105 -3.8636 1.4210
5.2641 -3.6174 1.4000
5.2591 -3.3422 1.3666
5.2544 -3.0797 1.3363
5.2499 -2.8285 1.3090
5.1870 -2.5585 1.2701
5.5937 -2.5132 1.3471
5.8845 -2.3934 1.3959
7.5279 -2.7507 1.7616
7.5224 -2.4459 1.7389
7.5170 -2.1485 1.7189
7.5118 -1.8576 1.7015
7.5067 -1.5723 1.6865
7.5016 -1.2915 1.6738
7.4966 -1.0147 1.6634
7.4917 -0.7408 1.6551
7.4868 -0.4693 1.6490
7.4819 -0.1993 1.6449
7.4771 0.0698 1.6429
7.4723 0.3387 1.6430
7.4674 0.6082 1.6451
7.4625 0.8789 1.6492
7.4576 1.1515 1.6555
7.4527 1.4268 1.6639
7.4476 1.7055 1.6745
7.4425 1.9885 1.6873
7.4374 2.2765 1.7025
7.4321 2.5706 1.7202
7.4267 2.8716 1.7404
7.4211 3.1806 1.7635
7.4141 3.4982 1.7891
7.3839 3.8143 1.8122
7.3778 4.1537 1.8445
7.3714 4.5065 1.8805
7.3903 4.8914 1.9271
7.3833 5.2779 1.9715
7.3760 5.6840 2.0207
6.6722 5.5350 1.8792
6.5153 5.8125 1.8905
6.2219 5.9657 1.8643
6.3077 6.4989 1.9564
5.9872 6.6295 1.9274
6.2339 7.4223 2.0888
5.9708 7.6510 2.0888
5.6993 7.8706 2.0888
5.4200 8.0808 2.0888
5.1331 8.2812 2.0888
4.9429 8.6538 2.1337
4.6352 8.8378 2.1337
4.3208 9.0109 2.1337
4.0000 9.1730 2.1337
3.6732 9.3238 2.1337
3.3408 9.4631 2.1337
3.0032 9.5906 2.1337
2.6607 9.7061 2.1337
2.3139 9.8095 2.1337
1.9871 10.0213 2.1598
1.6865 10.4611 2.2368
1.3119 10.5301 2.2368
0.9344 10.5857 2.2368
0.5548 10.6277 2.2368
0.1733 10.6560 2.2368
-0.2095 10.6706 2.2368
-0.5931 10.6713 2.2368
-0.9770 10.6581 2.2368
-1.3606 10.6310 2.2368
-1.7435 10.5899 2.2368
-2.1252 10.5349 2.2368
-2.5051 10.4659 2.2368
-2.8827 10.3831 2.2368
-3.2575 10.2864 2.2368
-3.6289 10.1759 2.2368
-3.9965 10.0518 2.2368
-4.3597 9.9141 2.2368
-4.7181 9.7631 2.2368
-5.0710 9.5988 2.2368
-5.4181 9.4215 2.2368
-5.7588 9.2313 2.2368
-6.0925 9.0285 2.2368
-6.2977 8.6470 2.1946
-6.4268 8.1903 2.1337
-6.7227 7.9622 2.1337
-7.0102 7.7231 2.1337
-7.2889 7.4733 2.1337
-6.4542 6.1596 1.8221
-6.6313 5.8892 1.8099
-8.0678 6.6633 2.1337
-8.3072 6.3742 2.1337
-8.5357 6.0762 2.1337
-8.7532 5.7698 2.1337
-8.9592 5.4554 2.1337
-9.1535 5.1333 2.1337
-9.3357 4.8041 2.1337
-9.5056 4.4681 2.1337
-9.6628 4.1260 2.1337
-9.8073 3.7781 2.1337
-9.8972 3.4108 2.1248
-9.8897 3.0163 2.0983
-9.8824 2.6309 2.0751
-9.8752 2.2534 2.0552
-9.8682 1.8825 2.0383
-9.8612 1.5172 2.0244
-9.8544 1.1564 2.0134
-9.8476 0.7991 2.0051
-9.8409 0.4443 1.9996
-9.8342 0.0913 1.9968
-9.8275 -0.2611 1.9967
-9.8511 -0.6156 2.0054
-10.0885 -0.9945 2.0605
-10.3989 -1.4029 2.1337
-10.3367 -1.7738 2.1337
-10.2608 -2.1420 2.1337
-10.1712 -2.5068 2.1337
-10.0683 -2.8679 2.1337
-9.9520 -3.2247 2.1337
-9.8227 -3.5766 2.1337
-9.6805 -3.9233 2.1337
-9.5257 -4.2642 2.1337
-9.8106 -4.8211 2.2368
-9.6237 -5.1655 2.2371
-9.4244 -5.5026 2.2374
-9.2130 -5.8318 2.2376
-8.9898 -6.1527 2.2379
-8.7550 -6.4649 2.2382
-8.5092 -6.7680 2.2385
-8.2525 -7.0614 2.2387
-7.9855 -7.3450 2.2389
-7.7085 -7.6183 2.2392
-7.4220 -7.8809 2.2394
-7.1263 -8.1326 2.2397
-6.8219 -8.3730 2.2399
-6.5083 -8.6005 2.2397
-6.1866 -8.8156 2.2394
-5.8577 -9.0185 2.2392
-5.5222 -9.2091 2.2389
-5.1805 -9.3872 2.2386
-4.8331 -9.5526 2.2384
-4.4804 -9.7051 2.2381
-4.1230 -9.8445 2.2379
-3.7613 -9.9708 2.2376
-3.3958 -10.0837 2.2374
-3.0270 -10.1833 2.2371
-2.6555 -10.2695 2.2369
-2.2669 -10.2756 2.2223
-1.8234 -9.9509 2.1396
-1.4211 -9.7098 2.0784
-1.1015 -10.0260 2.1394
-0.7396 -10.0434 2.1391
-0.3779 -10.0465 2.1385
-0.0169 -9.0239 2.1357
0.3066 -9.0047 2.1351
0.6288 -8.9740 2.1345
0.9493 -8.9319 2.1339
1.2678 -8.8805 2.1337
1.5841 -8.8185 2.1337
1.8975 -8.7455 2.1337
2.2079 -8.6614 2.1337
2.5147 -8.5666 2.1337
2.8177 -8.4611 2.1337
3.1164 -8.3451 2.1337
3.3743 -8.1316 2.1111
3.4593 -7.5571 1.9951
3.6568 -7.2847 1.9586
3.9868 -7.2775 1.9959
4.1772 -7.0143 1.9656
4.3592 -6.7552 1.9375
4.5361 -6.5036 1.9126
4.7083 -6.2584 1.8908
4.8766 -6.0189 1.8718
5.0415 -5.7843 1.8555
4.9785 -5.3136 1.7622
5.1490 -5.1139 1.7575
5.3185 -4.9153 1.7551
5.6628 -4.8679 1.8109
6.0835 -4.8603 1.8895
5.2105 -3.8643 1.5750
5.2641 -3.6180 1.5517
5.2591 -3.3427 1.5145
5.2544 -3.0802 1.4809
5.2499 -2.8289 1.4506
5.1870 -2.5588 1.4074
5.5931 -2.5132 1.4925
5.8840 -2.3935 1.5465
7.5279 -2.7510 1.9518
7.5224 -2.4461 1.9266
7.5171 -2.1486 1.9044
7.5118 -1.8577 1.8851
7.5067 -1.5723 1.8685
7.5016 -1.2915 1.8545
7.4966 -1.0146 1.8429
7.4917 -0.7407 1.8338
7.4868 -0.4691 1.8270
7.4819 -0.1990 1.8225
7.4771 0.0701 1.8204
7.4723 0.3391 1.8205
7.4674 0.6086 1.8229
7.4625 0.8793 1.8275
7.4576 1.1520 1.8345
7.4527 1.4273 1.8439
7.4476 1.7061 1.8557
7.4425 1.9892 1.8701
7.4374 2.2773 1.8871
7.4321 2.5714 1.9068
7.4266 2.8725 1.9294
7.4211 3.1816 1.9550
7.4135 3.4990 1.9834
7.3839 3.8154 2.0094
7.3778 4.1549 2.0454
7.3714 4.5078 2.0855
7.3605 4.8731 2.1287
7.1872 5.1392 2.1287
7.0044 5.3993 2.1287
6.6701 5.5349 2.0842
6.5133 5.8125 2.0970
6.2218 5.9676 2.0688
6.1838 6.3733 2.1287
5.9573 6.5986 2.1287
5.7228 6.8160 2.1287
5.4805 7.0252 2.1287
5.2306 7.2260 2.1287
4.9736 7.4180 2.1287
4.7207 7.6190 2.1337
4.4494 7.7931 2.1337
4.1718 7.9578 2.1337
3.8882 8.1126 2.1337
3.5989 8.2575 2.1337
3.3043 8.3921 2.1337
3.0047 8.5163 2.1337
2.7005 8.6298 2.1337
2.3920 8.7326 2.1337
2.0797 8.8244 2.1337
1.7639 8.9050 2.1337
1.5149 9.4079 2.2368
1.1778 9.4686 2.2368
0.8383 9.5173 2.2368
0.4969 9.5537 2.2368
0.1539 9.5778 2.2368
-0.1901 9.5896 2.2368
-0.5347 9.5889 2.2368
-0.8795 9.5758 2.2368
-1.2240 9.5501 2.2368
-1.5678 9.5120 2.2368
-1.9103 9.4613 2.2368
-2.2512 9.3981 2.2368
-2.5899 9.3225 2.2368
-2.9260 9.2345 2.2368
-3.2591 9.1342 2.2368
-3.5886 9.0217 2.2368
-3.9142 8.8971 2.2368
-4.2352 8.7605 2.2368
-4.5514 8.6121 2.2368
-4.8622 8.4520 2.2368
-5.1673 8.2805 2.2368
-5.4661 8.0978 2.2368
-5.7582 7.9040 2.2368
-6.0432 7.6994 2.2368
-6.2749 7.4301 2.2206
-6.2866 6.9243 2.1337
-6.5359 6.6998 2.1337
-6.4452 6.1497 2.0293
-6.6229 5.8805 2.0162
-7.2325 5.9722 2.1337
-7.4465 5.7128 2.1337
-7.6509 5.4454 2.1337
-7.8453 5.1705 2.1337
-8.0294 4.8885 2.1337
-8.2031 4.5997 2.1337
-8.3660 4.3045 2.1337
-8.5179 4.0034 2.1337
-8.6585 3.6967 2.1337
-8.7877 3.3850 2.1337
-8.9052 3.0686 2.1337
-9.0109 2.7480 2.1337
-9.1046 2.4237 2.1337
-9.1862 2.0961 2.1337
-9.2555 1.7656 2.1337
-9.3125 1.4328 2.1337
-9.3572 1.0982 2.1337
-9.3893 0.7621 2.1337
-9.4089 0.4251 2.1337
-9.4160 0.0877 2.1337
-9.4105 -0.2497 2.1337
-9.3925 -0.5865 2.1337
-9.3620 -0.9223 2.1337
-9.3191 -1.2567 2.1337
-9.2639 -1.5891 2.1337
-9.1963 -1.9190 2.1337
-9.1167 -2.2461 2.1337
-9.0250 -2.5699 2.1337
-8.9214 -2.8898 2.1337
-8.8062 -3.2055 2.1337
-8.6794 -3.5165 2.1337
-8.5413 -3.8224 2.1337
-8.7976 -4.3220 2.2368
-8.6307 -4.6312 2.2371
-8.4527 -4.9337 2.2373
-8.2638 -5.2294 2.2375
-8.0643 -5.5177 2.2378
-7.8545 -5.7982 2.2380
-7.6347 -6.0706 2.2382
-7.4052 -6.3345 2.2385
-7.1664 -6.5896 2.2387
-6.9187 -6.8356 2.2389
-6.6624 -7.0721 2.2392
-6.3979 -7.2988 2.2394
-6.1255 -7.5156 2.2396
-5.8456 -7.7220 2.2398
-5.5580 -7.9170 2.2398
-5.2635 -8.1004 2.2395
-4.9628 -8.2728 2.2393
-4.6564 -8.4340 2.2390
-4.3449 -8.5837 2.2388
-4.0285 -8.7219 2.2385
-3.7078 -8.8485 2.2383
-3.3832 -8.9633 2.2380
-3.0550 -9.0662 2.2378
-2.7239 -9.1571 2.2376
-2.3901 -9.2360 2.2374
-2.0542 -9.3027 2.2372
-1.7165 -9.3573 2.2370
-1.3776 -9.4000 2.2368
-0.9958 -9.0483 2.1461
-0.6674 -9.0382 2.1394
-0.3415 -9.0313 2.1362
-0.0170 -8.2066 2.1385
0.2768 -8.1741 2.1337
0.5695 -8.1494 2.1337
0.8609 -8.1144 2.1337
1.1505 -8.0691 2.1337
1.4380 -8.0136 2.1337
1.7230 -7.9480 2.1337
2.0053 -7.8725 2.1337
2.2844 -7.7870 2.1337
2.5601 -7.6919 2.1337
2.8319 -7.5872 2.1337
3.0997 -7.4730 2.1337
3.3629 -7.3497 2.1337
3.6215 -7.2172 2.1337
3.8520 -7.0339 2.1211
4.0987 -6.8848 2.1211
4.3398 -6.7272 2.1211
4.5354 -6.5045 2.1027
4.7077 -6.2593 2.0786
4.8761 -6.0198 2.0575
5.0410 -5.7850 2.0395
4.9780 -5.3142 1.9367
5.1485 -5.1145 1.9315
5.3180 -4.9158 1.9287
5.6618 -4.8679 1.9898
6.0824 -4.8604 2.0760
5.2105 -3.8650 1.7307
5.2641 -3.6186 1.7049
5.2591 -3.3432 1.6640
5.2544 -3.0806 1.6271
5.2499 -2.8293 1.5937
5.1870 -2.5591 1.5461
5.5925 -2.5132 1.6394
5.8835 -2.3935 1.6988
7.4739 -2.7315 2.1287
7.5224 -2.4463 2.1164
7.5171 -2.1488 2.0920
7.5118 -1.8578 2.0708
7.5067 -1.5723 2.0525
7.5016 -1.2915 2.0371
7.4966 -1.0145 2.0244
7.4917 -0.7405 2.0144
7.4868 -0.4689 2.0070
7.4819 -0.1988 2.0021
7.4771 0.0704 1.9998
7.4722 0.3394 1.9999
7.4674 0.6090 2.0026
7.4625 0.8797 2.0078
7.4576 1.1525 2.0156
7.4526 1.4279 2.0260
7.4476 1.7067 2.0390
7.4425 1.9898 2.0549
7.4373 2.2780 2.0736
7.4320 2.5722 2.0954
7.4266 2.8733 2.1204
7.3520 3.1529 2.1287
7.2388 3.4176 2.1287
7.1163 3.6783 2.1287
6.9847 3.9347 2.1287
6.8440 4.1866 2.1287
6.6945 4.4335 2.1287
6.5364 4.6752 2.1287
6.3696 4.9115 2.1287
6.1946 5.1419 2.1287
6.0113 5.3662 2.1287
5.8201 5.5841 2.1287
5.6212 5.7954 2.1287
5.4148 5.9996 2.1287
5.2010 6.1967 2.1287
4.9802 6.3863 2.1287
4.7527 6.5681 2.1287
4.5185 6.7420 2.1287
4.2782 6.9076 2.1287
4.0318 7.0647 2.1287
3.7887 7.2302 2.1337
3.5306 7.3701 2.1337
3.2675 7.5009 2.1337
2.9995 7.6223 2.1337
2.7271 7.7342 2.1337
2.4506 7.8365 2.1337
2.1702 7.9289 2.1337
1.8865 8.0113 2.1337
1.6769 8.4741 2.2368
1.3733 8.5391 2.2368
1.0672 8.5933 2.2368
0.7590 8.6364 2.2368
0.4492 8.6685 2.2368
0.1380 8.6894 2.2368
-0.1741 8.6990 2.2368
-0.4867 8.6974 2.2368
-0.7993 8.6845 2.2368
-1.1116 8.6603 2.2368
-1.4232 8.6247 2.2368
-1.7336 8.5778 2.2368
-2.0424 8.5197 2.2368
-2.3492 8.4502 2.2368
-2.6536 8.3696 2.2368
-2.9551 8.2778 2.2368
-3.2534 8.1750 2.2368
-3.5480 8.0613 2.2368
-3.8385 7.9368 2.2368
-4.1246 7.8016 2.2368
-4.4058 7.6560 2.2368
-4.6816 7.5000 2.2368
-4.9518 7.3338 2.2368
-5.2159 7.1577 2.2368
-5.4736 6.9719 2.2368
-5.7244 6.7766 2.2368
-5.9681 6.5720 2.2368
-6.2042 6.3585 2.2368
-6.2534 5.9654 2.1746
-6.3459 5.6335 2.1337
-6.5477 5.4057 2.1337
-6.7410 5.1706 2.1337
-6.9256 4.9284 2.1337
-7.1012 4.6794 2.1337
-7.2675 4.4240 2.1337
-7.4244 4.1624 2.1337
-7.5715 3.8952 2.1337
-7.7087 3.6226 2.1337
-7.8357 3.3451 2.1337
-7.9524 3.0630 2.1337
-8.0586 2.7767 2.1337
-8.0883 2.4665 2.1165
-8.1723 2.1754 2.1165
-8.3125 1.8967 2.1337
-8.3753 1.5977 2.1337
-8.4269 1.2966 2.1337
-8.4673 0.9939 2.1337
-8.4965 0.6898 2.1337
-8.5143 0.3849 2.1337
-8.5209 0.0797 2.1337
-8.5162 -0.2256 2.1337
-8.5002 -0.5304 2.1337
-8.4728 -0.8342 2.1337
-8.4343 -1.1368 2.1337
-8.3847 -1.4377 2.1337
-8.3239 -1.7363 2.1337
-8.2523 -2.0324 2.1337
-8.1697 -2.3255 2.1337
-8.0765 -2.6153 2.1337
-7.9726 -2.9012 2.1337
-7.8584 -3.1829 2.1337
-8.1686 -3.6545 2.2537
-7.9670 -3.9128 2.2370
-7.8165 -4.1930 2.2372
-7.6558 -4.4673 2.2374
-7.4852 -4.7353 2.2376
-7.3051 -4.9967 2.2378
-7.1156 -5.2512 2.2380
-6.9171 -5.4983 2.2382
-6.7098 -5.7378 2.2384
-6.4941 -5.9695 2.2386
-6.2702 -6.1928 2.2389
-6.0385 -6.4077 2.2391
-5.7993 -6.6138 2.2393
-5.5530 -6.8109 2.2395
-5.3000 -6.9987 2.2397
-5.0404 -7.1770 2.2399
-4.7741 -7.3443 2.2397
-4.5020 -7.5015 2.2395
-4.2247 -7.6486 2.2393
-3.9426 -7.7854 2.2390
-3.6561 -7.9117 2.2388
-3.3656 -8.0276 2.2386
-3.0714 -8.1327 2.2384
-2.7740 -8.2271 2.2382
-2.4738 -8.3105 2.2379
-2.1711 -8.3830 2.2377
-1.8664 -8.4445 2.2375
-1.5601 -8.4950 2.2373
-1.2525 -8.5345 2.2371
-0.9441 -8.5629 2.2369
-0.6312 -8.5261 2.2226
-0.3114 -8.1942 2.1343
-0.0173 -7.6574 2.1807
0.2519 -7.4803 2.1337
0.5198 -7.4584 2.1337
0.7865 -7.4271 2.1337
1.0517 -7.3863 2.1337
1.3150 -7.3361 2.1337
1.5761 -7.2767 2.1337
1.8347 -7.2081 2.1337
2.0905 -7.1305 2.1337
2.3431 -7.0440 2.1337
2.5922 -6.9486 2.1337
2.8377 -6.8446 2.1337
3.0791 -6.7321 2.1337
3.3162 -6.6113 2.1337
3.5486 -6.4822 2.1337
3.7762 -6.3452 2.1337
3.9987 -6.2004 2.1337
4.2158 -6.0479 2.1337
4.4272 -5.8880 2.1337
4.6328 -5.7209 2.1337
4.8208 -5.5337 2.1287
4.9774 -5.3149 2.1134
5.1479 -5.1151 2.1076
5.3175 -4.9164 2.1045
5.5510 -4.7737 2.1287
5.7162 -4.5685 2.1287
5.2105 -3.8656 1.8883
5.2641 -3.6193 1.8601
5.2591 -3.3438 1.8154
5.2544 -3.0811 1.7750
5.2499 -2.8297 1.7385
5.1870 -2.5595 1.6866
5.5918 -2.5132 1.7881
5.8830 -2.3936 1.8529
6.8519 -2.5044 2.1287
6.9365 -2.2559 2.1287
7.0124 -2.0047 2.1287
7.0795 -1.7509 2.1287
7.1377 -1.4950 2.1287
7.1869 -1.2373 2.1287
7.2271 -0.9779 2.1287
7.2582 -0.7173 2.1287
7.2802 -0.4557 2.1287
7.2931 -0.1936 2.1287
7.2968 0.0690 2.1287
7.2913 0.3315 2.1287
7.2767 0.5938 2.1287
7.2529 0.8555 2.1287
7.2199 1.1163 2.1287
7.1779 1.3758 2.1287
7.1268 1.6338 2.1287
7.0666 1.8900 2.1287
6.9976 2.1440 2.1287
6.9196 2.3956 2.1287
6.8328 2.6444 2.1287
6.7373 2.8902 2.1287
6.6332 3.1326 2.1287
6.5206 3.3714 2.1287
6.3996 3.6062 2.1287
6.2703 3.8367 2.1287
6.1329 4.0628 2.1287
5.9876 4.2840 2.1287
5.8344 4.5001 2.1287
5.6736 4.7109 2.1287
5.5053 4.9161 2.1287
5.3298 5.1153 2.1287
5.1472 5.3084 2.1287
4.9577 5.4951 2.1287
4.7616 5.6751 2.1287
4.5590 5.8482 2.1287
4.3502 6.0142 2.1287
4.1355 6.1729 2.1287
3.9151 6.3239 2.1287
3.6979 6.4825 2.1337
3.4663 6.6181 2.1337
3.2299 6.7455 2.1337
2.9887 6.8646 2.1337
2.7433 6.9751 2.1337
2.4938 7.0768 2.1337
2.2405 7.1697 2.1337
1.9839 7.2535 2.1337
1.7670 7.5107 2.1869
1.5322 7.7508 2.2368
1.2544 7.8095 2.2368
0.9744 7.8583 2.2368
0.6925 7.8970 2.2368
0.4091 7.9255 2.2368
0.1246 7.9439 2.2368
-0.1607 7.9520 2.2368
-0.4463 7.9497 2.2368
-0.7320 7.9372 2.2368
-1.0174 7.9143 2.2368
-1.3020 7.8811 2.2368
-1.5854 7.8375 2.2368
-1.8674 7.7837 2.2368
-2.1475 7.7195 2.2368
-2.4254 7.6452 2.2368
-2.7005 7.5607 2.2368
-2.9727 7.4662 2.2368
-3.2415 7.3617 2.2368
-3.5066 7.2475 2.2368
-3.7675 7.1235 2.2368
-4.0239 6.9899 2.2368
-4.2754 6.8470 2.2368
-4.5217 6.6948 2.2368
-4.7625 6.5336 2.2368
-4.9973 6.3636 2.2368
-5.2260 6.1849 2.2368
-5.4480 5.9979 2.2368
-5.6632 5.8026 2.2368
-5.8711 5.5995 2.2368
-6.0716 5.3888 2.2368
-6.2361 5.1475 2.2268
-6.2360 4.7824 2.1630
-6.3198 4.4965 2.1337
-6.4797 4.2692 2.1337
-6.6312 4.0360 2.1337
-6.7741 3.7973 2.1337
-6.9081 3.5534 2.1337
-7.0330 3.3047 2.1337
-7.1487 3.0515 2.1337
-7.2550 2.7941 2.1337
-7.3517 2.5329 2.1337
-7.4387 2.2683 2.1337
-7.5159 2.0006 2.1337
-7.5832 1.7302 2.1337
-7.6404 1.4575 2.1337
-7.6875 1.1829 2.1337
-7.7244 0.9068 2.1337
-7.7511 0.6295 2.1337
-7.7675 0.3514 2.1337
-7.7736 0.0730 2.1337
-7.7695 -0.2055 2.1337
-7.7550 -0.4835 2.1337
-7.7303 -0.7607 2.1337
-7.6954 -1.0367 2.1337
-7.6504 -1.3112 2.1337
-7.5953 -1.5837 2.1337
-7.5302 -1.8539 2.1337
-7.4552 -2.1214 2.1337
-7.3705 -2.3859 2.1337
-7.3498 -2.6737 2.1553
-7.5188 -3.0444 2.2368
-7.4006 -3.3099 2.2370
-7.2729 -3.5708 2.2371
-7.1358 -3.8267 2.2373
-6.9895 -4.0773 2.2375
-6.8342 -4.3222 2.2377
-6.6702 -4.5611 2.2379
-6.4976 -4.7937 2.2381
-6.3168 -5.0196 2.2382
-6.1280 -5.2387 2.2384
-5.9314 -5.4506 2.2386
-5.7274 -5.6549 2.2388
-5.5163 -5.8516 2.2390
-5.2983 -6.0403 2.2392
-5.0737 -6.2208 2.2394
-4.8429 -6.3928 2.2396
-4.6063 -6.5562 2.2398
-4.3638 -6.7105 2.2399
-4.1156 -6.8548 2.2396
-3.8626 -6.9899 2.2394
-3.6051 -7.1156 2.2392
-3.3436 -7.2318 2.2390
-3.0783 -7.3384 2.2388
-2.8097 -7.4352 2.2386
-2.5380 -7.5222 2.2384
-2.2637 -7.5993 2.2382
-1.9871 -7.6664 2.2380
-1.7086 -7.7235 2.2378
-1.4286 -7.7705 2.2376
-1.1473 -7.8074 2.2374
-0.8653 -7.8342 2.2372
-0.5828 -7.8509 2.2370
-0.3001 -7.8575 2.2368
-0.0178 -7.2324 2.2369
0.2406 -7.1879 2.2266
0.4774 -6.8685 2.1337
0.7310 -6.9150 2.1571
0.9674 -6.8031 2.1337
1.2100 -6.7574 2.1337
1.4506 -6.7032 2.1337
1.6890 -6.6405 2.1337
1.9247 -6.5695 2.1337
2.1576 -6.4902 2.1337
2.3874 -6.4028 2.1337
2.6137 -6.3074 2.1337
2.8364 -6.2041 2.1337
3.0550 -6.0931 2.1337
3.2695 -5.9746 2.1337
3.4795 -5.8486 2.1337
3.6848 -5.7154 2.1337
3.8851 -5.5752 2.1337
4.0706 -5.4153 2.1287
4.2599 -5.2618 2.1287
4.4436 -5.1020 2.1287
4.6214 -4.9358 2.1287
4.7931 -4.7636 2.1287
4.9587 -4.5856 2.1287
5.1178 -4.4020 2.1287
5.2702 -4.2129 2.1287
5.2106 -3.8664 2.0480
5.2063 -3.5802 1.9952
5.2592 -3.3443 1.9688
5.2544 -3.0816 1.9249
5.2499 -2.8301 1.8853
5.1870 -2.5598 1.8290
5.5912 -2.5132 1.9388
5.8826 -2.3936 2.0091
6.3190 -2.3098 2.1287
6.3971 -2.0807 2.1287
6.4672 -1.8489 2.1287
6.5291 -1.6149 2.1287
6.5828 -1.3788 2.1287
6.6282 -1.1410 2.1287
6.6652 -0.9018 2.1287
6.6939 -0.6614 2.1287
6.7141 -0.4201 2.1287
6.7259 -0.1783 2.1287
6.7292 0.0639 2.1287
6.7241 0.3061 2.1287
6.7104 0.5480 2.1287
6.6883 0.7893 2.1287
6.6578 1.0298 2.1287
6.6188 1.2692 2.1287
6.5715 1.5071 2.1287
6.5158 1.7433 2.1287
6.4519 1.9775 2.1287
6.3797 2.2094 2.1287
6.2995 2.4388 2.1287
6.2111 2.6653 2.1287
6.1148 2.8887 2.1287
6.0107 3.1087 2.1287
5.8988 3.3250 2.1287
5.7794 3.5374 2.1287
5.6524 3.7456 2.1287
5.5181 3.9493 2.1287
5.3766 4.1483 2.1287
5.2281 4.3423 2.1287
5.0726 4.5311 2.1287
4.9105 4.7145 2.1287
4.7419 4.8921 2.1287
4.5670 5.0638 2.1287
4.3860 5.2293 2.1287
4.1990 5.3884 2.1287
4.0064 5.5410 2.1287
3.8173 5.7002 2.1337
3.6135 5.8392 2.1337
3.4047 5.9711 2.1337
3.1911 6.0955 2.1337
2.9731 6.2124 2.1337
2.7508 6.3215 2.1337
2.5246 6.4227 2.1337
2.2947 6.5159 2.1337
2.0656 6.6145 2.1382
1.8249 6.6775 2.1337
1.6622 7.0716 2.2368
1.4088 7.1341 2.2368
1.1530 7.1876 2.2368
0.8952 7.2319 2.2368
0.6358 7.2669 2.2368
0.3750 7.2925 2.2368
0.1132 7.3088 2.2368
-0.1492 7.3156 2.2368
-0.4120 7.3130 2.2368
-0.6748 7.3009 2.2368
-0.9371 7.2793 2.2368
-1.1988 7.2481 2.2368
-1.4594 7.2075 2.2368
-1.7185 7.1574 2.2368
-1.9759 7.0979 2.2368
-2.2312 7.0291 2.2368
-2.4841 6.9509 2.2368
-2.7341 6.8635 2.2368
-2.9810 6.7670 2.2368
-3.2244 6.6615 2.2368
-3.4639 6.5471 2.2368
-3.6993 6.4239 2.2368
-3.9302 6.2922 2.2368
-4.1563 6.1520 2.2368
-4.3773 6.0035 2.2368
-4.5928 5.8469 2.2368
-4.8026 5.6825 2.2368
-5.0064 5.5103 2.2368
-5.2037 5.3307 2.2368
-5.3945 5.1439 2.2368
-5.5784 4.9501 2.2368
-5.7552 4.7496 2.2368
-5.9245 4.5426 2.2368
-6.0861 4.3295 2.2368
-6.2189 4.0967 2.2293
-6.2180 3.7839 2.1781
-6.2223 3.4875 2.1337
-6.3452 3.2634 2.1337
-6.4598 3.0349 2.1337
-6.5659 2.8024 2.1337
-6.6634 2.5660 2.1337
-6.7521 2.3261 2.1337
-6.8320 2.0831 2.1337
-6.9028 1.8373 2.1337
-6.9645 1.5890 2.1337
-7.0170 1.3386 2.1337
-7.0603 1.0865 2.1337
-7.0942 0.8329 2.1337
-7.1188 0.5783 2.1337
-7.1339 0.3229 2.1337
-7.1397 0.0673 2.1337
-7.1359 -0.1884 2.1337
-7.1228 -0.4437 2.1337
-7.1003 -0.6983 2.1337
-7.0685 -0.9518 2.1337
-7.0273 -1.2039 2.1337
-6.9769 -1.4542 2.1337
-6.9174 -1.7025 2.1337
-6.8920 -1.9605 2.1472
-7.0428 -2.2790 2.2193
-7.0079 -2.5485 2.2369
-6.9087 -2.7965 2.2370
-6.8005 -3.0406 2.2372
-6.6835 -3.2805 2.2373
-6.5579 -3.5157 2.2375
-6.4238 -3.7461 2.2377
-6.2814 -3.9714 2.2378
-6.1310 -4.1911 2.2380
-5.9727 -4.4051 2.2382
-5.8069 -4.6130 2.2383
-5.6337 -4.8146 2.2385
-5.4533 -5.0096 2.2387
-5.2662 -5.1978 2.2389
-5.0724 -5.3789 2.2390
-4.8723 -5.5527 2.2392
-4.6662 -5.7190 2.2394
-4.4543 -5.8776 2.2396
-4.2370 -6.0283 2.2398
-4.0145 -6.1709 2.2399
-3.7865 -6.3041 2.2397
-3.5542 -6.4289 2.2395
-3.3176 -6.5451 2.2393
-3.0773 -6.6526 2.2391
-2.8335 -6.7512 2.2389
-2.5866 -6.8409 2.2387
-2.3369 -6.9216 2.2385
-2.0846 -6.9931 2.2383
-1.8303 -7.0555 2.2382
-1.5741 -7.1087 2.2380
-1.3165 -7.1526 2.2378
-1.0577 -7.1872 2.2376
-0.7981 -7.2124 2.2374
-0.5380 -7.2284 2.2372
-0.2778 -7.2350 2.2370
-0.0178 -6.6951 2.2371
0.2225 -6.6846 2.2369
0.4620 -6.6658 2.2368
0.6816 -6.4602 2.1767
0.8944 -6.2988 2.1337
1.1191 -6.2569 2.1337
1.3421 -6.2071 2.1337
1.5628 -6.1495 2.1337
1.7813 -6.0840 2.1337
1.9971 -6.0110 2.1337
2.2101 -5.9304 2.1337
2.4199 -5.8423 2.1337
2.6262 -5.7470 2.1337
2.8290 -5.6445 2.1337
3.0278 -5.5350 2.1337
3.2226 -5.4186 2.1337
3.4130 -5.2954 2.1337
3.5987 -5.1658 2.1337
3.7797 -5.0297 2.1337
3.9557 -4.8874 2.1337
4.1167 -4.7279 2.1287
4.2817 -4.5741 2.1287
4.4410 -4.4147 2.1287
4.5946 -4.2498 2.1287
4.7423 -4.0798 2.1287
4.8838 -3.9047 2.1287
5.0189 -3.7249 2.1287
5.1477 -3.5404 2.1287
5.2005 -3.3076 2.1007
5.1958 -3.0477 2.0538
5.1913 -2.7990 2.0115
5.1870 -2.5601 1.9734
5.4664 -2.4575 2.0451
5.7771 -2.3510 2.1287
5.8569 -2.1412 2.1287
5.9294 -1.9287 2.1287
5.9944 -1.7139 2.1287
6.0518 -1.4969 2.1287
6.1016 -1.2781 2.1287
6.1437 -1.0576 2.1287
6.1781 -0.8358 2.1287
6.2046 -0.6129 2.1287
6.2233 -0.3892 2.1287
6.2342 -0.1650 2.1287
6.2372 0.0595 2.1287
6.2323 0.2840 2.1287
6.2195 0.5082 2.1287
6.1989 0.7320 2.1287
6.1705 0.9549 2.1287
6.1342 1.1767 2.1287
6.0902 1.3972 2.1287
6.0384 1.6161 2.1287
5.9789 1.8332 2.1287
5.9119 2.0481 2.1287
5.8373 2.2606 2.1287
5.7552 2.4704 2.1287
5.6657 2.6774 2.1287
5.5690 2.8811 2.1287
5.4651 3.0815 2.1287
5.3541 3.2781 2.1287
5.2362 3.4709 2.1287
5.1115 3.6595 2.1287
4.9802 3.8437 2.1287
4.8423 4.0232 2.1287
4.6980 4.1979 2.1287
4.5476 4.3675 2.1287
4.3912 4.5318 2.1287
4.2289 4.6905 2.1287
4.0610 4.8436 2.1287
3.8876 4.9906 2.1287
3.7177 5.1437 2.1337
3.5336 5.2787 2.1337
3.3447 5.4071 2.1337
3.1511 5.5288 2.1337
2.9532 5.6437 2.1337
2.7511 5.7515 2.1337
2.5452 5.8521 2.1337
2.3356 5.9454 2.1337
2.1226 6.0312 2.1337
1.9065 6.1094 2.1337
1.7691 6.4785 2.2368
1.5369 6.5442 2.2368
1.3023 6.6016 2.2368
1.0655 6.6506 2.2368
0.8269 6.6911 2.2368
0.5868 6.7230 2.2368
0.3455 6.7463 2.2368
0.1034 6.7608 2.2368
-0.1394 6.7667 2.2368
-0.3824 6.7638 2.2368
-0.6253 6.7521 2.2368
-0.8679 6.7316 2.2368
-1.1098 6.7024 2.2368
-1.3507 6.6644 2.2368
-1.5902 6.6176 2.2368
-1.8281 6.5622 2.2368
-2.0640 6.4981 2.2368
-2.2975 6.4254 2.2368
-2.5285 6.3443 2.2368
-2.7565 6.2547 2.2368
-2.9813 6.1568 2.2368
-3.2025 6.0507 2.2368
-3.4199 5.9366 2.2368
-3.6331 5.8145 2.2368
-3.8418 5.6847 2.2368
-4.0458 5.5472 2.2368
-4.2447 5.4022 2.2368
-4.4383 5.2500 2.2368
-4.6263 5.0908 2.2368
-4.8085 4.9247 2.2368
-4.9845 4.7519 2.2368
-5.1542 4.5727 2.2368
-5.3172 4.3873 2.2368
-5.4734 4.1960 2.2368
-5.6226 3.9990 2.2368
-5.7644 3.7966 2.2368
-5.8988 3.5891 2.2368
-6.0255 3.3767 2.2368
-6.1443 3.1597 2.2368
-6.2013 2.9131 2.2176
-6.2013 2.6464 2.1818
-6.2056 2.3894 2.1514
-6.2366 2.1483 2.1337
-6.3102 1.9239 2.1337
-6.3912 1.7010 2.1390
-6.4326 1.4676 2.1337
-6.4811 1.2364 2.1337
-6.5210 1.0035 2.1337
-6.5524 0.7694 2.1337
-6.5751 0.5343 2.1337
-6.5892 0.2985 2.1337
-6.5946 0.0624 2.1337
-6.5912 -0.1737 2.1337
-6.5792 -0.4095 2.1337
-6.5714 -0.6459 2.1379
-6.5293 -0.8788 2.1337
-6.5625 -1.1238 2.1571
-6.6583 -1.3873 2.2043
-6.6991 -1.6481 2.2368
-6.6330 -1.8862 2.2369
-6.5584 -2.1216 2.2370
-6.4754 -2.3541 2.2371
-6.3839 -2.5832 2.2372
-6.2841 -2.8088 2.2374
-6.1762 -3.0305 2.2375
-6.0604 -3.2480 2.2377
-5.9368 -3.4611 2.2378
-5.8055 -3.6693 2.2380
-5.6667 -3.8725 2.2381
-5.5208 -4.0705 2.2383
-5.3678 -4.2628 2.2384
-5.2079 -4.4493 2.2386
-5.0415 -4.6298 2.2387
-4.8688 -4.8040 2.2389
-4.6899 -4.9717 2.2391
-4.5052 -5.1326 2.2392
-4.3150 -5.2867 2.2394
-4.1193 -5.4336 2.2396
-3.9186 -5.5732 2.2397
-3.7132 -5.7054 2.2399
-3.5028 -5.8292 2.2398
-3.2882 -5.9451 2.2396
-3.0697 -6.0530 2.2394
-2.8476 -6.1529 2.2392
-2.6223 -6.2446 2.2390
-2.3941 -6.3280 2.2388
-2.1632 -6.4031 2.2387
-1.9301 -6.4698 2.2385
-1.6948 -6.5280 2.2383
-1.4579 -6.5776 2.2381
-1.2196 -6.6187 2.2379
-0.9802 -6.6512 2.2378
-0.7400 -6.6751 2.2376
-0.4993 -6.6904 2.2374
-0.2585 -6.6970 2.2372
-0.0178 -6.2256 2.2373
0.2056 -6.2162 2.2371
0.4284 -6.1989 2.2370
0.6502 -6.1737 2.2368
0.8532 -6.0165 2.1915
1.0397 -5.8194 2.1337
1.2551 -5.8103 2.1474
1.4526 -5.7200 2.1337
1.6559 -5.6595 2.1337
1.8568 -5.5918 2.1337
2.0550 -5.5171 2.1337
2.2503 -5.4355 2.1337
2.4424 -5.3471 2.1337
2.6312 -5.2520 2.1337
2.8163 -5.1503 2.1337
2.9977 -5.0422 2.1337
3.1750 -4.9278 2.1337
3.3480 -4.8073 2.1337
3.5166 -4.6809 2.1337
3.6806 -4.5486 2.1337
3.8396 -4.4108 2.1337
3.9937 -4.2674 2.1337
4.1327 -4.1091 2.1287
4.2758 -3.9558 2.1287
4.4134 -3.7976 2.1287
4.5452 -3.6348 2.1287
4.6712 -3.4674 2.1287
4.7912 -3.2958 2.1287
4.9050 -3.1201 2.1287
5.0126 -2.9406 2.1287
5.1137 -2.7575 2.1287
5.1871 -2.5605 2.1200
5.2964 -2.3813 2.1287
5.3776 -2.1887 2.1287
5.4521 -1.9934 2.1287
5.5196 -1.7956 2.1287
5.5802 -1.5955 2.1287
5.6337 -1.3935 2.1287
5.6800 -1.1898 2.1287
5.7192 -0.9845 2.1287
5.7512 -0.7780 2.1287
5.7758 -0.5705 2.1287
5.7932 -0.3622 2.1287
5.8033 -0.1534 2.1287
5.8060 0.0556 2.1287
5.8014 0.2646 2.1287
5.7894 0.4734 2.1287
5.7702 0.6817 2.1287
5.7436 0.8892 2.1287
5.7097 1.0957 2.1287
5.6686 1.3010 2.1287
5.6202 1.5048 2.1287
5.5647 1.7068 2.1287
5.5021 1.9068 2.1287
5.4325 2.1045 2.1287
5.3559 2.2998 2.1287
5.2724 2.4923 2.1287
5.1822 2.6819 2.1287
5.0853 2.8682 2.1287
4.9818 3.0512 2.1287
4.8719 3.2304 2.1287
4.7557 3.4058 2.1287
4.6332 3.5770 2.1287
4.5047 3.7439 2.1287
4.3703 3.9063 2.1287
4.2301 4.0639 2.1287
4.0843 4.2166 2.1287
3.9331 4.3640 2.1287
3.7857 4.5168 2.1337
3.6238 4.6537 2.1337
3.4570 4.7849 2.1337
3.2856 4.9102 2.1337
3.1097 5.0293 2.1337
2.9295 5.1422 2.1337
2.7452 5.2487 2.1337
2.5572 5.3487 2.1337
0.8517 1.9594 0.7683
2.1705 5.5284 2.1337
1.9723 5.6078 2.1337
1.8037 5.7841 2.1728
1.6434 6.0230 2.2368
1.4274 6.0837 2.2368
1.2092 6.1367 2.2368
0.9891 6.1818 2.2368
0.7673 6.2191 2.2368
0.5441 6.2483 2.2368
0.3199 6.2696 2.2368
0.0948 6.2827 2.2368
-0.1308 6.2878 2.2368
-0.3566 6.2847 2.2368
-0.5823 6.2735 2.2368
-0.8076 6.2541 2.2368
-1.0323 6.2265 2.2368
-1.2559 6.1909 2.2368
-1.4784 6.1471 2.2368
-1.6992 6.0952 2.2368
-1.9182 6.0354 2.2368
-2.1350 5.9675 2.2368
-2.3494 5.8919 2.2368
-0.8639 1.9594 0.7546
-0.9337 1.9273 0.7541
-2.9748 5.6184 2.2368
-3.1765 5.5121 2.2368
-3.3743 5.3985 2.2368
-3.5679 5.2777 2.2368
-3.7571 5.1499 2.2368
-3.9416 5.0151 2.2368
-4.1211 4.8736 2.2368
-4.2955 4.7256 2.2368
-4.4644 4.5712 2.2368
-4.6276 4.4107 2.2368
-4.7850 4.2443 2.2368
-4.9361 4.0721 2.2368
-5.0810 3.8944 2.2368
-5.2192 3.7115 2.2368
-5.3507 3.5236 2.2368
-5.4753 3.3309 2.2368
-5.5928 3.1337 2.2368
-5.7029 2.9323 2.2368
-5.8057 2.7269 2.2368
-5.9008 2.5179 2.2368
-5.9882 2.3055 2.2368
-6.0678 2.0900 2.2368
-6.1394 1.8717 2.2368
-6.1994 1.6499 2.2355
-6.2027 1.4151 2.2169
-6.2056 1.1838 2.2014
-6.2088 0.9555 2.1890
-6.2237 0.7309 2.1838
-6.2497 0.5080 2.1853
-6.2753 0.2845 2.1896
-6.3007 0.0598 2.1966
-6.3258 -0.1664 2.2064
-6.3507 -0.3950 2.2191
-6.3750 -0.6262 2.2346
-6.3531 -0.8546 2.2368
-6.3165 -1.0812 2.2369
-6.2718 -1.3062 2.2370
-6.2190 -1.5294 2.2371
-6.1579 -1.7505 2.2372
-6.0889 -1.9691 2.2373
-6.0120 -2.1849 2.2374
-5.9272 -2.3977 2.2375
-5.8348 -2.6072 2.2376
-5.7348 -2.8130 2.2377
-5.6274 -3.0150 2.2378
-5.5128 -3.2129 2.2380
-5.3911 -3.4064 2.2381
-5.2625 -3.5952 2.2382
-5.1272 -3.7791 2.2384
-4.9853 -3.9578 2.2385
-4.8371 -4.1312 2.2387
-4.6828 -4.2990 2.2388
-4.5226 -4.4609 2.2390
-4.3567 -4.6168 2.2391
-4.1854 -4.7666 2.2393
-4.0089 -4.9099 2.2394
-3.8274 -5.0466 2.2396
-3.6412 -5.1766 2.2397
-3.4506 -5.2996 2.2399
-3.2553 -5.4150 2.2398
-3.0561 -5.5230 2.2396
-2.8533 -5.6236 2.2394
-2.6472 -5.7168 2.2393
-2.4380 -5.8024 2.2391
-2.2261 -5.8803 2.2389
-2.0117 -5.9505 2.2387
-1.7951 -6.0128 2.2386
-1.5766 -6.0673 2.2384
-1.3564 -6.1139 2.2382
-1.1350 -6.1525 2.2381
-0.9125 -6.1832 2.2379
-0.6892 -6.2058 2.2377
-0.4655 -6.2204 2.2376
-0.2416 -6.2270 2.2374
-0.0178 -5.8114 2.2374
0.1908 -5.8029 2.2372
0.3988 -5.7870 2.2371
0.6059 -5.7638 2.2370
0.8118 -5.7333 2.2368
1.0035 -5.6230 2.2083
1.1633 -5.3905 2.1337
1.3821 -5.4467 2.1760
1.5452 -5.2847 2.1337
1.7328 -5.2218 2.1337
1.9180 -5.1523 2.1337
2.1005 -5.0763 2.1337
2.2801 -4.9939 2.1337
2.4565 -4.9053 2.1337
2.6295 -4.8105 2.1337
2.7990 -4.7097 2.1337
2.9648 -4.6031 2.1337
3.1265 -4.4907 2.1337
3.2841 -4.3727 2.1337
3.4374 -4.2493 2.1337
3.5861 -4.1206 2.1337
3.7302 -3.9869 2.1337
3.8693 -3.8481 2.1337
4.0035 -3.7047 2.1337
4.1226 -3.5482 2.1287
4.2459 -3.3961 2.1287
4.3638 -3.2398 2.1287
4.4760 -3.0795 2.1287
4.5824 -2.9154 2.1287
4.6830 -2.7478 2.1287
4.7776 -2.5767 2.1287
4.8661 -2.4024 2.1287
4.9485 -2.2252 2.1287
5.0245 -2.0452 2.1287
5.0941 -1.8627 2.1287
5.1573 -1.6778 2.1287
5.2139 -1.4909 2.1287
5.2639 -1.3021 2.1287
5.3072 -1.1117 2.1287
5.3438 -0.9198 2.1287
5.3737 -0.7269 2.1287
5.3967 -0.5329 2.1287
5.4129 -0.3383 2.1287
5.4223 -0.1431 2.1287
5.4248 0.0522 2.1287
5.4204 0.2475 2.1287
5.4092 0.4426 2.1287
5.3911 0.6373 2.1287
5.3661 0.8312 2.1287
5.3344 1.0241 2.1287
5.2958 1.2159 2.1287
5.2505 1.4063 2.1287
5.1985 1.5950 2.1287
5.1399 1.7818 2.1287
5.0747 1.9666 2.1287
5.0030 2.1490 2.1287
4.9249 2.3288 2.1287
4.8404 2.5058 2.1287
4.7498 2.6798 2.1287
4.6529 2.8506 2.1287
4.5500 3.0180 2.1287
4.4413 3.1817 2.1287
4.3267 3.3415 2.1287
4.2065 3.4973 2.1287
4.0808 3.6488 2.1287
3.9497 3.7958 2.1287
3.8224 3.9475 2.1337
3.6807 4.0854 2.1337
3.5341 4.2183 2.1337
3.3828 4.3459 2.1337
3.2269 4.4682 2.1337
3.0667 4.5849 2.1337
2.9023 4.6959 2.1337
2.7339 4.8011 2.1337
2.5617 4.9003 2.1337
0.8595 1.7986 0.7686
0.7944 1.8285 0.7680
0.7283 1.8561 0.7674
0.6612 1.8812 0.7669
0.5933 1.9040 0.7663
0.5246 1.9243 0.7657
0.4552 1.9421 0.7651
0.3853 1.9574 0.7645
0.9218 5.7686 2.2368
0.7147 5.8030 2.2368
0.5065 5.8300 2.2368
0.2972 5.8495 2.2368
0.0872 5.8615 2.2368
-0.1232 5.8659 2.2368
-0.3338 5.8627 2.2368
-0.5443 5.8519 2.2368
-0.7545 5.8335 2.2368
-0.9639 5.8075 2.2368
-0.3975 1.9574 0.7583
-0.4674 1.9421 0.7578
-0.5368 1.9243 0.7572
-0.6055 1.9040 0.7567
-0.6734 1.8812 0.7562
-0.7405 1.8561 0.7557
-0.8066 1.8285 0.7552
-0.8717 1.7986 0.7548
-0.9356 1.7664 0.7543
-2.9624 5.1388 2.2368
-3.1467 5.0327 2.2368
-3.3270 4.9199 2.2368
-3.5032 4.8005 2.2368
-3.6751 4.6747 2.2368
-3.8423 4.5427 2.2368
-4.0047 4.4046 2.2368
-4.1620 4.2606 2.2368
-4.3140 4.1108 2.2368
-4.4604 3.9556 2.2368
-4.6012 3.7950 2.2368
-4.7360 3.6293 2.2368
-4.8648 3.4588 2.2368
-4.9872 3.2836 2.2368
-5.1032 3.1040 2.2368
-5.2125 2.9202 2.2368
-5.3151 2.7325 2.2368
-5.4107 2.5411 2.2368
-5.4993 2.3463 2.2368
-5.5807 2.1484 2.2368
-5.6548 1.9475 2.2368
-5.7215 1.7441 2.2368
-5.7807 1.5384 2.2368
-5.8323 1.3306 2.2368
-5.8762 1.1210 2.2368
-5.9124 0.9100 2.2368
-5.9410 0.6978 2.2369
-5.9617 0.4847 2.2369
-5.9746 0.2710 2.2369
-5.9796 0.0570 2.2369
-5.9768 -0.1570 2.2369
-5.9661 -0.3707 2.2369
-5.9476 -0.5839 2.2369
-5.9216 -0.7962 2.2370
-5.8878 -1.0074 2.2372
-5.8463 -1.2171 2.2373
-5.7971 -1.4252 2.2373
-5.7404 -1.6312 2.2374
-5.6761 -1.8349 2.2375
-5.6045 -2.0361 2.2376
-5.5257 -2.2345 2.2377
-5.4397 -2.4298 2.2378
-5.3467 -2.6218 2.2379
-5.2467 -2.8102 2.2380
-5.1400 -2.9947 2.2381
-5.0267 -3.1751 2.2382
-4.9070 -3.3512 2.2384
-4.7810 -3.5228 2.2385
-4.6489 -3.6896 2.2386
-4.5110 -3.8514 2.2388
-4.3673 -4.0079 2.2389
-4.2181 -4.1591 2.2390
-4.0636 -4.3047 2.2392
-3.9040 -4.4445 2.2393
-3.7396 -4.5783 2.2395
-3.5705 -4.7060 2.2396
-3.3970 -4.8274 2.2398
-3.2194 -4.9424 2.2399
-3.0374 -5.0503 2.2398
-2.8518 -5.1513 2.2396
-2.6628 -5.2454 2.2395
-2.4706 -5.3326 2.2393
-2.2756 -5.4128 2.2391
-2.0780 -5.4858 2.2390
-1.8781 -5.5516 2.2388
-1.6761 -5.6102 2.2386
-1.4723 -5.6613 2.2385
-1.2670 -5.7052 2.2383
-1.0604 -5.7415 2.2382
-0.8528 -5.7704 2.2380
-0.6445 -5.7919 2.2379
-0.4357 -5.8059 2.2377
-0.2267 -5.8123 2.2376
-0.0178 -5.4428 2.2375
0.1776 -5.4352 2.2374
0.3724 -5.4206 2.2372
0.5664 -5.3991 2.2371
0.7594 -5.3707 2.2370
0.9511 -5.3355 2.2368
1.1383 -5.2795 2.2308
1.2731 -5.0213 2.1413
1.4466 -4.9511 2.1337
1.6305 -4.9165 2.1443
1.7961 -4.8274 2.1337
1.9672 -4.7564 2.1337
2.1355 -4.6794 2.1337
2.3009 -4.5965 2.1337
2.4632 -4.5079 2.1337
2.6221 -4.4136 2.1337
2.7775 -4.3138 2.1337
2.9292 -4.2086 2.1337
3.0770 -4.0982 2.1337
3.2208 -3.9826 2.1337
3.3603 -3.8621 2.1337
3.4954 -3.7369 2.1337
3.6259 -3.6069 2.1337
3.7518 -3.4725 2.1337
3.8727 -3.3338 2.1337
3.9887 -3.1910 2.1337
4.0898 -3.0370 2.1287
4.1951 -2.8868 2.1287
4.2949 -2.7330 2.1287
4.3893 -2.5758 2.1287
4.4781 -2.4155 2.1287
4.5611 -2.2521 2.1287
4.6383 -2.0860 2.1287
4.7096 -1.9173 2.1287
4.7749 -1.7461 2.1287
4.8342 -1.5729 2.1287
4.8873 -1.3976 2.1287
4.9342 -1.2206 2.1287
4.9748 -1.0421 2.1287
5.0092 -0.8622 2.1287
