ply
format ascii 1.0
element vertex 2083
property float32 x
property float32 y
property float32 z
end_header
6.9993 3.2896 -0.3525
6.9608 3.5817 -0.3594
7.1964 4.0357 -0.3817
7.1540 4.3564 -0.3906
7.1104 4.6874 -0.4005
7.0651 5.0301 -0.4115
7.0181 5.3862 -0.4235
6.9692 5.7573 -0.4368
6.9179 6.1454 -0.4515
6.8642 6.5529 -0.4676
6.8075 6.9824 -0.4854
6.5563 7.2261 -0.4907
6.4282 7.6170 -0.5066
5.9809 7.6260 -0.4979
5.5053 7.5632 -0.4858
5.0610 7.5046 -0.4753
4.6441 7.4496 -0.4661
4.3385 7.5500 -0.4675
4.2618 8.0739 -0.4957
4.1837 8.6655 -0.5284
4.7054 10.7114 -0.6498
4.2299 10.6511 -0.6438
3.9955 11.2185 -0.6766
3.8635 12.2185 -0.7364
4.3953 15.8588 -0.9565
4.1793 17.4960 -1.0573
3.9185 19.4721 -1.1807
3.4570 21.0613 -1.2830
2.6732 20.9693 -1.2849
2.1933 24.0621 -1.4849
1.3886 25.2195 -1.5692
0.7859 41.1281 -2.5833
-0.9061 53.9499 -3.4248
-23.1671 53.0408 -4.0837
-22.1239 46.0675 -3.6361
-21.6598 41.2370 -3.3412
-21.1118 36.9094 -3.0743
-12.5949 20.2918 -1.7401
-11.1198 16.5568 -1.4640
-10.9229 15.0648 -1.3757
-10.7505 13.7585 -1.2998
-10.5979 12.6025 -1.2340
-11.1139 12.2910 -1.2498
-11.8496 12.1939 -1.2903
-12.6259 12.0915 -1.3344
-7.1407 6.3627 -0.7341
-12.9336 10.7161 -1.2960
-12.8217 9.8684 -1.2548
-12.7177 9.0797 -1.2176
-9.8134 6.4868 -0.9207
-9.7423 5.9481 -0.8971
-9.6752 5.4398 -0.8757
-9.6116 4.9582 -0.8564
-9.5512 4.5000 -0.8388
-9.4935 4.0626 -0.8228
-9.4381 3.6434 -0.8083
-9.3850 3.2404 -0.7952
-9.3336 2.8515 -0.7833
-9.2840 2.4753 -0.7726
-9.2358 2.1100 -0.7629
-9.1889 1.7544 -0.7542
-9.1430 1.4071 -0.7465
-9.0982 1.0671 -0.7397
-9.0541 0.7332 -0.7337
-9.0107 0.4044 -0.7286
-8.9679 0.0798 -0.7242
-8.9255 -0.2415 -0.7206
-8.9208 -0.5628 -0.7208
-8.9383 -0.8874 -0.7234
-9.0654 -1.2305 -0.7357
-9.3696 -1.6166 -0.7633
-87.1490 -24.9381 -7.2253
-80.4645 -26.1886 -6.7249
-66.2956 -24.2449 -5.5917
-64.3711 -26.2006 -5.4858
-52.7216 -23.7018 -4.5452
-43.9490 -21.6889 -3.8377
-41.1956 -22.2055 -3.6485
-40.7258 -23.8794 -3.6633
-31.8668 -20.2578 -2.9155
-29.2966 -20.1376 -2.7304
-29.1054 -21.5861 -2.7677
-23.4345 -18.7219 -2.2777
-21.4815 -18.4642 -2.1380
-20.2663 -18.7269 -2.0695
-18.6439 -18.5128 -1.9575
-17.5154 -18.6889 -1.8952
-17.3549 -19.9049 -1.9401
-17.1840 -21.2005 -1.9901
-16.5050 -21.9282 -1.9862
-15.5554 -22.2901 -1.9516
-15.0152 -23.2529 -1.9713
-14.8028 -24.8383 -2.0421
-14.9086 -27.1911 -2.1714
-14.6494 -29.1555 -2.2647
-17.2380 -37.6166 -2.8462
-15.6059 -37.5608 -2.7720
-13.6234 -36.4284 -2.6257
-11.9664 -35.8739 -2.5286
-10.7286 -36.4768 -2.5175
-9.6679 -37.8392 -2.5601
-10.7342 -49.3343 -3.2761
-8.8498 -49.0963 -3.2039
-8.7284 -60.8644 -3.9076
-4.6773 -43.7371 -2.7659
-3.0876 -43.6375 -2.7214
-1.5928 -45.8316 -2.8219
0.0335 -45.6188 -1.7467
1.6608 -45.3192 -1.7061
3.2576 -44.8376 -1.6613
8.6445 -59.4848 -2.1417
5.9276 -32.5371 -1.1567
7.2413 -32.9861 -1.1593
9.2315 -35.8561 -1.2472
25.4641 -85.9974 -2.9642
12.8925 -38.4189 -1.3139
6.3044 -16.7665 -0.5697
4.9077 -11.7535 -0.3974
5.2798 -11.4688 -0.3864
5.3712 -10.6445 -0.3579
5.1837 -9.4168 -0.3165
5.0297 -8.4080 -0.2830
4.3226 -6.6705 -0.2252
4.2802 -6.1127 -0.2075
4.4237 -5.8585 -0.2003
4.5628 -5.6121 -0.1937
4.8835 -5.5846 -0.1951
5.0176 -5.3387 -0.1892
5.1487 -5.0985 -0.1839
5.2770 -4.8632 -0.1790
5.4030 -4.6321 -0.1746
5.5271 -4.4046 -0.1706
5.6497 -4.1798 -0.1670
5.5175 -3.7834 -0.1566
5.6239 -3.5667 -0.1536
5.7577 -3.3682 -0.1518
5.8922 -3.1688 -0.1503
6.2769 -3.0907 -0.1553
6.7508 -3.0282 -0.1624
5.5839 -2.2678 -0.1309
5.5520 -2.0259 -0.1272
5.5213 -1.7930 -0.1239
5.4916 -1.5680 -0.1210
5.4628 -1.3498 -0.1184
5.4348 -1.1377 -0.1163
5.4075 -0.9309 -0.1144
5.3808 -0.7286 -0.1129
6.0502 -0.5991 -0.1262
7.4956 -0.4715 -0.1558
7.4599 -0.2010 -0.1549
7.4247 0.0664 -0.1543
7.3897 0.3315 -0.1542
7.3549 0.5949 -0.1544
7.3203 0.8574 -0.1550
7.2857 1.1196 -0.1560
7.2510 1.3822 -0.1574
7.2162 1.6459 -0.1591
7.1812 1.9114 -0.1612
7.1458 2.1793 -0.1637
7.1100 2.4505 -0.1667
7.0737 2.7256 -0.1700
7.0368 3.0056 -0.1738
6.9991 3.2912 -0.1781
6.9605 3.5835 -0.1829
6.9210 3.8833 -0.1882
6.8802 4.1919 -0.1941
6.8382 4.5104 -0.2006
6.7947 4.8403 -0.2077
6.7494 5.1829 -0.2155
6.7023 5.5401 -0.2241
6.6530 5.9136 -0.2336
6.6013 6.3058 -0.2440
6.5467 6.7192 -0.2554
6.4890 7.1566 -0.2680
6.4276 7.6215 -0.2819
7.3027 9.3180 -0.3412
5.5007 7.5626 -0.2747
5.0566 7.5040 -0.2710
4.6399 7.4490 -0.2679
4.3371 7.5542 -0.2711
4.2610 8.0799 -0.2899
4.1829 8.6723 -0.3115
4.7001 10.7107 -0.3857
4.2247 10.6504 -0.3851
3.9941 11.2290 -0.4082
3.8619 12.2307 -0.4476
4.3930 15.8761 -0.5856
4.1765 17.5168 -0.6521
3.9151 19.4975 -0.7333
3.4478 21.0601 -0.8012
2.6644 20.9708 -0.8077
2.2310 24.5897 -0.9600
1.8266 33.4304 -1.3242
0.7681 41.1014 -1.6535
-0.9288 53.9505 -2.2066
-4.7201 88.7826 -3.6952
-24.4971 89.0199 -4.1997
-24.4914 77.9444 -3.7679
-24.8150 70.0712 -3.4745
-25.8432 65.4105 -3.3305
-23.1568 52.9631 -2.7722
-22.1436 46.0649 -2.4815
-21.8106 41.4875 -2.3029
-11.6117 20.2839 -1.1616
-11.3451 18.2643 -1.0805
-11.1178 16.5419 -1.0124
-10.9212 15.0522 -0.9544
-10.7491 13.7477 -0.9046
-10.5967 12.5932 -0.8613
-11.1198 12.2903 -0.8753
-11.8556 12.1931 -0.9059
-12.6319 12.0907 -0.9392
-7.1343 6.3536 -0.5172
-12.7808 10.5841 -0.9051
-12.9159 9.9360 -0.8951
-13.1765 9.4028 -0.8951
-9.8129 6.4836 -0.6545
-9.7419 5.9452 -0.6388
-9.6749 5.4373 -0.6245
-9.6114 4.9560 -0.6116
-9.5509 4.4981 -0.5998
-9.4932 4.0609 -0.5891
-9.4380 3.6419 -0.5794
-9.3848 3.2391 -0.5705
-9.3335 2.8505 -0.5624
-9.2839 2.4744 -0.5551
-9.2357 2.1093 -0.5485
-9.1888 1.7539 -0.5425
-9.1430 1.4068 -0.5372
-9.0981 1.0669 -0.5324
-9.0541 0.7331 -0.5282
-9.0107 0.4044 -0.5245
-8.9679 0.0800 -0.5213
-8.9255 -0.2412 -0.5186
-8.9208 -0.5623 -0.5185
-8.9382 -0.8868 -0.5202
-9.0650 -1.2297 -0.5287
-9.3682 -1.6155 -0.5480
-91.1996 -26.0833 -5.4146
-78.1030 -25.4066 -4.6689
-66.3498 -24.2521 -3.9976
-64.3729 -26.1876 -3.9133
-52.7232 -23.6900 -3.2373
-44.7425 -22.0689 -2.7781
-43.0818 -23.2098 -2.7082
-35.3530 -20.7179 -2.2527
-31.8888 -20.2607 -2.0625
-29.2980 -20.1273 -1.9261
-29.1069 -21.5749 -1.9480
-23.4508 -18.7241 -1.6002
-21.4966 -18.4662 -1.4981
-20.2808 -18.7288 -1.4462
-18.6574 -18.5146 -1.3640
-17.5168 -18.6783 -1.3158
-17.3565 -19.8933 -1.3427
-17.1857 -21.1877 -1.3728
-16.5184 -21.9300 -1.3663
-15.5573 -22.2757 -1.3368
-15.3603 -23.7683 -1.3759
-15.1460 -25.3926 -1.4200
-14.9113 -27.1713 -1.4699
-14.6524 -29.1332 -1.5266
-17.2420 -37.5863 -1.9101
-16.6977 -40.1433 -1.9809
-13.4544 -35.9325 -1.7236
-11.9002 -35.6271 -1.6631
-10.7658 -36.5480 -1.6621
-13.1374 -51.3301 -2.2766
-10.7002 -49.0799 -2.1252
-9.0566 -50.1237 -2.1210
-8.7302 -60.6955 -2.5125
-4.6962 -43.7396 -1.7730
-3.1063 -43.6401 -1.7339
-1.6084 -45.7243 -1.7825
0.0143 -45.2966 -0.7137
1.6367 -45.1794 -0.6821
3.2481 -44.9668 -0.6502
4.8526 -44.7550 -0.6194
6.8894 -47.5453 -0.6293
6.7284 -37.0186 -0.4683
7.1998 -32.8608 -0.3969
22.2144 -86.4262 -0.9955
25.4285 -86.0021 -0.9436
30.4445 -90.8405 -0.9481
6.2974 -16.7674 -0.1662
4.9029 -11.7545 -0.1104
5.2749 -11.4695 -0.1019
5.3733 -10.6583 -0.0894
5.1854 -9.4278 -0.0744
5.0310 -8.4169 -0.0623
4.3235 -6.6768 -0.0462
4.2788 -6.1150 -0.0394
4.4224 -5.8607 -0.0349
4.5616 -5.6142 -0.0308
4.8824 -5.5867 -0.0280
5.0166 -5.3406 -0.0242
5.1477 -5.1003 -0.0207
5.2760 -4.8649 -0.0174
5.4021 -4.6337 -0.0143
5.5263 -4.4061 -0.0114
5.6489 -4.1813 -0.0087
5.5177 -3.7854 -0.0059
5.6231 -3.5678 -0.0036
5.7570 -3.3693 -0.0016
5.8915 -3.1698 0.0004
6.2749 -3.0910 0.0023
6.7488 -3.0284 0.0043
7.2812 -2.9582 0.0063
5.6435 -2.0601 0.0060
5.6123 -1.8232 0.0070
5.5820 -1.5943 0.0078
5.5528 -1.3725 0.0084
5.5243 -1.1568 0.0089
5.4965 -0.9464 0.0093
5.5517 -0.7519 0.0097
6.4264 -0.6365 0.0114
7.4956 -0.4715 0.0134
7.4599 -0.2009 0.0132
7.4246 0.0667 0.0129
7.3896 0.3318 0.0124
7.3549 0.5954 0.0118
7.3202 0.8580 0.0110
7.2856 1.1203 0.0100
7.2509 1.3830 0.0089
7.2161 1.6468 0.0076
7.1810 1.9124 0.0062
7.1457 2.1804 0.0045
7.1099 2.4517 0.0027
7.0735 2.7270 0.0007
7.0366 3.0071 -0.0015
6.9989 3.2928 -0.0039
6.9603 3.5852 -0.0066
6.9207 3.8853 -0.0095
6.8799 4.1940 -0.0126
6.8379 4.5127 -0.0160
6.7943 4.8427 -0.0198
6.7491 5.1856 -0.0238
6.7019 5.5430 -0.0283
6.6526 5.9168 -0.0331
6.6008 6.3093 -0.0384
6.5462 6.7230 -0.0441
6.4884 7.1608 -0.0504
6.4270 7.6260 -0.0573
7.2969 9.3172 -0.0745
5.6408 7.7610 -0.0657
5.1852 7.7009 -0.0689
4.7577 7.6445 -0.0721
4.3546 7.5913 -0.0753
4.2602 8.0859 -0.0841
4.1820 8.6790 -0.0946
4.6947 10.7100 -0.1222
4.2195 10.6498 -0.1269
3.9927 11.2395 -0.1398
3.8603 12.2430 -0.1588
4.3908 15.8933 -0.2147
4.1738 17.5375 -0.2466
3.9118 19.5230 -0.2856
3.4385 21.0588 -0.3202
2.6557 20.9723 -0.3314
2.2248 24.6367 -0.4044
1.8090 33.3660 -0.5686
0.7522 41.1798 -0.7285
-1.1422 64.7680 -1.1891
-4.3812 81.7630 -1.5577
-24.5492 89.0704 -2.1196
-24.5052 77.8811 -1.9246
-24.0039 67.6977 -1.7378
-25.7977 65.2227 -1.7400
-23.1466 52.8858 -1.4669
-22.1632 46.0623 -1.3291
-21.8042 41.4392 -1.2447
-11.6089 20.2624 -0.6340
-11.3428 18.2465 -0.5952
-11.1159 16.5271 -0.5625
-10.9196 15.0396 -0.5347
-10.7477 13.7369 -0.5107
-10.5955 12.5840 -0.4898
-11.1256 12.2895 -0.5015
-11.8615 12.1924 -0.5224
-12.6380 12.0899 -0.5449
-7.1338 6.3499 -0.3016
-12.9804 10.7439 -0.5389
-13.8275 10.6321 -0.5646
-14.1896 10.1210 -0.5705
-9.8125 6.4803 -0.3890
-9.7415 5.9424 -0.3812
-9.6745 5.4347 -0.3740
-9.6111 4.9537 -0.3675
-9.5507 4.4961 -0.3615
-9.4930 4.0592 -0.3561
-9.4378 3.6405 -0.3510
-9.3846 3.2379 -0.3464
-9.3334 2.8495 -0.3422
-9.2838 2.4736 -0.3383
-9.2356 2.1086 -0.3347
-9.1887 1.7533 -0.3314
-9.1429 1.4064 -0.3284
-9.0981 1.0666 -0.3256
-9.0541 0.7330 -0.3231
-9.0107 0.4045 -0.3209
-8.9679 0.0802 -0.3188
-8.9256 -0.2409 -0.3170
-8.9207 -0.5619 -0.3167
-8.9382 -0.8862 -0.3174
-9.0646 -1.2289 -0.3222
-9.3667 -1.6143 -0.3334
-91.2893 -26.0951 -3.2769
-78.1047 -25.3939 -2.8153
-67.6219 -24.7042 -2.4494
-58.4503 -23.7658 -2.1291
-52.7247 -23.6783 -1.9329
-44.7367 -22.0543 -1.6519
-40.9661 -22.0583 -1.5250
-35.3775 -20.7211 -1.3289
-31.9108 -20.2636 -1.2108
-29.3173 -20.1294 -1.1247
-29.1263 -21.5771 -1.1311
-24.1678 -19.2854 -0.9512
-22.1540 -19.0197 -0.8849
-20.3503 -18.7816 -0.8261
-18.7217 -18.5667 -0.7735
-17.5355 -18.6860 -0.7388
-17.3751 -19.9012 -0.7478
-17.2043 -21.1958 -0.7580
-16.5683 -21.9802 -0.7491
-15.5758 -22.2850 -0.7245
-15.3788 -23.7777 -0.7382
-15.1644 -25.4019 -0.7538
-14.9297 -27.1804 -0.7715
-14.6709 -29.1419 -0.7918
-18.6797 -40.6781 -1.0585
-16.8262 -40.4069 -1.0075
-13.1527 -35.0838 -0.8385
-12.1867 -36.4355 -0.8350
-19.8542 -67.2997 -1.4794
-13.0645 -50.9577 -1.0746
-10.4934 -48.0350 -0.9719
-11.1050 -61.3134 -1.1903
-4.7151 -43.7421 -0.7816
-3.1169 -43.5312 -0.7461
-1.6207 -45.5275 -0.7483
-0.0048 -45.6649 0.3088
1.6230 -45.3242 0.3370
3.2124 -44.7327 0.3631
4.8341 -44.7575 0.3943
6.8692 -47.5441 0.4524
10.8993 -60.1055 0.6152
7.7607 -35.4896 0.3894
22.1385 -86.2742 1.0120
25.3929 -86.0068 1.0758
30.4068 -90.8455 1.2092
14.5529 -38.7938 0.5486
4.8981 -11.7554 0.1763
5.2701 -11.4703 0.1823
5.3754 -10.6721 0.1796
5.1871 -9.4388 0.1680
5.0324 -8.4258 0.1586
4.3243 -6.6830 0.1330
4.2775 -6.1174 0.1287
4.4212 -5.8629 0.1304
4.5605 -5.6163 0.1321
4.8812 -5.5887 0.1391
5.0155 -5.3426 0.1408
5.1467 -5.1022 0.1425
5.2751 -4.8667 0.1443
5.4013 -4.6354 0.1460
5.5255 -4.4076 0.1478
5.6482 -4.1827 0.1496
5.5180 -3.7873 0.1448
5.6223 -3.5689 0.1464
5.7563 -3.3703 0.1487
5.8908 -3.1708 0.1511
6.2729 -3.0912 0.1598
6.7467 -3.0287 0.1708
7.2790 -2.9585 0.1833
5.6452 -2.0615 0.1414
5.6735 -1.8438 0.1414
5.6429 -1.6123 0.1401
5.6133 -1.3879 0.1388
5.5845 -1.1697 0.1376
5.5565 -0.9570 0.1364
5.5510 -0.7520 0.1359
6.6792 -0.6616 0.1631
7.7936 -0.4903 0.1898
7.7565 -0.2088 0.1885
7.7198 0.0695 0.1873
7.6834 0.3454 0.1862
7.6472 0.6195 0.1851
7.6111 0.8926 0.1840
7.5751 1.1655 0.1831
7.5391 1.4388 0.1821
7.5029 1.7132 0.1813
7.4664 1.9894 0.1804
7.4296 2.2683 0.1797
7.3924 2.5504 0.1790
7.3546 2.8368 0.1783
7.3161 3.1282 0.1776
7.2769 3.4254 0.1771
7.2367 3.7296 0.1765
7.1956 4.0417 0.1760
7.1532 4.3629 0.1756
7.1094 4.6945 0.1752
7.0641 5.0378 0.1748
7.0170 5.3946 0.1745
6.9680 5.7664 0.1743
6.9166 6.1554 0.1741
6.8627 6.5637 0.1740
6.8059 6.9942 0.1739
6.7458 7.4497 0.1739
7.4658 8.8646 0.1944
7.2911 9.3164 0.1920
6.0507 8.3312 0.1613
5.5618 8.2667 0.1504
5.1469 8.2767 0.1415
5.0442 8.8010 0.1412
5.7064 10.8407 0.1631
5.1854 10.7723 0.1518
4.6895 10.7095 0.1411
4.2143 10.6492 0.1310
4.5721 12.8870 0.1476
4.0691 12.9236 0.1375
4.3885 15.9105 0.1567
4.1743 17.5721 0.1596
3.9104 19.5584 0.1631
3.5451 21.7689 0.1656
3.0619 24.2622 0.1673
2.3803 26.4827 0.1641
1.7947 33.3618 0.1838
0.7359 41.2349 0.1992
-0.4056 22.4644 0.0935
-4.7949 88.7884 0.3107
-6.9768 77.4421 0.2201
-16.1407 67.8826 0.0151
-24.5891 89.0770 -0.0389
-24.5818 78.0176 -0.0860
-10.1892 28.7010 -0.0509
-25.8563 65.2980 -0.1605
-22.7135 51.8435 -0.1634
-21.9321 45.5392 -0.1758
-21.2465 40.3440 -0.1850
-11.6060 20.2410 -0.1079
-12.1497 19.5296 -0.1191
-12.3396 18.3332 -0.1263
-12.1220 16.6842 -0.1287
-11.9314 15.2400 -0.1307
-10.5943 12.5747 -0.1191
-11.1315 12.2887 -0.1281
-11.8675 12.1916 -0.1392
-12.6440 12.0891 -0.1509
-7.1337 6.3465 -0.0864
-12.6709 10.4825 -0.1555
-13.4976 10.3734 -0.1675
-14.1952 10.1203 -0.1779
-15.1419 9.9954 -0.1914
-11.7375 7.1567 -0.1495
-10.5141 5.9039 -0.1348
-10.4446 5.3811 -0.1346
-10.3785 4.8839 -0.1344
-10.3154 4.4091 -0.1341
-10.2549 3.9542 -0.1337
-10.1967 3.5168 -0.1333
-10.1406 3.0948 -0.1328
-10.0863 2.6865 -0.1323
-10.0336 2.2901 -0.1317
-9.9823 1.9042 -0.1310
-9.9322 1.5274 -0.1303
-9.8832 1.1584 -0.1295
-9.8350 0.7962 -0.1287
-9.7876 0.4394 -0.1278
-9.7407 0.0873 -0.1268
-9.6944 -0.2613 -0.1258
-9.6766 -0.6090 -0.1251
-9.8180 -0.9728 -0.1264
-13.1012 -1.7750 -0.1678
-18.3460 -3.1600 -0.2336
-91.3790 -26.1069 -1.1386
-78.1064 -25.3811 -0.9647
-53.3025 -19.4627 -0.6520
-58.6542 -23.8363 -0.7098
-52.7448 -23.6750 -0.6308
-44.6172 -21.9839 -0.5267
-40.9860 -22.0572 -0.4769
-48.0612 -28.1350 -0.5504
-32.0855 -20.3635 -0.3610
-29.3187 -20.1192 -0.3235
-31.6777 -23.4539 -0.3420
-24.5470 -19.5767 -0.2586
-26.3319 -22.5931 -0.2699
-20.8832 -19.2617 -0.2075
-24.6541 -24.4347 -0.2364
-17.5369 -18.6754 -0.1615
-41.0457 -46.9816 -0.3606
-40.7013 -50.1092 -0.3384
-17.0233 -22.5673 -0.1326
-15.5776 -22.2707 -0.1121
-16.6142 -25.6672 -0.1084
-15.1901 -25.4233 -0.0876
-16.4807 -29.9770 -0.0806
-15.0079 -29.7826 -0.0582
-20.6836 -44.9955 -0.0557
-16.8307 -40.3726 -0.0217
-16.3946 -43.6777 0.0066
-17.4059 -51.9695 0.0430
-20.5444 -69.5341 0.1041
-20.1108 -78.3067 0.1691
-20.1902 -92.2398 0.2598
-2.7552 -15.1758 0.0527
-2.1860 -15.1080 0.0623
-4.7339 -43.7446 0.2091
-1.0852 -15.0670 0.0819
-0.5401 -14.9950 0.0914
-0.0240 -45.6675 1.3375
1.6041 -45.3267 1.3586
3.1928 -44.7196 1.3729
4.8323 -44.9154 1.4133
6.8451 -47.5155 1.5336
10.8421 -59.9294 1.9854
7.7414 -35.4701 1.2071
15.7861 -61.6211 2.1559
17.8926 -60.6914 2.1846
19.7020 -58.9396 2.1846
14.5409 -38.8070 1.4824
4.8933 -11.7564 0.4632
5.2653 -11.4710 0.4667
5.3776 -10.6860 0.4494
5.1888 -9.4498 0.4111
5.0337 -8.4348 0.3801
4.3251 -6.6892 0.3126
4.2761 -6.1198 0.2970
4.4199 -5.8652 0.2959
4.5593 -5.6184 0.2952
4.8801 -5.5908 0.3064
5.0145 -5.3445 0.3060
5.1457 -5.1040 0.3059
5.2741 -4.8684 0.3061
5.4004 -4.6370 0.3065
5.5246 -4.4091 0.3072
5.6474 -4.1841 0.3081
5.5182 -3.7892 0.2958
5.6216 -3.5701 0.2965
5.7556 -3.3714 0.2991
5.8902 -3.1717 0.3019
6.2708 -3.0915 0.3174
6.7446 -3.0290 0.3375
7.2769 -2.9587 0.3604
5.6447 -2.0621 0.2769
5.6735 -1.8445 0.2760
5.6430 -1.6129 0.2724
5.6134 -1.3884 0.2692
5.5846 -1.1701 0.2662
5.5565 -0.9573 0.2636
5.5504 -0.7521 0.2622
6.6787 -0.6617 0.3144
7.7936 -0.4903 0.3659
7.7565 -0.2087 0.3635
7.7197 0.0697 0.3614
7.6833 0.3457 0.3596
7.6471 0.6200 0.3581
7.6111 0.8932 0.3568
7.5750 1.1662 0.3559
7.5390 1.4395 0.3552
7.5027 1.7141 0.3548
7.4663 1.9904 0.3547
7.4295 2.2694 0.3548
7.3922 2.5517 0.3553
7.3544 2.8382 0.3560
7.3159 3.1297 0.3571
7.2767 3.4271 0.3584
7.2365 3.7314 0.3601
7.1953 4.0437 0.3621
7.1529 4.3651 0.3645
7.1091 4.6969 0.3673
7.0638 5.0404 0.3705
7.0167 5.3973 0.3741
6.9676 5.7694 0.3782
6.9162 6.1587 0.3829
6.8623 6.5673 0.3881
6.8054 6.9981 0.3940
6.7453 7.4540 0.4005
6.6105 7.8545 0.4036
7.2853 9.3157 0.4584
6.0457 8.3305 0.3932
5.5570 8.2660 0.3748
5.2523 8.4532 0.3687
6.2431 10.9025 0.4579
5.7013 10.8411 0.4390
5.1800 10.7717 0.4210
4.6842 10.7089 0.4044
4.2092 10.6487 0.3889
4.5705 12.8990 0.4560
4.0627 12.9218 0.4426
4.3862 15.9278 0.5290
4.1710 17.5905 0.5670
3.9127 19.6124 0.6140
3.5356 21.7676 0.6623
3.0514 24.2611 0.7181
2.3688 26.4795 0.7629
1.7907 33.5513 0.9416
0.6817 39.1217 1.0703
-0.9123 49.3824 1.3180
-3.9266 72.1499 1.8799
-5.8244 64.3515 1.6381
-11.3939 89.8341 2.2359
-15.0097 91.8094 2.2359
-17.9359 89.4230 2.1326
-16.1687 67.8789 1.5866
-23.4630 84.8659 1.9458
-23.2029 73.5404 1.6556
-10.2208 28.7546 0.6362
-24.6384 62.1532 1.3529
-23.1263 52.7319 1.1305
-22.3312 46.3244 0.9792
-21.6345 41.0450 0.8566
-11.6032 20.2196 0.4172
-12.1583 19.5285 0.3989
-12.3366 18.3156 0.3710
-12.1194 16.6693 0.3355
-11.9291 15.2272 0.3050
-10.5931 12.5655 0.2510
-11.1374 12.2879 0.2454
-11.8735 12.1908 0.2440
-12.6501 12.0883 0.2431
-7.1336 6.3430 0.1286
-12.6764 10.4818 0.2149
-13.5033 10.3727 0.2159
-14.2009 10.1196 0.2148
-15.1477 9.9946 0.2172
-11.7370 7.1533 0.1601
-10.5137 5.9011 0.1368
-10.4443 5.3787 0.1300
-10.3782 4.8818 0.1239
-10.3151 4.4073 0.1185
-10.2547 3.9526 0.1138
-10.1966 3.5154 0.1096
-10.1405 3.0937 0.1059
-10.0862 2.6855 0.1028
-10.0335 2.2894 0.1001
-9.9822 1.9036 0.0979
-9.9322 1.5270 0.0960
-9.8831 1.1582 0.0946
-9.8350 0.7961 0.0936
-9.7876 0.4395 0.0929
-9.7408 0.0875 0.0926
-9.6945 -0.2609 0.0926
-9.6766 -0.6085 0.0933
-9.8173 -0.9720 0.0958
-13.1014 -1.7739 0.1300
-18.3462 -3.1582 0.1857
-22.1243 -6.3176 0.2425
-78.1081 -25.3683 0.8848
-70.6266 -25.7750 0.8293
-57.2894 -23.2696 0.6993
-49.6097 -22.2561 0.6313
-43.5770 -21.4600 0.5796
-40.7963 -21.9435 0.5686
-34.6695 -20.2846 0.5076
-31.2718 -19.8363 0.4822
-28.3627 -19.4524 0.4616
-25.8376 -19.1192 0.4450
-23.6201 -18.8265 0.4314
-21.6522 -18.5668 0.4205
-19.8898 -18.3343 0.4116
-18.2985 -18.1243 0.4046
-17.1907 -18.2950 0.4071
-17.0338 -19.4841 0.4332
-16.8667 -20.7508 0.4620
-16.0357 -21.2427 0.4745
-15.2156 -21.7366 0.4881
-15.0236 -23.1914 0.5243
-14.8148 -24.7741 0.5647
-14.5861 -26.5071 0.6100
-14.3340 -28.4179 0.6612
-14.0538 -30.5412 0.7193
-16.5952 -39.7630 0.9490
-16.1659 -43.0160 1.0414
-17.4125 -51.9194 1.2763
-20.5525 -69.4567 1.7353
-20.0832 -78.0654 1.9840
-20.8170 -94.9142 2.4559
-2.7619 -15.1767 0.4001
-2.1926 -15.1089 0.4062
-4.7528 -43.7471 1.2002
-1.0916 -15.0678 0.4222
-0.5464 -14.9959 0.4294
-0.0391 -41.4062 2.1465
1.4348 -41.0299 2.1559
2.8701 -40.4376 2.1559
4.2664 -39.8109 2.1559
5.6238 -39.1516 2.1559
6.9420 -38.4616 2.1559
7.6936 -35.3198 2.0175
9.4619 -36.9964 2.1559
10.6639 -36.2245 2.1559
11.8274 -35.4284 2.1559
12.9529 -34.6095 2.1559
4.8885 -11.7574 0.7506
5.2605 -11.4718 0.7515
5.3797 -10.6999 0.7202
5.1905 -9.4609 0.6551
5.0351 -8.4437 0.6024
4.3259 -6.6955 0.4928
4.2748 -6.1222 0.4656
4.4187 -5.8674 0.4618
4.5581 -5.6205 0.4587
4.8790 -5.5929 0.4740
5.0134 -5.3465 0.4716
5.1446 -5.1058 0.4696
5.2732 -4.8701 0.4682
5.3995 -4.6386 0.4673
5.5238 -4.4107 0.4668
5.6466 -4.1856 0.4668
5.7682 -3.9627 0.4673
5.6208 -3.5712 0.4469
5.7549 -3.3724 0.4498
5.8895 -3.1727 0.4530
6.2688 -3.0918 0.4753
6.7425 -3.0293 0.5044
7.2748 -2.9590 0.5377
5.6442 -2.0627 0.4127
5.6736 -1.8452 0.4108
5.6431 -1.6134 0.4050
5.6134 -1.3888 0.3998
5.5846 -1.1705 0.3952
5.5565 -0.9576 0.3910
5.5497 -0.7522 0.3887
6.6782 -0.6617 0.4660
7.7936 -0.4903 0.5424
7.7565 -0.2085 0.5388
7.7197 0.0700 0.5358
7.6833 0.3460 0.5334
7.6471 0.6204 0.5314
7.6110 0.8938 0.5300
7.5749 1.1669 0.5291
7.5389 1.4403 0.5286
7.5026 1.7150 0.5287
7.4661 1.9915 0.5293
7.4293 2.2705 0.5304
7.3920 2.5530 0.5320
7.3542 2.8396 0.5341
7.3157 3.1313 0.5369
7.2764 3.4288 0.5402
7.2363 3.7333 0.5441
7.1950 4.0457 0.5486
7.1526 4.3673 0.5538
7.1088 4.6992 0.5598
7.0634 5.0430 0.5665
7.0163 5.4002 0.5741
6.9437 5.7531 0.5807
6.8925 6.1412 0.5901
6.8387 6.5488 0.6007
6.8049 7.0020 0.6145
6.7447 7.4583 0.6277
6.4634 7.6849 0.6214
7.2795 9.3149 0.7251
6.0407 8.3299 0.6254
5.5523 8.2654 0.5995
5.4179 8.7270 0.6124
6.2438 10.9131 0.7421
5.6962 10.8415 0.7153
5.1750 10.7720 0.6907
4.6789 10.7084 0.6680
4.2041 10.6482 0.6472
4.5689 12.9111 0.7654
4.0564 12.9201 0.7480
4.3839 15.9452 0.9026
4.1677 17.6091 0.9758
3.9150 19.6667 1.0680
3.5260 21.7663 1.1596
3.0411 24.2610 1.2695
2.3573 26.4764 1.3623
1.7705 33.4373 1.6935
0.6018 35.3899 1.7664
-0.4223 22.3518 1.1007
-1.8743 34.1757 1.6623
-4.2269 46.4859 2.2359
-5.9750 46.9534 2.2359
-7.7641 47.3683 2.2359
-9.5931 47.7277 2.2359
-11.4607 48.0284 2.2359
-12.7481 46.0385 2.1326
-14.5982 46.2050 2.1326
-10.2329 28.7535 1.3242
-18.4183 46.4107 2.1359
-20.3584 46.3735 2.1359
-22.3223 46.2625 2.1359
-21.6282 40.9973 1.9005
-11.6004 20.1982 0.9418
-12.1669 19.5273 0.9175
-12.3336 18.2979 0.8681
-12.1168 16.6544 0.7994
-11.9269 15.2145 0.7405
-10.5918 12.5563 0.6211
-11.1433 12.2872 0.6192
-11.8794 12.1900 0.6276
-12.3495 11.7947 0.6221
-7.1335 6.3396 0.3436
-12.6820 10.4810 0.5857
-13.5089 10.3719 0.5997
-14.2066 10.1188 0.6078
-15.1535 9.9938 0.6263
-11.7366 7.1498 0.4697
-10.5134 5.8984 0.4084
-10.4440 5.3763 0.3946
-10.3779 4.8797 0.3823
-10.3149 4.4055 0.3712
-10.2545 3.9510 0.3614
-10.1964 3.5141 0.3526
-10.1403 3.0926 0.3448
-10.0861 2.6846 0.3380
-10.0334 2.2886 0.3320
-9.9822 1.9031 0.3268
-9.9321 1.5266 0.3224
-9.8831 1.1580 0.3188
-9.8350 0.7960 0.3159
-9.7876 0.4396 0.3136
-9.7408 0.0877 0.3120
-9.6945 -0.2606 0.3111
-9.6766 -0.6080 0.3117
-9.8166 -0.9713 0.3181
-13.1015 -1.7729 0.4279
-18.3465 -3.1564 0.6051
-66.9841 -14.0150 2.2359
-66.0568 -16.3144 2.2359
-65.0105 -18.5538 2.2359
-63.0823 -20.4774 2.2089
-59.6982 -21.7753 2.1328
-57.3337 -23.2754 2.0940
-49.6465 -22.2610 1.8576
-43.6083 -21.4642 1.6751
-40.7977 -21.9327 1.6122
-34.6936 -20.2878 1.4135
-31.2933 -19.8391 1.3173
-28.3822 -19.4549 1.2372
-25.8554 -19.1215 1.1698
-23.6364 -18.8287 1.1126
-21.6674 -18.5688 1.0637
-19.9040 -18.3361 1.0217
-18.3118 -18.1260 0.9854
-16.3318 -17.3696 0.9239
-15.6257 -17.8614 0.9321
-15.7263 -19.3343 0.9923
-15.2091 -20.1331 1.0185
-15.2175 -21.7226 1.0856
-15.0257 -23.1759 1.1466
-14.8171 -24.7569 1.2147
-14.5886 -26.4878 1.2913
-14.3368 -28.3963 1.3779
-14.0570 -30.5167 1.4762
-16.5996 -39.7293 1.9190
-15.7228 -41.7859 2.0182
-14.9687 -44.5726 2.1559
-13.1725 -44.4493 2.1559
-11.4079 -44.2677 2.1559
-9.6762 -44.0308 2.1559
-2.7686 -15.1776 0.7481
-2.1992 -15.1098 0.7506
-4.6545 -42.6753 2.1389
-1.0981 -15.0687 0.7629
-0.5528 -14.9967 0.7679
-0.0396 -28.9576 2.1559
0.9909 -28.6814 2.1559
2.0020 -28.3744 2.1559
2.9929 -28.0376 2.1559
3.9632 -27.6722 2.1559
4.9122 -27.2793 2.1559
5.8394 -26.8601 2.1559
6.7446 -26.4156 2.1559
7.6271 -25.9469 2.1559
8.4868 -25.4550 2.1559
9.3234 -24.9409 2.1559
4.8836 -11.7583 1.0387
5.2557 -11.4725 1.0370
5.3818 -10.7139 0.9924
5.1922 -9.4720 0.9003
5.0365 -8.4527 0.8256
4.3268 -6.7018 0.6738
4.2734 -6.1246 0.6348
4.4174 -5.8696 0.6282
4.5569 -5.6226 0.6226
4.8778 -5.5950 0.6422
5.0123 -5.3484 0.6376
5.1436 -5.1077 0.6339
5.2723 -4.8719 0.6309
5.3986 -4.6403 0.6286
5.5230 -4.4122 0.6270
5.6458 -4.1870 0.6261
5.7674 -3.9640 0.6259
5.6201 -3.5723 0.5978
5.7542 -3.3735 0.6009
5.8888 -3.1737 0.6046
6.2668 -3.0920 0.6335
6.7404 -3.0295 0.6718
7.2727 -2.9593 0.7156
5.6439 -2.0633 0.5489
5.6737 -1.8459 0.5461
5.6431 -1.6140 0.5381
5.6135 -1.3893 0.5309
5.5847 -1.1708 0.5245
5.5565 -0.9579 0.5188
5.5490 -0.7523 0.5156
6.6778 -0.6618 0.6181
7.7936 -0.4903 0.7194
7.7565 -0.2084 0.7147
7.7197 0.0702 0.7108
7.6832 0.3464 0.7077
7.6470 0.6209 0.7053
7.6109 0.8943 0.7037
7.5749 1.1675 0.7028
7.5388 1.4411 0.7026
7.5025 1.7159 0.7031
7.4660 1.9925 0.7044
7.4292 2.2717 0.7064
7.3919 2.5543 0.7092
7.3540 2.8410 0.7128
7.3155 3.1328 0.7172
7.2762 3.4305 0.7225
7.2360 3.7352 0.7286
7.1948 4.0478 0.7357
7.1523 4.3695 0.7438
7.1085 4.7016 0.7529
7.0631 5.0456 0.7632
7.0159 5.4030 0.7748
6.9433 5.7561 0.7850
6.8920 6.1446 0.7994
6.8382 6.5525 0.8153
6.8044 7.0060 0.8358
6.7441 7.4626 0.8556
6.4584 7.6843 0.8485
6.0133 7.7003 0.8205
6.0357 8.3292 0.8580
5.5475 8.2648 0.8246
6.3374 10.2165 0.9888
6.2405 10.9171 1.0267
5.6911 10.8419 0.9923
5.1700 10.7725 0.9609
4.6736 10.7078 0.9322
4.1989 10.6477 0.9059
4.5673 12.9233 1.0761
4.0500 12.9183 1.0540
4.3816 15.9627 1.2779
4.1628 17.6210 1.3858
3.9126 19.6976 1.5236
3.5164 21.7651 1.6580
3.0308 24.2619 1.8222
2.3457 26.4732 1.9628
1.5287 29.1037 2.1328
0.4877 29.4105 2.1328
-0.4121 21.3376 1.5331
-1.6567 29.9780 2.1366
-2.8852 31.5844 2.2359
-4.0549 31.7597 2.2359
-5.2413 31.8949 2.2359
-6.4432 31.9888 2.2359
-7.6592 32.0399 2.2359
-8.8876 32.0469 2.2359
-10.1268 32.0088 2.2359
-10.2451 28.7524 2.0137
-12.0474 30.3233 2.1326
-13.2498 30.1504 2.1326
-14.4772 29.9754 2.1359
-13.1565 24.9170 1.7915
-11.5976 20.1768 1.4665
-12.1755 19.5262 1.4372
-12.3307 18.2803 1.3653
-12.1142 16.6395 1.2635
-11.9246 15.2017 1.1762
-10.5906 12.5471 0.9914
-11.1492 12.2864 0.9939
-11.8854 12.1892 1.0120
-12.3485 11.7873 1.0072
-7.1334 6.3362 0.5589
-12.6875 10.4803 0.9572
-13.5145 10.3712 0.9844
-14.2122 10.1181 1.0017
-15.1592 9.9931 1.0362
-11.7361 7.1464 0.7797
-10.5130 5.8956 0.6803
-10.4436 5.3739 0.6596
-10.3776 4.8776 0.6410
-10.3146 4.4036 0.6243
-10.2543 3.9494 0.6093
-10.1962 3.5127 0.5959
-10.1402 3.0914 0.5840
-10.0860 2.6837 0.5734
-10.0333 2.2879 0.5642
-9.9821 1.9025 0.5561
-9.9321 1.5262 0.5492
-9.8831 1.1577 0.5433
-9.8350 0.7959 0.5385
-9.7876 0.4396 0.5347
-9.7408 0.0879 0.5318
-9.6946 -0.2602 0.5299
-9.6766 -0.6075 0.5305
-9.8160 -0.9706 0.5406
-13.1016 -1.7718 0.7262
-18.3467 -3.1546 1.0252
-37.7942 -7.9032 2.1328
-39.1646 -9.6675 2.2359
-38.6452 -11.0234 2.2359
-38.0645 -12.3498 2.2359
-37.4249 -13.6438 2.2359
-36.7289 -14.9028 2.2359
-35.9789 -16.1242 2.2359
-33.8258 -16.6404 2.1499
-32.7426 -17.5929 2.1326
-31.8885 -18.6375 2.1326
-30.9936 -19.6383 2.1326
-28.4017 -19.4575 2.0149
-25.8733 -19.1239 1.8966
-23.6528 -18.8308 1.7956
-21.6826 -18.5708 1.7086
-19.9182 -18.3380 1.6333
-17.4050 -17.2177 1.4890
-16.3010 -17.3255 1.4589
-15.6028 -17.8233 1.4652
-15.7386 -19.3359 1.5555
-15.2108 -20.1205 1.5877
-15.2193 -21.7087 1.6839
-10.5492 -16.2583 1.2422
-9.8511 -16.4456 1.2400
-9.1082 -16.5225 1.2318
-10.6389 -21.0517 1.5544
-13.5702 -29.4294 2.1559
-12.3880 -29.6160 2.1559
-11.2107 -29.7579 2.1559
-10.0401 -29.8561 2.1559
-8.8776 -29.9115 2.1559
-7.7251 -29.9255 2.1559
-6.5837 -29.8991 2.1559
-2.7753 -15.1785 1.0968
-2.2058 -15.1106 1.0958
-3.2398 -29.5889 2.1559
-1.1045 -15.0695 1.1046
-0.5592 -14.9976 1.1072
-0.0340 -18.9841 1.8440
0.7518 -22.0292 2.1559
1.5316 -21.8379 2.1559
2.2989 -21.6219 2.1559
3.0532 -21.3819 2.1559
3.7939 -21.1187 2.1559
4.5202 -20.8330 2.1559
5.2319 -20.5256 2.1559
5.9283 -20.1973 2.1559
6.6090 -19.8487 2.1559
7.2736 -19.4805 2.1559
4.8788 -11.7593 1.3277
5.2508 -11.4732 1.3235
5.3840 -10.7280 1.2662
5.1939 -9.4832 1.1468
5.0379 -8.4618 1.0501
4.3276 -6.7081 0.8557
4.2721 -6.1269 0.8046
4.4161 -5.8719 0.7953
4.5557 -5.6247 0.7872
4.8767 -5.5971 0.8110
5.0112 -5.3504 0.8044
5.1426 -5.1095 0.7988
5.2713 -4.8736 0.7942
5.3977 -4.6419 0.7905
5.5221 -4.4137 0.7878
5.6450 -4.1884 0.7860
5.7667 -3.9654 0.7851
5.6193 -3.5735 0.7493
5.7534 -3.3745 0.7527
5.8882 -3.1747 0.7568
6.2647 -3.0923 0.7923
6.7383 -3.0298 0.8398
7.2705 -2.9596 0.8940
5.6440 -2.0642 0.6857
5.6738 -1.8466 0.6819
5.6432 -1.6146 0.6717
5.6135 -1.3898 0.6626
5.5847 -1.1712 0.6544
5.5566 -0.9581 0.6471
5.5484 -0.7524 0.6430
6.6773 -0.6619 0.7708
7.7936 -0.4903 0.8971
7.7564 -0.2083 0.8913
7.7196 0.0704 0.8866
7.6832 0.3467 0.8828
7.6469 0.6213 0.8800
7.6108 0.8949 0.8781
7.5748 1.1682 0.8772
7.5386 1.4420 0.8773
7.5024 1.7168 0.8783
7.4659 1.9935 0.8803
7.4290 2.2729 0.8833
7.3917 2.5556 0.8872
7.3538 2.8425 0.8922
7.3153 3.1344 0.8983
7.2760 3.4322 0.9055
7.2358 3.7370 0.9139
7.1945 4.0498 0.9236
7.1520 4.3717 0.9345
7.1082 4.7040 0.9469
7.0627 5.0482 0.9608
7.0156 5.4058 0.9763
6.9429 5.7592 0.9903
6.8916 6.1479 1.0095
6.8377 6.5561 1.0308
6.8038 7.0100 1.0581
6.7435 7.4670 1.0845
6.1647 7.3399 1.0280
5.9435 7.6163 1.0308
6.0307 8.3285 1.0913
5.5427 8.2641 1.0504
6.3381 10.2261 1.2628
6.2353 10.9175 1.3121
5.6859 10.8424 1.2702
5.1650 10.7729 1.2321
4.6683 10.7073 1.1972
4.1938 10.6471 1.1655
4.5657 12.9355 1.3883
4.0436 12.9166 1.3609
4.3793 15.9802 1.6551
4.1600 17.6421 1.7986
3.9008 19.6815 1.9775
3.4741 21.5609 2.1377
2.7103 21.7714 2.1328
1.9406 22.0077 2.1328
1.1576 22.2188 2.1328
0.3621 22.4041 2.1328
-0.4192 21.2368 2.0074
-1.3248 23.7907 2.2359
-2.1932 23.8986 2.2359
-3.0712 23.9759 2.2359
-3.9578 24.0222 2.2359
-4.8517 24.0365 2.2359
-5.7519 24.0182 2.2359
-6.6570 23.9666 2.2359
-7.5658 23.8811 2.2359
-8.4770 23.7610 2.2359
-9.0086 22.6494 2.1453
-9.8249 22.3340 2.1326
-10.6923 22.1178 2.1326
-11.5562 21.8670 2.1326
-11.5947 20.1555 1.9917
-12.1842 19.5251 1.9585
-12.3277 18.2627 1.8631
-12.1117 16.6245 1.7283
-11.9224 15.1890 1.6126
-10.5894 12.5379 1.3624
-11.1551 12.2856 1.3697
-11.8914 12.1884 1.3976
-12.3475 11.7800 1.3931
-7.1332 6.3327 0.7746
-12.6930 10.4796 1.3299
-13.5202 10.3704 1.3701
-14.2179 10.1173 1.3968
-15.1650 9.9923 1.4474
-11.7356 7.1429 1.0904
-10.5126 5.8929 0.9529
-10.4433 5.3715 0.9252
-10.3774 4.8754 0.9003
-10.3144 4.4018 0.8779
-10.2540 3.9479 0.8578
-10.1960 3.5114 0.8398
-10.1400 3.0903 0.8238
-10.0858 2.6827 0.8095
-10.0332 2.2871 0.7969
-9.9820 1.9019 0.7859
-9.9320 1.5258 0.7765
-9.8830 1.1575 0.7684
-9.8350 0.7958 0.7617
-9.7876 0.4397 0.7563
-9.7409 0.0882 0.7522
-9.6946 -0.2598 0.7493
-9.6766 -0.6070 0.7498
-9.8153 -0.9698 0.7637
-13.1018 -1.7707 1.0253
-18.3469 -3.1528 1.4463
-26.8141 -5.6040 2.1328
-26.5314 -6.5455 2.1328
-26.2084 -7.4718 2.1328
-27.0954 -8.7863 2.2359
-26.6755 -9.7199 2.2359
-26.2167 -10.6319 2.2359
-25.7206 -11.5208 2.2359
-25.1885 -12.3848 2.2359
-24.6220 -13.2225 2.2359
-24.0226 -14.0326 2.2359
-23.3921 -14.8137 2.2359
-22.0223 -15.0787 2.1660
-21.0264 -15.5326 2.1326
-20.3465 -16.1891 2.1327
-19.6435 -16.8145 2.1328
-18.9185 -17.4070 2.1328
-17.4353 -17.2367 2.0461
-16.3310 -17.3462 2.0004
-15.5855 -17.7915 1.9985
-16.0115 -19.6573 2.1559
-15.1970 -20.0876 2.1559
-14.3714 -20.4835 2.1559
-10.5507 -16.2474 1.6804
-12.6931 -21.1721 2.1559
-9.1098 -16.5104 1.6582
-10.9892 -21.7240 2.1559
-10.1315 -21.9493 2.1559
-9.2718 -22.1412 2.1559
-8.4115 -22.3001 2.1559
-7.5519 -22.4266 2.1559
-6.6943 -22.5210 2.1559
-5.8399 -22.5840 2.1559
-4.9899 -22.6160 2.1559
-2.7821 -15.1794 1.4468
-2.2125 -15.1115 1.4422
-2.1138 -19.2298 1.8398
-1.1110 -15.0704 1.4473
-0.5656 -14.9984 1.4477
-0.0398 -17.9783 2.1559
0.6022 -17.8671 2.1559
1.2363 -17.7346 2.1559
1.8618 -17.5812 2.1559
2.4783 -17.4075 2.1559
3.0851 -17.2141 2.1559
3.6816 -17.0014 2.1559
4.2673 -16.7700 2.1559
4.8419 -16.5204 2.1559
5.4047 -16.2533 2.1559
5.9554 -15.9690 2.1559
4.8739 -11.7603 1.6181
5.2459 -11.4740 1.6113
5.3861 -10.7422 1.5419
5.1956 -9.4944 1.3950
5.0393 -8.4709 1.2761
4.3284 -6.7144 1.0387
4.2707 -6.1293 0.9754
4.4148 -5.8741 0.9633
4.5545 -5.6268 0.9527
4.8755 -5.5992 0.9807
5.0102 -5.3524 0.9720
5.1416 -5.1114 0.9645
5.2703 -4.8753 0.9583
5.3968 -4.6436 0.9533
5.5213 -4.4153 0.9495
5.6442 -4.1899 0.9468
5.7659 -3.9667 0.9452
5.6185 -3.5746 0.9016
5.7527 -3.3756 0.9052
5.8875 -3.1757 0.9098
6.2627 -3.0926 0.9519
6.7362 -3.0301 1.0085
7.2684 -2.9599 1.0733
5.6442 -2.0650 0.8232
5.6739 -1.8473 0.8184
5.6433 -1.6152 0.8060
5.6136 -1.3903 0.7949
5.5848 -1.1716 0.7850
5.5566 -0.9584 0.7762
5.5477 -0.7524 0.7710
6.6768 -0.6619 0.9243
7.7936 -0.4903 1.0758
7.7564 -0.2082 1.0689
7.7196 0.0707 1.0632
7.6831 0.3471 1.0587
7.6469 0.6218 1.0555
7.6108 0.8955 1.0534
7.5747 1.1689 1.0526
7.5385 1.4427 1.0529
7.5023 1.7177 1.0544
7.4657 1.9946 1.0571
7.4288 2.2740 1.0610
7.3915 2.5569 1.0661
7.3536 2.8439 1.0726
7.3151 3.1359 1.0804
7.2758 3.4339 1.0896
7.2355 3.7389 1.1002
7.1942 4.0518 1.1124
7.1517 4.3739 1.1263
7.1078 4.7064 1.1419
7.0624 5.0508 1.1594
7.0152 5.4087 1.1789
6.9425 5.7623 1.1966
6.8912 6.1512 1.2207
6.8373 6.5597 1.2475
6.8033 7.0140 1.2815
6.7430 7.4713 1.3147
6.1599 7.3393 1.2465
5.9429 7.6210 1.2518
5.5567 7.6798 1.2225
5.5378 8.2635 1.2771
6.3388 10.2357 1.5385
6.2300 10.9179 1.5987
5.6808 10.8428 1.5493
5.1600 10.7733 1.5044
4.6634 10.7076 1.4634
4.1886 10.6466 1.4262
4.5640 12.9478 1.7025
4.0372 12.9149 1.6691
4.3770 15.9978 2.0349
4.0136 17.0535 2.1377
3.4097 17.2417 2.1328
2.8041 17.4502 2.1328
2.1882 17.6387 2.1328
1.5626 17.8066 2.1328
0.9277 17.9535 2.1328
0.2845 18.0788 2.1328
-0.3797 18.8335 2.2092
-1.0742 19.1451 2.2359
-1.7706 19.2051 2.2359
-2.4728 19.2404 2.2359
-3.1798 19.2503 2.2359
-3.8907 19.2345 2.2359
-4.6045 19.1925 2.2359
-5.3202 19.1240 2.2359
-6.0368 19.0287 2.2359
-6.7533 18.9061 2.2359
-7.4684 18.7560 2.2359
-8.1811 18.5783 2.2359
-8.4796 17.5242 2.1326
-9.1514 17.3014 2.1326
-9.8174 17.0518 2.1326
-10.4764 16.7755 2.1326
-11.1273 16.4725 2.1326
-11.7688 16.1428 2.1326
-11.9201 15.1761 2.0501
-10.5882 12.5286 1.7345
-11.1610 12.2848 1.7470
-11.8974 12.1876 1.7848
-12.3466 11.7725 1.7801
-7.1331 6.3293 0.9910
-12.6986 10.4788 1.7042
-13.5259 10.3697 1.7575
-14.2236 10.1166 1.7935
-15.1709 9.9916 1.8602
-11.7352 7.1395 1.4022
-10.5123 5.8901 1.2263
-10.4430 5.3691 1.1917
-10.3771 4.8733 1.1605
-10.3141 4.3999 1.1324
-10.2538 3.9463 1.1072
-10.1958 3.5100 1.0845
-10.1399 3.0891 1.0643
-10.0857 2.6818 1.0464
-10.0331 2.2864 1.0305
-9.9819 1.9014 1.0166
-9.9320 1.5254 1.0045
-9.8830 1.1572 0.9942
-9.8349 0.7957 0.9857
-9.7876 0.4398 0.9787
-9.7409 0.0884 0.9733
-9.6946 -0.2595 0.9694
-9.6766 -0.6065 0.9699
-9.8146 -0.9691 0.9875
-13.1019 -1.7696 1.3254
-18.3472 -3.1511 1.8688
-20.7614 -4.3366 2.1328
-20.5538 -5.0680 2.1328
-20.3161 -5.7889 2.1328
-20.0963 -6.5133 2.1378
-20.7073 -7.5413 2.2359
-20.3674 -8.2555 2.2359
-19.9991 -8.9532 2.2359
-19.6031 -9.6334 2.2359
-19.1805 -10.2949 2.2359
-18.7325 -10.9365 2.2359
-18.2602 -11.5574 2.2359
-17.7645 -12.1566 2.2359
-17.2469 -12.7333 2.2359
-16.7083 -13.2866 2.2359
-16.1501 -13.8159 2.2359
-15.4087 -14.1689 2.2122
-14.2892 -14.1176 2.1328
-13.7078 -14.5504 2.1328
-13.1125 -14.9583 2.1328
-12.5045 -15.3410 2.1328
-11.8850 -15.6981 2.1328
-11.2552 -16.0296 2.1328
-10.5521 -16.2364 2.1199
-9.9695 -16.6149 2.1328
-9.1114 -16.4983 2.0860
-8.6567 -17.0963 2.1328
-8.0795 -17.4855 2.1559
-7.4050 -17.6635 2.1559
-6.7282 -17.8157 2.1559
-6.0500 -17.9422 2.1559
-5.3714 -18.0433 2.1559
-4.6935 -18.1193 2.1559
-4.0171 -18.1705 2.1559
-2.7889 -15.1803 1.7984
-2.2180 -15.1049 1.7892
-2.0061 -18.1789 2.1559
-1.3446 -18.1346 2.1559
-0.6890 -18.0676 2.1559
-0.0395 -14.9679 2.1377
0.4954 -14.8886 2.1377
1.0248 -14.7911 2.1377
1.5479 -14.6759 2.1377
2.0643 -14.5433 2.1377
2.5734 -14.3937 2.1377
3.0748 -14.2275 2.1377
3.5679 -14.0452 2.1377
4.0523 -13.8470 2.1377
4.5276 -13.6336 2.1377
4.9933 -13.4053 2.1377
4.8736 -11.7724 1.9120
5.2410 -11.4747 1.9007
5.3883 -10.7565 1.8199
5.1973 -9.5058 1.6452
5.0407 -8.4801 1.5038
4.3293 -6.7209 1.2231
4.2694 -6.1318 1.1472
4.4135 -5.8764 1.1323
4.5533 -5.6290 1.1192
4.8744 -5.6013 1.1515
5.0091 -5.3544 1.1406
5.1406 -5.1133 1.1313
5.2694 -4.8771 1.1235
5.3959 -4.6452 1.1171
5.5204 -4.4168 1.1121
5.6434 -4.1913 1.1085
5.7652 -3.9681 1.1062
5.6178 -3.5758 1.0548
5.7520 -3.3767 1.0586
5.8868 -3.1767 1.0637
6.2606 -3.0929 1.1123
6.7341 -3.0304 1.1782
7.2662 -2.9602 1.2537
5.6443 -2.0658 0.9616
5.6740 -1.8480 0.9558
5.6434 -1.6158 0.9412
5.6137 -1.3907 0.9281
5.5848 -1.1720 0.9164
5.5567 -0.9587 0.9060
5.5470 -0.7525 0.8998
6.6763 -0.6620 1.0787
7.7936 -0.4903 1.2556
7.7564 -0.2081 1.2475
7.7196 0.0709 1.2409
7.6831 0.3474 1.2358
7.6468 0.6222 1.2321
7.6107 0.8961 1.2299
7.5746 1.1696 1.2290
7.5384 1.4436 1.2296
7.5021 1.7187 1.2315
7.4656 1.9956 1.2350
7.4287 2.2752 1.2398
7.3913 2.5582 1.2462
7.3535 2.8453 1.2541
7.3149 3.1375 1.2636
7.2755 3.4357 1.2748
7.2353 3.7408 1.2877
7.1940 4.0539 1.3025
7.1514 4.3761 1.3192
7.1075 4.7089 1.3381
7.0621 5.0535 1.3592
7.0144 5.4112 1.3827
6.9421 5.7653 1.4043
6.8907 6.1546 1.4333
6.8368 6.5634 1.4656
6.8028 7.0180 1.5065
6.7424 7.4757 1.5463
6.1550 7.3386 1.4660
5.9380 7.6204 1.4732
5.5560 7.6847 1.4407
5.5330 8.2629 1.5050
6.3394 10.2455 1.8162
6.2247 10.9184 1.8869
5.6756 10.8432 1.8299
5.1549 10.7738 1.7782
4.6584 10.7081 1.7311
4.1833 10.6461 1.6883
4.5624 12.9601 2.0189
4.0308 12.9131 1.9788
3.8594 14.1294 2.1328
3.3651 14.3250 2.1328
2.8620 14.5043 2.1328
2.3505 14.6668 2.1328
1.8312 14.8120 2.1328
1.3045 14.9396 2.1328
0.7712 15.0492 2.1328
0.2318 15.1403 2.1328
-0.3283 15.9479 2.2359
-0.9047 16.0035 2.2359
-1.4855 16.0386 2.2359
-2.0700 16.0528 2.2359
-2.6573 16.0459 2.2359
-3.2468 16.0175 2.2359
-3.8376 15.9673 2.2359
-4.4289 15.8952 2.2359
-5.0198 15.8010 2.2359
-5.6094 15.6843 2.2359
-6.1969 15.5452 2.2359
-6.7813 15.3835 2.2359
-7.3616 15.1992 2.2359
-7.9370 14.9922 2.2359
-8.1136 14.0809 2.1326
-8.6501 13.8403 2.1326
-9.1790 13.5784 2.1326
-9.6995 13.2952 2.1326
-10.2104 12.9909 2.1326
-10.5870 12.5193 2.1079
-11.1670 12.2840 2.1263
-11.9034 12.1868 2.1740
-12.3456 11.7651 2.1687
-7.1330 6.3258 1.2083
-12.5549 10.3550 2.0559
-12.9579 9.9293 2.0559
-13.3445 9.4867 2.0559
-13.7139 9.0278 2.0559
-11.7347 7.1360 1.7152
-10.5119 5.8874 1.5010
-10.4427 5.3666 1.4593
-10.3768 4.8712 1.4218
-10.3139 4.3981 1.3880
-10.2536 3.9447 1.3576
-10.1956 3.5087 1.3304
-10.1397 3.0880 1.3060
-10.0856 2.6809 1.2843
-10.0330 2.2856 1.2651
-9.9819 1.9008 1.2482
-9.9319 1.5250 1.2336
-9.8830 1.1570 1.2211
-9.8349 0.7956 1.2106
-9.7876 0.4398 1.2021
-9.7409 0.0886 1.1954
-9.6947 -0.2591 1.1906
-9.6766 -0.6060 1.1909
-9.8139 -0.9684 1.2123
-13.1021 -1.7685 1.6268
-17.0628 -2.9288 2.1328
-16.9240 -3.5331 2.1328
-16.7607 -4.1305 2.1328
-16.5733 -4.7199 2.1328
-16.3623 -5.3002 2.1328
-16.1281 -5.8705 2.1328
-16.6386 -6.7405 2.2359
-16.3466 -7.3143 2.2359
-16.0323 -7.8744 2.2359
-15.6964 -8.4203 2.2359
-15.3398 -8.9509 2.2359
-14.9632 -9.4654 2.2359
-14.5674 -9.9631 2.2359
-14.1533 -10.4433 2.2359
-13.7219 -10.9054 2.2359
-13.2741 -11.3487 2.2359
-12.8107 -11.7727 2.2359
-12.3328 -12.1769 2.2359
-11.8412 -12.5608 2.2359
-11.3370 -12.9240 2.2359
-10.8211 -13.2663 2.2359
-10.2358 -13.5098 2.2231
-9.4232 -13.4101 2.1591
-8.7882 -13.5114 2.1328
-8.2608 -13.7555 2.1328
-7.7269 -13.9785 2.1328
-7.1873 -14.1806 2.1328
-6.6430 -14.3616 2.1328
-6.0948 -14.5216 2.1328
-5.5435 -14.6607 2.1328
-4.9901 -14.7788 2.1328
-4.4353 -14.8763 2.1328
-3.8800 -14.9531 2.1328
-3.3249 -15.0095 2.1328
-2.7708 -15.0458 2.1328
-2.2183 -15.0621 2.1328
-1.6683 -15.0586 2.1328
-1.1239 -15.0708 2.1377
-0.5795 -15.0288 2.1377
-0.0395 -12.8577 2.1328
0.4204 -12.7978 2.1328
0.8760 -12.7222 2.1328
1.3274 -12.6362 2.1336
1.7848 -12.6126 2.1477
2.2277 -12.4905 2.1477
2.6644 -12.3538 2.1477
3.0945 -12.2026 2.1477
3.5174 -12.0375 2.1477
3.9328 -11.8586 2.1477
4.3403 -11.6665 2.1477
4.7396 -11.4614 2.1477
4.9954 -10.9480 2.0913
5.3671 -10.7241 2.0913
5.1991 -9.5172 1.8976
5.0421 -8.4894 1.7334
4.3301 -6.7273 1.4090
4.2680 -6.1342 1.3202
4.4122 -5.8787 1.3025
4.5521 -5.6311 1.2869
4.8732 -5.6035 1.3235
5.0080 -5.3564 1.3105
5.1395 -5.1152 1.2992
5.2684 -4.8789 1.2898
5.3950 -4.6469 1.2820
5.5196 -4.4184 1.2759
5.6426 -4.1928 1.2714
5.7644 -3.9695 1.2684
5.6170 -3.5769 1.2091
5.7513 -3.3778 1.2132
5.8861 -3.1777 1.2187
6.2585 -3.0931 1.2739
6.7320 -3.0307 1.3491
7.2641 -2.9604 1.4352
5.6444 -2.0666 1.1010
5.6741 -1.8487 1.0942
5.6434 -1.6164 1.0774
5.6137 -1.3912 1.0622
5.5848 -1.1723 1.0487
5.5567 -0.9589 1.0368
5.5463 -0.7526 1.0295
6.1446 -0.6094 1.1359
7.7936 -0.4903 1.4367
7.7564 -0.2080 1.4274
7.7195 0.0711 1.4199
7.6830 0.3478 1.4141
7.6468 0.6227 1.4100
7.6106 0.8966 1.4076
7.5745 1.1703 1.4067
7.5383 1.4444 1.4075
7.5020 1.7196 1.4100
7.4654 1.9967 1.4141
7.4285 2.2764 1.4200
7.3912 2.5595 1.4275
7.3533 2.8468 1.4369
7.3147 3.1391 1.4481
7.2753 3.4374 1.4613
7.2350 3.7427 1.4765
7.1937 4.0559 1.4939
7.1511 4.3784 1.5136
7.1072 4.7113 1.5357
7.0617 5.0561 1.5605
7.0125 5.4129 1.5877
6.9417 5.7685 1.6135
6.8903 6.1580 1.6475
6.8363 6.5671 1.6853
6.8023 7.0220 1.7330
6.7418 7.4801 1.7797
6.1502 7.3380 1.6869
5.9332 7.6197 1.6960
5.5553 7.6897 1.6606
5.5281 8.2622 1.7343
6.3077 10.2028 2.0854
5.9612 10.4656 2.0865
5.6046 10.7178 2.0877
5.1499 10.7742 2.0537
4.6535 10.7085 2.0005
4.1781 10.6456 1.9520
4.0736 11.5868 2.0882
3.7474 12.0228 2.1328
3.3263 12.1981 2.1328
2.8978 12.3593 2.1328
2.4621 12.5059 2.1327
2.0197 12.6377 2.1327
1.5712 12.7544 2.1327
1.1171 12.8565 2.1328
0.6577 12.9423 2.1328
0.2029 13.6409 2.2359
-0.2879 13.6968 2.2359
-0.7824 13.7353 2.2359
-1.2800 13.7560 2.2359
-1.7801 13.7589 2.2359
-2.2820 13.7436 2.2359
-2.7850 13.7099 2.2359
-3.2885 13.6577 2.2359
-3.7916 13.5868 2.2359
-4.2938 13.4971 2.2359
-4.7942 13.3884 2.2359
-5.2922 13.2608 2.2359
-5.7869 13.1141 2.2359
-6.2775 12.9485 2.2359
-6.7633 12.7639 2.2359
-7.2434 12.5603 2.2359
-7.6171 12.1781 2.2069
-7.8063 11.5392 2.1328
-8.2436 11.2917 2.1328
-8.6724 11.0267 2.1328
-9.0919 10.7446 2.1328
-9.5015 10.4457 2.1328
-9.9003 10.1301 2.1328
-10.2876 9.7984 2.1328
-7.1328 6.3223 1.4267
-11.0246 9.0881 2.1328
-11.6025 8.8864 2.1759
-11.9432 8.4865 2.1759
-12.0119 7.9037 2.1303
-11.7343 7.1325 2.0299
-10.5115 5.8846 1.7771
-10.4423 5.3642 1.7284
-10.3765 4.8691 1.6845
-10.3137 4.3962 1.6450
-10.2534 3.9431 1.6094
-10.1955 3.5073 1.5775
-10.1396 3.0868 1.5490
-10.0855 2.6799 1.5235
-10.0329 2.2849 1.5010
-9.9818 1.9002 1.4812
-9.9318 1.5246 1.4640
-9.8829 1.1568 1.4492
-9.8349 0.7956 1.4368
-9.7876 0.4399 1.4267
-9.7409 0.0888 1.4187
-9.6947 -0.2588 1.4129
-9.6766 -0.6054 1.4132
-9.8133 -0.9676 1.4383
-13.1022 -1.7675 1.9300
-14.3856 -2.4678 2.1328
-14.2716 -2.9777 2.1328
-14.1373 -3.4821 2.1328
-13.9830 -3.9800 2.1328
-13.8091 -4.4708 2.1328
-13.6160 -4.9535 2.1328
-13.4041 -5.4273 2.1328
-13.8106 -6.1762 2.2359
-13.5506 -6.6520 2.2359
-13.2724 -7.1161 2.2359
-12.9767 -7.5679 2.2359
-12.6642 -8.0067 2.2359
-12.3354 -8.4319 2.2359
-11.9911 -8.8428 2.2359
-11.6319 -9.2389 2.2359
-11.2586 -9.6197 2.2359
-10.8719 -9.9847 2.2359
-10.4739 -10.3349 2.2362
-10.0645 -10.6691 2.2366
-9.6425 -10.9848 2.2367
-9.2091 -11.2821 2.2365
-8.7674 -11.5632 2.2367
-8.3165 -11.8260 2.2368
-7.8565 -12.0691 2.2365
-7.3895 -12.2939 2.2363
-6.9161 -12.5003 2.2361
-6.4372 -12.6882 2.2359
-5.8358 -12.6033 2.1914
-5.2148 -12.4110 2.1328
-4.7469 -12.5383 2.1328
-4.2765 -12.6480 2.1328
-3.8043 -12.7401 2.1328
-3.3309 -12.8146 2.1328
-2.8571 -12.8718 2.1328
-2.3834 -12.9116 2.1328
-1.9106 -12.9343 2.1328
-1.4392 -12.9400 2.1328
-0.9698 -12.9290 2.1328
-0.3460 -8.8721 1.4667
-0.0395 -11.2836 2.1337
0.3644 -11.2412 2.1346
0.7653 -11.1845 2.1354
1.1626 -11.1132 2.1361
1.5558 -11.0284 2.1368
1.9447 -10.9303 2.1375
2.3288 -10.8192 2.1382
2.7064 -10.6909 2.1380
3.0773 -10.5472 2.1373
3.4596 -10.4458 2.1477
3.8202 -10.2810 2.1477
4.1738 -10.1044 2.1477
4.5201 -9.9165 2.1477
4.7485 -9.4971 2.0990
5.0529 -9.2578 2.0913
5.0435 -8.4988 1.9653
4.3310 -6.7338 1.5967
4.2666 -6.1367 1.4947
4.4109 -5.8810 1.4742
4.5508 -5.6333 1.4560
4.8720 -5.6056 1.4970
5.0069 -5.3584 1.4817
5.1385 -5.1171 1.4686
5.2674 -4.8807 1.4575
5.3940 -4.6486 1.4484
5.5187 -4.4200 1.4411
5.6418 -4.1943 1.4356
5.7637 -3.9709 1.4319
5.6162 -3.5781 1.3646
5.7505 -3.3789 1.3690
5.8855 -3.1788 1.3750
6.2564 -3.0934 1.4367
6.7299 -3.0309 1.5212
7.2619 -2.9607 1.6182
5.6445 -2.0675 1.2416
5.6129 -1.8294 1.2205
5.5826 -1.5995 1.2015
5.5532 -1.3767 1.1845
5.5246 -1.1601 1.1694
5.4967 -0.9489 1.1560
5.5451 -0.7526 1.1601
6.1698 -0.6120 1.2856
7.7937 -0.4903 1.6193
7.7564 -0.2079 1.6089
7.7195 0.0714 1.6005
7.6830 0.3481 1.5940
7.6467 0.6232 1.5894
7.6105 0.8972 1.5867
7.5744 1.1710 1.5859
7.5382 1.4452 1.5870
7.5019 1.7205 1.5899
7.4653 1.9977 1.5948
7.4284 2.2776 1.6016
7.3910 2.5608 1.6104
7.3531 2.8482 1.6212
7.3145 3.1407 1.6342
7.2751 3.4392 1.6494
7.2348 3.7446 1.6669
7.1934 4.0580 1.6869
7.1508 4.3807 1.7096
7.1069 4.7138 1.7350
7.0613 5.0588 1.7635
7.0105 5.4146 1.7944
6.9413 5.7716 1.8244
6.8898 6.1614 1.8635
6.8358 6.5708 1.9069
6.8017 7.0261 1.9616
6.7412 7.4846 2.0151
6.1712 7.3684 1.9175
5.9283 7.6191 1.9204
5.5547 7.6946 1.8824
5.5232 8.2616 1.9652
5.6184 9.0957 2.1077
5.2544 9.2332 2.0878
4.9350 9.4464 2.0878
4.6073 9.6492 2.0878
4.2718 9.8412 2.0878
4.0133 10.2380 2.1328
3.6554 10.4113 2.1328
3.2905 10.5726 2.1328
2.9189 10.7218 2.1328
2.5410 10.8583 2.1328
2.1572 10.9820 2.1328
1.7679 11.0925 2.1328
1.3735 11.1896 2.1328
0.9746 11.2730 2.1328
0.5828 11.5682 2.1752
0.1726 11.9487 2.2359
-0.2572 11.9916 2.2359
-0.6898 12.0191 2.2359
-1.1247 12.0312 2.2359
-1.5613 12.0275 2.2359
-1.9990 12.0079 2.2359
-2.4373 11.9724 2.2359
-2.8754 11.9206 2.2359
-3.3129 11.8527 2.2359
-3.7491 11.7684 2.2359
-4.1834 11.6678 2.2359
-4.6150 11.5508 2.2359
-5.0434 11.4174 2.2359
-5.4678 11.2676 2.2359
-5.8877 11.1016 2.2359
-6.3023 10.9193 2.2359
-6.7110 10.7210 2.2359
-7.1131 10.5068 2.2359
-7.3322 10.0364 2.1836
-7.5306 9.5687 2.1328
-7.8913 9.3199 2.1328
-8.2431 9.0568 2.1328
-8.5854 8.7796 2.1328
-8.9176 8.4888 2.1328
-7.0420 6.2384 1.6256
-9.5490 7.8677 2.1328
-9.8471 7.5381 2.1328
-10.1327 7.1965 2.1328
-10.4053 6.8434 2.1328
-10.6643 6.4792 2.1328
-10.5112 5.8818 2.0550
-10.4420 5.3617 1.9992
-10.3762 4.8669 1.9490
-10.3134 4.3943 1.9037
-10.2532 3.9414 1.8629
-10.1953 3.5059 1.8263
-10.1394 3.0857 1.7935
-10.0853 2.6789 1.7643
-10.0328 2.2841 1.7384
-9.9817 1.8996 1.7157
-9.9318 1.5242 1.6959
-9.8829 1.1565 1.6789
-9.8349 0.7955 1.6645
-9.7876 0.4400 1.6528
-9.7410 0.0890 1.6436
-9.6948 -0.2584 1.6367
-9.6766 -0.6049 1.6370
-9.8126 -0.9669 1.6657
-12.5025 -1.6855 2.1328
-12.4235 -2.1299 2.1328
-12.3270 -2.5705 2.1328
-12.2132 -3.0065 2.1328
-12.0823 -3.4372 2.1328
-11.9347 -3.8619 2.1328
-11.7706 -4.2798 2.1328
-11.5905 -4.6904 2.1328
-11.3946 -5.0930 2.1328
-11.7240 -5.7522 2.2359
-11.4870 -6.1555 2.2359
-11.2349 -6.5485 2.2359
-10.9694 -6.9313 2.2361
-10.6899 -7.3029 2.2364
-10.3969 -7.6627 2.2366
-10.0903 -8.0097 2.2368
-9.7712 -8.3438 2.2370
-9.4413 -8.6655 2.2373
-9.1007 -8.9741 2.2379
-8.7487 -9.2681 2.2382
-8.3862 -9.5471 2.2384
-8.0132 -9.8099 2.2383
-7.6312 -10.0572 2.2380
-7.2414 -10.2892 2.2378
-6.8445 -10.5057 2.2375
-6.4410 -10.7065 2.2373
-6.0316 -10.8916 2.2370
-5.6171 -11.0608 2.2368
-5.1980 -11.2140 2.2365
-4.7750 -11.3511 2.2363
-4.3487 -11.4722 2.2360
-3.9200 -11.5776 2.2359
-3.4002 -11.3693 2.1786
-2.9165 -11.2008 2.1328
-2.5036 -11.2565 2.1328
-2.0904 -11.2971 2.1328
-1.6776 -11.3228 2.1328
-1.2655 -11.3336 2.1328
-0.8548 -11.3297 2.1328
-0.3494 -8.8614 1.6708
-0.0349 -8.8556 1.8821
0.3203 -10.0167 2.1369
0.6777 -9.9688 2.1375
1.0322 -9.9087 2.1380
1.3832 -9.8349 2.1383
1.7296 -9.7450 2.1377
2.0714 -9.6434 2.1371
2.4084 -9.5302 2.1364
2.7400 -9.4057 2.1357
3.0661 -9.2702 2.1350
3.3862 -9.1240 2.1344
3.7001 -8.9674 2.1337
4.0072 -8.8002 2.1329
4.3089 -8.6259 2.1328
4.5802 -8.3991 2.1218
4.7963 -8.0889 2.0913
4.3319 -6.7404 1.7864
4.2652 -6.1392 1.6709
4.4096 -5.8834 1.6474
4.5496 -5.6355 1.6267
4.8708 -5.6078 1.6720
5.0057 -5.3605 1.6546
5.1374 -5.1190 1.6396
5.2664 -4.8825 1.6268
5.3931 -4.6503 1.6162
5.5179 -4.4216 1.6078
5.6410 -4.1958 1.6014
5.7629 -3.9723 1.5969
5.6154 -3.5793 1.5216
5.7498 -3.3800 1.5263
5.8848 -3.1798 1.5327
6.2543 -3.0937 1.6009
6.7277 -3.0312 1.6949
7.2596 -2.9610 1.8027
5.6446 -2.0683 1.3835
5.6743 -1.8501 1.3747
5.6436 -1.6176 1.3532
5.6139 -1.3922 1.3340
5.5850 -1.1731 1.3169
5.5568 -0.9595 1.3018
5.5450 -0.7528 1.2922
6.1695 -0.6121 1.4319
7.7937 -0.4903 1.8036
7.7564 -0.2077 1.7920
7.7195 0.0716 1.7827
7.6829 0.3485 1.7755
7.6466 0.6236 1.7705
7.6105 0.8978 1.7676
7.5743 1.1717 1.7668
7.5381 1.4460 1.7681
7.5018 1.7215 1.7716
7.4652 1.9988 1.7771
7.4282 2.2788 1.7849
7.3908 2.5621 1.7949
7.3529 2.8497 1.8073
7.3142 3.1423 1.8220
7.2748 3.4409 1.8392
7.2345 3.7465 1.8591
7.1931 4.0601 1.8818
7.1505 4.3829 1.9074
7.1065 4.7163 1.9362
7.0610 5.0615 1.9685
7.0086 5.4163 2.0029
6.9408 5.7748 2.0374
6.8894 6.1649 2.0816
6.8261 6.5658 2.1277
6.6008 6.8232 2.1277
6.3665 7.0734 2.1277
6.1231 7.3162 2.1277
5.8710 7.5512 2.1277
5.5540 7.6997 2.1063
5.3415 7.9964 2.1277
5.0645 8.2061 2.1277
4.7797 8.4067 2.1277
