ply
format ascii 1.0
element vertex 2156
property float32 x
property float32 y
property float32 z
end_header
5.1284 -8.5826 0.9670
5.1864 -8.0117 0.9230
5.1284 -7.3311 0.8651
5.4911 -7.2786 0.8814
5.8880 -7.2481 0.9026
6.3599 -7.2786 0.9340
7.4654 -7.9490 1.0536
7.4654 -7.3978 1.0152
7.4654 -6.8846 0.9807
7.4654 -6.4043 0.9496
7.4654 -5.9527 0.9216
7.4655 -5.5263 0.8963
7.4655 -5.1219 0.8734
7.4655 -4.7370 0.8528
7.4655 -4.3693 0.8341
7.4655 -4.0167 0.8172
7.4655 -3.6774 0.8020
7.4655 -3.3500 0.7883
7.4655 -3.0329 0.7761
7.4655 -2.7250 0.7652
7.4655 -2.4251 0.7556
7.4655 -2.1320 0.7471
7.4655 -1.8449 0.7398
7.4655 -1.5629 0.7335
7.4477 -1.2820 0.7265
7.4398 -1.0072 0.7215
7.4398 -0.7364 0.7183
7.4398 -0.4675 0.7160
7.4398 -0.1998 0.7146
7.4569 0.0675 0.7158
7.4656 0.3359 0.7171
7.4656 0.6050 0.7185
7.4656 0.8757 0.7208
6.9841 1.0746 0.6774
8.3645 1.5963 0.8161
8.3645 1.9098 0.8220
6.4523 1.7191 0.6395
6.0941 1.8603 0.6101
6.3163 2.1789 0.6395
6.7376 2.5984 0.6910
7.4251 3.1743 0.7725
7.4223 3.4933 0.7845
7.4214 3.8241 0.7982
7.4215 4.1679 0.8136
6.9775 4.2550 0.7809
6.4432 4.2537 0.7375
5.9672 4.2547 0.6999
5.5384 4.2569 0.6670
5.2320 4.3289 0.6482
6.0220 5.3580 0.7692
6.0220 5.7583 0.7950
6.0220 6.1871 0.8236
5.9700 6.5913 0.8481
5.4987 6.5273 0.8138
6.3115 8.0625 0.9761
6.2356 8.5834 1.0112
6.2356 9.2655 1.0643
6.2357 10.0245 1.1248
6.2357 10.8765 1.1944
6.2357 11.8425 1.2748
6.2639 13.0082 1.3750
6.2358 14.2357 1.4799
6.0944 15.3941 1.5764
6.3561 17.9079 1.8091
5.6410 17.9079 1.7873
5.5708 20.1870 1.9933
5.1847 21.8129 2.1340
4.3987 21.9863 2.1340
3.6068 22.1312 2.1340
2.0697 16.3842 1.5716
2.0100 22.3345 2.1340
1.2654 23.4745 2.2371
0.4220 23.5049 2.2371
-0.4219 23.5048 2.2371
-1.2653 23.4741 2.2371
-2.1070 23.4129 2.2371
-2.9459 23.3214 2.2371
-3.7809 23.1994 2.2371
-4.6109 23.0473 2.2371
-5.4348 22.8653 2.2371
-6.1547 22.3030 2.2024
-6.7340 21.3781 2.1338
-7.4962 21.1204 2.1338
-8.2485 20.8352 2.1338
-8.9899 20.5232 2.1338
-9.7194 20.1845 2.1338
-10.6476 20.2213 2.1771
-9.0547 15.7936 1.7345
-9.4567 15.2028 1.7061
-10.0292 14.9023 1.7120
-10.0293 13.8055 1.6267
-10.0294 12.8120 1.5513
-10.0295 11.9057 1.4846
-10.0296 11.0734 1.4251
-10.0297 10.3046 1.3719
-9.0548 8.6583 1.1955
-9.0548 8.0564 1.1569
-9.5373 7.8909 1.1818
-10.2664 7.8910 1.2366
-11.0670 7.8910 1.2984
-10.8970 7.1941 1.2476
-10.8970 6.6451 1.2198
-11.2211 6.3017 1.2303
-12.2297 6.3017 1.3156
-13.0501 6.1421 1.3797
-13.9992 5.9848 1.4568
-13.9992 5.3990 1.4361
-13.9992 4.8293 1.4178
-10.8971 3.3266 1.0911
-10.8971 2.9033 1.0803
-6.4381 1.4700 0.6328
-11.2363 2.1444 1.0965
-9.8482 1.5153 0.9554
-9.8479 1.1552 0.9511
-9.8476 0.7980 0.9480
-9.8472 0.4430 0.9461
-9.8469 0.0892 0.9454
-9.8465 -0.2644 0.9460
-9.8462 -0.6187 0.9478
-9.8459 -0.9745 0.9508
-9.8455 -1.3329 0.9551
-9.8452 -1.6947 0.9606
-9.8448 -2.0610 0.9675
-9.8445 -2.4328 0.9757
-9.8441 -2.8113 0.9854
-9.8438 -3.1976 0.9965
-9.8434 -3.5930 1.0092
-9.8430 -3.9988 1.0235
-9.8426 -4.4167 1.0396
-9.8422 -4.8482 1.0575
-10.0023 -5.3815 1.0951
-20.0192 -11.7165 2.2371
-19.5804 -12.4243 2.2371
-19.1168 -13.1158 2.2371
-18.6290 -13.7900 2.2371
-18.1174 -14.4463 2.2371
-17.5829 -15.0838 2.2371
-17.0262 -15.7016 2.2371
-16.4479 -16.2990 2.2371
-15.8487 -16.8753 2.2371
-15.2295 -17.4298 2.2371
-14.4429 -17.7792 2.2143
-13.4355 -17.8093 2.1570
-12.6564 -18.0927 2.1353
-11.9895 -18.5210 2.1340
-11.3150 -18.9364 2.1340
-10.6263 -19.3274 2.1340
-9.9242 -19.6936 2.1340
-9.2096 -20.0346 2.1340
-8.4834 -20.3498 2.1340
-7.7466 -20.6389 2.1340
-6.9999 -20.9016 2.1340
-6.2445 -21.1375 2.1340
-5.4940 -21.3960 2.1389
-4.4762 -20.4548 2.0276
-3.9442 -21.7323 2.1389
-2.9751 -20.5719 2.0130
-1.5671 -14.4917 1.4117
-1.5980 -22.2148 2.1571
-0.7995 -22.2576 2.1571
0.0000 -17.8592 2.1366
0.6448 -17.9508 2.1489
1.2889 -17.9164 2.1489
1.9313 -17.8591 2.1489
2.5712 -17.7788 2.1489
3.2080 -17.6758 2.1489
3.7365 -17.0739 2.0906
3.2156 -12.5224 1.5464
3.5393 -11.9799 1.4940
3.9684 -11.8493 1.4944
4.2849 -11.4158 1.4581
4.5868 -11.0023 1.4252
4.8757 -10.6064 1.3956
4.9997 -9.9212 1.3281
5.2971 -9.6342 1.3141
5.1282 -8.5822 1.1948
5.1715 -7.9886 1.1371
5.1284 -7.3310 1.0689
5.4912 -7.2786 1.0892
5.8881 -7.2481 1.1154
6.3106 -7.2221 1.1453
7.4654 -7.9487 1.3020
7.4654 -7.3976 1.2546
7.4654 -6.8844 1.2121
7.4654 -6.4041 1.1737
7.4654 -5.9525 1.1391
7.4655 -5.5261 1.1079
7.4655 -5.1217 1.0797
7.4655 -4.7368 1.0542
7.4655 -4.3691 1.0311
7.4655 -4.0165 1.0103
7.4655 -3.6773 0.9916
7.4655 -3.3498 0.9747
7.4655 -3.0328 0.9597
7.4655 -2.7249 0.9462
7.4655 -2.4249 0.9344
7.4655 -2.1319 0.9240
7.4655 -1.8448 0.9150
7.4655 -1.5627 0.9073
7.4475 -1.2818 0.8987
7.4398 -1.0070 0.8926
7.4398 -0.7362 0.8886
7.4398 -0.4673 0.8858
7.4398 -0.1996 0.8841
7.4570 0.0677 0.8857
7.4656 0.3360 0.8873
7.4656 0.6052 0.8891
7.4656 0.8759 0.8921
6.7831 1.0438 0.8143
8.3645 1.5964 1.0101
8.3645 1.9100 1.0174
6.4518 1.7191 0.7916
6.0941 1.8605 0.7552
6.5163 2.2481 0.8168
6.7376 2.5986 0.8555
7.4252 3.1745 0.9564
7.4226 3.4936 0.9714
7.4227 3.8249 0.9886
7.4229 4.1688 1.0076
6.9785 4.2557 0.9672
6.4440 4.2544 0.9135
5.9671 4.2548 0.8669
5.5383 4.2570 0.8261
5.2320 4.3290 0.8029
6.0220 5.3581 0.9529
6.0220 5.7584 0.9848
6.0220 6.1872 1.0203
5.9698 6.5913 1.0507
5.4985 6.5272 1.0082
6.3115 8.0627 1.2093
6.2356 8.5837 1.2529
6.2356 9.2657 1.3187
6.2357 10.0247 1.3938
6.2357 10.8768 1.4800
6.2357 11.8427 1.5797
6.2540 12.9880 1.7012
6.2358 14.2360 1.8340
6.0944 15.3944 1.9536
5.9792 16.8464 2.1090
5.3711 17.0515 2.1090
4.8122 17.4383 2.1340
4.1834 17.6009 2.1340
3.5492 17.7406 2.1340
2.9103 17.8573 2.1340
2.0697 16.3845 1.9478
1.7001 18.8917 2.2371
1.0210 18.9408 2.2371
0.3405 18.9654 2.2371
-0.3404 18.9653 2.2371
-1.0209 18.9406 2.2371
-1.7001 18.8914 2.2371
-2.3770 18.8176 2.2371
-3.0507 18.7194 2.2371
-3.7205 18.5969 2.2371
-4.3853 18.4503 2.2371
-5.0444 18.2797 2.2371
-5.6968 18.0855 2.2371
-6.1578 17.3498 2.1722
-6.6562 16.8135 2.1338
-7.2547 16.5621 2.1338
-7.8436 16.2892 2.1338
-8.4222 15.9952 2.1338
-8.9897 15.6807 2.1338
-9.4565 15.2028 2.1139
-10.0286 14.9019 2.1211
-10.0288 13.8052 2.0153
-10.0289 12.8117 1.9219
-10.0291 11.9054 1.8391
-10.0292 11.0732 1.7654
-10.0293 10.3045 1.6994
-9.0548 8.6585 1.4809
-9.0548 8.0566 1.4330
-9.5370 7.8909 1.4638
-10.2661 7.8910 1.5315
-11.0667 7.8910 1.6079
-10.8970 7.1943 1.5451
-10.8970 6.6454 1.5106
-11.2206 6.3017 1.5234
-12.2292 6.3017 1.6290
-13.0495 6.1421 1.7082
-13.9992 5.9851 1.8036
-13.9992 5.3993 1.7779
-13.9992 4.8296 1.7552
-10.8971 3.3268 1.3507
-10.8971 2.9035 1.3372
-6.4374 1.4699 0.7832
-11.2352 2.1444 1.3570
-9.8482 1.5155 1.1824
-9.8479 1.1554 1.1770
-9.8476 0.7982 1.1730
-9.8472 0.4432 1.1706
-9.8469 0.0894 1.1698
-9.8465 -0.2642 1.1704
-9.8462 -0.6185 1.1725
-9.8459 -0.9743 1.1762
-9.8455 -1.3327 1.1814
-9.8452 -1.6945 1.1882
-9.8448 -2.0608 1.1966
-9.8445 -2.4327 1.2067
-9.8441 -2.8111 1.2186
-9.8438 -3.1974 1.2323
-9.8434 -3.5928 1.2479
-9.8430 -3.9986 1.2655
-9.8426 -4.4165 1.2853
-9.8422 -4.8480 1.3075
-10.0017 -5.3810 1.3540
-15.4475 -9.0405 2.1340
-15.1098 -9.5872 2.1340
-15.4655 -10.6102 2.2371
-15.0715 -11.1563 2.2371
-14.6583 -11.6878 2.2371
-14.2265 -12.2041 2.2371
-13.7766 -12.7045 2.2371
-13.3093 -13.1885 2.2371
-12.8250 -13.6554 2.2371
-12.3244 -14.1046 2.2371
-11.8106 -14.5385 2.2375
-11.2820 -14.9543 2.2380
-10.7356 -15.3465 2.2379
-10.1783 -15.7229 2.2383
-9.6056 -16.0752 2.2382
-9.0201 -16.4056 2.2379
-8.4233 -16.7148 2.2377
-7.8158 -17.0021 2.2373
-7.1988 -17.2679 2.2371
-6.4384 -17.1534 2.1910
-5.6664 -16.9195 2.1340
-5.0550 -17.1107 2.1340
-4.4372 -17.2801 2.1340
-3.8138 -17.4273 2.1340
-3.1855 -17.5521 2.1340
-2.5533 -17.6545 2.1340
-1.5564 -14.3927 1.7319
-1.2801 -17.7955 2.1345
-0.6408 -17.8395 2.1356
0.0000 -15.0009 2.1383
0.5384 -14.9852 2.1374
1.0755 -14.9501 2.1365
1.6109 -14.8955 2.1356
2.1436 -14.8211 2.1345
2.6737 -14.7315 2.1340
3.2010 -14.6267 2.1340
3.2156 -12.5221 1.8425
3.5393 -11.9798 1.7801
3.9685 -11.8492 1.7807
4.2850 -11.4157 1.7374
4.5868 -11.0022 1.6983
4.8758 -10.6063 1.6630
4.9998 -9.9212 1.5826
5.2972 -9.6342 1.5660
5.1284 -8.5822 1.4238
5.1864 -8.0114 1.3590
5.1284 -7.3308 1.2738
5.4914 -7.2786 1.2980
5.8208 -7.1650 1.3141
6.3602 -7.2786 1.3757
7.4654 -7.9485 1.5518
7.4654 -7.3974 1.4954
7.4654 -6.8842 1.4447
7.4654 -6.4039 1.3990
7.4654 -5.9523 1.3578
7.4655 -5.5259 1.3207
7.4655 -5.1216 1.2871
7.4655 -4.7367 1.2567
7.4655 -4.3689 1.2292
7.4655 -4.0163 1.2045
7.4655 -3.6771 1.1822
7.4655 -3.3497 1.1622
7.4655 -3.0326 1.1442
7.4655 -2.7247 1.1283
7.4655 -2.4248 1.1142
7.4655 -2.1317 1.1018
7.4655 -1.8446 1.0911
7.4655 -1.5626 1.0820
7.4473 -1.2817 1.0717
7.4398 -1.0069 1.0645
7.4398 -0.7361 1.0598
7.4398 -0.4672 1.0565
7.4398 -0.1995 1.0546
7.4571 0.0678 1.0565
7.4656 0.3362 1.0585
7.4656 0.6053 1.0607
6.6979 0.7859 0.9548
6.6560 1.0244 0.9532
7.7878 1.4865 1.1220
7.7310 1.7655 1.1220
6.4514 1.7191 0.9444
6.0941 1.8606 0.9011
6.7163 2.3172 1.0046
6.7377 2.5988 1.0209
7.4253 3.1747 1.1414
7.4239 3.4944 1.1595
7.4241 3.8258 1.1800
7.4243 4.1697 1.2028
6.9795 4.2565 1.1546
6.4449 4.2551 1.0905
5.9671 4.2549 1.0347
5.5383 4.2571 0.9860
5.2320 4.3291 0.9584
6.0220 5.3582 1.1375
6.0220 5.7586 1.1756
6.0220 6.1874 1.2180
5.9697 6.5912 1.2543
5.4984 6.5272 1.2036
6.2356 7.9660 1.4265
6.2356 8.5838 1.4959
6.2356 9.2659 1.5745
6.2357 10.0250 1.6641
6.2357 10.8770 1.7671
6.2357 11.8430 1.8862
6.2441 12.9677 2.0281
6.0907 13.9049 2.1389
5.5752 14.0830 2.1340
5.0665 14.2750 2.1340
4.5511 14.4487 2.1340
4.0299 14.6035 2.1340
3.5033 14.7395 2.1340
2.9721 14.8564 2.1340
2.4371 14.9541 2.1340
1.9018 15.0558 2.1373
1.4237 15.8201 2.2371
0.8550 15.8612 2.2371
0.2851 15.8818 2.2371
-0.2851 15.8817 2.2371
-0.8549 15.8611 2.2371
-1.4236 15.8199 2.2371
-1.9905 15.7582 2.2371
-2.5547 15.6761 2.2371
-3.1156 15.5736 2.2371
-3.6723 15.4510 2.2371
-4.2243 15.3084 2.2371
-4.7707 15.1459 2.2371
-5.3109 14.9638 2.2371
-5.8441 14.7624 2.2371
-6.1602 14.0637 2.1635
-6.5690 13.6424 2.1338
-7.0537 13.3965 2.1338
-7.5291 13.1333 2.1338
-7.9948 12.8531 2.1338
-8.4499 12.5563 2.1338
-8.8940 12.2434 2.1338
-9.3265 11.9147 2.1338
-9.7468 11.5706 2.1338
-10.0287 11.0730 2.1074
-10.0288 10.3043 2.0287
-9.0548 8.6587 1.7679
-9.0548 8.0568 1.7105
-9.5367 7.8909 1.7472
-10.2658 7.8910 1.8280
-11.0663 7.8910 1.9192
-10.8970 7.1946 1.8441
-10.8970 6.6456 1.8029
-11.2202 6.3017 1.8181
-12.2287 6.3017 1.9440
-13.0489 6.1421 2.0384
-13.3800 5.7206 2.0571
-13.5740 5.2356 2.0571
-13.7503 4.7440 2.0571
-10.8971 3.3270 1.6116
-10.8971 2.9037 1.5955
-6.4366 1.4699 0.9343
-11.2340 2.1444 1.6188
-9.8482 1.5157 1.4106
-9.8479 1.1555 1.4040
-9.8476 0.7984 1.3993
-9.8472 0.4434 1.3964
-9.8469 0.0896 1.3953
-9.8465 -0.2640 1.3960
-9.8462 -0.6183 1.3985
-9.8459 -0.9741 1.4028
-9.8455 -1.3325 1.4090
-9.8452 -1.6943 1.4170
-9.8448 -2.0606 1.4270
-9.8445 -2.4325 1.4390
-9.8441 -2.8109 1.4531
-9.8438 -3.1972 1.4693
-9.8434 -3.5926 1.4879
-9.8430 -3.9984 1.5089
-9.8426 -4.4163 1.5324
-9.8422 -4.8478 1.5588
-10.0011 -5.3805 1.6139
-12.9581 -7.5834 2.1340
-12.6752 -8.0422 2.1340
-12.3762 -8.4905 2.1340
-12.0613 -8.9278 2.1340
-11.7310 -9.3534 2.1340
-11.9367 -10.2395 2.2372
-11.5605 -10.6605 2.2374
-11.1694 -11.0678 2.2376
-10.7641 -11.4608 2.2377
-10.3473 -11.8416 2.2384
-9.9172 -12.2076 2.2391
-9.4729 -12.5560 2.2394
-9.0161 -12.8881 2.2397
-8.5477 -13.2036 2.2400
-8.0672 -13.5004 2.2400
-7.5755 -13.7780 2.2397
-7.0743 -14.0378 2.2394
-6.5643 -14.2794 2.2391
-6.0461 -14.5025 2.2388
-5.5203 -14.7069 2.2384
-4.9876 -14.8923 2.2381
-4.4488 -15.0586 2.2377
-3.9046 -15.2056 2.2374
-3.3555 -15.3331 2.2371
-2.7459 -15.1297 2.1917
-2.1465 -14.8418 2.1375
-1.5546 -14.3759 2.0611
-1.0769 -14.9705 2.1395
-0.5387 -14.9972 2.1391
0.0000 -12.8862 2.1340
0.4626 -12.8780 2.1340
0.9247 -12.8533 2.1340
1.3856 -12.8120 2.1340
1.8447 -12.7543 2.1340
2.3015 -12.6803 2.1340
2.7554 -12.5900 2.1340
3.2057 -12.4835 2.1340
3.5394 -11.9797 2.0681
3.9686 -11.8491 2.0688
4.2850 -11.4156 2.0185
4.5869 -11.0021 1.9731
4.8759 -10.6062 1.9321
4.9999 -9.9211 1.8387
5.2973 -9.6342 1.8195
5.1284 -8.5820 1.6543
5.1864 -8.0112 1.5790
5.1284 -7.3306 1.4801
5.4915 -7.2786 1.5083
5.8209 -7.1650 1.5269
6.3603 -7.2786 1.5986
7.4654 -7.9483 1.8032
7.4654 -7.3972 1.7376
7.4654 -6.8840 1.6788
7.4654 -6.4037 1.6257
7.4654 -5.9521 1.5779
7.4655 -5.5257 1.5348
7.4655 -5.1214 1.4958
7.4655 -4.7365 1.4605
7.4655 -4.3688 1.4286
7.4655 -4.0162 1.3999
7.4655 -3.6769 1.3740
7.4655 -3.3495 1.3508
7.4655 -3.0325 1.3300
7.4655 -2.7246 1.3115
7.4655 -2.4246 1.2951
7.4655 -2.1316 1.2808
7.4655 -1.8445 1.2683
7.4655 -1.5625 1.2578
7.4472 -1.2815 1.2459
7.4398 -1.0068 1.2376
7.4398 -0.7359 1.2321
7.4398 -0.4670 1.2283
7.4398 -0.1994 1.2261
7.4572 0.0680 1.2284
7.4656 0.3363 1.2307
7.4656 0.6055 1.2333
6.7193 0.7886 1.1138
6.6551 1.0244 1.1083
7.3162 1.3967 1.2257
7.3163 1.6709 1.2348
6.4509 1.7191 1.0982
6.0941 1.8607 1.0480
7.2097 2.4876 1.2542
6.7377 2.5989 1.1874
7.4253 3.1749 1.3275
7.4253 3.4952 1.3489
7.4254 3.8267 1.3728
7.4256 4.1707 1.3994
6.9804 4.2572 1.3432
6.4457 4.2558 1.2687
5.9679 4.2556 1.2038
5.5382 4.2571 1.1470
5.2320 4.3292 1.1149
6.0220 5.3584 1.3232
6.0220 5.7587 1.3676
6.0220 6.1876 1.4170
5.9695 6.5912 1.4592
5.4982 6.5272 1.4003
6.2356 7.9662 1.6596
6.2356 8.5840 1.7404
6.2356 9.2662 1.8319
6.2357 10.0252 1.9362
6.2357 10.8772 2.0560
6.0773 11.5423 2.1389
5.6465 11.7267 2.1340
5.2223 11.9227 2.1340
4.7914 12.1033 2.1340
4.3542 12.2683 2.1340
3.9112 12.4174 2.1340
3.4632 12.5504 2.1340
3.0107 12.6672 2.1340
2.5542 12.7675 2.1340
2.0944 12.8514 2.1340
1.7106 13.5427 2.2371
1.2235 13.5956 2.2371
0.7347 13.6309 2.2371
0.2450 13.6485 2.2371
-0.2450 13.6485 2.2371
-0.7347 13.6308 2.2371
-1.2234 13.5954 2.2371
-1.7106 13.5424 2.2371
-2.1954 13.4719 2.2371
-2.6775 13.3840 2.2371
-3.1560 13.2787 2.2371
-3.6303 13.1562 2.2371
-4.1000 13.0167 2.2371
-4.5642 12.8603 2.2371
-5.0225 12.6874 2.2371
-5.4742 12.4980 2.2371
-5.9188 12.2925 2.2371
-6.1591 11.6978 2.1679
-6.4711 11.2879 2.1338
-6.8714 11.0472 2.1338
-7.2627 10.7924 2.1338
-7.6445 10.5236 2.1338
-8.0164 10.2412 2.1338
-8.3778 9.9457 2.1338
-8.7283 9.6374 2.1338
-9.0674 9.3167 2.1338
-9.0548 8.6590 2.0566
-9.0548 8.0571 1.9899
-9.5364 7.8909 2.0324
-10.2654 7.8910 2.1263
-10.7918 7.6955 2.1771
-10.8970 7.1949 2.1451
-10.8970 6.6459 2.0971
-11.0713 6.2183 2.0867
-11.1256 5.7335 2.0571
-11.3223 5.3296 2.0571
-11.5043 4.9189 2.0571
-11.6714 4.5020 2.0571
-11.8234 4.0795 2.0571
-10.8971 3.3272 1.8743
-10.8971 2.9040 1.8555
-6.4359 1.4698 1.0863
-11.2329 2.1444 1.8822
-9.8482 1.5159 1.6403
-9.8479 1.1557 1.6326
-9.8476 0.7986 1.6270
-9.8472 0.4436 1.6236
-9.8469 0.0897 1.6223
-9.8465 -0.2638 1.6230
-9.8462 -0.6181 1.6259
-9.8459 -0.9739 1.6309
-9.8455 -1.3323 1.6380
-9.8452 -1.6941 1.6473
-9.8448 -2.0604 1.6589
-9.8445 -2.4323 1.6728
-9.8441 -2.8107 1.6891
-9.8438 -3.1970 1.7079
-9.8434 -3.5924 1.7294
-9.8430 -3.9982 1.7538
-9.8426 -4.4161 1.7811
-9.8422 -4.8475 1.8117
-10.0005 -5.3799 1.8754
-11.1498 -6.5249 2.1340
-10.9067 -6.9198 2.1340
-10.6496 -7.3058 2.1340
-10.3789 -7.6822 2.1340
-10.0949 -8.0487 2.1340
-9.7981 -8.4047 2.1340
-9.4887 -8.7498 2.1340
-9.6110 -9.5233 2.2373
-9.2630 -9.8623 2.2376
-8.9032 -10.1887 2.2379
-8.5317 -10.5018 2.2382
-8.1493 -10.8014 2.2385
-7.7565 -11.0873 2.2387
-7.3537 -11.3590 2.2390
-6.9414 -11.6161 2.2393
-6.5201 -11.8582 2.2396
-6.0904 -12.0851 2.2399
-5.6527 -12.2961 2.2401
-5.2064 -12.4883 2.2398
-4.7537 -12.6644 2.2394
-4.2951 -12.8242 2.2391
-3.8311 -12.9676 2.2388
-3.3625 -13.0944 2.2385
-2.8897 -13.2044 2.2382
-2.4134 -13.2973 2.2379
-1.9341 -13.3731 2.2375
-1.4525 -13.4317 2.2372
-0.9632 -13.3894 2.2230
-0.4627 -12.8815 2.1346
0.0000 -11.8470 2.2371
0.4093 -11.3928 2.1527
0.8110 -11.2721 2.1340
1.2152 -11.2359 2.1340
1.6178 -11.1853 2.1340
2.0184 -11.1203 2.1340
2.4164 -11.0411 2.1340
2.8114 -10.9477 2.1340
3.2027 -10.8402 2.1340
3.5901 -10.7188 2.1340
3.9728 -10.5836 2.1340
4.3402 -10.4101 2.1289
4.7114 -10.2483 2.1289
4.9999 -9.9210 2.0967
5.2974 -9.6342 2.0748
5.1284 -8.5818 1.8865
5.1864 -8.0110 1.8007
5.1284 -7.3304 1.6878
5.4916 -7.2786 1.7201
5.8211 -7.1650 1.7413
6.3605 -7.2786 1.8231
7.4654 -7.9481 2.0564
7.4654 -7.3970 1.9817
7.4654 -6.8838 1.9146
7.4654 -6.4035 1.8542
7.4654 -5.9520 1.7997
7.4655 -5.5255 1.7505
7.4655 -5.1212 1.7060
7.4655 -4.7363 1.6658
7.4655 -4.3686 1.6295
7.4655 -4.0160 1.5968
7.4655 -3.6768 1.5673
7.4655 -3.3493 1.5408
7.4655 -3.0323 1.5171
7.4655 -2.7244 1.4960
7.4655 -2.4244 1.4774
7.4655 -2.1314 1.4611
7.4655 -1.8443 1.4469
7.4655 -1.5623 1.4349
7.4471 -1.2813 1.4213
7.4398 -1.0066 1.4119
7.4398 -0.7358 1.4058
7.4398 -0.4669 1.4015
7.4398 -0.1992 1.3990
7.4574 0.0681 1.4016
7.4656 0.3365 1.4043
7.4656 0.6056 1.4072
6.7193 0.7887 1.2709
6.6848 1.0291 1.2703
6.3168 1.2060 1.2076
7.1163 1.6254 1.3705
6.4504 1.7191 1.2532
6.0941 1.8608 1.1960
7.3426 2.5336 1.4577
6.7378 2.5991 1.3551
7.4264 3.1755 1.5153
7.4266 3.4960 1.5397
7.4268 3.8275 1.5670
7.4270 4.1716 1.5974
6.9814 4.2580 1.5333
6.4466 4.2566 1.4482
5.9686 4.2563 1.3741
5.5381 4.2572 1.3092
5.2320 4.3294 1.2726
6.0220 5.3586 1.5104
6.0220 5.7589 1.5611
6.0220 6.1877 1.6175
5.9693 6.5912 1.6656
5.4981 6.5272 1.5984
6.2356 7.9664 1.8945
6.2356 8.5843 1.9867
6.2356 9.2664 2.0912
6.0341 9.7014 2.1389
5.6693 9.8895 2.1340
5.3111 10.0874 2.1340
4.9460 10.2723 2.1340
4.5745 10.4439 2.1340
4.1969 10.6020 2.1340
3.8139 10.7464 2.1340
3.4260 10.8769 2.1340
3.0335 10.9934 2.1340
2.6371 11.0956 2.1340
2.2372 11.1835 2.1340
1.8909 11.6031 2.1996
1.4984 11.8623 2.2371
1.0717 11.9087 2.2371
0.6436 11.9396 2.2371
0.2146 11.9550 2.2371
-0.2146 11.9550 2.2371
-0.6435 11.9395 2.2371
-1.0716 11.9085 2.2371
-1.4983 11.8621 2.2371
-1.9230 11.8004 2.2371
-2.3452 11.7234 2.2371
-2.7644 11.6313 2.2371
-3.1799 11.5241 2.2371
-3.5913 11.4019 2.2371
-3.9980 11.2651 2.2371
-4.3994 11.1137 2.2371
-4.7952 10.9479 2.2371
-5.1846 10.7679 2.2371
-5.5673 10.5741 2.2371
-5.9428 10.3666 2.2371
-6.1555 9.8966 2.1821
-6.3681 9.4633 2.1358
-6.6967 9.2190 2.1338
-7.0225 8.9718 2.1338
-7.3392 8.7130 2.1338
-7.6464 8.4431 2.1338
-7.9436 8.1622 2.1338
-8.2304 7.8709 2.1338
-8.5066 7.5695 2.1338
-8.7717 7.2584 2.1338
-9.0254 6.9379 2.1338
-9.2680 6.6091 2.1340
-9.4979 6.2714 2.1340
-9.7156 5.9256 2.1340
-9.9205 5.5722 2.1340
-10.1127 5.2118 2.1340
-10.4994 4.9425 2.1771
-10.6684 4.5617 2.1771
-10.8236 4.1752 2.1771
-10.9648 3.7834 2.1771
-10.8971 3.3274 2.1388
-10.8971 2.9042 2.1173
-6.4351 1.4698 1.2395
-11.2317 2.1444 2.1475
-9.8482 1.5161 1.8717
-9.8479 1.1559 1.8628
-9.8476 0.7988 1.8565
-9.8472 0.4438 1.8525
-9.8469 0.0899 1.8509
-9.8465 -0.2637 1.8518
-9.8462 -0.6179 1.8550
-9.8459 -0.9738 1.8606
-9.8455 -1.3321 1.8687
-9.8452 -1.6939 1.8793
-9.8448 -2.0602 1.8924
-9.8445 -2.4321 1.9082
-9.8441 -2.8105 1.9268
-9.8438 -3.1968 1.9483
-9.8434 -3.5922 1.9728
-9.8430 -3.9980 2.0005
-9.8426 -4.4158 2.0316
-9.8422 -4.8473 2.0665
-9.9760 -5.3665 2.1340
-9.7755 -5.7204 2.1340
-9.5625 -6.0668 2.1340
-9.3372 -6.4053 2.1340
-9.1001 -6.7354 2.1340
-8.8513 -7.0569 2.1340
-8.5911 -7.3692 2.1340
-8.3200 -7.6719 2.1340
-8.0383 -7.9647 2.1340
-8.1213 -8.6465 2.2373
-7.8058 -8.9326 2.2376
-7.4802 -9.2072 2.2378
-7.1450 -9.4700 2.2381
-6.8006 -9.7207 2.2384
-6.4474 -9.9589 2.2387
-6.0860 -10.1844 2.2389
-5.7166 -10.3967 2.2392
-5.3399 -10.5957 2.2395
-4.9564 -10.7812 2.2397
-4.5664 -10.9528 2.2400
-4.1699 -11.1089 2.2400
-3.7677 -11.2493 2.2397
-3.3607 -11.3752 2.2394
-2.9497 -11.4865 2.2391
-2.5350 -11.5830 2.2388
-2.1171 -11.6647 2.2385
-1.6967 -11.7314 2.2382
-1.2743 -11.7830 2.2379
-0.8503 -11.8194 2.2376
-0.4254 -11.8406 2.2373
0.0000 -10.5415 2.2375
0.3785 -10.5335 2.2372
0.7563 -10.5124 2.2371
1.0811 -9.9958 2.1340
1.4393 -9.9507 2.1340
1.7956 -9.8929 2.1340
2.1497 -9.8223 2.1340
2.5011 -9.7392 2.1340
2.8492 -9.6435 2.1340
3.1938 -9.5354 2.1340
3.5342 -9.4151 2.1340
3.8702 -9.2827 2.1340
4.1913 -9.1167 2.1289
4.5162 -8.9610 2.1289
4.8354 -8.7937 2.1289
5.1284 -8.5816 2.1207
5.1284 -7.9212 2.0015
5.1284 -7.3302 1.8974
5.4918 -7.2786 1.9337
5.8212 -7.1650 1.9576
6.3100 -7.2206 2.0332
6.8749 -7.3192 2.1289
7.1340 -7.0684 2.1289
7.3839 -6.8085 2.1289
7.4654 -6.4033 2.0845
7.4654 -5.9518 2.0233
7.4655 -5.5254 1.9680
7.4655 -5.1210 1.9180
7.4655 -4.7361 1.8729
7.4655 -4.3684 1.8321
7.4655 -4.0158 1.7953
7.4655 -3.6766 1.7622
7.4655 -3.3492 1.7324
7.4655 -3.0322 1.7058
7.4655 -2.7243 1.6821
7.4655 -2.4243 1.6612
7.4655 -2.1313 1.6429
7.4655 -1.8442 1.6270
7.4655 -1.5622 1.6135
7.4469 -1.2811 1.5983
7.4398 -1.0065 1.5877
7.4398 -0.7356 1.5808
7.4398 -0.4668 1.5760
7.4398 -0.1991 1.5733
7.4575 0.0683 1.5763
7.4656 0.3366 1.5793
7.4656 0.6057 1.5826
6.7193 0.7888 1.4293
6.6840 1.0291 1.4285
6.3168 1.2061 1.3582
7.1163 1.6255 1.5415
6.4499 1.7191 1.4094
6.0941 1.8609 1.3452
7.3421 2.5336 1.6395
6.7379 2.5993 1.5242
7.4277 3.1762 1.7047
7.4279 3.4968 1.7322
7.4282 3.8284 1.7630
7.4284 4.1726 1.7972
6.9824 4.2587 1.7250
6.4475 4.2573 1.6294
5.9694 4.2570 1.5460
5.5380 4.2573 1.4728
5.2320 4.3295 1.4316
6.0220 5.3587 1.6992
6.0220 5.7591 1.7562
6.0220 6.1879 1.8197
5.9691 6.5912 1.8738
5.4979 6.5272 1.7982
6.2356 7.9666 2.1314
5.9671 8.2148 2.1389
5.6557 8.4048 2.1340
5.3509 8.6031 2.1340
5.0390 8.7902 2.1340
4.7206 8.9660 2.1340
4.3961 9.1303 2.1340
4.0658 9.2827 2.1340
3.7302 9.4232 2.1340
3.3898 9.5515 2.1340
3.0450 9.6675 2.1340
2.6961 9.7709 2.1340
2.3438 9.8617 2.1340
1.9884 9.9398 2.1340
1.7092 10.4883 2.2371
1.3317 10.5431 2.2371
0.9525 10.5842 2.2371
0.5720 10.6117 2.2371
0.1908 10.6254 2.2371
-0.1907 10.6254 2.2371
-0.5719 10.6116 2.2371
-0.9524 10.5841 2.2371
-1.3316 10.5429 2.2371
-1.7091 10.4881 2.2371
-2.0844 10.4197 2.2371
-2.4569 10.3379 2.2371
-2.8262 10.2426 2.2371
-3.1919 10.1341 2.2371
-3.5534 10.0126 2.2371
-3.9102 9.8780 2.2371
-4.2620 9.7308 2.2371
-4.6082 9.5709 2.2371
-4.9484 9.3987 2.2371
-5.2821 9.2144 2.2371
-5.6090 9.0181 2.2371
-5.9286 8.8103 2.2371
-6.1551 8.4737 2.2065
-6.2421 7.9749 2.1338
-6.5237 7.7450 2.1338
-6.7968 7.5051 2.1338
-7.0610 7.2556 2.1338
-7.3161 6.9967 2.1338
-7.5623 6.7294 2.1340
-7.7980 6.4529 2.1340
-8.0237 6.1681 2.1340
-8.2389 5.8754 2.1340
-8.4434 5.5753 2.1340
-8.6370 5.2679 2.1340
-8.8194 4.9539 2.1340
-8.9903 4.6335 2.1340
-9.1496 4.3073 2.1340
-9.2970 3.9755 2.1340
-9.4324 3.6388 2.1340
-9.5556 3.2974 2.1340
-9.6664 2.9519 2.1340
-9.7648 2.6026 2.1340
-6.4343 1.4698 1.3939
-9.9234 1.8948 2.1340
-9.8482 1.5163 2.1050
-9.8479 1.1561 2.0951
-9.8476 0.7990 2.0878
-9.8472 0.4440 2.0834
-9.8469 0.0901 2.0816
-9.8465 -0.2635 2.0825
-9.8462 -0.6177 2.0860
-9.8459 -0.9736 2.0923
-9.8455 -1.3319 2.1014
-9.8452 -1.6937 2.1133
-9.8448 -2.0600 2.1280
-9.7905 -2.4186 2.1340
-9.6960 -2.7680 2.1340
-9.5890 -3.1139 2.1340
-9.4697 -3.4556 2.1340
-9.3383 -3.7928 2.1340
-9.1949 -4.1251 2.1340
-9.0397 -4.4519 2.1340
-8.8728 -4.7729 2.1340
-8.6947 -5.0877 2.1340
-8.5053 -5.3959 2.1340
-8.3051 -5.6971 2.1340
-8.0943 -5.9908 2.1340
-7.8731 -6.2768 2.1340
-7.6418 -6.5547 2.1340
-7.4007 -6.8240 2.1340
-7.4957 -7.4268 2.2371
-7.2241 -7.6910 2.2373
-6.9434 -7.9455 2.2375
-6.6538 -8.1899 2.2378
-6.3556 -8.4236 2.2380
-6.0493 -8.6466 2.2383
-5.7351 -8.8585 2.2385
-5.4136 -9.0590 2.2388
-5.0851 -9.2479 2.2390
-4.7500 -9.4249 2.2393
-4.4088 -9.5898 2.2395
-4.0618 -9.7424 2.2398
-3.7097 -9.8826 2.2400
-3.3523 -10.0089 2.2400
-2.9903 -10.1211 2.2397
-2.6246 -10.2202 2.2394
-2.2556 -10.3062 2.2392
-1.8838 -10.3790 2.2389
-1.5097 -10.4384 2.2386
-1.1339 -10.4844 2.2383
-0.7566 -10.5170 2.2381
-0.3785 -10.5361 2.2378
0.0000 -9.4860 2.2378
0.3406 -9.4789 2.2376
0.6806 -9.4596 2.2373
1.0197 -9.4282 2.2371
1.3361 -9.2369 2.2016
1.6156 -8.9009 2.1340
1.9342 -8.8375 2.1340
2.2503 -8.7626 2.1340
2.5636 -8.6765 2.1340
2.8736 -8.5792 2.1340
3.1799 -8.4709 2.1340
3.4821 -8.3517 2.1340
3.7799 -8.2218 2.1340
4.0633 -8.0622 2.1289
4.3504 -7.9116 2.1289
4.6320 -7.7509 2.1289
4.9076 -7.5801 2.1289
5.1284 -7.3301 2.1089
5.4398 -7.2095 2.1289
5.6956 -7.0102 2.1289
5.9441 -6.8018 2.1289
6.1850 -6.5846 2.1289
6.4181 -6.3589 2.1289
6.6429 -6.1250 2.1289
6.8592 -5.8832 2.1289
7.0667 -5.6337 2.1289
7.2652 -5.3770 2.1289
7.4544 -5.1133 2.1289
7.4655 -4.7360 2.0819
7.4655 -4.3683 2.0366
7.4655 -4.0157 1.9957
7.4655 -3.6764 1.9589
7.4655 -3.3490 1.9259
7.4655 -3.0320 1.8963
7.4655 -2.7241 1.8700
7.4655 -2.4241 1.8468
7.4655 -2.1311 1.8265
7.4655 -1.8440 1.8088
7.4655 -1.5620 1.7939
7.4467 -1.2810 1.7769
7.4398 -1.0063 1.7652
7.4398 -0.7355 1.7576
7.4398 -0.4666 1.7523
7.4398 -0.1989 1.7492
7.4576 0.0684 1.7526
7.4656 0.3367 1.7560
7.4656 0.6059 1.7597
6.7193 0.7890 1.5893
6.6831 1.0291 1.5882
6.3167 1.2062 1.5103
6.9163 1.5800 1.6659
6.4494 1.7191 1.5671
6.0941 1.8611 1.4958
7.3417 2.5336 1.8230
6.7380 2.5994 1.6950
7.4291 3.1769 1.8961
7.4293 3.4976 1.9267
7.4296 3.8293 1.9609
7.4298 4.1735 1.9990
6.9834 4.2595 1.9186
6.4483 4.2580 1.8123
5.9702 4.2577 1.7195
5.5380 4.2574 1.6379
5.2320 4.3296 1.5922
6.0220 5.3589 1.8897
6.0220 5.7592 1.9532
6.0220 6.1881 2.0238
5.9689 6.5911 2.0840
5.4977 6.5271 1.9998
5.6132 7.1716 2.1340
5.3526 7.3690 2.1340
5.0851 7.5569 2.1340
4.8109 7.7351 2.1340
4.5305 7.9033 2.1340
4.2442 8.0614 2.1340
3.9524 8.2090 2.1340
3.6554 8.3460 2.1340
3.3537 8.4722 2.1340
3.0476 8.5876 2.1340
2.7376 8.6918 2.1340
2.4240 8.7847 2.1340
2.1072 8.8663 2.1340
1.8740 9.3682 2.2371
1.5367 9.4296 2.2371
1.1973 9.4789 2.2371
0.8563 9.5159 2.2371
0.5142 9.5406 2.2371
0.1715 9.5529 2.2371
-0.1715 9.5529 2.2371
-0.5142 9.5405 2.2371
-0.8562 9.5158 2.2371
-1.1972 9.4788 2.2371
-1.5366 9.4295 2.2371
-1.8739 9.3680 2.2371
-2.2089 9.2945 2.2371
-2.5410 9.2089 2.2371
-2.8697 9.1114 2.2371
-3.1947 9.0021 2.2371
-3.5156 8.8812 2.2371
-3.8318 8.7488 2.2371
-4.1431 8.6052 2.2371
-4.4490 8.4504 2.2371
-4.7491 8.2847 2.2371
-5.0430 8.1084 2.2371
-5.3304 7.9216 2.2371
-5.6108 7.7245 2.2371
-5.8839 7.5176 2.2371
-6.1494 7.3009 2.2371
-6.1625 6.8050 2.1517
-6.3494 6.5245 2.1340
-6.5788 6.2918 2.1340
-6.7997 6.0510 2.1340
-7.0118 5.8025 2.1340
-7.2147 5.5465 2.1340
-7.4084 5.2834 2.1340
-7.5924 5.0135 2.1340
-7.7665 4.7372 2.1340
-7.9306 4.4549 2.1340
-8.0844 4.1668 2.1340
-8.2278 3.8735 2.1340
-8.3605 3.5752 2.1340
-8.4823 3.2724 2.1340
-8.5932 2.9655 2.1340
-8.6930 2.6548 2.1340
-8.7816 2.3407 2.1340
-6.3661 1.4543 1.5335
-8.9245 1.7042 2.1340
-8.9787 1.3826 2.1340
-9.0214 1.0593 2.1340
-9.0523 0.7347 2.1340
-9.0717 0.4092 2.1340
-9.0793 0.0833 2.1340
-9.0752 -0.2427 2.1340
-9.0594 -0.5682 2.1340
-9.0320 -0.8929 2.1340
-8.9929 -1.2164 2.1340
-8.9422 -1.5382 2.1340
-8.8801 -1.8580 2.1340
-8.7347 -2.1576 2.1166
-8.7216 -2.4897 2.1340
-8.6255 -2.8008 2.1340
-8.5183 -3.1083 2.1340
-8.4002 -3.4116 2.1340
-8.2713 -3.7105 2.1340
-8.1317 -4.0046 2.1340
-7.9818 -4.2934 2.1340
-7.8216 -4.5767 2.1340
-7.6514 -4.8539 2.1340
-7.4714 -5.1249 2.1340
-7.2818 -5.3893 2.1340
-7.0828 -5.6466 2.1340
-6.8870 -5.9071 2.1378
-6.8557 -6.3213 2.1973
-6.7437 -6.6816 2.2371
-6.4995 -6.9195 2.2374
-6.2470 -7.1484 2.2376
-5.9864 -7.3682 2.2378
-5.7181 -7.5785 2.2380
-5.4425 -7.7791 2.2383
-5.1599 -7.9698 2.2385
-4.8706 -8.1502 2.2387
-4.5750 -8.3201 2.2390
-4.2735 -8.4794 2.2392
-3.9665 -8.6277 2.2394
-3.6544 -8.7650 2.2397
-3.3376 -8.8911 2.2399
-3.0163 -9.0057 2.2401
-2.6907 -9.1070 2.2399
-2.3617 -9.1963 2.2396
-2.0297 -9.2738 2.2394
-1.6952 -9.3394 2.2391
-1.3586 -9.3929 2.2389
-1.0203 -9.4344 2.2386
-0.6809 -9.4638 2.2383
-0.3406 -9.4810 2.2381
0.0000 -8.6141 2.2380
0.3093 -8.6077 2.2378
0.6181 -8.5902 2.2376
0.9260 -8.5617 2.2374
1.2327 -8.5223 2.2371
1.5305 -8.4317 2.2263
1.7563 -8.0243 2.1340
2.0433 -7.9563 2.1340
2.3277 -7.8781 2.1340
2.6092 -7.7897 2.1340
2.8873 -7.6913 2.1340
3.1617 -7.5831 2.1340
3.4321 -7.4651 2.1340
3.6982 -7.3374 2.1340
3.9501 -7.1834 2.1289
4.2057 -7.0373 2.1289
4.4559 -6.8823 2.1289
4.7005 -6.7183 2.1289
4.9390 -6.5457 2.1289
5.1712 -6.3647 2.1289
5.3969 -6.1754 2.1289
5.6156 -5.9782 2.1289
5.8271 -5.7732 2.1289
6.0312 -5.5608 2.1289
6.2275 -5.3412 2.1289
6.4158 -5.1147 2.1289
6.5960 -4.8815 2.1289
6.7677 -4.6420 2.1289
6.9307 -4.3965 2.1289
7.0848 -4.1454 2.1289
7.2299 -3.8888 2.1289
7.3656 -3.6271 2.1289
7.4655 -3.3489 2.1214
7.4655 -3.0318 2.0889
7.4655 -2.7239 2.0599
7.4655 -2.4240 2.0344
7.4655 -2.1310 2.0120
7.4655 -1.8439 1.9926
7.4655 -1.5619 1.9761
7.4466 -1.2808 1.9574
7.4398 -1.0061 1.9446
7.4398 -0.7353 1.9362
7.4398 -0.4665 1.9304
7.4398 -0.1988 1.9271
7.4578 0.0686 1.9309
7.4656 0.3369 1.9345
7.4656 0.6060 1.9387
6.7193 0.7891 1.7509
6.6823 1.0291 1.7495
6.3167 1.2064 1.6639
6.7163 1.5344 1.7823
6.4489 1.7191 1.7264
6.0941 1.8612 1.6481
7.3412 2.5336 2.0084
6.7380 2.5996 1.8675
7.4199 3.1731 2.0865
7.3035 3.4385 2.0869
7.1778 3.6997 2.0874
7.0428 3.9563 2.0879
6.8988 4.2080 2.0884
6.4492 4.2588 1.9972
5.9710 4.2584 1.8950
5.5386 4.2580 1.8050
5.2320 4.3298 1.7544
6.0220 5.3590 2.0823
5.8506 5.5955 2.0910
5.6447 5.8006 2.0904
5.4316 5.9979 2.0897
5.2321 6.2119 2.0972
5.0938 6.5082 2.1340
4.8573 6.6872 2.1339
4.6145 6.8578 2.1340
4.3657 7.0194 2.1340
4.1112 7.1721 2.1340
3.8514 7.3154 2.1340
3.5866 7.4493 2.1340
3.3171 7.5736 2.1340
3.0433 7.6882 2.1340
2.7655 7.7928 2.1340
2.4841 7.8873 2.1340
2.1996 7.9716 2.1340
1.9121 8.0457 2.1340
1.7005 8.5011 2.2371
1.3944 8.5568 2.2371
1.0864 8.6015 2.2371
0.7770 8.6350 2.2371
0.4666 8.6574 2.2371
0.1556 8.6686 2.2371
-0.1556 8.6686 2.2371
-0.4666 8.6574 2.2371
-0.7770 8.6349 2.2371
-1.0863 8.6014 2.2371
-1.3943 8.5567 2.2371
-1.7004 8.5009 2.2371
-2.0044 8.4342 2.2371
-2.3057 8.3565 2.2371
-2.6040 8.2681 2.2371
-2.8990 8.1690 2.2371
-3.1901 8.0593 2.2371
-3.4771 7.9392 2.2371
-3.7596 7.8089 2.2371
-4.0372 7.6685 2.2371
-4.3096 7.5182 2.2371
-4.5763 7.3582 2.2371
-4.8371 7.1887 2.2371
-5.0917 7.0100 2.2371
-5.3396 6.8222 2.2371
-5.5805 6.6256 2.2371
-5.8143 6.4206 2.2371
-6.0404 6.2072 2.2371
-6.1534 5.8851 2.1994
-6.1708 5.4916 2.1340
-6.3634 5.2660 2.1340
-6.5476 5.0338 2.1340
-6.7234 4.7950 2.1340
-6.8905 4.5502 2.1340
-7.0486 4.2995 2.1340
-7.1976 4.0433 2.1340
-7.3373 3.7819 2.1340
-7.4674 3.5157 2.1340
-7.5880 3.2450 2.1340
-7.6986 2.9703 2.1340
-7.7994 2.6917 2.1340
-7.8900 2.4097 2.1340
-7.9705 2.1247 2.1340
-6.3595 1.4530 1.6878
-8.1004 1.5470 2.1340
-8.1497 1.2551 2.1340
-8.1885 0.9617 2.1340
-8.2168 0.6670 2.1340
-8.2344 0.3716 2.1340
-8.2414 0.0758 2.1340
-8.2378 -0.2201 2.1340
-8.2235 -0.5156 2.1340
-8.1987 -0.8104 2.1340
-8.1634 -1.1040 2.1340
-8.1175 -1.3962 2.1340
-8.0611 -1.6865 2.1340
-7.9447 -1.9623 2.1207
-7.9174 -2.2600 2.1340
-7.8303 -2.5424 2.1340
-7.7331 -2.8216 2.1340
-7.6259 -3.0970 2.1340
-7.5090 -3.3684 2.1340
-7.3824 -3.6354 2.1340
-7.2463 -3.8976 2.1340
-7.1010 -4.1548 2.1340
-6.9465 -4.4066 2.1340
-6.7831 -4.6527 2.1340
-6.6111 -4.8927 2.1340
-6.4305 -5.1264 2.1340
-6.5590 -5.6256 2.2424
-6.3373 -5.8431 2.2372
-6.1235 -6.0669 2.2374
-5.9017 -6.2829 2.2376
-5.6724 -6.4907 2.2378
-5.4358 -6.6903 2.2380
-5.1922 -6.8813 2.2382
-4.9419 -7.0635 2.2384
-4.6853 -7.2366 2.2386
-4.4226 -7.4003 2.2389
-4.1542 -7.5546 2.2391
-3.8804 -7.6992 2.2393
-3.6017 -7.8339 2.2395
-3.3182 -7.9585 2.2397
-3.0305 -8.0730 2.2399
-2.7389 -8.1771 2.2401
-2.4432 -8.2690 2.2399
-2.1444 -8.3502 2.2397
-1.8430 -8.4207 2.2394
-1.5393 -8.4804 2.2392
-1.2337 -8.5291 2.2390
-0.9265 -8.5669 2.2387
-0.6183 -8.5937 2.2385
-0.3093 -8.6094 2.2383
0.0000 -7.8810 2.2382
0.2830 -7.8752 2.2380
0.5655 -7.8593 2.2378
0.8472 -7.8333 2.2376
1.1279 -7.7973 2.2374
1.4070 -7.7512 2.2372
1.6844 -7.6955 2.2371
1.8693 -7.2786 2.1340
2.1295 -7.2071 2.1340
2.3870 -7.1262 2.1340
2.6414 -7.0362 2.1340
2.8925 -6.9371 2.1340
3.1398 -6.8291 2.1340
3.3832 -6.7123 2.1340
3.6222 -6.5869 2.1340
3.8566 -6.4530 2.1340
4.0764 -6.2958 2.1289
4.3001 -6.1458 2.1289
4.5183 -5.9879 2.1289
4.7307 -5.8222 2.1289
4.9370 -5.6491 2.1289
5.1371 -5.4686 2.1289
5.3305 -5.2811 2.1289
5.5171 -5.0867 2.1289
5.6967 -4.8858 2.1289
5.8690 -4.6785 2.1289
6.0337 -4.4652 2.1289
6.1907 -4.2461 2.1289
6.3398 -4.0215 2.1289
6.4807 -3.7917 2.1289
6.6133 -3.5570 2.1289
6.7374 -3.3176 2.1289
6.8529 -3.0739 2.1289
6.9595 -2.8262 2.1289
7.0573 -2.5748 2.1289
7.1460 -2.3201 2.1289
7.2254 -2.0623 2.1289
7.2956 -1.8018 2.1289
7.3564 -1.5389 2.1289
7.4078 -1.2740 2.1289
7.4398 -1.0060 2.1261
7.4398 -0.7352 2.1170
7.4398 -0.4663 2.1106
7.4398 -0.1986 2.1070
7.4579 0.0687 2.1112
7.4656 0.3371 2.1152
7.4656 0.6062 2.1198
6.7309 0.7906 1.9178
6.6814 1.0291 1.9127
6.3167 1.2065 1.8194
6.7163 1.5346 1.9489
6.4484 1.7191 1.8876
6.0941 1.8613 1.8021
7.1165 2.4561 2.1289
6.7381 2.5998 2.0421
6.7930 2.9052 2.0888
6.6857 3.1478 2.0890
6.5691 3.3861 2.0890
6.4440 3.6200 2.0890
6.3105 3.8494 2.0890
6.1689 4.0738 2.0890
5.9718 4.2591 2.0725
5.5393 4.2587 1.9741
5.2320 4.3299 1.9186
5.5269 4.9187 2.0900
5.3458 5.1128 2.0894
5.2321 5.3766 2.1189
5.0720 5.6010 2.1340
4.8681 5.7798 2.1340
4.6578 5.9513 2.1340
4.4415 6.1150 2.1340
4.2195 6.2708 2.1340
3.9919 6.4185 2.1339
3.7591 6.5580 2.1339
3.5215 6.6889 2.1339
3.2793 6.8113 2.1339
3.0330 6.9253 2.1340
2.7827 7.0300 2.1340
2.5287 7.1256 2.1340
2.2714 7.2120 2.1340
2.0112 7.2891 2.1340
1.8328 7.7122 2.2371
1.5549 7.7731 2.2371
1.2749 7.8241 2.2371
0.9934 7.8649 2.2371
0.7105 7.8956 2.2371
0.4267 7.9160 2.2371
0.1423 7.9263 2.2371
-0.1422 7.9263 2.2371
-0.4266 7.9160 2.2371
-0.7104 7.8955 2.2371
-0.9933 7.8648 2.2371
-1.2749 7.8240 2.2371
-1.5548 7.7730 2.2371
-1.8327 7.7120 2.2371
-2.1083 7.6410 2.2371
-2.3810 7.5602 2.2371
-2.6507 7.4696 2.2371
-2.9170 7.3693 2.2371
-3.1794 7.2596 2.2371
-3.4377 7.1404 2.2371
-3.6916 7.0121 2.2371
-3.9406 6.8747 2.2371
-4.1846 6.7284 2.2371
-4.4231 6.5735 2.2371
-4.6558 6.4101 2.2371
-4.8825 6.2384 2.2371
-5.1029 6.0587 2.2371
-5.3167 5.8712 2.2371
-5.5235 5.6762 2.2371
-5.7232 5.4738 2.2371
-5.9155 5.2644 2.2371
-6.1001 5.0483 2.2371
-6.1526 4.7302 2.1928
-6.1628 4.3954 2.1390
-6.3011 4.1611 2.1340
-6.4457 3.9319 2.1340
-6.5821 3.6976 2.1340
-6.7099 3.4587 2.1340
-6.8290 3.2153 2.1340
-6.9392 2.9678 2.1340
-7.0405 2.7165 2.1340
-7.1327 2.4618 2.1340
-7.2157 2.2039 2.1340
-7.2893 1.9433 2.1340
-6.3529 1.4516 1.8436
-7.4083 1.4150 2.1340
-7.4535 1.1480 2.1340
-7.4890 0.8797 2.1340
-7.5149 0.6102 2.1340
-7.5311 0.3400 2.1340
-7.5376 0.0694 2.1340
-7.5344 -0.2012 2.1340
-7.5214 -0.4714 2.1340
-7.4988 -0.7410 2.1340
-7.4665 -1.0096 2.1340
-7.4246 -1.2769 2.1340
-7.3732 -1.5424 2.1340
-7.3122 -1.8059 2.1340
-7.2419 -2.0670 2.1340
-7.1623 -2.3254 2.1340
-7.0734 -2.5807 2.1340
-6.9754 -2.8327 2.1340
-6.8685 -3.0809 2.1340
-6.7528 -3.3252 2.1340
-6.6284 -3.5651 2.1340
-6.4955 -3.8004 2.1340
-6.3543 -4.0308 2.1340
-6.2911 -4.3151 2.1636
-6.3308 -4.6852 2.2339
-6.1667 -4.9159 2.2371
-5.9859 -5.1338 2.2372
-5.7976 -5.3454 2.2373
-5.6023 -5.5504 2.2376
-5.3994 -5.7480 2.2378
-5.1897 -5.9382 2.2380
-4.9732 -6.1208 2.2382
-4.7503 -6.2955 2.2384
-4.5213 -6.4621 2.2386
-4.2865 -6.6204 2.2388
-4.0461 -6.7702 2.2390
-3.8005 -6.9113 2.2392
-3.5501 -7.0436 2.2394
-3.2950 -7.1668 2.2396
-3.0357 -7.2808 2.2398
-2.7725 -7.3855 2.2400
-2.5056 -7.4805 2.2401
-2.2351 -7.5647 2.2399
-1.9619 -7.6391 2.2397
-1.6861 -7.7037 2.2395
-1.4082 -7.7583 2.2393
-1.1286 -7.8030 2.2390
-0.8477 -7.8376 2.2388
-0.5656 -7.8622 2.2386
-0.2830 -7.8767 2.2384
0.0000 -7.2555 2.2383
0.2605 -7.2502 2.2381
0.5206 -7.2356 2.2379
0.7800 -7.2117 2.2377
1.0384 -7.1786 2.2375
1.2954 -7.1362 2.2373
1.5507 -7.0846 2.2371
1.7947 -6.9880 2.2255
1.9604 -6.6347 2.1340
2.1975 -6.5602 2.1340
2.4317 -6.4773 2.1340
2.6628 -6.3861 2.1340
2.8905 -6.2867 2.1340
3.1145 -6.1791 2.1340
3.3345 -6.0636 2.1340
3.5503 -5.9403 2.1340
3.7615 -5.8093 2.1340
3.9585 -5.6575 2.1289
4.1593 -5.5121 2.1289
4.3548 -5.3596 2.1289
4.5448 -5.2001 2.1289
4.7289 -5.0340 2.1289
4.9070 -4.8613 2.1289
5.0787 -4.6824 2.1289
5.2440 -4.4974 2.1289
5.4025 -4.3066 2.1289
5.5541 -4.1102 2.1289
5.6986 -3.9085 2.1289
5.8358 -3.7017 2.1289
5.9654 -3.4901 2.1289
6.0875 -3.2740 2.1289
6.2017 -3.0536 2.1289
6.3079 -2.8293 2.1289
6.4061 -2.6013 2.1289
6.4960 -2.3699 2.1289
6.5775 -2.1354 2.1289
6.6506 -1.8981 2.1289
6.7152 -1.6583 2.1289
6.7711 -1.4163 2.1289
6.8183 -1.1724 2.1289
6.8567 -0.9270 2.1289
6.8863 -0.6803 2.1289
6.9070 -0.4328 2.1289
6.9189 -0.1846 2.1289
6.9218 0.0639 2.1289
6.9158 0.3124 2.1289
6.9008 0.5605 2.1289
6.7309 0.7907 2.0837
6.6805 1.0291 2.0780
6.3167 1.2066 1.9768
6.5163 1.4890 2.0545
6.4479 1.7191 2.0509
6.0941 1.8615 1.9581
6.5494 2.2606 2.1289
6.4647 2.4945 2.1289
6.2522 2.6741 2.0890
6.1529 2.8971 2.0890
6.0455 3.1163 2.0890
5.9303 3.3316 2.0890
5.8074 3.5426 2.0890
5.6770 3.7491 2.0890
5.5393 3.9508 2.0890
5.3944 4.1474 2.0890
5.2320 4.3300 2.0849
5.1932 4.6218 2.1340
5.0244 4.8055 2.1340
4.8490 4.9831 2.1340
4.6674 5.1543 2.1340
4.4797 5.3189 2.1340
4.2862 5.4766 2.1340
4.0872 5.6272 2.1340
3.8828 5.7707 2.1340
3.6734 5.9066 2.1340
3.4592 6.0349 2.1339
3.2405 6.1554 2.1339
3.0177 6.2680 2.1339
2.7909 6.3725 2.1339
2.5605 6.4687 2.1339
2.3267 6.5566 2.1338
2.1051 6.6842 2.1493
1.8915 6.8553 2.1810
1.6865 7.0967 2.2371
1.4308 7.1528 2.2371
1.1732 7.1997 2.2371
0.9141 7.2373 2.2371
0.6538 7.2655 2.2371
0.3926 7.2843 2.2371
0.1309 7.2937 2.2371
-0.1309 7.2937 2.2371
-0.3926 7.2843 2.2371
-0.6537 7.2654 2.2371
-0.9140 7.2372 2.2371
-1.1731 7.1996 2.2371
-1.4307 7.1527 2.2371
-1.6864 7.0966 2.2371
-1.9400 7.0313 2.2371
-2.1910 6.9569 2.2371
-2.4392 6.8736 2.2371
-2.6841 6.7814 2.2371
-2.9257 6.6804 2.2371
-3.1634 6.5708 2.2371
-3.3970 6.4527 2.2371
-3.6262 6.3263 2.2371
-3.8507 6.1917 2.2371
-4.0702 6.0492 2.2371
-4.2844 5.8988 2.2371
-4.4930 5.7409 2.2371
-4.6958 5.5756 2.2371
-4.8926 5.4030 2.2371
-5.0829 5.2236 2.2371
-5.2667 5.0374 2.2371
-5.4437 4.8448 2.2371
-5.6136 4.6459 2.2371
-5.7762 4.4410 2.2371
-5.9314 4.2305 2.2371
-6.0789 4.0145 2.2371
-6.1519 3.7528 2.2131
-6.1563 3.4586 2.1688
-6.1750 3.1831 2.1340
-6.2847 2.9592 2.1340
-6.3863 2.7314 2.1340
-6.4795 2.5002 2.1340
-6.5644 2.2658 2.1340
-6.6408 2.0285 2.1340
-6.7087 1.7886 2.1340
-6.3462 1.4502 2.0010
-6.8183 1.3025 2.1340
-6.8599 1.0568 2.1340
-6.8927 0.8098 2.1340
-6.9166 0.5618 2.1340
-6.9315 0.3131 2.1340
-6.9376 0.0641 2.1340
-6.9347 -0.1850 2.1340
-6.9228 -0.4338 2.1340
-6.9020 -0.6819 2.1340
-6.8724 -0.9291 2.1340
-6.8339 -1.1751 2.1340
-6.7866 -1.4195 2.1340
-6.7305 -1.6621 2.1340
-6.6658 -1.9024 2.1340
-6.5926 -2.1403 2.1340
-6.5108 -2.3753 2.1340
-6.4207 -2.6073 2.1340
-6.3224 -2.8358 2.1340
-6.2159 -3.0607 2.1340
-6.1989 -3.3340 2.1681
-6.1995 -3.6271 2.2126
-6.1317 -3.8895 2.2371
-5.9877 -4.1068 2.2371
-5.8361 -4.3189 2.2372
-5.6770 -4.5254 2.2372
-5.5106 -4.7261 2.2373
-5.3371 -4.9206 2.2374
-5.1568 -5.1088 2.2375
-4.9701 -5.2907 2.2376
-4.7772 -5.4661 2.2379
-4.5782 -5.6345 2.2382
-4.3732 -5.7956 2.2385
-4.1625 -5.9491 2.2388
-3.9463 -6.0949 2.2389
-3.7250 -6.2328 2.2391
-3.4990 -6.3628 2.2393
-3.2684 -6.4845 2.2395
-3.0335 -6.5979 2.2397
-2.7948 -6.7029 2.2399
-2.5525 -6.7992 2.2401
-2.3066 -6.8861 2.2400
-2.0576 -6.9637 2.2398
-1.8060 -7.0323 2.2397
-1.5522 -7.0918 2.2395
-1.2964 -7.1422 2.2393
-1.0390 -7.1834 2.2391
-0.7804 -7.2154 2.2389
-0.5207 -7.2381 2.2387
-0.2605 -7.2514 2.2385
0.0000 -6.7149 2.2383
0.2411 -6.7101 2.2382
0.4819 -6.6966 2.2380
0.7219 -6.6745 2.2378
0.9611 -6.6438 2.2376
1.1989 -6.6046 2.2374
1.4352 -6.5569 2.2372
1.6696 -6.5008 2.2371
1.8492 -6.2581 2.1749
2.0337 -6.0713 2.1340
2.2505 -5.9945 2.1340
2.4644 -5.9101 2.1340
2.6751 -5.8180 2.1340
2.8824 -5.7185 2.1340
3.0860 -5.6116 2.1340
3.2857 -5.4975 2.1340
3.4811 -5.3762 2.1340
3.6721 -5.2481 2.1340
3.8584 -5.1132 2.1340
4.0302 -4.9599 2.1289
4.2060 -4.8123 2.1289
4.3764 -4.6585 2.1289
4.5411 -4.4987 2.1289
4.7000 -4.3331 2.1289
4.8529 -4.1619 2.1289
4.9996 -3.9853 2.1289
5.1399 -3.8035 2.1289
5.2736 -3.6168 2.1289
5.4005 -3.4255 2.1289
5.5205 -3.2296 2.1289
5.6334 -3.0296 2.1289
5.7390 -2.8257 2.1289
5.8373 -2.6181 2.1289
5.9281 -2.4071 2.1289
6.0112 -2.1929 2.1289
6.0866 -1.9759 2.1289
6.1542 -1.7563 2.1289
6.2139 -1.5344 2.1289
6.2656 -1.3104 2.1289
6.3092 -1.0848 2.1289
6.3448 -0.8577 2.1289
6.3721 -0.6294 2.1289
6.3912 -0.4003 2.1289
6.4021 -0.1706 2.1289
6.4047 0.0593 2.1289
6.3991 0.2892 2.1289
6.3853 0.5187 2.1289
6.3632 0.7477 2.1289
6.3329 0.9757 2.1289
6.2944 1.2025 2.1289
6.2478 1.4278 2.1289
6.1931 1.6513 2.1289
6.0941 1.8616 2.1163
6.0599 2.0917 2.1289
5.9814 2.3081 2.1289
5.8953 2.5215 2.1289
5.6928 2.6806 2.0890
5.5934 2.8834 2.0890
5.4868 3.0826 2.0890
5.3731 3.2778 2.0890
5.2524 3.4688 2.0890
5.2320 3.7318 2.1327
5.0982 3.9198 2.1340
4.9546 4.1006 2.1340
4.8047 4.2761 2.1340
4.6484 4.4461 2.1340
4.4862 4.6104 2.1340
4.3181 4.7688 2.1340
4.1445 4.9210 2.1340
3.9654 5.0669 2.1340
3.7813 5.2062 2.1340
3.5922 5.3389 2.1340
3.3985 5.4647 2.1340
3.2003 5.5834 2.1340
2.9980 5.6949 2.1340
2.7918 5.7990 2.1339
2.5820 5.8956 2.1339
2.3688 5.9847 2.1339
2.1526 6.0660 2.1339
1.9336 6.1395 2.1339
1.7948 6.5051 2.2371
1.5602 6.5655 2.2371
1.3237 6.6174 2.2371
1.0853 6.6607 2.2371
0.8456 6.6955 2.2371
0.6048 6.7216 2.2371
0.3632 6.7390 2.2371
0.1211 6.7477 2.2371
-0.1211 6.7477 2.2371
-0.3632 6.7390 2.2371
-0.6048 6.7216 2.2371
-0.8456 6.6954 2.2371
-1.0853 6.6607 2.2371
-1.3236 6.6173 2.2371
-1.5602 6.5654 2.2371
-1.7947 6.5050 2.2371
-2.0269 6.4362 2.2371
-2.2565 6.3591 2.2371
-2.4832 6.2738 2.2371
-2.7066 6.1804 2.2371
-2.9266 6.0790 2.2371
-3.1427 5.9698 2.2371
-3.3548 5.8529 2.2371
-3.5625 5.7284 2.2371
-3.7655 5.5966 2.2371
-3.9637 5.4575 2.2371
-4.1568 5.3114 2.2371
-4.3444 5.1585 2.2371
-4.5265 4.9989 2.2371
-4.7026 4.8329 2.2371
-4.8727 4.6607 2.2371
-5.0364 4.4824 2.2371
-5.1937 4.2985 2.2371
-5.3442 4.1090 2.2371
-5.4877 3.9142 2.2371
-5.6242 3.7144 2.2371
-5.7534 3.5099 2.2371
-5.8752 3.3008 2.2371
-5.9893 3.0875 2.2371
-6.0957 2.8703 2.2371
-6.1518 2.6313 2.2217
-6.1532 2.3744 2.1902
-6.1582 2.1257 2.1636
-6.1636 1.8828 2.1406
-6.2073 1.6551 2.1340
-6.2621 1.4311 2.1340
-6.3088 1.2053 2.1340
-6.3474 0.9779 2.1340
-6.3778 0.7494 2.1340
-6.3999 0.5199 2.1340
-6.4138 0.2898 2.1340
-6.4194 0.0594 2.1340
-6.4168 -0.1711 2.1340
-6.4058 -0.4012 2.1340
-6.3867 -0.6309 2.1340
-6.3593 -0.8596 2.1340
-6.3237 -1.0873 2.1340
-6.2800 -1.3134 2.1340
-6.2281 -1.5379 2.1340
-6.1692 -1.7606 2.1343
-6.1690 -2.0026 2.1579
-6.1715 -2.2514 2.1859
-6.1738 -2.5069 2.2174
-6.1333 -2.7509 2.2371
-6.0300 -2.9690 2.2371
-5.9190 -3.1833 2.2371
-5.8004 -3.3935 2.2371
-5.6744 -3.5992 2.2371
-5.5413 -3.8005 2.2372
-5.4012 -3.9969 2.2373
-5.2540 -4.1880 2.2374
-5.1000 -4.3738 2.2374
-4.9394 -4.5538 2.2375
-4.7726 -4.7281 2.2376
-4.5996 -4.8962 2.2376
-4.4206 -5.0580 2.2377
-4.2362 -5.2135 2.2379
-4.0466 -5.3626 2.2382
-3.8517 -5.5047 2.2384
-3.6517 -5.6398 2.2387
-3.4471 -5.7676 2.2389
-3.2380 -5.8880 2.2392
-3.0247 -6.0009 2.2394
-2.8074 -6.1060 2.2396
-2.5865 -6.2032 2.2399
-2.3623 -6.2924 2.2401
-2.1347 -6.3727 2.2400
-1.9042 -6.4446 2.2398
-1.6715 -6.5081 2.2396
-1.4366 -6.5632 2.2394
-1.1998 -6.6099 2.2393
-0.9616 -6.6481 2.2391
-0.7222 -6.6777 2.2389
-0.4820 -6.6988 2.2387
-0.2411 -6.7112 2.2385
0.0000 -6.2427 2.2384
0.2242 -6.2382 2.2382
0.4480 -6.2258 2.2380
0.6712 -6.2052 2.2378
0.8935 -6.1767 2.2377
1.1147 -6.1403 2.2375
1.3344 -6.0960 2.2373
1.5523 -6.0439 2.2372
1.7683 -5.9841 2.2371
1.8955 -5.6585 2.1394
2.1316 -5.6777 2.1741
2.2911 -5.4944 2.1340
2.4870 -5.4088 2.1340
2.6797 -5.3162 2.1340
2.8690 -5.2168 2.1340
3.0546 -5.1107 2.1340
3.2363 -4.9980 2.1340
3.4138 -4.8788 2.1340
3.5870 -4.7534 2.1340
3.7556 -4.6218 2.1340
3.9193 -4.4842 2.1340
4.0685 -4.3307 2.1289
4.2216 -4.1821 2.1289
4.3693 -4.0281 2.1289
4.5115 -3.8689 2.1289
4.6478 -3.7047 2.1289
4.7782 -3.5357 2.1289
4.9024 -3.3621 2.1289
5.0204 -3.1842 2.1289
5.1319 -3.0022 2.1289
5.2368 -2.8162 2.1289
5.3350 -2.6266 2.1289
5.4263 -2.4336 2.1289
5.5106 -2.2374 2.1289
5.5879 -2.0384 2.1289
5.6580 -1.8366 2.1289
5.7208 -1.6324 2.1289
5.7762 -1.4262 2.1289
5.8243 -1.2180 2.1289
5.8648 -1.0082 2.1289
5.8977 -0.7971 2.1289
5.9231 -0.5850 2.1289
5.9409 -0.3720 2.1289
5.9510 -0.1585 2.1289
5.9534 0.0552 2.1289
5.9481 0.2689 2.1289
5.9352 0.4823 2.1289
5.9146 0.6951 2.1289
5.8864 0.9070 2.1289
5.8506 1.1178 2.1289
5.8072 1.3272 2.1289
5.7564 1.5350 2.1289
5.6981 1.7408 2.1289
5.6325 1.9443 2.1289
5.5595 2.1454 2.1289
5.4794 2.3438 2.1289
5.3804 2.5336 2.1243
5.2320 2.6972 2.1024
5.2094 2.9268 2.1340
5.1014 3.1122 2.1340
4.9868 3.2935 2.1340
4.8658 3.4706 2.1340
4.7384 3.6433 2.1340
4.6049 3.8113 2.1340
4.4655 3.9744 2.1340
4.3203 4.1324 2.1340
4.1695 4.2851 2.1340
4.0133 4.4322 2.1340
3.8519 4.5737 2.1340
3.6855 4.7093 2.1340
3.5143 4.8387 2.1340
3.3385 4.9620 2.1340
3.1585 5.0789 2.1340
2.9743 5.1892 2.1340
2.7863 5.2929 2.1340
2.5947 5.3897 2.1340
0.8578 1.9588 0.7629
2.2015 5.5622 2.1339
2.0006 5.6378 2.1339
1.8839 5.9819 2.2371
1.6680 6.0458 2.2371
1.4500 6.1019 2.2371
1.2302 6.1501 2.2371
1.0087 6.1904 2.2371
0.7859 6.2227 2.2371
0.5621 6.2469 2.2371
0.3376 6.2631 2.2371
0.1126 6.2712 2.2371
-0.1125 6.2712 2.2371
-0.3375 6.2631 2.2371
-0.5620 6.2469 2.2371
-0.7858 6.2226 2.2371
-1.0086 6.1903 2.2371
-1.2301 6.1500 2.2371
-1.4500 6.1018 2.2371
-1.6680 6.0457 2.2371
-1.8838 5.9818 2.2371
-2.0972 5.9101 2.2371
-2.3078 5.8308 2.2371
-0.8578 1.9588 0.7629
-0.9276 1.9268 0.7629
-2.9208 5.5484 2.2371
-3.1179 5.4397 2.2371
-3.3109 5.3241 2.2371
-3.4996 5.2015 2.2371
-3.6839 5.0723 2.2371
-3.8633 4.9366 2.2371
-4.0377 4.7944 2.2371
-4.2069 4.6461 2.2371
-4.3707 4.4919 2.2371
-4.5287 4.3318 2.2371
-4.6810 4.1662 2.2371
-4.8271 3.9952 2.2371
-4.9670 3.8191 2.2371
-5.1005 3.6381 2.2371
-5.2274 3.4525 2.2371
-5.3475 3.2623 2.2371
-5.4607 3.0681 2.2371
-5.5668 2.8698 2.2371
-5.6657 2.6680 2.2371
-5.7573 2.4627 2.2371
-5.8415 2.2543 2.2371
-5.9181 2.0430 2.2371
-5.9871 1.8291 2.2371
-6.0483 1.6128 2.2371
-6.1018 1.3946 2.2371
-6.1473 1.1745 2.2371
-6.1536 0.9482 2.2257
-6.1542 0.7233 2.2153
-6.1548 0.5001 2.2078
-6.1552 0.2783 2.2032
-6.1557 0.0571 2.2015
-6.1561 -0.1640 2.2025
-6.1564 -0.3855 2.2063
-6.1566 -0.6080 2.2130
-6.1567 -0.8321 2.2226
-6.1568 -1.0584 2.2351
-6.1196 -1.2798 2.2371
-6.0692 -1.4985 2.2371
-6.0109 -1.7153 2.2371
-5.9449 -1.9298 2.2371
-5.8713 -2.1417 2.2371
-5.7901 -2.3510 2.2371
-5.7015 -2.5571 2.2371
-5.6055 -2.7599 2.2371
-5.5024 -2.9591 2.2371
-5.3922 -3.1545 2.2371
-5.2750 -3.3458 2.2371
-5.1511 -3.5327 2.2371
-5.0206 -3.7151 2.2371
-4.8840 -3.8930 2.2373
-4.7412 -4.0659 2.2375
-4.5921 -4.2335 2.2376
-4.4370 -4.3955 2.2377
-4.2762 -4.5518 2.2377
-4.1099 -4.7022 2.2378
-3.9382 -4.8466 2.2379
-3.7616 -4.9848 2.2380
-3.5802 -5.1166 2.2381
-3.3943 -5.2422 2.2383
-3.2041 -5.3609 2.2385
-3.0097 -5.4728 2.2388
-2.8114 -5.5777 2.2390
-2.6095 -5.6754 2.2392
-2.4042 -5.7657 2.2394
-2.1956 -5.8483 2.2395
-1.9841 -5.9231 2.2395
-1.7701 -5.9903 2.2394
-1.5538 -6.0498 2.2394
-1.3355 -6.1014 2.2393
-1.1154 -6.1449 2.2392
-0.8940 -6.1805 2.2390
-0.6715 -6.2080 2.2389
-0.4481 -6.2276 2.2387
-0.2241 -6.2392 2.2385
0.0000 -5.8263 2.2384
0.2092 -5.8222 2.2382
0.4181 -5.8105 2.2380
0.6265 -5.7914 2.2379
0.8340 -5.7649 2.2377
1.0404 -5.7309 2.2376
1.2454 -5.6896 2.2374
1.4488 -5.6409 2.2373
1.6504 -5.5850 2.2371
1.8499 -5.5222 2.2371
1.9527 -5.2011 2.1340
2.1588 -5.1770 2.1544
2.3211 -5.0479 2.1340
2.5010 -4.9615 2.1340
2.6776 -4.8687 2.1340
2.8508 -4.7696 2.1340
3.0204 -4.6644 2.1340
3.1861 -4.5532 2.1340
3.3477 -4.4361 2.1340
3.5050 -4.3133 2.1340
3.6578 -4.1849 2.1340
3.8060 -4.0511 2.1340
3.9399 -3.9029 2.1289
4.0777 -3.7592 2.1289
4.2104 -3.6106 2.1289
4.3376 -3.4573 2.1289
4.4593 -3.2996 2.1289
4.5752 -3.1376 2.1289
4.6852 -2.9715 2.1289
4.7893 -2.8016 2.1289
4.8872 -2.6281 2.1289
4.9788 -2.4511 2.1289
5.0640 -2.2710 2.1289
5.1427 -2.0879 2.1289
5.2147 -1.9021 2.1289
5.2801 -1.7138 2.1289
5.3387 -1.5233 2.1289
5.3904 -1.3308 2.1289
5.4352 -1.1365 2.1289
5.4730 -0.9407 2.1289
5.5037 -0.7437 2.1289
5.5273 -0.5457 2.1289
5.5439 -0.3470 2.1289
5.5533 -0.1478 2.1289
5.5555 0.0517 2.1289
5.5506 0.2511 2.1289
5.5384 0.4502 2.1289
5.5192 0.6488 2.1289
5.4929 0.8465 2.1289
5.4594 1.0432 2.1289
5.4189 1.2386 2.1289
5.3715 1.4324 2.1289
5.3170 1.6245 2.1289
5.2558 1.8144 2.1289
5.1877 2.0021 2.1289
5.1129 2.1871 2.1289
5.0315 2.3694 2.1289
4.9436 2.5487 2.1289
4.8494 2.7247 2.1289
4.7601 2.9041 2.1340
4.6531 3.0733 2.1340
4.5401 3.2385 2.1340
4.4213 3.3996 2.1340
4.2968 3.5564 2.1340
4.1666 3.7085 2.1340
4.0311 3.8559 2.1340
3.8904 3.9984 2.1340
3.7446 4.1357 2.1340
3.5940 4.2676 2.1340
3.4387 4.3941 2.1340
3.2790 4.5149 2.1340
