ply
format ascii 1.0
element vertex 2140
property float32 x
property float32 y
property float32 z
end_header
1.6327 -45.4695 2.1549
3.2629 -45.3718 2.1549
4.8877 -45.2116 2.1549
3.3134 -22.9172 1.0977
3.2184 -17.7380 0.8550
3.7072 -16.9451 0.8232
4.2394 -16.5146 0.8097
4.6936 -15.8920 0.7875
5.0054 -14.9501 0.7499
5.1301 -13.6718 0.6952
5.1298 -12.3087 0.6355
5.6578 -12.3113 0.6464
6.2022 -12.3112 0.6584
7.4672 -13.5854 0.7413
7.4669 -12.5000 0.6972
7.4667 -11.5378 0.6590
7.4665 -10.6769 0.6257
7.4663 -9.9000 0.5964
7.4662 -9.1939 0.5705
7.4660 -8.5475 0.5476
7.4659 -7.9522 0.5272
7.4658 -7.4009 0.5091
7.4657 -6.8874 0.4928
7.4656 -6.4069 0.4782
7.4397 -5.9346 0.4635
7.4396 -5.5094 0.4518
7.3900 -5.0724 0.4382
7.4652 -4.7391 0.4333
7.4651 -4.3712 0.4248
5.9546 -3.2055 0.3328
5.9545 -2.9348 0.3274
5.9545 -2.6736 0.3227
6.3169 -2.5680 0.3379
6.7368 -2.4608 0.3562
7.3717 -2.3965 0.3858
7.4263 -2.1228 0.3853
7.4237 -1.8365 0.3824
7.4211 -1.5555 0.3801
7.4186 -1.2789 0.3783
5.2306 -0.7094 0.2659
6.0205 -0.5974 0.3054
6.0205 -0.3798 0.3053
6.0204 -0.1632 0.3055
6.0204 0.0530 0.3061
6.0204 0.2693 0.3072
6.0203 0.4864 0.3086
6.0203 0.7047 0.3104
6.0202 0.9248 0.3126
6.0202 1.1474 0.3153
6.0201 1.3730 0.3184
5.7384 1.5274 0.3069
6.2336 1.9013 0.3375
6.2398 2.1509 0.3426
6.3093 2.4316 0.3517
6.3092 2.6955 0.3577
6.3092 2.9677 0.3642
6.3091 3.2492 0.3715
6.2357 3.5001 0.3751
6.2331 3.7992 0.3836
6.2331 4.1132 0.3932
6.2330 4.4423 0.4037
6.2329 4.7888 0.4154
6.2328 5.1549 0.4282
6.2328 5.5434 0.4423
6.2327 5.9576 0.4579
6.2326 6.4012 0.4752
6.2325 6.8788 0.4945
6.1826 7.3368 0.5119
6.2434 7.9731 0.5410
6.2416 8.5890 0.5680
6.2319 9.2573 0.5977
6.2318 10.0154 0.6325
7.3832 12.8745 0.7967
6.7795 12.8716 0.7817
6.1996 12.8712 0.7684
5.6407 12.8737 0.7566
6.0171 15.1948 0.8805
5.3707 15.1278 0.8655
6.7240 21.3407 1.2071
6.0556 21.9383 1.2285
5.8750 24.7115 1.3718
2.2877 11.4323 0.6299
5.9231 36.3355 1.9897
4.8809 38.6312 2.1049
3.5347 39.2693 2.1318
2.1224 39.3673 2.1318
0.7418 41.3238 2.2349
-0.7423 41.3267 2.2349
-2.2259 41.2795 2.2349
-3.7073 41.1824 2.2349
-5.1851 41.0354 2.2349
-6.3501 38.9519 2.1317
-7.6016 37.9850 2.0914
-6.3753 26.8145 1.4872
-10.5347 38.1638 2.1349
-10.1463 32.2013 1.8193
-13.2656 37.3646 2.1349
-14.6110 36.8957 2.1349
-15.9409 36.3810 2.1349
-16.2845 33.8081 2.0150
-16.2181 30.7912 1.8667
-16.3833 28.5678 1.7644
-17.7756 28.5675 1.8005
-19.2316 28.5671 1.8404
-17.6129 24.2366 1.5990
-18.2878 23.3539 1.5808
-9.0589 10.7498 0.7481
-9.2114 10.1664 0.7289
-9.8986 10.1663 0.7527
-10.0344 9.5913 0.7351
-10.0342 8.9243 0.7100
-10.0341 8.2986 0.6872
-10.0340 7.7090 0.6666
-10.0339 7.1512 0.6479
-10.0338 6.6211 0.6309
-10.0337 6.1157 0.6154
-10.0336 5.6319 0.6014
-10.0335 5.1672 0.5887
-10.0334 4.7194 0.5771
-9.0573 3.8696 0.5116
-9.0572 3.4906 0.5030
-9.0571 3.1220 0.4954
-9.3590 2.8545 0.5048
-10.7234 2.8542 0.5712
-10.8992 2.4857 0.5742
-10.8991 2.0772 0.5685
-10.8990 1.6742 0.5637
-10.8989 1.2757 0.5597
-13.6730 1.1046 0.6980
-14.0009 0.6264 0.7114
-14.0008 0.1233 0.7090
-14.0007 -0.3795 0.7076
-14.0006 -0.8832 0.7070
-12.5156 -1.2419 0.6324
-12.4055 -1.6825 0.6280
-10.8982 -1.8787 0.5534
-10.8981 -2.2843 0.5559
-10.8980 -2.6960 0.5592
-11.1266 -3.1804 0.5750
-9.8493 -3.2020 0.5135
-9.8488 -3.5976 0.5187
-9.8484 -4.0036 0.5247
-9.8479 -4.4217 0.5316
-9.8473 -4.8534 0.5394
-6.4900 -3.4936 0.3614
-9.8463 -5.7654 0.5583
-9.8457 -6.2502 0.5694
-9.8451 -6.7574 0.5819
-9.8444 -7.2903 0.5957
-9.8438 -7.8522 0.6112
-9.8430 -8.4471 0.6284
-9.8423 -9.0798 0.6476
-9.8415 -9.7558 0.6690
-24.7509 -26.3628 1.7428
-23.0273 -26.3624 1.6842
-21.4085 -26.3620 1.6315
-19.4909 -25.8436 1.5528
-18.2277 -26.0646 1.5236
-18.0542 -27.8975 1.5897
-18.1203 -30.3338 1.6882
-18.1197 -32.9655 1.7951
-12.8208 -25.4484 1.3583
-11.9393 -25.9794 1.3615
-17.4253 -41.8097 2.1549
-15.9272 -42.4446 2.1549
-14.4047 -43.0222 2.1549
-12.8602 -43.5414 2.1549
-11.2960 -44.0014 2.1549
-9.7144 -44.4010 2.1549
-4.6226 -25.4760 1.2271
-6.5092 -45.0174 2.1549
-2.7655 -25.5789 1.2186
-3.2644 -45.3861 2.1549
-1.6335 -45.4767 2.1549
-0.0002 -30.8043 2.1549
1.1052 -30.7819 2.1549
2.2088 -30.7180 2.1549
3.1964 -29.5702 2.0816
3.3134 -22.9193 1.6212
3.2184 -17.7396 1.2625
3.7068 -16.9448 1.2152
4.2391 -16.5149 1.1950
4.6933 -15.8924 1.1620
5.0051 -14.9504 1.1062
5.1301 -13.6730 1.0253
5.1298 -12.3098 0.9369
5.6484 -12.2921 0.9511
6.2017 -12.3112 0.9699
7.4672 -13.5867 1.0918
7.4669 -12.5012 1.0264
7.4667 -11.5389 0.9697
7.4665 -10.6779 0.9202
7.4663 -9.9010 0.8767
7.4662 -9.1948 0.8383
7.4660 -8.5484 0.8042
7.4659 -7.9531 0.7738
7.4658 -7.4017 0.7467
7.4657 -6.8882 0.7224
7.4656 -6.4077 0.7006
7.4397 -5.9353 0.6786
7.4396 -5.5102 0.6610
7.3900 -5.0731 0.6409
7.4652 -4.7397 0.6332
7.4651 -4.3719 0.6204
6.0933 -3.2806 0.4970
6.1154 -3.0146 0.4904
6.1154 -2.7464 0.4829
6.4799 -2.6348 0.5047
6.7368 -2.4614 0.5183
7.3698 -2.3965 0.5609
7.4263 -2.1234 0.5600
7.4237 -1.8371 0.5553
7.4212 -1.5561 0.5515
7.4187 -1.2795 0.5485
5.2306 -0.7098 0.3852
6.0205 -0.5979 0.4422
6.0205 -0.3803 0.4417
6.0204 -0.1636 0.4417
6.0204 0.0526 0.4423
6.0204 0.2689 0.4434
6.0203 0.4859 0.4451
6.0203 0.7042 0.4474
6.0202 0.9243 0.4503
6.0202 1.1469 0.4538
6.0201 1.3725 0.4580
5.7419 1.5279 0.4414
6.2336 1.9008 0.4849
6.2397 2.1504 0.4918
6.3093 2.4311 0.5046
6.3092 2.6950 0.5128
6.3092 2.9672 0.5219
6.3091 3.2487 0.5319
6.2358 3.4996 0.5367
6.2331 3.7987 0.5487
6.2331 4.1126 0.5620
6.2330 4.4417 0.5768
6.2329 4.7882 0.5931
6.2328 5.1543 0.6110
6.2328 5.5428 0.6309
6.2327 5.9570 0.6529
6.2326 6.4006 0.6773
6.2325 6.8781 0.7044
6.1826 7.3361 0.7288
6.2481 7.9784 0.7706
6.2416 8.5884 0.8080
6.2319 9.2565 0.8500
6.2318 10.0145 0.8992
7.3846 12.8758 1.1325
6.7807 12.8729 1.1109
6.2007 12.8725 1.0916
5.6412 12.8738 1.0745
6.0171 15.1937 1.2500
5.3711 15.1278 1.2286
6.7108 21.2975 1.7097
6.0558 21.9378 1.7432
5.7599 24.2255 1.9080
2.2879 11.4325 0.8936
4.4742 27.4453 2.1318
2.0906 16.5454 1.2787
2.1014 23.3448 1.7975
1.5689 29.0995 2.2349
0.5230 29.1369 2.2349
-0.5235 29.1382 2.2349
-1.5695 29.1038 2.2349
-2.6139 29.0333 2.2349
-3.6555 28.9271 2.2349
-4.6930 28.7851 2.2349
-5.7254 28.6074 2.2349
-6.3492 26.7022 2.1017
-7.4111 26.8457 2.1317
-8.3743 26.5755 2.1317
-9.3282 26.2721 2.1317
-10.2874 25.9754 2.1349
-11.2207 25.6061 2.1349
-12.1414 25.2044 2.1349
-13.0484 24.7710 2.1349
-13.9406 24.3062 2.1349
-14.8170 23.8104 2.1349
-15.6765 23.2841 2.1349
-16.5181 22.7279 2.1349
-17.3408 22.1423 2.1349
-9.0589 10.7487 1.0659
-9.2124 10.1664 1.0392
-9.8997 10.1663 1.0737
-10.0339 9.5899 1.0489
-10.0338 8.9229 1.0135
-10.0337 8.2973 0.9816
-10.0336 7.7078 0.9526
-10.0335 7.1499 0.9264
-10.0335 6.6200 0.9026
-10.0334 6.1146 0.8811
-10.0333 5.6308 0.8615
-10.0332 5.1662 0.8438
-10.0331 4.7184 0.8278
-9.0573 3.8688 0.7342
-9.0572 3.4899 0.7225
-9.0571 3.1213 0.7120
-9.3615 2.8545 0.7262
-10.7266 2.8542 0.8224
-10.8992 2.4849 0.8269
-10.8991 2.0764 0.8194
-10.8990 1.6734 0.8130
-10.8989 1.2749 0.8077
-13.6859 1.1046 1.0090
-14.0009 0.6253 1.0283
-14.0008 0.1222 1.0256
-14.0007 -0.3805 1.0242
-14.0006 -0.8843 1.0242
-12.5157 -1.2428 0.9167
-12.3986 -1.6825 0.9105
-10.8982 -1.8795 0.8034
-10.8981 -2.2851 0.8076
-10.8980 -2.6968 0.8130
-11.1236 -3.1804 0.8364
-9.8493 -3.2028 0.7476
-9.8488 -3.5983 0.7557
-9.8484 -4.0044 0.7650
-9.8479 -4.4225 0.7756
-9.8473 -4.8542 0.7876
-6.4886 -3.4934 0.5279
-9.8463 -5.7663 0.8162
-9.8457 -6.2510 0.8330
-9.8451 -6.7583 0.8518
-9.8444 -7.2912 0.8727
-9.8438 -7.8531 0.8958
-9.8430 -8.4481 0.9216
-9.8423 -9.0808 0.9503
-9.8415 -9.7568 0.9822
-21.4224 -22.8198 2.2159
-19.9526 -22.8446 2.1450
-19.0231 -23.4269 2.1318
-18.0417 -23.9242 2.1146
-17.3279 -24.7800 2.1318
-16.4424 -25.4091 2.1318
-15.5333 -26.0052 2.1318
-14.6018 -26.5674 2.1318
-12.8198 -25.4484 2.0023
-12.8142 -27.8852 2.1549
-11.8128 -28.3454 2.1549
-10.7942 -28.7678 2.1549
-9.7599 -29.1520 2.1549
-8.7115 -29.4972 2.1549
-7.6505 -29.8030 2.1549
-6.5782 -30.0688 2.1549
-4.6210 -25.4687 1.8117
-4.4067 -30.4788 2.1549
-3.3106 -30.6223 2.1549
-2.2098 -30.7245 2.1549
-1.1058 -30.7852 2.1549
-0.0002 -23.0417 2.1342
0.8314 -23.1609 2.1468
1.6618 -23.1136 2.1468
2.4897 -23.0354 2.1468
3.3133 -22.9207 2.1463
3.2184 -17.7413 1.6714
3.7064 -16.9445 1.6083
4.2389 -16.5153 1.5816
4.6930 -15.8928 1.5377
5.0048 -14.9508 1.4636
5.1301 -13.6742 1.3565
5.1298 -12.3109 1.2393
5.6484 -12.2932 1.2579
6.2011 -12.3112 1.2824
7.4672 -13.5879 1.4434
7.4669 -12.5024 1.3566
7.4667 -11.5400 1.2814
7.4665 -10.6789 1.2157
7.4663 -9.9020 1.1579
7.4662 -9.1957 1.1069
7.4660 -8.5493 1.0616
7.4659 -7.9540 1.0212
7.4658 -7.4025 0.9851
7.4657 -6.8890 0.9528
7.4656 -6.4084 0.9237
7.4397 -5.9360 0.8945
7.4396 -5.5109 0.8710
7.3900 -5.0738 0.8442
7.4652 -4.7404 0.8337
7.4651 -4.3726 0.8166
6.0933 -3.2812 0.6540
6.3155 -3.1138 0.6661
6.3154 -2.8367 0.6557
6.5657 -2.6702 0.6721
6.7368 -2.4619 0.6810
7.3679 -2.3965 0.7365
7.4264 -2.1240 0.7352
7.4238 -1.8377 0.7288
7.4213 -1.5567 0.7235
7.4196 -1.2802 0.7193
5.2306 -0.7102 0.5049
6.0205 -0.5983 0.5795
6.0205 -0.3807 0.5785
6.0204 -0.1641 0.5783
6.0204 0.0521 0.5788
6.0204 0.2684 0.5801
6.0203 0.4855 0.5821
6.0203 0.7038 0.5849
6.0202 0.9239 0.5885
6.0202 1.1464 0.5929
6.0201 1.3721 0.5981
5.7453 1.5283 0.5765
6.2336 1.9003 0.6327
6.2397 2.1499 0.6415
6.3093 2.4306 0.6580
6.3092 2.6945 0.6684
6.3092 2.9666 0.6800
6.3091 3.2481 0.6929
6.2358 3.4991 0.6990
6.2331 3.7981 0.7143
6.2331 4.1120 0.7315
6.2330 4.4412 0.7504
6.2329 4.7876 0.7714
6.2328 5.1537 0.7945
6.2328 5.5422 0.8201
6.2327 5.9563 0.8485
6.2326 6.3999 0.8799
6.2325 6.8774 0.9150
6.1826 7.3354 0.9465
6.2529 7.9838 1.0012
6.2417 8.5877 1.0489
6.2319 9.2557 1.1032
6.2318 10.0137 1.1668
7.3860 12.8772 1.4695
6.7820 12.8743 1.4412
6.2018 12.8738 1.4161
5.6417 12.8740 1.3936
6.0171 15.1925 1.6208
5.3715 15.1279 1.5929
6.4762 20.5514 2.1389
5.7135 20.6960 2.1318
4.9653 20.8823 2.1318
2.2881 11.4327 1.1583
2.0709 12.7022 1.2787
2.0711 16.3900 1.6417
1.9233 21.3644 2.1318
1.2107 22.4544 2.2349
0.4036 22.4833 2.2349
-0.4040 22.4841 2.2349
-1.2112 22.4569 2.2349
-2.0171 22.4018 2.2349
-2.8207 22.3187 2.2349
-3.6210 22.2077 2.2349
-4.4172 22.0690 2.2349
-5.2084 21.9027 2.2349
-5.9936 21.7089 2.2349
-6.4590 20.4953 2.1317
-7.1938 20.2587 2.1317
-7.9202 19.9967 2.1317
-8.6375 19.7094 2.1317
-9.3448 19.3971 2.1317
-10.0411 19.0603 2.1317
-10.7420 18.7276 2.1349
-11.4151 18.3420 2.1349
-12.0748 17.9328 2.1349
-12.7203 17.5006 2.1349
-13.3507 17.0458 2.1349
-9.0589 10.7476 1.3848
-9.2133 10.1664 1.3506
-9.9008 10.1663 1.3957
-10.0336 9.5884 1.3638
-10.0334 8.9215 1.3181
-10.0333 8.2960 1.2769
-10.0333 7.7065 1.2396
-10.0332 7.1488 1.2059
-10.0331 6.6188 1.1753
-10.0330 6.1134 1.1476
-10.0329 5.6297 1.1225
-10.0329 5.1651 1.0998
-10.0328 4.7174 1.0793
-9.0573 3.8680 0.9577
-9.0572 3.4891 0.9427
-9.0571 3.1205 0.9293
-9.3639 2.8545 0.9485
-10.7298 2.8542 1.0745
-10.8992 2.4840 1.0805
-10.8991 2.0755 1.0710
-10.8990 1.6725 1.0631
-10.8989 1.2740 1.0566
-13.6988 1.1046 1.3217
-14.0009 0.6243 1.3461
-14.0008 0.1212 1.3431
-14.0007 -0.3816 1.3419
-14.0006 -0.8853 1.3424
-12.5159 -1.2438 1.2020
-12.3915 -1.6825 1.1936
-10.8982 -1.8804 1.0542
-10.8981 -2.2859 1.0602
-10.8980 -2.6977 1.0676
-11.1206 -3.1804 1.0985
-9.8493 -3.2035 0.9825
-9.8488 -3.5991 0.9935
-9.8484 -4.0052 1.0061
-9.8479 -4.4233 1.0205
-9.8473 -4.8550 1.0366
-6.4871 -3.4932 0.6948
-9.8463 -5.7671 1.0750
-9.8457 -6.2519 1.0975
-9.8451 -6.7592 1.1226
-9.8444 -7.2921 1.1505
-9.8438 -7.8540 1.1814
-9.8430 -8.4490 1.2158
-9.8423 -9.0818 1.2540
-9.8415 -9.7578 1.2965
-16.3644 -17.4337 2.2349
-15.7415 -18.0249 2.2349
-15.0966 -18.5932 2.2349
-14.4308 -19.1377 2.2349
-13.7448 -19.6576 2.2349
-13.0395 -20.1522 2.2349
-12.3160 -20.6206 2.2349
-11.5782 -21.0678 2.2355
-10.8201 -21.4805 2.2354
-10.0484 -21.8682 2.2355
-9.2604 -22.2225 2.2352
-8.4597 -22.5477 2.2349
-7.5281 -22.4874 2.1999
-6.5748 -22.2638 2.1528
-5.7173 -22.2737 2.1318
-4.9156 -22.4705 2.1318
-4.1070 -22.6373 2.1318
-3.2925 -22.7740 2.1318
-2.4735 -22.8803 2.1318
-1.4057 -19.5461 1.8152
-0.8266 -23.0136 2.1330
-0.0002 -18.4844 2.1329
0.6627 -18.4622 2.1318
1.3246 -18.4248 2.1318
1.9846 -18.3631 2.1318
2.6418 -18.2771 2.1318
3.2184 -17.7429 2.0821
3.7060 -16.9442 2.0032
4.2386 -16.5157 1.9698
4.6927 -15.8933 1.9150
5.0045 -14.9511 1.8226
5.1301 -13.6754 1.6891
5.1298 -12.3120 1.5431
5.6484 -12.2944 1.5660
6.2005 -12.3112 1.5963
7.4672 -13.5892 1.7965
7.4669 -12.5035 1.6883
7.4667 -11.5411 1.5944
7.4665 -10.6800 1.5124
7.4663 -9.9030 1.4404
7.4662 -9.1967 1.3767
7.4660 -8.5502 1.3201
7.4659 -7.9548 1.2697
7.4658 -7.4033 1.2246
7.4657 -6.8898 1.1841
7.4656 -6.4092 1.1478
7.4397 -5.9368 1.1112
7.4396 -5.5116 1.0819
7.3900 -5.0745 1.0484
6.7101 -4.2616 0.9305
6.6492 -3.8953 0.9029
6.0933 -3.2817 0.8116
6.3589 -3.1358 0.8322
6.5154 -2.9271 0.8392
6.5643 -2.6702 0.8334
6.7368 -2.4625 0.8444
7.3659 -2.3964 0.9127
7.4265 -2.1246 0.9111
7.4239 -1.8383 0.9030
7.4214 -1.5573 0.8962
7.4208 -1.2810 0.8910
5.2306 -0.7106 0.6252
6.0205 -0.5988 0.7173
6.0205 -0.3812 0.7159
6.0204 -0.1645 0.7155
6.0204 0.0516 0.7160
6.0204 0.2680 0.7174
6.0203 0.4850 0.7197
6.0203 0.7033 0.7230
6.0202 0.9234 0.7273
6.0202 1.1460 0.7325
6.0201 1.3716 0.7387
5.7488 1.5288 0.7124
6.2336 1.8998 0.7812
6.2397 2.1493 0.7919
6.3093 2.4301 0.8120
6.3092 2.6940 0.8247
6.3092 2.9661 0.8389
6.3091 3.2476 0.8546
6.2358 3.4986 0.8619
6.2331 3.7976 0.8806
6.2331 4.1115 0.9016
6.2330 4.4406 0.9248
6.2329 4.7870 0.9505
6.2328 5.1531 0.9788
6.2328 5.5416 1.0102
6.2327 5.9557 1.0449
6.2326 6.3992 1.0835
6.2325 6.8767 1.1265
6.1826 7.3346 1.1651
6.2577 7.9892 1.2333
6.2418 8.5870 1.2909
6.2319 9.2549 1.3575
6.2318 10.0128 1.4356
7.3874 12.8785 1.8081
6.7832 12.8756 1.7732
6.2029 12.8751 1.7420
5.6425 12.8749 1.7141
6.0171 15.1913 1.9932
5.3719 15.1279 1.9589
5.2497 16.6580 2.1318
4.6469 16.8315 2.1318
4.0386 16.9838 2.1318
2.2883 11.4329 1.4241
2.0858 12.7932 1.5834
2.0712 16.3900 2.0183
1.6401 18.2184 2.2349
0.9848 18.2648 2.2349
0.3282 18.2883 2.2349
-0.3287 18.2888 2.2349
-0.9853 18.2665 2.2349
-1.6408 18.2212 2.2349
-2.2944 18.1530 2.2349
-2.9453 18.0620 2.2349
-3.5928 17.9484 2.2349
-4.2360 17.8121 2.2349
-4.8743 17.6534 2.2349
-5.5068 17.4725 2.2349
-6.1328 17.2695 2.2349
-6.4397 16.2571 2.1317
-7.0222 16.0220 2.1317
-7.5964 15.7666 2.1317
-8.1616 15.4911 2.1317
-8.7170 15.1957 2.1317
-9.2621 14.8810 2.1317
-9.7960 14.5471 2.1317
-10.5276 14.4826 2.1749
-11.0478 14.1041 2.1749
-9.0589 10.7465 1.7051
-9.2143 10.1664 1.6634
-9.9019 10.1663 1.7193
-10.0331 9.5869 1.6799
-10.0331 8.9201 1.6240
-10.0330 8.2946 1.5735
-10.0329 7.7053 1.5278
-10.0328 7.1475 1.4865
-10.0328 6.6176 1.4491
-10.0327 6.1123 1.4152
-10.0326 5.6286 1.3845
-10.0325 5.1641 1.3568
-10.0325 4.7164 1.3318
-9.0573 3.8673 1.1820
-9.0572 3.4884 1.1638
-9.0571 3.1198 1.1475
-9.3664 2.8545 1.1718
-10.7330 2.8542 1.3278
-10.8992 2.4832 1.3351
-10.8991 2.0747 1.3238
-10.8990 1.6717 1.3143
-10.8989 1.2732 1.3066
-13.7119 1.1046 1.6364
-14.0009 0.6232 1.6654
-14.0008 0.1201 1.6621
-14.0007 -0.3827 1.6609
-14.0006 -0.8864 1.6619
-12.5160 -1.2448 1.4885
-12.3846 -1.6825 1.4776
-10.8982 -1.8812 1.3062
-10.8981 -2.2868 1.3138
-10.8980 -2.6985 1.3233
-11.1176 -3.1805 1.3616
-9.8493 -3.2043 1.2184
-9.8488 -3.5999 1.2323
-9.8484 -4.0060 1.2483
-9.8479 -4.4241 1.2664
-9.8473 -4.8559 1.2867
-6.4856 -3.4929 0.8625
-9.8463 -5.7680 1.3349
-9.8457 -6.2528 1.3632
-9.8451 -6.7601 1.3946
-9.8444 -7.2930 1.4295
-9.8438 -7.8550 1.4682
-9.8430 -8.4500 1.5112
-9.8423 -9.0828 1.5590
-9.8415 -9.7588 1.6122
-12.5513 -13.3727 2.1318
-12.0715 -13.8239 2.1318
-11.5752 -14.2575 2.1318
-11.5991 -15.3838 2.2351
-11.0470 -15.8007 2.2353
-10.4809 -16.1993 2.2358
-9.9012 -16.5790 2.2365
-9.3060 -16.9347 2.2368
-8.6976 -17.2682 2.2372
-8.0770 -17.5794 2.2375
-7.4450 -17.8674 2.2378
-6.8017 -18.1301 2.2379
-6.1476 -18.3650 2.2375
-5.4852 -18.5756 2.2371
-4.8155 -18.7618 2.2367
-4.1393 -18.9230 2.2362
-3.4576 -19.0590 2.2358
-2.7713 -19.1700 2.2354
-2.0815 -19.2557 2.2350
-1.3616 -18.9336 2.1904
-0.6648 -18.5095 2.1372
-0.0002 -16.1647 2.2352
0.5771 -16.0814 2.2252
1.1053 -15.3760 2.1318
1.6561 -15.3248 2.1318
2.2046 -15.2534 2.1318
2.7499 -15.1619 2.1318
3.2915 -15.0505 2.1318
3.8285 -14.9192 2.1318
4.3499 -14.7335 2.1268
4.8743 -14.5637 2.1268
5.1301 -13.6766 2.0235
5.1298 -12.3131 1.8485
5.6484 -12.2955 1.8758
6.2000 -12.3112 1.9117
7.3814 -13.4343 2.1268
7.4669 -12.5047 2.0217
7.4667 -11.5422 1.9091
7.4665 -10.6810 1.8108
7.4663 -9.9040 1.7243
7.4662 -9.1976 1.6479
7.4660 -8.5511 1.5800
7.4659 -7.9557 1.5195
7.4658 -7.4042 1.4653
7.4657 -6.8906 1.4168
7.4656 -6.4100 1.3731
7.4397 -5.9375 1.3292
7.4396 -5.5123 1.2939
7.4395 -5.1092 1.2621
6.7188 -4.2677 1.1139
6.5363 -3.8297 1.0610
6.0933 -3.2823 0.9701
6.3578 -3.1358 0.9944
6.7154 -3.0175 1.0336
6.7154 -2.7322 1.0186
6.7368 -2.4630 1.0086
7.3640 -2.3964 1.0899
7.4266 -2.1252 1.0880
7.4240 -1.8389 1.0782
7.4221 -1.5581 1.0700
7.4220 -1.2818 1.0636
5.2306 -0.7110 0.7461
6.0205 -0.5993 0.8559
6.0205 -0.3816 0.8541
6.0204 -0.1650 0.8534
6.0204 0.0512 0.8539
6.0204 0.2675 0.8554
6.0203 0.4845 0.8581
6.0203 0.7028 0.8618
6.0202 0.9230 0.8668
6.0202 1.1455 0.8729
6.0201 1.3711 0.8802
5.7523 1.5293 0.8492
6.2336 1.8993 0.9305
6.2396 2.1488 0.9431
6.3093 2.4296 0.9669
6.3092 2.6934 0.9819
6.3092 2.9656 0.9986
6.3091 3.2471 1.0171
6.2359 3.4981 1.0257
6.2331 3.7970 1.0478
6.2331 4.1109 1.0727
6.2330 4.4400 1.1001
6.2329 4.7864 1.1305
6.2328 5.1525 1.1641
6.2328 5.5409 1.2012
6.2382 5.9603 1.2435
6.2326 6.3986 1.2881
6.2325 6.8760 1.3391
6.1826 7.3339 1.3849
6.2575 7.9882 1.4657
6.2377 8.5806 1.5331
6.2319 9.2540 1.6131
6.2318 10.0120 1.7058
7.2385 12.6180 2.1050
6.7835 12.8751 2.1067
6.2041 12.8764 2.0699
5.6435 12.8762 2.0366
5.3557 13.5205 2.1073
4.9220 13.8597 2.1318
4.4200 14.0241 2.1318
3.9126 14.1708 2.1318
3.4006 14.2995 2.1318
2.2885 11.4331 1.6914
2.0860 12.7932 1.8805
1.8859 14.9229 2.1825
1.3811 15.3402 2.2349
0.8292 15.3794 2.2349
0.2764 15.3992 2.2349
-0.2769 15.3996 2.2349
-0.8298 15.3806 2.2349
-1.3817 15.3422 2.2349
-1.9320 15.2845 2.2349
-2.4801 15.2075 2.2349
-3.0251 15.1113 2.2349
-3.5666 14.9960 2.2349
-4.1039 14.8617 2.2349
-4.6362 14.7086 2.2349
-5.1629 14.5369 2.2349
-5.6835 14.3468 2.2349
-6.1598 14.0532 2.2215
-6.3937 13.2693 2.1317
-6.8689 13.0364 2.1317
-7.3358 12.7868 2.1317
-7.7938 12.5209 2.1317
-8.2424 12.2388 2.1317
-8.6810 11.9410 2.1317
-9.1091 11.6278 2.1317
-9.0589 10.7453 2.0271
-9.2153 10.1664 1.9780
-9.9030 10.1663 2.0446
-10.0327 9.5854 1.9978
-10.0327 8.9187 1.9314
-10.0326 8.2933 1.8716
-10.0325 7.7040 1.8175
-10.0325 7.1463 1.7686
-10.0324 6.6165 1.7243
-10.0323 6.1112 1.6843
-10.0323 5.6275 1.6480
-10.0322 5.1630 1.6152
-10.0321 4.7154 1.5857
-9.0573 3.8665 1.4076
-9.0572 3.4876 1.3861
-9.0571 3.1191 1.3670
-9.3689 2.8545 1.3965
-10.7362 2.8542 1.5827
-10.8992 2.4823 1.5912
-10.8991 2.0738 1.5779
-10.8990 1.6708 1.5669
-10.8989 1.2723 1.5579
-13.7250 1.1046 1.9533
-14.0009 0.6221 1.9864
-14.0008 0.1190 1.9828
-14.0007 -0.3837 1.9817
-14.0006 -0.8875 1.9832
-12.5163 -1.2458 1.7766
-12.3775 -1.6825 1.7628
-10.8982 -1.8821 1.5594
-10.8981 -2.2876 1.5688
-10.8980 -2.6994 1.5804
-11.1146 -3.1805 1.6260
-9.8493 -3.2051 1.4556
-9.8488 -3.6007 1.4725
-9.8484 -4.0068 1.4918
-9.8479 -4.4249 1.5136
-9.8473 -4.8567 1.5381
-6.4841 -3.4927 1.0309
-9.8462 -5.7688 1.5962
-9.8457 -6.2536 1.6302
-9.8451 -6.7610 1.6681
-9.8444 -7.2939 1.7100
-9.8438 -7.8559 1.7566
-9.8430 -8.4510 1.8083
-9.8423 -9.0838 1.8656
-9.8415 -9.7598 1.9295
-10.4858 -11.1733 2.1318
-10.0839 -11.5489 2.1318
-9.6683 -11.9099 2.1318
-9.2396 -12.2555 2.1318
-8.7982 -12.5854 2.1318
-8.3449 -12.8990 2.1318
-8.2621 -13.8356 2.2352
-7.7648 -14.1313 2.2355
-7.2567 -14.4086 2.2359
-6.7385 -14.6673 2.2362
-6.2110 -14.9069 2.2366
-5.6747 -15.1271 2.2369
-5.1305 -15.3277 2.2373
-4.5791 -15.5081 2.2377
-4.0212 -15.6681 2.2380
-3.4564 -15.8022 2.2376
-2.8871 -15.9156 2.2372
-2.3141 -16.0078 2.2368
-1.7380 -16.0789 2.2364
-1.1599 -16.1287 2.2360
-0.5803 -16.1574 2.2356
-0.0002 -13.8615 2.2359
0.4970 -13.8498 2.2355
0.9933 -13.8200 2.2351
1.4784 -13.6824 2.2203
1.9071 -13.1966 2.1514
2.3573 -12.9985 2.1318
2.8217 -12.9033 2.1318
3.2821 -12.7912 2.1318
3.7381 -12.6623 2.1318
4.1790 -12.4873 2.1268
4.6231 -12.3259 2.1268
5.0608 -12.1484 2.1268
5.4916 -11.9551 2.1268
5.9149 -11.7463 2.1268
6.3302 -11.5221 2.1268
6.7368 -11.2831 2.1268
7.1343 -11.0294 2.1268
7.4665 -10.6820 2.1111
7.4663 -9.9050 2.0101
7.4662 -9.1986 1.9209
7.4660 -8.5520 1.8416
7.4659 -7.9566 1.7709
7.4658 -7.4050 1.7076
7.4657 -6.8914 1.6509
7.4656 -6.4108 1.5998
7.4397 -5.9383 1.5485
7.4396 -5.5130 1.5073
7.4395 -5.1099 1.4700
6.7188 -4.2684 1.2974
6.5272 -3.8250 1.2339
6.0933 -3.2828 1.1296
6.3567 -3.1358 1.1576
6.9155 -3.1080 1.2391
6.9154 -2.8142 1.2210
6.7368 -2.4636 1.1740
7.3620 -2.3964 1.2680
7.4267 -2.1258 1.2661
7.4241 -1.8396 1.2545
7.4234 -1.5589 1.2450
7.4232 -1.2826 1.2374
5.2306 -0.7115 0.8677
6.0205 -0.5997 0.9953
6.0205 -0.3821 0.9931
6.0204 -0.1655 0.9923
6.0204 0.0507 0.9927
6.0204 0.2671 0.9943
6.0203 0.4841 0.9973
6.0203 0.7023 1.0016
6.0202 0.9225 1.0072
6.0202 1.1450 1.0141
6.0201 1.3706 1.0225
5.7558 1.5298 0.9870
6.2336 1.8988 1.0807
6.2396 2.1483 1.0952
6.3093 2.4290 1.1228
6.3092 2.6929 1.1400
6.3092 2.9650 1.1593
6.3091 3.2465 1.1807
6.2359 3.4976 1.1906
6.2331 3.7965 1.2161
6.2331 4.1104 1.2448
6.2330 4.4394 1.2766
6.2352 4.7876 1.3122
6.2333 5.1523 1.3507
6.2328 5.5403 1.3935
6.2327 5.9544 1.4412
6.2326 6.3979 1.4941
6.2325 6.8754 1.5531
6.1826 7.3332 1.6060
6.2505 7.9785 1.6978
6.2321 8.5721 1.7761
6.2319 9.2532 1.8704
6.2318 10.0111 1.9778
6.3378 11.0469 2.1368
5.8756 11.1509 2.1154
5.4476 11.3055 2.1069
5.0962 11.6265 2.1318
4.6741 11.7990 2.1318
4.2463 11.9564 2.1318
3.8134 12.0986 2.1318
3.3758 12.2255 2.1318
2.4425 10.2704 1.7747
2.2887 11.4332 1.9605
2.0403 12.5126 2.1318
1.6664 13.1850 2.2349
1.1917 13.2356 2.2349
0.7155 13.2694 2.2349
0.2385 13.2865 2.2349
-0.2389 13.2868 2.2349
-0.7160 13.2703 2.2349
-1.1922 13.2370 2.2349
-1.6671 13.1870 2.2349
-2.1399 13.1203 2.2349
-2.6101 13.0370 2.2349
-3.0773 12.9372 2.2349
-3.5406 12.8209 2.2349
-3.9997 12.6884 2.2349
-4.4540 12.5398 2.2349
-4.9028 12.3752 2.2349
-5.3457 12.1948 2.2349
-5.7822 11.9989 2.2349
-6.1593 11.6885 2.2161
-6.3269 11.0272 2.1317
-6.7215 10.7972 2.1317
-7.1080 10.5533 2.1317
-7.4857 10.2957 2.1317
-7.8542 10.0249 2.1317
-8.2131 9.7411 2.1317
-8.5620 9.4446 2.1317
-8.9002 9.1359 2.1317
-9.2275 8.8151 2.1317
-9.5435 8.4829 2.1317
-9.8476 8.1394 2.1317
-10.0321 7.7027 2.1091
-10.0321 7.1451 2.0525
-10.0320 6.6153 2.0013
-10.0320 6.1100 1.9550
-10.0319 5.6264 1.9131
-10.0319 5.1620 1.8753
-10.0318 4.7144 1.8412
-9.0573 3.8657 1.6347
-9.0572 3.4868 1.6099
-9.0571 3.1183 1.5878
-9.3714 2.8545 1.6227
-10.7395 2.8542 1.8393
-10.8992 2.4814 1.8489
-10.8991 2.0729 1.8337
-10.8990 1.6700 1.8210
-10.8989 1.2715 1.8109
-12.4210 0.9987 2.0549
-12.4581 0.5526 2.0549
-12.4793 0.1051 2.0549
-12.4844 -0.3431 2.0549
-12.4734 -0.7916 2.0549
-12.4462 -1.2398 2.0549
-12.3705 -1.6825 2.0496
-10.8982 -1.8829 1.8143
-10.8981 -2.2885 1.8255
-10.8980 -2.7002 1.8392
-11.1116 -3.1805 1.8919
-9.8493 -3.2059 1.6943
-9.8488 -3.6015 1.7141
-9.8484 -4.0076 1.7368
-9.8479 -4.4257 1.7624
-9.8473 -4.8575 1.7911
-6.4827 -3.4924 1.2004
-9.8462 -5.7697 1.8591
-9.8457 -6.2545 1.8990
-9.8451 -6.7619 1.9433
-9.8444 -7.2949 1.9924
-9.8438 -7.8569 2.0468
-9.8430 -8.4519 2.1072
-9.6503 -8.9076 2.1318
-9.3294 -9.2530 2.1318
-8.9960 -9.5867 2.1318
-8.6505 -9.9082 2.1318
-8.2933 -10.2171 2.1318
-7.9250 -10.5128 2.1318
-7.5459 -10.7950 2.1318
-7.1566 -11.0633 2.1318
-7.0092 -11.7385 2.2112
-6.6573 -12.1168 2.2352
-6.2213 -12.3538 2.2355
-5.7768 -12.5749 2.2358
-5.3242 -12.7796 2.2362
-4.8643 -12.9677 2.2365
-4.3976 -13.1390 2.2369
-3.9248 -13.2931 2.2372
-3.4465 -13.4299 2.2376
-2.9634 -13.5491 2.2379
-2.4755 -13.6473 2.2377
-1.9841 -13.7264 2.2374
-1.4903 -13.7874 2.2370
-0.9945 -13.8303 2.2366
-0.4976 -13.8550 2.2362
-0.0002 -12.1206 2.2362
0.4345 -12.1106 2.2359
0.8685 -12.0848 2.2355
1.3012 -12.0431 2.2352
1.7320 -11.9859 2.2349
2.0930 -11.5419 2.1650
2.4669 -11.2820 2.1318
2.8696 -11.1843 2.1318
3.2683 -11.0719 2.1318
3.6626 -10.9451 2.1318
4.0423 -10.7785 2.1268
4.4252 -10.6237 2.1268
4.8021 -10.4551 2.1268
5.1725 -10.2729 2.1268
5.5359 -10.0773 2.1268
5.8918 -9.8688 2.1268
6.2397 -9.6474 2.1268
6.5793 -9.4136 2.1268
6.9099 -9.1678 2.1268
7.2313 -8.9101 2.1268
7.4660 -8.5529 2.1051
7.4659 -7.9574 2.0241
7.4658 -7.4058 1.9517
7.4657 -6.8922 1.8867
7.4656 -6.4115 1.8283
7.4397 -5.9390 1.7695
7.4396 -5.5138 1.7222
7.4395 -5.1106 1.6796
6.7188 -4.2690 1.4822
6.5262 -3.8250 1.4093
6.0933 -3.2834 1.2903
6.3556 -3.1358 1.3219
6.9756 -3.1356 1.4274
8.5803 -3.4925 1.7301
6.7369 -2.4642 1.3405
7.3601 -2.3963 1.4474
7.4267 -2.1265 1.4455
7.4247 -1.8403 1.4322
7.4246 -1.5598 1.4214
7.4245 -1.2834 1.4126
5.2306 -0.7119 0.9903
6.0205 -0.6002 1.1358
6.0205 -0.3826 1.1332
6.0204 -0.1660 1.1321
6.0204 0.0502 1.1325
6.0204 0.2666 1.1343
6.0203 0.4836 1.1376
6.0203 0.7019 1.1423
6.0202 0.9220 1.1486
6.0202 1.1446 1.1564
6.0201 1.3702 1.1659
5.7594 1.5303 1.1260
6.2336 1.8983 1.2320
6.2396 2.1478 1.2485
6.2405 2.4020 1.2659
6.2391 2.6625 1.2849
6.2375 2.9308 1.3062
6.2357 3.2082 1.3299
6.2338 3.4958 1.3562
6.2331 3.7959 1.3856
6.2331 4.1098 1.4183
6.2330 4.4389 1.4544
6.2329 4.7852 1.4943
6.2328 5.1513 1.5384
6.2328 5.5397 1.5873
6.2327 5.9537 1.6414
6.2326 6.3972 1.7016
6.2325 6.8747 1.7687
6.1845 7.3348 1.8294
6.2435 7.9687 1.9311
6.2321 8.5713 2.0223
6.2319 9.2524 2.1296
5.8999 9.4771 2.1318
5.5540 9.6799 2.1318
5.2012 9.8702 2.1318
4.8420 10.0478 2.1318
4.4768 10.2127 2.1318
4.1062 10.3644 2.1318
3.7305 10.5030 2.1318
3.3502 10.6283 2.1318
2.9658 10.7400 2.1318
2.4403 10.2600 2.0181
2.1865 10.9223 2.1318
1.8793 11.5243 2.2349
1.4641 11.5835 2.2349
1.0470 11.6281 2.2349
0.6286 11.6579 2.2349
0.2095 11.6729 2.2349
-0.2099 11.6731 2.2349
-0.6291 11.6585 2.2349
-1.0475 11.6292 2.2349
-1.4647 11.5851 2.2349
-1.8801 11.5263 2.2349
-2.2932 11.4529 2.2349
-2.7035 11.3650 2.2349
-3.1106 11.2626 2.2349
-3.5138 11.1459 2.2349
-3.9127 11.0149 2.2349
-4.3069 10.8700 2.2349
-4.6958 10.7112 2.2349
-5.0790 10.5387 2.2349
-5.4559 10.3527 2.2349
-5.8261 10.1534 2.2349
-6.1589 9.8925 2.2240
-6.2424 9.2672 2.1317
-6.5737 9.0406 2.1317
-6.8970 8.8022 2.1317
-7.2117 8.5525 2.1317
-7.5176 8.2917 2.1317
-7.8141 8.0201 2.1317
-8.1010 7.7380 2.1317
-8.3778 7.4458 2.1317
-8.6442 7.1438 2.1317
-8.8998 6.8324 2.1317
-9.1443 6.5119 2.1317
-9.3775 6.1828 2.1317
-9.5989 5.8454 2.1317
-9.8082 5.5001 2.1317
-10.0053 5.1474 2.1317
-10.0315 4.7133 2.0986
-9.0573 3.8650 1.8634
-9.0572 3.4861 1.8353
-9.0571 3.1176 1.8103
-9.3739 2.8545 1.8507
-10.7428 2.8542 2.0980
-10.8992 2.4806 2.1084
-10.8991 2.0721 2.0913
-10.8990 1.6691 2.0771
-10.8989 1.2706 2.0657
-11.0731 0.8895 2.0899
-11.0730 0.4903 2.0839
-11.0730 0.0924 2.0805
-11.0729 -0.3052 2.0798
-11.0728 -0.7036 2.0818
-11.0727 -1.1038 2.0865
-11.0726 -1.5069 2.0940
-10.8982 -1.8838 2.0711
-10.8981 -2.2894 2.0840
-10.8980 -2.7011 2.0999
-11.1085 -3.1805 2.1597
-9.8493 -3.2067 1.9348
-9.8488 -3.6023 1.9576
-9.8484 -4.0085 1.9836
-9.8479 -4.4266 2.0130
-9.8473 -4.8584 2.0460
-6.4812 -3.4922 1.3710
-9.8462 -5.7706 2.1241
-9.6734 -6.1460 2.1318
-9.4518 -6.4927 2.1318
-9.2177 -6.8313 2.1318
-8.9713 -7.1614 2.1318
-8.6418 -7.4214 2.1144
-8.4430 -7.7940 2.1318
-8.1617 -8.0957 2.1318
-7.8695 -8.3872 2.1318
-7.5668 -8.6679 2.1318
-7.2540 -8.9375 2.1318
-6.9314 -9.1957 2.1318
-6.5995 -9.4420 2.1318
-6.3541 -9.8235 2.1643
-6.1956 -10.3768 2.2350
-5.8220 -10.5973 2.2353
-5.4405 -10.8041 2.2357
-5.0515 -10.9970 2.2360
-4.6556 -11.1756 2.2363
-4.2532 -11.3396 2.2366
-3.8450 -11.4889 2.2369
-3.4315 -11.6232 2.2373
-3.0132 -11.7423 2.2376
-2.5907 -11.8462 2.2379
-2.1643 -11.9323 2.2378
-1.7347 -12.0015 2.2375
-1.3029 -12.0551 2.2372
-0.8695 -12.0928 2.2368
-0.4351 -12.1146 2.2365
-0.0002 -10.7566 2.2361
0.3856 -10.7484 2.2359
0.7708 -10.7258 2.2357
1.1548 -10.6891 2.2354
1.5371 -10.6385 2.2351
1.8836 -10.3882 2.1955
2.1893 -10.0133 2.1318
2.5467 -9.9268 2.1318
2.9006 -9.8273 2.1318
3.2507 -9.7150 2.1318
3.5963 -9.5900 2.1318
3.9362 -9.4506 2.1314
4.2624 -9.2808 2.1268
4.5913 -9.1194 2.1268
4.9140 -8.9462 2.1268
5.2302 -8.7614 2.1268
5.5393 -8.5653 2.1268
5.8409 -8.3581 2.1268
6.1348 -8.1401 2.1268
6.4204 -7.9118 2.1268
6.6974 -7.6732 2.1268
6.9655 -7.4249 2.1268
7.2243 -7.1671 2.1268
7.4657 -6.8930 2.1246
7.4656 -6.4123 2.0587
7.4397 -5.9398 1.9924
7.4396 -5.5145 1.9390
7.4395 -5.1113 1.8909
6.7188 -4.2696 1.6685
6.5252 -3.8250 1.5861
6.0933 -3.2839 1.4523
6.3544 -3.1358 1.4876
6.9743 -3.1356 1.6062
8.5803 -3.4932 1.9470
6.7369 -2.4648 1.5085
7.3581 -2.3963 1.6282
7.4268 -2.1271 1.6264
7.4260 -1.8412 1.6116
7.4258 -1.5606 1.5993
7.4257 -1.2842 1.5893
5.2306 -0.7123 1.1139
6.0205 -0.6007 1.2775
6.0205 -0.3831 1.2745
6.0204 -0.1664 1.2732
6.0204 0.0498 1.2735
6.0204 0.2661 1.2754
6.0203 0.4831 1.2790
6.0203 0.7014 1.2843
6.0202 0.9215 1.2913
6.0202 1.1441 1.3000
6.0201 1.3697 1.3105
5.7629 1.5307 1.2664
6.2336 1.8978 1.3847
6.2335 2.1452 1.4017
6.2334 2.3988 1.4209
6.2334 2.6595 1.4425
6.2333 2.9283 1.4667
6.2333 3.2064 1.4936
6.2332 3.4950 1.5235
6.2331 3.7954 1.5566
6.2331 4.1092 1.5932
6.2330 4.4383 1.6336
6.2329 4.7846 1.6784
6.2328 5.1507 1.7279
6.2328 5.5391 1.7826
6.2327 5.9531 1.8434
6.2326 6.3966 1.9109
6.2325 6.8740 1.9861
6.1879 7.3381 2.0554
6.1527 7.8521 2.1368
5.8511 8.0466 2.1318
5.5565 8.2489 2.1318
5.2551 8.4406 2.1318
4.9471 8.6214 2.1318
4.6330 8.7912 2.1318
4.3132 8.9497 2.1318
3.9880 9.0968 2.1318
3.6579 9.2323 2.1318
3.3233 9.3559 2.1318
2.9846 9.4677 2.1318
2.6422 9.5673 2.1318
2.2965 9.6548 2.1318
1.9480 9.7301 2.1318
1.6743 10.2664 2.2349
1.3043 10.3193 2.2349
0.9328 10.3590 2.2349
0.5600 10.3856 2.2349
0.1866 10.3990 2.2349
-0.1871 10.3992 2.2349
-0.5605 10.3861 2.2349
-0.9333 10.3599 2.2349
-1.3050 10.3205 2.2349
-1.6750 10.2680 2.2349
-2.0430 10.2025 2.2349
-2.4085 10.1240 2.2349
-2.7711 10.0326 2.2349
-3.1302 9.9284 2.2349
-3.4856 9.8115 2.2349
-3.8366 9.6822 2.2349
-4.1829 9.5404 2.2349
-4.5241 9.3865 2.2349
-4.8597 9.2205 2.2349
-5.1893 9.0427 2.2349
-5.5125 8.8533 2.2349
-5.8289 8.6525 2.2349
-6.1380 8.4405 2.2349
-6.1689 7.8722 2.1410
-6.4221 7.6153 2.1317
-6.6941 7.3827 2.1317
-6.9578 7.1405 2.1317
-7.2129 6.8889 2.1317
-7.4590 6.6284 2.1317
-7.6957 6.3592 2.1317
-7.9229 6.0816 2.1317
-8.1401 5.7959 2.1317
-8.3471 5.5026 2.1317
-8.5437 5.2020 2.1317
-8.7295 4.8944 2.1317
-8.9043 4.5802 2.1317
-9.0679 4.2598 2.1317
-9.0573 3.8642 2.0940
-9.0572 3.4853 2.0626
-9.0571 3.1168 2.0346
-9.3765 2.8545 2.0808
-9.7101 2.5791 2.1317
-9.8021 2.2301 2.1317
-9.8816 1.8778 2.1317
-9.9493 1.5229 2.1318
-10.0034 1.1654 2.1318
-10.0448 0.8061 2.1318
-10.0732 0.4452 2.1318
-10.0887 0.0834 2.1318
-10.0912 -0.2789 2.1318
-10.0807 -0.6414 2.1318
-10.0571 -1.0034 2.1318
-10.0205 -1.3645 2.1318
-9.9709 -1.7243 2.1318
-9.9084 -2.0822 2.1318
-9.8330 -2.4379 2.1318
-9.7447 -2.7908 2.1318
-9.6437 -3.1405 2.1318
-9.5301 -3.4865 2.1318
-9.4040 -3.8284 2.1318
-9.2656 -4.1657 2.1318
-9.1151 -4.4979 2.1318
-6.3675 -3.4315 1.5163
-8.7781 -5.1453 2.1318
-8.5921 -5.4598 2.1318
-8.3948 -5.7674 2.1318
-8.1864 -6.0678 2.1318
-7.9671 -6.3605 2.1318
-7.7372 -6.6453 2.1318
-7.4971 -6.9216 2.1318
-7.2470 -7.1892 2.1318
-6.9872 -7.4476 2.1318
-6.7181 -7.6964 2.1318
-6.4401 -7.9355 2.1318
-6.1977 -8.2230 2.1472
-6.1419 -8.7880 2.2349
-5.8248 -9.0060 2.2350
-5.4999 -9.2125 2.2352
-5.1677 -9.4070 2.2353
-4.8284 -9.5895 2.2354
-4.4827 -9.7595 2.2355
-4.1309 -9.9168 2.2357
-3.7735 -10.0613 2.2358
-3.4111 -10.1932 2.2361
-3.0442 -10.3121 2.2364
-2.6731 -10.4176 2.2367
-2.2982 -10.5094 2.2370
-1.9199 -10.5857 2.2369
-1.5390 -10.6480 2.2368
-1.1560 -10.6963 2.2366
-0.7715 -10.7305 2.2365
-0.3861 -10.7507 2.2363
-0.0002 -9.6572 2.2356
0.3461 -9.6502 2.2354
0.6920 -9.6306 2.2353
1.0368 -9.5984 2.2352
1.3802 -9.5537 2.2351
1.7218 -9.4965 2.2349
1.9660 -8.9926 2.1318
2.2869 -8.9150 2.1318
2.6048 -8.8258 2.1318
2.9192 -8.7251 2.1318
3.2296 -8.6131 2.1318
3.5357 -8.4899 2.1318
3.8371 -8.3556 2.1318
4.1235 -8.1911 2.1268
4.4135 -8.0358 2.1268
4.6976 -7.8700 2.1268
4.9754 -7.6941 2.1268
5.2465 -7.5083 2.1268
5.5107 -7.3128 2.1268
5.7674 -7.1079 2.1268
6.0165 -6.8939 2.1268
6.2576 -6.6711 2.1268
6.4904 -6.4398 2.1268
6.7145 -6.2003 2.1268
6.9298 -5.9529 2.1268
7.1358 -5.6979 2.1268
7.3324 -5.4358 2.1268
7.4395 -5.1121 2.1042
7.4652 -4.7446 2.0629
6.5241 -3.8250 1.7646
6.0933 -3.2845 1.6159
6.3533 -3.1358 1.6548
6.9729 -3.1356 1.7866
8.4252 -3.4308 2.1268
6.7370 -2.4654 1.6781
7.3561 -2.3963 1.8106
7.4274 -2.1279 1.8091
7.4273 -1.8422 1.7928
7.4271 -1.5615 1.7790
7.4270 -1.2850 1.7677
5.2306 -0.7127 1.2387
6.0205 -0.6011 1.4205
6.0205 -0.3835 1.4171
6.0204 -0.1669 1.4156
6.0204 0.0493 1.4158
6.0204 0.2656 1.4179
6.0203 0.4827 1.4218
6.0203 0.7009 1.4276
6.0202 0.9211 1.4353
6.0202 1.1436 1.4449
6.0201 1.3692 1.4565
5.7665 1.5312 1.4083
6.2336 1.8973 1.5388
6.2335 2.1447 1.5576
6.2334 2.3983 1.5789
6.2334 2.6590 1.6028
6.2333 2.9278 1.6296
6.2333 3.2059 1.6594
6.2332 3.4944 1.6925
6.2331 3.7948 1.7292
6.2331 4.1086 1.7698
6.2330 4.4377 1.8146
6.2329 4.7840 1.8642
6.2328 5.1500 1.9191
6.2328 5.5384 1.9799
6.2327 5.9524 2.0473
6.2326 6.3959 2.1222
6.0381 6.6589 2.1368
5.7796 6.8532 2.1318
5.5279 7.0541 2.1318
5.2693 7.2458 2.1318
5.0042 7.4282 2.1318
4.7328 7.6011 2.1318
4.4556 7.7642 2.1318
4.1728 7.9173 2.1318
3.8848 8.0603 2.1318
3.5920 8.1929 2.1318
3.2948 8.3151 2.1318
2.9934 8.4266 2.1318
2.6884 8.5274 2.1318
2.3800 8.6173 2.1318
2.0779 8.7353 2.1414
1.8396 9.1879 2.2349
1.5082 9.2473 2.2349
1.1749 9.2950 2.2349
0.8402 9.3308 2.2349
0.5045 9.3548 2.2349
0.1681 9.3668 2.2349
-0.1685 9.3670 2.2349
-0.5049 9.3552 2.2349
-0.8407 9.3315 2.2349
-1.1755 9.2960 2.2349
-1.5089 9.2486 2.2349
-1.8403 9.1895 2.2349
-2.1695 9.1186 2.2349
-2.4961 9.0361 2.2349
-2.8196 8.9421 2.2349
-3.1395 8.8367 2.2349
-3.4556 8.7200 2.2349
-3.7675 8.5921 2.2349
-4.0747 8.4533 2.2349
-4.3768 8.3035 2.2349
-4.6735 8.1432 2.2349
-4.9645 7.9723 2.2349
-5.2492 7.7912 2.2349
-5.5275 7.6001 2.2349
-5.7988 7.3991 2.2349
-6.0629 7.1886 2.2349
-6.1591 6.7919 2.1782
-6.2648 6.4285 2.1317
-6.4942 6.2017 2.1317
-6.7154 5.9669 2.1317
-6.9283 5.7243 2.1317
-7.1324 5.4741 2.1317
-7.3277 5.2167 2.1317
-7.5137 4.9525 2.1317
-7.6902 4.6816 2.1317
-7.8571 4.4045 2.1317
-8.0140 4.1215 2.1317
-8.1609 3.8330 2.1317
-8.2973 3.5392 2.1317
-8.4233 3.2407 2.1317
-8.5386 2.9376 2.1317
-8.6430 2.6305 2.1317
-8.7365 2.3197 2.1317
-8.8188 2.0056 2.1317
-8.8905 1.6888 2.1318
-8.9501 1.3692 2.1318
-8.9984 1.0476 2.1318
-9.0350 0.7243 2.1318
-9.0601 0.3997 2.1318
-9.0735 0.0743 2.1318
-9.0752 -0.2516 2.1318
-9.0652 -0.5775 2.1318
-9.0435 -0.9030 2.1318
-9.0101 -1.2276 2.1318
-8.9650 -1.5510 2.1318
-8.9083 -1.8728 2.1318
-8.8400 -2.1924 2.1318
-8.7601 -2.5096 2.1318
-8.6689 -2.8238 2.1318
-8.5663 -3.1346 2.1318
-8.4525 -3.4417 2.1318
-8.3277 -3.7447 2.1318
-8.1919 -4.0431 2.1318
-6.3603 -3.4282 1.6853
-7.8883 -4.6245 2.1318
-7.7208 -4.9068 2.1318
-7.5431 -5.1830 2.1318
-7.3555 -5.4526 2.1318
-7.1581 -5.7154 2.1318
-6.9513 -5.9710 2.1318
-6.7353 -6.2190 2.1318
-6.5103 -6.4591 2.1318
-6.2767 -6.6910 2.1318
-6.1670 -7.0657 2.1785
-6.0645 -7.4735 2.2349
-5.7944 -7.6887 2.2349
-5.5166 -7.8940 2.2349
-5.2314 -8.0892 2.2349
-4.9392 -8.2739 2.2349
-4.6404 -8.4479 2.2349
-4.3354 -8.6110 2.2349
-4.0247 -8.7630 2.2349
-3.7088 -8.9042 2.2351
-3.3879 -9.0338 2.2353
-3.0623 -9.1516 2.2354
-2.7327 -9.2574 2.2355
-2.3993 -9.3511 2.2356
-2.0626 -9.4326 2.2357
-1.7232 -9.5017 2.2358
-1.3814 -9.5584 2.2359
-1.0377 -9.6025 2.2359
-0.6926 -9.6334 2.2358
-0.3466 -9.6516 2.2357
-0.0002 -8.7526 2.2349
0.3137 -8.7467 2.2349
0.6271 -8.7294 2.2349
0.9398 -8.7008 2.2349
1.2511 -8.6608 2.2349
1.5608 -8.6095 2.2349
1.8684 -8.5471 2.2349
2.0732 -8.0826 2.1318
2.3614 -8.0018 2.1318
2.6464 -7.9107 2.1318
2.9279 -7.8092 2.1318
3.2055 -7.6977 2.1318
3.4788 -7.5761 2.1318
3.7474 -7.4447 2.1318
4.0016 -7.2865 2.1268
4.2593 -7.1364 2.1268
4.5113 -6.9770 2.1268
4.7572 -6.8087 2.1268
4.9969 -6.6317 2.1268
5.2299 -6.4461 2.1268
5.4560 -6.2522 2.1268
5.6748 -6.0504 2.1268
5.8861 -5.8408 2.1268
6.0895 -5.6238 2.1268
6.2850 -5.3996 2.1268
6.4721 -5.1686 2.1268
6.6507 -4.9311 2.1268
6.8205 -4.6874 2.1268
6.9813 -4.4378 2.1268
6.5231 -3.8250 1.9450
6.0933 -3.2850 1.7813
6.3521 -3.1358 1.8237
6.9715 -3.1356 1.9688
7.6441 -3.1134 2.1268
6.7371 -2.4660 1.8495
7.3541 -2.3963 1.9949
7.4287 -2.1289 1.9941
7.4285 -1.8431 1.9759
7.4284 -1.5624 1.9607
7.4282 -1.2858 1.9481
5.2306 -0.7131 1.3649
6.0205 -0.6016 1.5651
6.0205 -0.3840 1.5613
6.0204 -0.1674 1.5595
6.0204 0.0488 1.5597
6.0204 0.2652 1.5619
6.0203 0.4822 1.5662
6.0203 0.7005 1.5724
6.0202 0.9206 1.5808
6.0202 1.1431 1.5913
6.0201 1.3687 1.6041
5.7702 1.5317 1.5519
6.2336 1.8968 1.6945
6.2335 2.1442 1.7151
6.2334 2.3978 1.7385
6.2334 2.6584 1.7648
6.2333 2.9273 1.7942
6.2333 3.2053 1.8269
6.2332 3.4938 1.8633
6.2331 3.7942 1.9036
6.2331 4.1080 1.9482
6.2330 4.4371 1.9976
6.2329 4.7834 2.0521
6.2328 5.1494 2.1124
6.1114 5.4299 2.1368
5.8966 5.6308 2.1318
5.6886 5.8370 2.1318
5.4735 6.0356 2.1318
5.2515 6.2264 2.1318
5.0230 6.4091 2.1318
4.7882 6.5835 2.1318
4.5474 6.7495 2.1318
4.3009 6.9067 2.1318
4.0490 7.0551 2.1318
3.7921 7.1944 2.1318
3.5305 7.3245 2.1318
3.2644 7.4451 2.1318
2.9944 7.5563 2.1318
2.7205 7.6578 2.1318
2.4433 7.7495 2.1318
2.1630 7.8313 2.1318
1.8951 7.9660 2.1488
1.6719 8.3500 2.2349
1.3707 8.4040 2.2349
1.0679 8.4474 2.2349
0.7637 8.4800 2.2349
0.4585 8.5018 2.2349
0.1527 8.5127 2.2349
-0.1532 8.5129 2.2349
-0.4590 8.5021 2.2349
-0.7642 8.4806 2.2349
-1.0684 8.4482 2.2349
-1.3714 8.4051 2.2349
-1.6726 8.3513 2.2349
-1.9718 8.2868 2.2349
-2.2686 8.2117 2.2349
-2.5625 8.1262 2.2349
-2.8533 8.0302 2.2349
-3.1405 7.9240 2.2349
-3.4238 7.8077 2.2349
-3.7029 7.6813 2.2349
-3.9774 7.5451 2.2349
-4.2469 7.3992 2.2349
-4.5112 7.2438 2.2349
-4.7698 7.0790 2.2349
-5.0225 6.9051 2.2349
-5.2689 6.7223 2.2349
-5.5088 6.5308 2.2349
-5.7417 6.3309 2.2349
-5.9675 6.1227 2.2349
-6.1581 5.8801 2.2249
-6.1650 5.4772 2.1541
-6.2939 5.1995 2.1317
-6.4792 4.9721 2.1317
-6.6563 4.7381 2.1317
-6.8249 4.4978 2.1317
-6.9850 4.2517 2.1317
-7.1363 3.9998 2.1317
-7.2785 3.7426 2.1317
-7.4116 3.4804 2.1317
-7.5352 3.2135 2.1317
-7.6493 2.9422 2.1317
-7.7536 2.6669 2.1317
-7.8481 2.3879 2.1317
-7.9326 2.1056 2.1317
-8.0069 1.8203 2.1317
-8.0717 1.5326 2.1318
-8.1255 1.2424 2.1318
-8.1689 0.9504 2.1318
-8.2018 0.6569 2.1318
-8.2241 0.3622 2.1318
-8.2359 0.0668 2.1318
-8.2371 -0.2290 2.1318
-8.2276 -0.5248 2.1318
-8.2075 -0.8201 2.1318
-8.1768 -1.1147 2.1318
-8.1355 -1.4082 2.1318
-8.0837 -1.7001 2.1318
-8.0213 -1.9900 2.1318
-7.9485 -2.2777 2.1318
-7.8654 -2.5627 2.1318
-7.7720 -2.8446 2.1318
-7.6684 -3.1231 2.1318
-7.5548 -3.3978 2.1318
-7.4313 -3.6683 2.1318
-6.3530 -3.4248 1.8558
-7.1553 -4.1954 2.1318
-7.0031 -4.4513 2.1318
-6.8417 -4.7016 2.1318
-6.6712 -4.9460 2.1318
-6.4920 -5.1842 2.1318
-6.3042 -5.4158 2.1318
-6.1638 -5.6920 2.1513
-6.1572 -6.1094 2.2233
-5.9671 -6.3615 2.2349
-5.7369 -6.5736 2.2349
-5.4991 -6.7773 2.2349
-5.2540 -6.9722 2.2349
-5.0019 -7.1582 2.2349
-4.7432 -7.3350 2.2349
-4.4782 -7.5023 2.2349
-4.2072 -7.6599 2.2349
-3.9306 -7.8076 2.2349
-3.6487 -7.9452 2.2349
-3.3621 -8.0724 2.2349
-3.0709 -8.1892 2.2349
-2.7756 -8.2954 2.2349
-2.4766 -8.3907 2.2349
-2.1743 -8.4751 2.2349
-1.8692 -8.5485 2.2349
-1.5615 -8.6108 2.2349
-1.2517 -8.6618 2.2349
-0.9403 -8.7016 2.2349
-0.6276 -8.7299 2.2349
-0.3141 -8.7470 2.2349
-0.0002 -7.9968 2.2349
0.2865 -7.9915 2.2349
0.5729 -7.9757 2.2349
0.8585 -7.9496 2.2349
1.1430 -7.9131 2.2349
1.4259 -7.8663 2.2349
1.7070 -7.8093 2.2349
1.9111 -7.4512 2.1509
2.1733 -7.3652 2.1475
2.4179 -7.2282 2.1318
2.6751 -7.1356 2.1318
2.9288 -7.0338 2.1318
3.1785 -6.9228 2.1318
3.4240 -6.8029 2.1318
3.6650 -6.6742 2.1318
3.9011 -6.5369 2.1318
4.1222 -6.3760 2.1268
4.3471 -6.2224 2.1268
4.5662 -6.0607 2.1268
4.7792 -5.8913 2.1268
4.9860 -5.7143 2.1268
5.1860 -5.5300 2.1268
5.3793 -5.3386 2.1268
5.5654 -5.1404 2.1268
5.7442 -4.9357 2.1268
5.9154 -4.7247 2.1268
6.0789 -4.5078 2.1268
6.2343 -4.2851 2.1268
6.3815 -4.0571 2.1268
6.5156 -3.8212 2.1253
6.0933 -3.2856 1.9486
6.3509 -3.1358 1.9945
6.8849 -3.0973 2.1268
6.9886 -2.8470 2.1268
6.7371 -2.4666 2.0229
7.0304 -2.2914 2.0858
7.1040 -2.0364 2.0855
7.1685 -1.7792 2.0853
7.2237 -1.5199 2.0851
7.2697 -1.2590 2.0849
5.2306 -0.7136 1.4925
6.0205 -0.6021 1.7114
6.0205 -0.3845 1.7071
6.0204 -0.1679 1.7051
6.0204 0.0483 1.7052
6.0204 0.2647 1.7076
6.0203 0.4817 1.7122
6.0203 0.7000 1.7190
6.0202 0.9201 1.7281
6.0202 1.1426 1.7395
6.0201 1.3682 1.7533
5.7739 1.5322 1.6973
6.2336 1.8963 1.8521
6.2335 2.1436 1.8746
6.2334 2.3972 1.9000
6.2334 2.6579 1.9287
6.2333 2.9267 1.9607
6.2333 3.2048 1.9965
6.2332 3.4933 2.0361
6.2331 3.7936 2.0801
6.2331 4.1075 2.1288
6.1021 4.3434 2.1368
5.9401 4.5581 2.1368
5.7571 4.7558 2.1318
5.5807 4.9578 2.1318
5.3973 5.1534 2.1318
5.2070 5.3423 2.1318
5.0103 5.5242 2.1318
4.8072 5.6990 2.1318
4.5981 5.8664 2.1318
4.3832 6.0262 2.1318
4.1629 6.1782 2.1318
3.9373 6.3223 2.1318
3.7068 6.4582 2.1318
3.4717 6.5859 2.1318
3.2322 6.7051 2.1318
2.9887 6.8157 2.1318
2.7414 6.9175 2.1318
2.4908 7.0105 2.1318
2.2370 7.0946 2.1318
1.9804 7.1695 2.1318
1.8046 7.5852 2.2349
1.5308 7.6445 2.2349
1.2550 7.6941 2.2349
0.9777 7.7338 2.2349
0.6992 7.7636 2.2349
0.4198 7.7836 2.2349
0.1398 7.7937 2.2349
-0.1403 7.7938 2.2349
-0.4202 7.7839 2.2349
-0.6997 7.7642 2.2349
-0.9783 7.7345 2.2349
-1.2556 7.6950 2.2349
-1.5315 7.6456 2.2349
-1.8054 7.5865 2.2349
-2.0770 7.5177 2.2349
-2.3461 7.4392 2.2349
-2.6123 7.3513 2.2349
-2.8752 7.2540 2.2349
-3.1346 7.1473 2.2349
-3.3900 7.0315 2.2349
-3.6412 6.9067 2.2349
-3.8879 6.7730 2.2349
-4.1297 6.6306 2.2349
-4.3664 6.4796 2.2349
-4.5976 6.3203 2.2349
-4.8231 6.1528 2.2349
-5.0425 5.9774 2.2349
-5.2556 5.7942 2.2349
-5.4621 5.6035 2.2349
-5.6617 5.4055 2.2349
-5.8542 5.2004 2.2349
-6.0394 4.9885 2.2349
-6.1578 4.7248 2.2137
-6.1640 4.3871 2.1570
-6.2457 4.1155 2.1317
-6.3920 3.8901 2.1317
-6.5302 3.6595 2.1317
-6.6602 3.4240 2.1317
-6.7816 3.1840 2.1317
-6.8945 2.9396 2.1317
-6.9986 2.6913 2.1317
-7.0938 2.4394 2.1317
-7.1800 2.1840 2.1317
-7.2570 1.9257 2.1317
-7.3253 1.6648 2.1318
-7.3837 1.4013 2.1318
-7.4326 1.1359 2.1318
-7.4720 0.8687 2.1318
-7.5018 0.6002 2.1318
-7.5220 0.3307 2.1318
-7.5324 0.0605 2.1318
-7.5332 -0.2100 2.1318
-7.5243 -0.4805 2.1318
-7.5056 -0.7506 2.1318
-7.4772 -1.0200 2.1318
-7.4392 -1.2883 2.1318
-7.3915 -1.5551 2.1318
-7.3342 -1.8202 2.1318
-7.2673 -2.0831 2.1318
-7.1910 -2.3436 2.1318
-7.1053 -2.6012 2.1318
-7.0104 -2.8557 2.1318
-6.9063 -3.1067 2.1318
-6.7932 -3.3539 2.1318
-6.3457 -3.4215 2.0278
-6.5404 -3.8355 2.1318
-6.4010 -4.0692 2.1318
-6.2533 -4.2979 2.1318
-6.1621 -4.5692 2.1545
-6.1556 -4.9161 2.2117
-6.0401 -5.1896 2.2349
-5.8520 -5.4047 2.2349
-5.6562 -5.6130 2.2349
-5.4529 -5.8141 2.2349
-5.2425 -6.0077 2.2349
-5.0250 -6.1937 2.2349
-4.8009 -6.3717 2.2349
-4.5705 -6.5415 2.2349
-4.3340 -6.7029 2.2349
-4.0917 -6.8556 2.2349
-3.8441 -6.9995 2.2349
-3.5913 -7.1343 2.2349
-3.3337 -7.2598 2.2349
-3.0717 -7.3760 2.2349
-2.8057 -7.4826 2.2349
-2.5359 -7.5795 2.2349
-2.2627 -7.6665 2.2349
-1.9865 -7.7436 2.2349
-1.7077 -7.8106 2.2349
-1.4266 -7.8674 2.2349
-1.1436 -7.9140 2.2349
-0.8591 -7.9502 2.2349
-0.5734 -7.9762 2.2349
-0.2870 -7.9917 2.2349
-0.0002 -7.3538 2.2349
0.2635 -7.3489 2.2349
0.5268 -7.3345 2.2349
0.7894 -7.3105 2.2349
1.0510 -7.2770 2.2349
1.3112 -7.2340 2.2349
1.5696 -7.1816 2.2349
1.8259 -7.1199 2.2349
1.9839 -6.7238 2.1318
2.2234 -6.6474 2.1318
2.4600 -6.5624 2.1318
2.6933 -6.4688 2.1318
2.9230 -6.3669 2.1318
3.1488 -6.2567 2.1318
3.3705 -6.1384 2.1318
3.5876 -6.0122 2.1318
3.8001 -5.8783 2.1318
3.9980 -5.7232 2.1268
4.1996 -5.5747 2.1268
4.3956 -5.4189 2.1268
4.5858 -5.2563 2.1268
4.7700 -5.0869 2.1268
4.9478 -4.9110 2.1268
5.1192 -4.7288 2.1268
5.2838 -4.5406 2.1268
5.4414 -4.3467 2.1268
5.5919 -4.1472 2.1268
5.7350 -3.9426 2.1268
5.8706 -3.7329 2.1268
5.9985 -3.5186 2.1268
6.0933 -3.2862 2.1180
6.2306 -3.0769 2.1268
6.3345 -2.8503 2.1268
6.4301 -2.6201 2.1268
6.3951 -2.3419 2.0869
6.4724 -2.1101 2.0869
6.5412 -1.8757 2.0869
6.6016 -1.6390 2.0869
6.6533 -1.4005 2.0869
6.6965 -1.1603 2.0869
5.2306 -0.7140 1.6217
6.0205 -0.6026 1.8595
6.0205 -0.3850 1.8548
6.0204 -0.1684 1.8526
6.0204 0.0478 1.8527
6.0204 0.2642 1.8552
6.0203 0.4812 1.8601
6.0203 0.6995 1.8674
6.0202 0.9196 1.8772
6.0202 1.1421 1.8896
6.0201 1.3677 1.9046
5.7777 1.5327 1.8449
6.2336 1.8957 2.0117
6.2335 2.1431 2.0360
6.2334 2.3967 2.0636
6.2334 2.6574 2.0947
6.2333 2.9262 2.1294
6.1431 3.1578 2.1368
6.0235 3.3752 2.1368
5.8826 3.5797 2.1318
5.7482 3.7873 2.1318
5.6065 3.9900 2.1318
5.4577 4.1874 2.1318
5.3021 4.3793 2.1318
5.1397 4.5655 2.1318
4.9709 4.7458 2.1318
4.7958 4.9198 2.1318
4.6147 5.0875 2.1318
4.4277 5.2486 2.1318
4.2352 5.4029 2.1318
4.0374 5.5502 2.1318
3.8345 5.6903 2.1318
3.6268 5.8231 2.1318
3.4145 5.9484 2.1318
3.1980 6.0661 2.1318
2.9774 6.1760 2.1318
2.7531 6.2779 2.1318
2.5254 6.3719 2.1318
2.2945 6.4576 2.1318
2.0767 6.5858 2.1484
1.8877 6.8332 2.2058
1.6624 6.9872 2.2349
1.4102 7.0418 2.2349
1.1562 7.0875 2.2349
0.9007 7.1241 2.2349
0.6441 7.1517 2.2349
0.3867 7.1701 2.2349
0.1288 7.1793 2.2349
-0.1293 7.1794 2.2349
-0.3872 7.1703 2.2349
-0.6446 7.1521 2.2349
-0.9012 7.1247 2.2349
-1.1568 7.0883 2.2349
-1.4108 7.0428 2.2349
-1.6632 6.9882 2.2349
-1.9134 6.9248 2.2349
-2.1613 6.8525 2.2349
-2.4065 6.7714 2.2349
-2.6486 6.6816 2.2349
-2.8875 6.5833 2.2349
-3.1227 6.4765 2.2349
-3.3541 6.3614 2.2349
-3.5813 6.2382 2.2349
-3.8039 6.1069 2.2349
-4.0219 5.9677 2.2349
-4.2347 5.8209 2.2349
-4.4423 5.6665 2.2349
-4.6443 5.5048 2.2349
-4.8405 5.3359 2.2349
-5.0305 5.1602 2.2349
-5.2143 4.9777 2.2349
-5.3914 4.7887 2.2349
-5.5618 4.5935 2.2349
-5.7252 4.3922 2.2349
-5.8813 4.1852 2.2349
-6.0300 3.9727 2.2349
-6.1576 3.7468 2.2301
-6.1575 3.4500 2.1829
-6.1672 3.1700 2.1437
-6.2441 2.9310 2.1317
-6.3691 2.7150 2.1388
-6.4435 2.4773 2.1317
-6.5310 2.2452 2.1317
-6.6101 2.0101 2.1317
-6.6807 1.7722 2.1317
-6.7434 1.5319 2.1318
-6.7969 1.2894 2.1318
-6.8417 1.0450 2.1318
-6.8777 0.7990 2.1318
-6.9049 0.5519 2.1318
-6.9233 0.3038 2.1318
-6.9327 0.0551 2.1318
-6.9331 -0.1939 2.1318
-6.9247 -0.4428 2.1318
-6.9073 -0.6913 2.1318
-6.8809 -0.9392 2.1318
-6.8457 -1.1860 2.1318
-6.8015 -1.4316 2.1318
-6.7486 -1.6754 2.1318
-6.6869 -1.9173 2.1318
-6.6164 -2.1569 2.1318
-6.5374 -2.3939 2.1318
-6.4499 -2.6279 2.1318
-6.3539 -2.8588 2.1318
-6.2496 -3.0861 2.1318
-6.1639 -3.3240 2.1411
-6.1554 -3.6103 2.1810
-6.1539 -3.9127 2.2280
-6.0304 -4.1453 2.2349
-5.8799 -4.3605 2.2349
-5.7216 -4.5701 2.2349
-5.5557 -4.7740 2.2349
-5.3826 -4.9717 2.2349
-5.2024 -5.1632 2.2349
-5.0153 -5.3480 2.2349
-4.8216 -5.5260 2.2349
-4.6215 -5.6969 2.2349
-4.4153 -5.8605 2.2349
-4.2033 -6.0165 2.2349
-3.9858 -6.1648 2.2349
-3.7629 -6.3052 2.2349
-3.5351 -6.4374 2.2349
-3.3026 -6.5613 2.2349
-3.0657 -6.6767 2.2349
-2.8247 -6.7834 2.2349
-2.5800 -6.8813 2.2349
-2.3319 -6.9704 2.2349
-2.0807 -7.0503 2.2349
-1.8267 -7.1211 2.2349
-1.5703 -7.1827 2.2349
-1.3118 -7.2349 2.2349
-1.0516 -7.2777 2.2349
-0.7900 -7.3110 2.2349
-0.5273 -7.3348 2.2349
-0.2639 -7.3491 2.2349
-0.0002 -6.7995 2.2349
0.2436 -6.7950 2.2349
0.4870 -6.7817 2.2349
0.7299 -6.7595 2.2349
0.9717 -6.7286 2.2349
1.2123 -6.6889 2.2349
1.4512 -6.6405 2.2349
1.6882 -6.5835 2.2349
1.8871 -6.3964 2.1932
2.0557 -6.1467 2.1318
2.2745 -6.0681 2.1318
2.4902 -5.9817 2.1318
2.7027 -5.8875 2.1318
2.9115 -5.7858 2.1318
3.1165 -5.6765 2.1318
3.3174 -5.5599 2.1318
3.5138 -5.4361 2.1318
3.7057 -5.3053 2.1318
3.8926 -5.1678 2.1318
4.0647 -5.0116 2.1268
4.2407 -4.8613 2.1268
4.4111 -4.7048 2.1268
4.5757 -4.5422 2.1268
4.7343 -4.3738 2.1268
4.8866 -4.1999 2.1268
5.0325 -4.0206 2.1268
5.1718 -3.8362 2.1268
5.3043 -3.6470 2.1268
5.4299 -3.4532 2.1268
5.5483 -3.2550 2.1268
5.6595 -3.0528 2.1268
5.7633 -2.8467 2.1268
5.8596 -2.6371 2.1268
5.8366 -2.3788 2.0869
5.9159 -2.1670 2.0869
5.9876 -1.9526 2.0869
6.0514 -1.7358 2.0869
6.1074 -1.5169 2.0869
6.1555 -1.2962 2.0869
6.1956 -1.0740 2.0869
5.2306 -0.7144 1.7528
