ply
format ascii 1.0
element vertex 2116
property float32 x
property float32 y
property float32 z
end_header
-3.6128 -3.2736 -0.6278
-3.1017 -3.0205 -0.5757
-2.6928 -2.8180 -0.5341
-2.3574 -2.6519 -0.5002
-2.0766 -2.5128 -0.4720
-1.8375 -2.3944 -0.4482
-1.6310 -2.2921 -0.4277
-1.4504 -2.2027 -0.4100
-1.2907 -2.1236 -0.3944
-1.1482 -2.0530 -0.3806
-1.0198 -1.9894 -0.3683
-0.9034 -1.9317 -0.3573
-0.7970 -1.8790 -0.3473
-0.6991 -1.8306 -0.3382
-0.6086 -1.7858 -0.3299
-0.5245 -1.7441 -0.3223
-0.4344 -1.6615 -0.3072
-0.3684 -1.6527 -0.3059
-0.3053 -1.6509 -0.3059
-0.2432 -1.6486 -0.3059
-0.1814 -1.6427 -0.3053
-0.1187 -1.6116 -0.3001
-0.0586 -1.5818 -0.2952
-0.0003 -1.5530 -0.2544
0.0552 -1.5255 -0.2507
0.1089 -1.4989 -0.2471
0.1611 -1.4731 -0.2436
0.2119 -1.4479 -0.2403
0.2615 -1.4233 -0.2371
0.3100 -1.3993 -0.2339
0.3577 -1.3757 -0.2309
0.4047 -1.3524 -0.2279
0.4511 -1.3294 -0.2250
0.4970 -1.3067 -0.2222
0.5425 -1.2841 -0.2194
0.5879 -1.2617 -0.2167
0.6331 -1.2393 -0.2140
0.6319 -1.1334 -0.1968
0.6742 -1.1125 -0.1944
0.7355 -1.1201 -0.1970
0.7794 -1.0983 -0.1945
0.8239 -1.0763 -0.1920
0.8690 -1.0539 -0.1895
0.9148 -1.0313 -0.1869
0.9614 -1.0082 -0.1844
1.0091 -0.9845 -0.1819
1.0580 -0.9603 -0.1793
1.1082 -0.9354 -0.1766
1.1600 -0.9098 -0.1740
1.2136 -0.8833 -0.1712
1.2691 -0.8558 -0.1684
1.3269 -0.8271 -0.1656
1.3873 -0.7972 -0.1626
1.3691 -0.7228 -0.1505
1.3290 -0.6419 -0.1369
1.2926 -0.5683 -0.1245
1.2993 -0.5167 -0.1168
1.3615 -0.4858 -0.1139
1.4281 -0.4529 -0.1108
1.9188 -0.5340 -0.1376
26.3474 -6.3302 -1.7387
26.5798 -5.3927 -1.6046
27.0263 -4.4883 -1.4826
26.5063 -3.4380 -1.3102
26.0729 -2.4427 -1.1493
25.5541 -1.4801 -0.9912
23.8013 -0.5311 -0.7984
23.2047 0.3069 -0.6574
22.9544 1.1200 -0.5310
23.4869 1.9842 -0.4214
25.7466 3.0993 -0.3281
21.5666 3.3769 -0.1622
21.2106 4.0976 -0.0480
21.4168 4.9324 0.0652
21.9620 5.8867 0.1849
7.4316 2.2778 0.1031
21.2978 7.3655 0.4137
20.2314 7.8123 0.5077
20.5817 8.8007 0.6360
20.1759 9.4896 0.7437
19.3467 9.9551 0.8320
18.3125 10.2634 0.9038
17.8211 10.8396 0.9970
17.7856 11.7061 1.1169
33.9725 24.1386 2.3768
23.6216 18.0859 1.8300
19.3668 15.9564 1.6536
17.1052 15.1506 1.6036
16.2144 15.4303 1.6642
5.3688 5.4882 0.6020
16.4461 18.0624 2.0116
14.8972 17.5875 1.9860
14.3631 18.2446 2.0862
13.8249 18.9197 2.1885
13.3946 19.7843 2.3129
12.5631 20.0735 2.3697
11.4763 19.8928 2.3697
10.4534 19.7265 2.3697
9.4860 19.5729 2.3697
8.5672 19.4306 2.3697
8.0253 20.1378 2.4728
7.1494 20.0092 2.4728
6.3071 19.8891 2.4728
5.4943 19.7767 2.4728
4.7069 19.6713 2.4728
3.9415 19.5721 2.4728
3.1951 19.4788 2.4728
0.2605 2.0500 0.2614
0.1796 1.9841 0.2541
0.1054 1.9474 0.2504
0.0352 1.9704 0.2544
-0.0388 2.1200 0.2747
-1.0379 19.0178 2.4728
-1.7243 18.9545 2.4728
-2.3165 18.1539 2.3759
-2.9708 18.0508 2.3695
-3.6356 17.9989 2.3695
-4.3071 17.9497 2.3695
-4.9872 17.9030 2.3695
-5.6784 17.8587 2.3695
-6.3830 17.8168 2.3695
-7.1038 17.7771 2.3695
-7.8434 17.7398 2.3695
-8.6051 17.7046 2.3695
-9.3293 17.5533 2.3537
-9.9732 17.2344 2.3149
-10.6199 16.9141 2.2756
-11.2708 16.5917 2.2355
-9.7590 13.3085 1.7956
-12.5929 15.9370 2.1529
-13.2677 15.6028 2.1100
-13.9542 15.2628 2.0659
-14.6547 14.9159 2.0205
-15.3713 14.5610 1.9735
-16.1066 14.1968 1.9249
-16.8633 13.8221 1.8744
-17.6444 13.4352 1.8217
-18.4532 13.0347 1.7667
-19.3197 12.6359 1.7114
-22.9453 13.8623 1.8753
-31.6749 17.6236 2.3803
-22.2495 11.3590 1.5308
-23.1791 10.8091 1.4524
-24.3364 10.3091 1.3799
-25.2717 9.6583 1.2863
-26.7369 9.1411 1.2094
-59.4724 17.9955 2.3600
-66.0631 17.4497 2.2613
-74.7522 16.9254 2.1573
-32.3914 6.1323 0.7629
-34.1535 5.2161 0.6249
-58.0257 6.7623 0.7589
-70.2055 0.6625 -0.1756
-5.3574 -0.5220 -0.0977
-5.2786 -0.7043 -0.1245
-12.4916 -2.1208 -0.3624
-12.3870 -2.5589 -0.4277
-12.2829 -2.9962 -0.4931
-12.1627 -3.4293 -0.5581
-5.5104 -1.7675 -0.2853
-5.3230 -1.9188 -0.3077
-5.2333 -2.0998 -0.3351
-5.1441 -2.2799 -0.3625
-5.0551 -2.4596 -0.3900
-4.9661 -2.6393 -0.4176
-4.8769 -2.8195 -0.4453
-4.7872 -3.0006 -0.4734
-4.6968 -3.1831 -0.5018
-4.6054 -3.3676 -0.5306
-4.0430 -3.1845 -0.5016
-3.9557 -3.3521 -0.5280
-3.5710 -3.2529 -0.5125
-3.0697 -3.0046 -0.4736
-2.6675 -2.8055 -0.4425
-2.3371 -2.6418 -0.4170
-2.0600 -2.5046 -0.3956
-1.8238 -2.3876 -0.3775
-1.6196 -2.2864 -0.3619
-1.4408 -2.1979 -0.3483
-1.2826 -2.1195 -0.3364
-1.1412 -2.0495 -0.3257
-1.0139 -1.9865 -0.3162
-0.8983 -1.9292 -0.3076
-0.7926 -1.8769 -0.2997
-0.6954 -1.8287 -0.2926
-0.6054 -1.7842 -0.2860
-0.5217 -1.7427 -0.2799
-0.4321 -1.6604 -0.2673
-0.3839 -1.7307 -0.2792
-0.3144 -1.7085 -0.2763
-0.2456 -1.6745 -0.2714
-0.1802 -1.6421 -0.2668
-0.1178 -1.6111 -0.2625
-0.0579 -1.5815 -0.2584
0.0001 -1.5528 -0.2186
0.0554 -1.5254 -0.2155
0.1090 -1.4988 -0.2124
0.1610 -1.4731 -0.2095
0.2116 -1.4480 -0.2066
0.2611 -1.4235 -0.2037
0.3095 -1.3996 -0.2009
0.3570 -1.3760 -0.1982
0.4038 -1.3528 -0.1955
0.4501 -1.3299 -0.1928
0.4958 -1.3073 -0.1901
0.5413 -1.2848 -0.1874
0.5865 -1.2624 -0.1847
0.6316 -1.2400 -0.1821
0.6303 -1.1342 -0.1671
0.6725 -1.1133 -0.1646
0.7336 -1.1210 -0.1663
0.7774 -1.0993 -0.1636
0.8217 -1.0773 -0.1610
0.8666 -1.0551 -0.1582
0.9123 -1.0325 -0.1554
0.9588 -1.0095 -0.1526
1.0063 -0.9860 -0.1497
1.0549 -0.9618 -0.1467
1.1049 -0.9371 -0.1436
1.1565 -0.9115 -0.1404
1.2098 -0.8851 -0.1371
1.2651 -0.8578 -0.1337
1.3226 -0.8293 -0.1301
1.3827 -0.7995 -0.1263
1.3723 -0.7294 -0.1161
1.3321 -0.6480 -0.1041
1.2954 -0.5740 -0.0931
1.2945 -0.5191 -0.0852
1.3561 -0.4885 -0.0813
1.4222 -0.4558 -0.0770
1.9106 -0.5380 -0.0927
26.4740 -6.4477 -1.1388
26.5476 -5.4731 -0.9978
27.1392 -4.5956 -0.8747
26.6998 -3.5500 -0.7190
26.1170 -2.5318 -0.5661
25.7048 -1.5725 -0.4229
24.5568 -0.6280 -0.2761
23.2129 0.2311 -0.1401
22.9799 1.0458 -0.0189
23.3177 1.8929 0.1030
25.6481 3.0022 0.2487
21.6849 3.3228 0.3258
21.2318 4.0299 0.4336
21.1959 4.8091 0.5489
21.9950 5.8195 0.6923
7.4429 2.2552 0.2766
7.3992 2.5325 0.3181
19.5718 7.4867 0.9584
20.6128 8.7380 1.1362
18.7162 8.7327 1.1506
19.3481 9.8815 1.3168
18.3678 10.2221 1.3756
17.9882 10.8687 1.4754
17.7698 11.6220 1.5900
24.4267 17.2517 2.3767
22.5183 17.1420 2.3767
19.7828 16.2091 2.2606
17.1820 15.1375 2.1226
16.2614 15.3953 2.1697
5.3715 5.4636 0.7736
15.2891 16.7099 2.3767
14.1195 16.5902 2.3697
13.0687 16.5233 2.3697
12.0823 16.4596 2.3697
11.1523 16.3985 2.3697
10.2767 16.3477 2.3708
9.7772 16.8735 2.4556
9.0127 16.9339 2.4728
8.2155 16.8780 2.4728
7.4499 16.8234 2.4728
6.7123 16.7700 2.4728
5.9994 16.7174 2.4728
5.3084 16.6657 2.4728
4.6367 16.6145 2.4728
3.9819 16.5638 2.4728
3.3418 16.5134 2.4728
2.7144 16.4632 2.4728
2.0979 16.4130 2.4728
0.1808 1.9847 0.2999
0.1063 1.9479 0.2953
0.0359 1.9691 0.2994
-0.0383 2.1189 0.3232
-0.8799 16.1590 2.4728
-1.4652 16.1067 2.4728
-2.0505 16.0536 2.4728
-2.6372 15.9996 2.4728
-3.2267 15.9445 2.4728
-3.8205 15.8883 2.4728
-4.3570 15.6045 2.4375
-4.8743 15.2919 2.3976
-5.4076 15.0547 2.3695
-6.0084 14.9946 2.3695
-6.6212 14.9325 2.3695
-7.2481 14.8682 2.3695
-7.8911 14.8013 2.3695
-8.5525 14.7318 2.3695
-9.2348 14.6592 2.3695
-9.9407 14.5832 2.3695
-9.7797 13.2891 2.1711
-11.4363 14.4195 2.3695
-12.2333 14.3309 2.3695
-13.0689 14.2371 2.3695
-13.9481 14.1374 2.3695
-14.8768 14.0311 2.3695
-15.8619 13.9172 2.3695
-16.9137 13.7969 2.3699
-17.6983 13.4084 2.3254
-18.5109 13.0059 2.2795
-19.3551 12.5878 2.2320
-20.2353 12.1519 2.1826
-21.1562 11.6958 2.1311
-22.1232 11.2169 2.0772
-23.1426 10.7121 2.0206
-24.2216 10.1777 1.9609
-25.3686 9.6097 1.8976
-26.5936 9.0030 1.8302
-27.9082 8.3519 1.7581
-29.4870 7.6913 1.6897
-47.0307 10.4943 2.4327
-52.8094 9.8252 2.4423
-34.6733 5.1825 1.4164
-63.5685 7.2014 2.2580
-73.8431 5.7159 2.2332
-33.6908 1.4060 0.8423
-44.7447 0.2762 0.8853
-5.3490 -0.5389 0.0222
-5.2864 -0.7230 -0.0059
-12.0274 -2.0825 -0.0771
-11.9272 -2.5044 -0.1404
-11.8272 -2.9257 -0.2034
-11.7268 -3.3472 -0.2664
-5.4810 -1.7774 -0.1554
-5.3150 -1.9350 -0.1813
-5.2254 -2.1158 -0.2090
-5.1364 -2.2956 -0.2366
-5.0475 -2.4751 -0.2641
-4.9586 -2.6546 -0.2916
-4.8695 -2.8345 -0.3191
-4.7798 -3.0155 -0.3466
-4.6895 -3.1979 -0.3744
-4.5982 -3.3823 -0.4024
-4.0335 -3.1950 -0.3857
-3.9493 -3.3649 -0.4114
-3.5301 -3.2327 -0.3998
-3.0382 -2.9890 -0.3736
-2.6427 -2.7932 -0.3525
-2.3171 -2.6319 -0.3351
-2.0437 -2.4965 -0.3204
-1.8103 -2.3809 -0.3079
-1.6083 -2.2809 -0.2971
-1.4313 -2.1932 -0.2875
-1.2745 -2.1155 -0.2791
-1.1343 -2.0461 -0.2715
-1.0080 -1.9836 -0.2646
-0.8932 -1.9267 -0.2584
-0.7883 -1.8747 -0.2527
-0.6917 -1.8269 -0.2474
-0.6022 -1.7826 -0.2425
-0.5190 -1.7413 -0.2379
-0.4298 -1.6593 -0.2276
-0.3827 -1.7332 -0.2388
-0.3127 -1.7077 -0.2362
-0.2442 -1.6738 -0.2323
-0.1791 -1.6415 -0.2287
-0.1169 -1.6107 -0.2252
-0.0572 -1.5812 -0.2219
0.0006 -1.5525 -0.1830
0.0557 -1.5252 -0.1805
0.1091 -1.4988 -0.1780
0.1609 -1.4731 -0.1755
0.2114 -1.4482 -0.1731
0.2606 -1.4237 -0.1706
0.3089 -1.3998 -0.1682
0.3563 -1.3764 -0.1657
0.4030 -1.3532 -0.1632
0.4491 -1.3304 -0.1607
0.4947 -1.3078 -0.1581
0.5400 -1.2854 -0.1556
0.5851 -1.2631 -0.1530
0.6300 -1.2408 -0.1503
0.6287 -1.1350 -0.1375
0.6708 -1.1142 -0.1349
0.7317 -1.1219 -0.1358
0.7754 -1.1003 -0.1330
0.8196 -1.0784 -0.1301
0.8643 -1.0563 -0.1272
0.9098 -1.0337 -0.1242
0.9561 -1.0108 -0.1210
1.0034 -0.9874 -0.1177
1.0519 -0.9634 -0.1143
1.1017 -0.9387 -0.1108
1.1530 -0.9133 -0.1071
1.2061 -0.8870 -0.1032
1.2611 -0.8597 -0.0991
1.3183 -0.8314 -0.0948
1.3781 -0.8018 -0.0902
1.3756 -0.7360 -0.0815
1.3351 -0.6542 -0.0711
1.2982 -0.5797 -0.0616
1.2932 -0.5230 -0.0540
1.3508 -0.4911 -0.0489
1.4164 -0.4586 -0.0435
1.9025 -0.5421 -0.0482
26.6099 -6.5684 -0.5336
26.6856 -5.5889 -0.3952
27.1871 -4.6924 -0.2613
26.7293 -3.6410 -0.1186
26.1613 -2.6212 0.0189
25.7476 -1.6589 0.1514
25.2233 -0.7273 0.2787
23.2796 0.1557 0.3782
22.9790 0.9704 0.4936
23.2569 1.8112 0.6226
25.1174 2.8566 0.8069
21.7661 3.2623 0.8176
21.3957 3.9887 0.9221
21.2248 4.7431 1.0346
22.0286 5.7521 1.2010
21.2658 6.3690 1.2855
7.3959 2.5050 0.4922
19.1523 7.2569 1.3949
19.6283 8.2483 1.5572
18.3242 8.4809 1.5774
19.8106 10.0416 1.8443
18.4235 10.1807 1.8501
17.9932 10.7992 1.9448
17.7690 11.5478 2.0637
19.0707 13.3876 2.3767
17.7891 13.4637 2.3767
16.6042 13.5291 2.3767
15.4572 13.5451 2.3697
14.4324 13.5930 2.3697
5.3855 5.4503 0.9473
12.5669 13.6676 2.3697
11.7120 13.6958 2.3697
11.1752 14.0633 2.4292
10.5707 14.3344 2.4728
9.8023 14.3485 2.4728
9.0665 14.3584 2.4728
8.3600 14.3642 2.4728
7.6796 14.3663 2.4728
7.0227 14.3648 2.4728
6.3867 14.3600 2.4728
5.7695 14.3520 2.4728
5.1692 14.3410 2.4728
4.5838 14.3269 2.4728
4.0117 14.3100 2.4728
3.4514 14.2904 2.4728
2.9015 14.2679 2.4728
2.3605 14.2428 2.4728
1.8273 14.2149 2.4728
0.1820 1.9853 0.3461
0.1073 1.9483 0.3405
0.0366 1.9677 0.3447
-0.0378 2.1179 0.3720
-0.7626 14.0347 2.4728
-1.2727 13.9902 2.4728
-1.7827 13.9427 2.4728
-2.2933 13.8922 2.4728
-2.8057 13.8384 2.4728
-3.3210 13.7814 2.4728
-3.8400 13.7209 2.4728
-4.3640 13.6567 2.4728
-4.8939 13.5887 2.4728
-5.4311 13.5167 2.4728
-5.9768 13.4403 2.4728
-6.5321 13.3594 2.4728
-7.0987 13.2736 2.4728
-7.6778 13.1826 2.4728
-8.2713 13.0860 2.4728
-8.8809 12.9833 2.4728
-9.5085 12.8742 2.4728
-10.0756 12.6565 2.4531
-10.6172 12.3895 2.4249
-11.1718 12.1213 2.3976
-11.7389 11.8482 2.3704
-12.4702 11.7096 2.3718
-13.2160 11.5425 2.3695
-14.0117 11.3746 2.3695
-14.8500 11.1935 2.3695
-15.7378 10.9984 2.3697
-16.6791 10.7859 2.3697
-17.6825 10.5548 2.3697
-18.7567 10.3025 2.3697
-19.9120 10.0260 2.3697
-21.1611 9.7217 2.3697
-22.5189 9.3853 2.3697
-24.0036 9.0114 2.3697
-25.6379 8.5935 2.3697
-27.4499 8.1235 2.3697
-29.4549 7.5857 2.3681
-31.0071 6.8170 2.3135
-32.7024 5.9774 2.2552
-34.5670 5.0539 2.1923
-36.6330 4.0307 2.1240
-38.9413 2.8875 2.0492
-33.5157 1.2895 1.5863
-44.5103 0.1294 1.8734
-47.9306 -1.5645 1.7681
-52.3058 -3.5706 1.6589
-5.3407 -0.5557 0.1418
-5.3361 -0.7476 0.1141
-12.1239 -2.1400 0.1966
-13.8692 -2.9594 0.1527
-11.4963 -2.8834 0.0663
-5.7905 -1.6730 0.0027
-5.4519 -1.7873 -0.0268
-5.3070 -1.9511 -0.0551
-5.2176 -2.1316 -0.0832
-5.1286 -2.3113 -0.1110
-5.0398 -2.4905 -0.1385
-4.9511 -2.6698 -0.1658
-4.8620 -2.8496 -0.1930
-4.7725 -3.0304 -0.2202
-4.6822 -3.2126 -0.2473
-4.5910 -3.3968 -0.2746
-4.0271 -3.2080 -0.2703
-3.9430 -3.3778 -0.2950
-3.4902 -3.2129 -0.2896
-3.0074 -2.9738 -0.2755
-2.6184 -2.7811 -0.2641
-2.2975 -2.6222 -0.2545
-2.0277 -2.4886 -0.2464
-1.7970 -2.3743 -0.2393
-1.5972 -2.2753 -0.2330
-1.4219 -2.1885 -0.2274
-1.2665 -2.1116 -0.2224
-1.1276 -2.0428 -0.2178
-1.0022 -1.9807 -0.2136
-0.8882 -1.9242 -0.2097
-0.7840 -1.8726 -0.2060
-0.6880 -1.8250 -0.2026
-0.5990 -1.7810 -0.1993
-0.5162 -1.7400 -0.1962
-0.4276 -1.6582 -0.1883
-0.3814 -1.7358 -0.1985
-0.3110 -1.7068 -0.1964
-0.2428 -1.6731 -0.1936
-0.1779 -1.6410 -0.1909
-0.1160 -1.6103 -0.1882
-0.0566 -1.5808 -0.1856
0.0010 -1.5523 -0.1477
0.0560 -1.5251 -0.1458
0.1092 -1.4988 -0.1438
0.1608 -1.4732 -0.1418
0.2111 -1.4483 -0.1398
0.2602 -1.4239 -0.1377
0.3084 -1.4001 -0.1355
0.3556 -1.3767 -0.1333
0.4022 -1.3536 -0.1311
0.4481 -1.3309 -0.1288
0.4936 -1.3084 -0.1264
0.5388 -1.2860 -0.1239
0.5837 -1.2637 -0.1214
0.6285 -1.2415 -0.1187
0.6272 -1.1357 -0.1081
0.6691 -1.1150 -0.1054
0.7298 -1.1228 -0.1054
0.7734 -1.1013 -0.1025
0.8174 -1.0795 -0.0995
0.8620 -1.0574 -0.0963
0.9073 -1.0350 -0.0930
0.9534 -1.0121 -0.0896
1.0006 -0.9888 -0.0859
1.0488 -0.9649 -0.0821
1.0984 -0.9403 -0.0782
1.1495 -0.9150 -0.0739
1.2024 -0.8888 -0.0695
1.2571 -0.8617 -0.0648
1.3141 -0.8335 -0.0598
1.3735 -0.8041 -0.0544
1.3789 -0.7426 -0.0468
1.3381 -0.6603 -0.0380
1.3010 -0.5854 -0.0299
1.2918 -0.5269 -0.0228
1.3455 -0.4937 -0.0167
1.4107 -0.4615 -0.0102
1.8945 -0.5460 -0.0041
26.6252 -6.6598 0.0780
26.6444 -5.6676 0.2126
20.3776 -3.5837 0.2654
26.7756 -3.7345 0.4838
25.6903 -2.6576 0.5943
24.5030 -1.6585 0.6916
25.2637 -0.8108 0.8427
23.3173 0.0797 0.8988
22.9782 0.8949 1.0065
23.2648 1.7350 1.1432
24.7502 2.7326 1.3507
21.8480 3.2014 1.3134
21.2742 3.8941 1.3996
21.1983 4.6647 1.5179
21.9477 5.6550 1.7028
20.5005 6.0678 1.7169
7.4046 2.4816 0.6673
18.7343 7.0307 1.8118
19.1389 7.9720 1.9821
17.9484 8.2394 1.9869
19.9156 10.0183 2.3531
18.4796 10.1390 2.3278
17.7144 10.5603 2.3767
16.5922 10.7143 2.3697
15.5933 10.8800 2.3697
14.6567 11.0284 2.3697
13.7752 11.1614 2.3697
12.9427 11.2806 2.3697
12.3906 11.6092 2.4159
5.3995 5.4369 1.1220
11.1540 12.0714 2.4728
10.4407 12.1507 2.4728
9.7570 12.2210 2.4728
9.0999 12.2831 2.4728
8.4668 12.3376 2.4728
7.8555 12.3850 2.4728
7.2639 12.4258 2.4728
6.6900 12.4604 2.4728
6.1324 12.4891 2.4728
5.5892 12.5122 2.4728
5.0592 12.5302 2.4728
4.5411 12.5430 2.4728
4.0336 12.5511 2.4728
3.5356 12.5545 2.4728
3.0462 12.5534 2.4728
2.5642 12.5479 2.4728
2.0888 12.5382 2.4728
1.6191 12.5242 2.4728
0.1833 1.9860 0.3927
0.1083 1.9488 0.3860
0.0373 1.9663 0.3903
-0.0373 2.1168 0.4212
-0.6719 12.3926 2.4728
-1.1239 12.3539 2.4728
-1.5756 12.3110 2.4728
-2.0276 12.2639 2.4728
-2.4807 12.2123 2.4728
-2.9356 12.1563 2.4728
-3.3931 12.0957 2.4728
-3.8539 12.0302 2.4728
-4.3187 11.9599 2.4728
-4.7885 11.8843 2.4728
-5.2641 11.8033 2.4728
-5.7462 11.7167 2.4728
-6.2360 11.6241 2.4728
-6.7344 11.5253 2.4728
-7.2425 11.4197 2.4728
-7.7614 11.3071 2.4728
-8.2923 11.1869 2.4728
-8.8367 11.0586 2.4728
-9.3959 10.9217 2.4728
-9.9717 10.7754 2.4728
-10.5657 10.6191 2.4728
-11.1800 10.4518 2.4728
-11.8167 10.2727 2.4728
-12.4783 10.0807 2.4728
-13.1675 9.8746 2.4728
-13.8874 9.6529 2.4728
-14.6415 9.4142 2.4728
-15.4337 9.1565 2.4728
-16.2687 8.8779 2.4728
-17.1516 8.5758 2.4728
-18.0887 8.2475 2.4728
-19.0869 7.8895 2.4728
-20.1547 7.4982 2.4728
-21.3019 7.0687 2.4728
-22.3882 6.5510 2.4561
-23.5347 5.9832 2.4366
-24.7809 5.3666 2.4172
-26.1491 4.6938 2.3983
-27.6550 3.9529 2.3794
-29.4429 3.1435 2.3697
-31.5777 2.2385 2.3697
-33.9992 1.1971 2.3697
-36.7761 -0.0134 2.3697
-40.0008 -1.4370 2.3697
-43.8010 -3.1345 2.3697
-5.3323 -0.5725 0.2613
-5.3868 -0.7727 0.2367
-12.2019 -2.1950 0.4744
-13.8480 -3.0021 0.4685
-16.2701 -4.1368 0.4681
-5.7584 -1.6838 0.1364
-5.4230 -1.7970 0.1007
-5.2990 -1.9673 0.0710
-5.2097 -2.1475 0.0425
-5.1209 -2.3269 0.0145
-5.0322 -2.5059 -0.0131
-4.9435 -2.6850 -0.0403
-4.8546 -2.8646 -0.0672
-4.7651 -3.0452 -0.0939
-4.6749 -3.2273 -0.1204
-4.5778 -3.4070 -0.1467
-4.0207 -3.2209 -0.1551
-3.9366 -3.3906 -0.1788
-3.4511 -3.1935 -0.1816
-2.9771 -2.9588 -0.1793
-2.5944 -2.7692 -0.1771
-2.2782 -2.6126 -0.1751
-2.0118 -2.4807 -0.1733
-1.7839 -2.3678 -0.1714
-1.5862 -2.2699 -0.1697
-1.4126 -2.1839 -0.1680
-1.2586 -2.1077 -0.1663
-1.1208 -2.0394 -0.1647
-0.9964 -1.9778 -0.1630
-0.8833 -1.9218 -0.1614
-0.7797 -1.8705 -0.1598
-0.6843 -1.8232 -0.1581
-0.5959 -1.7794 -0.1565
-0.5136 -1.7387 -0.1549
-0.4253 -1.6570 -0.1493
-0.3802 -1.7383 -0.1583
-0.3093 -1.7060 -0.1568
-0.2414 -1.6724 -0.1550
-0.1768 -1.6404 -0.1532
-0.1151 -1.6098 -0.1514
-0.0559 -1.5805 -0.1496
0.0015 -1.5521 -0.1125
0.0562 -1.5250 -0.1111
0.1092 -1.4987 -0.1097
0.1607 -1.4732 -0.1082
0.2109 -1.4484 -0.1066
0.2598 -1.4241 -0.1048
0.3078 -1.4004 -0.1030
0.3549 -1.3770 -0.1011
0.4013 -1.3541 -0.0991
0.4471 -1.3314 -0.0969
0.4925 -1.3089 -0.0947
0.5375 -1.2866 -0.0923
0.5823 -1.2644 -0.0899
0.6270 -1.2423 -0.0873
0.6257 -1.1365 -0.0787
0.6674 -1.1158 -0.0761
0.7280 -1.1238 -0.0752
0.7714 -1.1023 -0.0721
0.8153 -1.0805 -0.0689
0.8597 -1.0585 -0.0656
0.9048 -1.0362 -0.0620
0.9508 -1.0134 -0.0583
0.9977 -0.9902 -0.0543
1.0458 -0.9664 -0.0501
1.0952 -0.9419 -0.0457
1.1461 -0.9167 -0.0409
1.1987 -0.8907 -0.0359
1.2532 -0.8637 -0.0306
1.3098 -0.8356 -0.0249
1.3690 -0.8063 -0.0188
1.3822 -0.7492 -0.0118
1.3412 -0.6665 -0.0047
1.3039 -0.5912 0.0020
1.2906 -0.5307 0.0083
1.3403 -0.4963 0.0152
1.4050 -0.4643 0.0228
1.8865 -0.5500 0.0398
26.5038 -6.7168 0.6877
26.6032 -5.7461 0.8197
20.3670 -3.6484 0.7270
26.8222 -3.8286 1.0894
25.5503 -2.7264 1.1647
24.1717 -1.7149 1.2233
25.3052 -0.8948 1.4096
23.3551 0.0033 1.4219
22.9773 0.8193 1.5201
23.2828 1.6593 1.6658
24.6707 2.6416 1.9010
21.9307 3.1398 1.8139
21.4616 3.8557 1.8998
21.2453 4.6022 2.0078
19.6541 4.9959 1.9789
19.9877 5.8458 2.1404
7.4265 2.4625 0.8446
18.6160 6.9188 2.2457
18.5376 7.6531 2.3697
17.5067 7.9706 2.3697
16.5423 8.2577 2.3697
15.6367 8.5176 2.3697
14.7836 8.7534 2.3697
13.9771 8.9676 2.3697
13.5041 9.3646 2.4220
13.0285 9.7459 2.4728
12.3051 9.9142 2.4728
11.6137 10.0673 2.4728
10.9511 10.2067 2.4728
5.4230 5.4328 1.3001
9.7022 10.4483 2.4728
9.1113 10.5524 2.4728
8.5402 10.6465 2.4728
7.9871 10.7312 2.4728
7.4505 10.8073 2.4728
6.9289 10.8751 2.4728
6.4211 10.9353 2.4728
5.9257 10.9882 2.4728
5.4418 11.0342 2.4728
4.9683 11.0736 2.4728
4.5043 11.1068 2.4728
4.0489 11.1340 2.4728
3.6012 11.1555 2.4728
3.1605 11.1713 2.4728
2.7261 11.1818 2.4728
2.2973 11.1870 2.4728
1.8735 11.1871 2.4728
1.4539 11.1822 2.4728
0.1846 1.9866 0.4397
0.1092 1.9493 0.4320
0.0380 1.9649 0.4362
-0.0367 2.1157 0.4708
-0.5996 11.0840 2.4728
-1.0053 11.0499 2.4728
-1.4106 11.0108 2.4728
-1.8160 10.9668 2.4728
-2.2220 10.9177 2.4728
-2.6291 10.8635 2.4728
-3.0380 10.8041 2.4728
-3.4490 10.7393 2.4728
-3.8629 10.6690 2.4728
-4.2801 10.5929 2.4728
-4.7013 10.5109 2.4728
-5.1271 10.4227 2.4728
-5.5582 10.3280 2.4728
-5.9952 10.2266 2.4728
-6.4388 10.1182 2.4728
-6.8899 10.0023 2.4728
-7.3492 9.8785 2.4728
-7.8176 9.7464 2.4728
-8.2961 9.6054 2.4728
-8.7857 9.4550 2.4728
-9.2874 9.2946 2.4728
-9.8026 9.1233 2.4728
-10.3325 8.9405 2.4728
-10.8785 8.7453 2.4728
-11.4423 8.5366 2.4728
-12.0255 8.3133 2.4728
-12.6303 8.0742 2.4728
-13.2587 7.8179 2.4728
-13.9131 7.5427 2.4728
-14.5964 7.2468 2.4728
-15.3118 6.9281 2.4728
-16.0625 6.5842 2.4728
-16.8529 6.2125 2.4728
-17.6874 5.8097 2.4728
-18.5715 5.3721 2.4728
-19.5114 4.8956 2.4728
-20.5143 4.3749 2.4728
-21.5889 3.8043 2.4728
-22.7452 3.1766 2.4728
-23.9954 2.4834 2.4728
-25.3543 1.7144 2.4728
-26.8396 0.8571 2.4728
-28.4732 -0.1038 2.4728
-30.2825 -1.1876 2.4728
-32.3020 -2.4185 2.4728
-5.3240 -0.5894 0.3808
-5.4386 -0.7984 0.3619
-40.1340 -7.3553 2.4728
-14.1990 -3.1267 0.8053
-16.4411 -4.2372 0.8524
-5.7265 -1.6946 0.2691
-5.3944 -1.8067 0.2272
-5.2910 -1.9834 0.1970
-5.2019 -2.1634 0.1682
-5.1131 -2.3425 0.1400
-5.0246 -2.5213 0.1124
-4.9360 -2.7002 0.0853
-4.8471 -2.8796 0.0587
-4.7577 -3.0601 0.0324
-4.6676 -3.2420 0.0065
-4.5594 -3.4132 -0.0191
-4.0143 -3.2339 -0.0399
-3.9303 -3.4035 -0.0626
-3.4127 -3.1745 -0.0757
-2.9473 -2.9440 -0.0846
-2.5708 -2.7575 -0.0915
-2.2591 -2.6032 -0.0968
-1.9962 -2.4729 -0.1011
-1.7709 -2.3614 -0.1044
-1.5753 -2.2645 -0.1070
-1.4034 -2.1794 -0.1091
-1.2508 -2.1038 -0.1107
-1.1141 -2.0361 -0.1119
-0.9907 -1.9750 -0.1128
-0.8784 -1.9193 -0.1134
-0.7755 -1.8684 -0.1138
-0.6806 -1.8214 -0.1140
-0.5928 -1.7779 -0.1139
-0.5109 -1.7373 -0.1137
-0.4231 -1.6559 -0.1105
-0.3788 -1.7404 -0.1181
-0.3076 -1.7052 -0.1175
-0.2400 -1.6717 -0.1167
-0.1757 -1.6398 -0.1158
-0.1142 -1.6094 -0.1148
-0.0552 -1.5802 -0.1137
0.0019 -1.5519 -0.0774
0.0565 -1.5248 -0.0766
0.1093 -1.4987 -0.0757
0.1606 -1.4733 -0.0747
0.2106 -1.4485 -0.0735
0.2594 -1.4243 -0.0721
0.3073 -1.4006 -0.0706
0.3542 -1.3774 -0.0690
0.4005 -1.3545 -0.0672
0.4462 -1.3318 -0.0652
0.4914 -1.3095 -0.0631
0.5363 -1.2872 -0.0609
0.5809 -1.2651 -0.0585
0.6255 -1.2430 -0.0559
0.6241 -1.1373 -0.0495
0.6657 -1.1167 -0.0468
0.7261 -1.1247 -0.0450
0.7694 -1.1033 -0.0418
0.8131 -1.0816 -0.0385
0.8574 -1.0597 -0.0349
0.9024 -1.0374 -0.0311
0.9481 -1.0147 -0.0270
0.9949 -0.9916 -0.0227
1.0428 -0.9678 -0.0181
1.0920 -0.9435 -0.0133
1.1427 -0.9184 -0.0080
1.1950 -0.8925 -0.0025
1.2492 -0.8656 0.0035
1.3056 -0.8377 0.0099
1.3644 -0.8086 0.0167
1.3855 -0.7560 0.0234
1.3443 -0.6727 0.0289
1.3068 -0.5970 0.0341
1.2892 -0.5346 0.0395
1.3351 -0.4989 0.0470
1.3993 -0.4671 0.0557
1.8786 -0.5539 0.0834
26.5335 -6.8121 1.3009
26.4381 -5.7975 1.4198
25.5356 -4.6580 1.4920
24.1331 -3.5237 1.5258
24.8490 -2.7328 1.6921
24.0334 -1.7837 1.7557
25.3476 -0.9794 1.9799
23.3443 -0.0734 1.9441
22.9765 0.7434 2.0352
23.2910 1.5827 2.1896
23.8623 2.4754 2.3767
22.0142 3.0777 2.3195
21.3169 3.7572 2.3728
20.1731 4.3007 2.3697
19.1332 4.7970 2.3697
18.1603 5.2473 2.3697
17.2468 5.6570 2.3697
16.3863 6.0305 2.3697
15.5733 6.3716 2.3697
14.8327 6.6971 2.3745
14.5661 7.2150 2.4531
13.9550 7.5464 2.4728
13.2600 7.7976 2.4728
12.5949 8.0283 2.4728
11.9569 8.2405 2.4728
11.3437 8.4354 2.4728
10.7532 8.6146 2.4728
10.1834 8.7793 2.4728
9.6327 8.9305 2.4728
5.4521 5.4339 1.4816
8.5823 9.1963 2.4728
8.0800 9.3125 2.4728
7.5913 9.4185 2.4728
7.1151 9.5150 2.4728
6.6504 9.6026 2.4728
6.1964 9.6816 2.4728
5.7522 9.7525 2.4728
5.3170 9.8158 2.4728
4.8901 9.8718 2.4728
4.4708 9.9208 2.4728
4.0584 9.9631 2.4728
3.6523 9.9990 2.4728
3.2521 10.0287 2.4728
2.8571 10.0524 2.4728
2.4668 10.0702 2.4728
2.0807 10.0824 2.4728
1.2353 7.3380 1.7985
0.9622 7.3578 1.8032
0.1859 1.9872 0.4872
0.1102 1.9498 0.4785
0.0387 1.9635 0.4826
-0.0362 2.1146 0.5208
-0.5406 10.0158 2.4728
-0.9085 9.9852 2.4728
-1.2759 9.9494 2.4728
-1.6433 9.9082 2.4728
-2.0109 9.8616 2.4728
-2.3792 9.8096 2.4728
-2.7487 9.7521 2.4728
-3.1196 9.6888 2.4728
-3.4924 9.6197 2.4728
-2.6460 6.5301 1.6918
-4.2453 9.4635 2.4728
-4.6264 9.3759 2.4728
-5.0110 9.2817 2.4728
-5.3998 9.1807 2.4728
-5.7931 9.0725 2.4728
-6.1916 8.9568 2.4728
-6.5958 8.8333 2.4728
-7.0062 8.7015 2.4728
-7.4235 8.5610 2.4728
-7.8483 8.4114 2.4728
-8.2814 8.2521 2.4728
-8.7234 8.0825 2.4728
-9.1752 7.9019 2.4728
-9.6378 7.7097 2.4728
-10.1120 7.5049 2.4728
-10.5988 7.2868 2.4728
-11.0995 7.0543 2.4728
-11.6152 6.8064 2.4728
-12.1473 6.5417 2.4728
-12.6973 6.2589 2.4728
-13.2669 5.9565 2.4728
-13.8580 5.6328 2.4728
-14.4726 5.2856 2.4728
-15.1129 4.9130 2.4728
-15.7817 4.5122 2.4728
-16.4819 4.0805 2.4728
-17.2168 3.6147 2.4728
-17.9902 3.1108 2.4728
-18.8066 2.5647 2.4728
-19.6708 1.9712 2.4728
-20.5888 1.3246 2.4728
-21.5675 0.6179 2.4728
-22.6148 -0.1569 2.4728
-23.7401 -1.0095 2.4728
-24.9548 -1.9513 2.4728
-5.3157 -0.6062 0.5003
-23.3808 -3.5111 2.0865
-29.2865 -5.4668 2.4728
-14.1782 -3.1708 1.1299
-16.4527 -4.2972 1.2341
-5.6949 -1.7052 0.4007
-5.3726 -1.8186 0.3533
-5.2830 -1.9996 0.3232
-5.1940 -2.1793 0.2940
-5.1054 -2.3582 0.2656
-5.0170 -2.5367 0.2379
-4.9285 -2.7154 0.2110
-4.8397 -2.8947 0.1846
-4.7504 -3.0750 0.1589
-4.6603 -3.2568 0.1335
-4.5411 -3.4194 0.1080
-4.0079 -3.2468 0.0753
-3.9239 -3.4163 0.0537
-3.3750 -3.1558 0.0284
-2.9181 -2.9295 0.0086
-2.5475 -2.7460 -0.0070
-2.2402 -2.5938 -0.0195
-1.9807 -2.4653 -0.0297
-1.7581 -2.3550 -0.0380
-1.5645 -2.2592 -0.0450
-1.3943 -2.1749 -0.0507
-1.2431 -2.1000 -0.0556
-1.1075 -2.0328 -0.0596
-0.9850 -1.9722 -0.0630
-0.8735 -1.9169 -0.0658
-0.7713 -1.8663 -0.0682
-0.6770 -1.8196 -0.0701
-0.5897 -1.7764 -0.0716
-0.5082 -1.7360 -0.0728
-0.4211 -1.6556 -0.0719
-0.3768 -1.7394 -0.0779
-0.3059 -1.7043 -0.0783
-0.2386 -1.6710 -0.0785
-0.1745 -1.6393 -0.0785
-0.1133 -1.6089 -0.0783
-0.0546 -1.5799 -0.0779
0.0024 -1.5516 -0.0424
0.0568 -1.5247 -0.0422
0.1094 -1.4986 -0.0418
0.1605 -1.4733 -0.0413
0.2104 -1.4486 -0.0405
0.2590 -1.4245 -0.0395
0.3067 -1.4009 -0.0383
0.3535 -1.3777 -0.0369
0.3997 -1.3549 -0.0354
0.4452 -1.3323 -0.0336
0.4903 -1.3100 -0.0316
0.5350 -1.2878 -0.0295
0.5796 -1.2658 -0.0271
0.6240 -1.2438 -0.0246
0.6226 -1.1380 -0.0203
0.6641 -1.1175 -0.0175
0.7243 -1.1256 -0.0149
0.7674 -1.1042 -0.0116
0.8110 -1.0827 -0.0081
0.8551 -1.0608 -0.0043
0.8999 -1.0386 -0.0002
0.9455 -1.0160 0.0041
0.9921 -0.9930 0.0088
1.0398 -0.9693 0.0137
1.0888 -0.9451 0.0191
1.1392 -0.9201 0.0248
1.1913 -0.8943 0.0309
1.2453 -0.8676 0.0374
1.3014 -0.8398 0.0445
1.3599 -0.8108 0.0521
1.3889 -0.7627 0.0590
1.3474 -0.6790 0.0628
1.3097 -0.6029 0.0665
1.2879 -0.5385 0.0708
1.3299 -0.5015 0.0787
1.3936 -0.4699 0.0884
1.4621 -0.4360 0.0991
26.8098 -6.9720 1.9355
26.4107 -5.8787 2.0251
25.4067 -4.7181 2.0643
23.8568 -3.5617 2.0497
24.2305 -2.7443 2.1974
23.1452 -1.7938 2.2122
23.6255 -0.9905 2.3767
22.4060 -0.1443 2.3697
21.3337 0.6196 2.3697
20.3298 1.3138 2.3697
19.3870 1.9462 2.3697
18.4987 2.5237 2.3697
17.6594 3.0523 2.3697
16.8643 3.5372 2.3697
16.1642 3.9962 2.3778
15.8896 4.5350 2.4466
15.3437 4.9776 2.4728
14.6591 5.3413 2.4728
14.0032 5.6771 2.4728
13.3736 5.9876 2.4728
12.7681 6.2749 2.4728
12.1847 6.5408 2.4728
11.6218 6.7870 2.4728
11.0778 7.0150 2.4728
10.5511 7.2262 2.4728
10.0406 7.4219 2.4728
9.5450 7.6030 2.4728
9.0633 7.7705 2.4728
5.1330 4.7335 1.4769
8.1374 8.0685 2.4728
7.6915 8.2004 2.4728
4.5275 5.1926 1.5430
4.3530 5.3750 1.5760
6.4126 8.5354 2.4728
6.0036 8.6286 2.4728
5.6023 8.7134 2.4728
5.2080 8.7901 2.4728
4.8203 8.8592 2.4728
4.4387 8.9208 2.4728
4.0627 8.9754 2.4728
3.6919 9.0232 2.4728
3.3258 9.0643 2.4728
2.9641 9.0991 2.4728
2.6063 9.1277 2.4728
2.2521 9.1503 2.4728
1.9012 9.1670 2.4728
1.2149 7.1787 1.9341
0.9688 7.3656 1.9834
0.1872 1.9879 0.5353
0.1112 1.9503 0.5255
0.0394 1.9621 0.5294
-0.0357 2.1135 0.5713
-0.4915 9.1264 2.4728
-0.8279 9.0988 2.4728
-1.1638 9.0656 2.4728
-1.4995 9.0270 2.4728
-1.8353 8.9829 2.4728
-2.1714 8.9331 2.4728
-2.5082 8.8777 2.4728
-2.8460 8.8165 2.4728
-2.3984 6.5885 1.8621
-2.6308 6.4742 1.8452
-3.8680 8.5968 2.4728
-4.2126 8.5110 2.4728
-4.5596 8.4186 2.4728
-4.9095 8.3194 2.4728
-5.2625 8.2132 2.4728
-5.6191 8.0995 2.4728
-5.9795 7.9783 2.4728
-6.3442 7.8491 2.4728
-6.7136 7.7115 2.4728
-7.0881 7.5651 2.4728
-7.4682 7.4095 2.4728
-7.8542 7.2442 2.4728
-8.2469 7.0687 2.4728
-8.6466 6.8823 2.4728
-9.0540 6.6844 2.4728
-9.4696 6.4744 2.4728
-9.8942 6.2514 2.4728
-10.3285 6.0145 2.4728
-10.7731 5.7628 2.4728
-11.2290 5.4952 2.4728
-11.6971 5.2107 2.4728
-12.1782 4.9078 2.4728
-12.6736 4.5852 2.4728
-13.1844 4.2412 2.4728
-13.7118 3.8742 2.4728
-14.2573 3.4821 2.4728
-14.8225 3.0626 2.4728
-15.4090 2.6134 2.4728
-16.0190 2.1316 2.4728
-16.6544 1.6140 2.4728
-17.3178 1.0570 2.4728
-18.0120 0.4565 2.4728
-18.7399 -0.1921 2.4728
-18.6908 -0.8569 2.3695
-19.4639 -1.5869 2.3695
-5.3073 -0.6231 0.6201
-21.1476 -3.2473 2.3695
-12.8804 -2.4483 1.3829
-13.7704 -3.1270 1.4154
-13.5447 -3.5849 1.3313
-5.6635 -1.7158 0.5316
-5.3645 -1.8350 0.4802
-5.2750 -2.0157 0.4496
-5.1861 -2.1952 0.4200
-5.0976 -2.3738 0.3914
-5.0093 -2.5522 0.3637
-4.9209 -2.7307 0.3369
-4.8322 -2.9097 0.3109
-4.7430 -3.0898 0.2855
-4.6530 -3.2715 0.2608
-4.5229 -3.4255 0.2347
-4.0014 -3.2598 0.1908
-3.9053 -3.4185 0.1697
-3.3379 -3.1375 0.1306
-2.8892 -2.9152 0.1004
-2.5245 -2.7346 0.0764
-2.2216 -2.5846 0.0569
-1.9654 -2.4577 0.0410
-1.7453 -2.3487 0.0277
-1.5538 -2.2539 0.0166
-1.3853 -2.1704 0.0072
-1.2354 -2.0962 -0.0008
-1.1009 -2.0296 -0.0076
-0.9794 -1.9694 -0.0134
-0.8686 -1.9145 -0.0184
-0.7671 -1.8642 -0.0227
-0.6734 -1.8178 -0.0264
-0.5866 -1.7748 -0.0295
-0.4926 -1.6904 -0.0313
-0.4198 -1.6582 -0.0335
-0.3748 -1.7385 -0.0377
-0.3042 -1.7035 -0.0393
-0.2372 -1.6703 -0.0404
-0.1734 -1.6387 -0.0413
-0.1124 -1.6085 -0.0419
-0.0539 -1.5795 -0.0423
0.0028 -1.5514 -0.0074
0.0570 -1.5246 -0.0078
0.1095 -1.4986 -0.0080
0.1605 -1.4734 -0.0079
0.2101 -1.4488 -0.0075
0.2586 -1.4247 -0.0069
0.3062 -1.4012 -0.0060
0.3528 -1.3781 -0.0049
0.3988 -1.3553 -0.0035
0.4442 -1.3328 -0.0020
0.4892 -1.3105 -0.0001
0.5338 -1.2885 0.0019
0.5782 -1.2665 0.0042
0.6225 -1.2445 0.0067
0.6210 -1.1388 0.0089
0.6624 -1.1183 0.0117
0.7224 -1.1265 0.0152
0.7654 -1.1052 0.0186
0.8088 -1.0837 0.0223
0.8528 -1.0620 0.0263
0.8974 -1.0398 0.0306
0.9429 -1.0173 0.0352
0.9893 -0.9943 0.0402
1.0368 -0.9708 0.0456
1.0856 -0.9467 0.0513
1.1358 -0.9218 0.0575
1.1877 -0.8961 0.0642
1.2414 -0.8695 0.0714
1.2972 -0.8419 0.0791
1.3554 -0.8130 0.0874
1.3923 -0.7696 0.0948
1.3506 -0.6854 0.0969
1.3126 -0.6088 0.0991
1.2866 -0.5423 0.1021
1.3247 -0.5041 0.1102
1.3880 -0.4727 0.1210
1.4559 -0.4391 0.1329
24.8211 -6.5376 2.3697
23.7530 -5.3660 2.3697
22.7470 -4.2994 2.3697
21.7973 -3.3262 2.3697
20.8983 -2.4358 2.3697
20.0455 -1.6197 2.3697
19.2349 -0.8700 2.3697
18.4664 -0.1801 2.3702
17.9054 0.4605 2.3937
17.5993 1.0784 2.4502
17.0574 1.6549 2.4728
16.3818 2.1793 2.4728
15.7327 2.6654 2.4728
15.1081 3.1165 2.4728
14.5062 3.5354 2.4728
13.9253 3.9249 2.4728
13.3640 4.2872 2.4728
12.8209 4.6245 2.4728
12.2948 4.9386 2.4728
11.7845 5.2313 2.4728
11.2890 5.5040 2.4728
10.8073 5.7583 2.4728
10.3386 5.9953 2.4728
9.8819 6.2163 2.4728
9.4365 6.4221 2.4728
9.0018 6.6139 2.4728
8.5770 6.7924 2.4728
5.2578 4.4827 1.5930
4.9752 4.5633 1.5865
4.9766 4.9087 1.6729
6.9653 7.3884 2.4728
4.4947 5.1295 1.6887
4.3755 5.3766 1.7438
5.8341 7.7286 2.4728
5.4694 7.8242 2.4728
5.1102 7.9116 2.4728
4.7562 7.9911 2.4728
4.4070 8.0630 2.4728
4.0623 8.1277 2.4728
3.5664 7.8436 2.3696
3.2437 7.8923 2.3695
2.9246 7.9348 2.3696
2.6086 7.9713 2.3696
2.2955 8.0017 2.3696
1.9850 8.0263 2.3696
1.6769 8.0452 2.3697
1.3710 8.0585 2.3697
0.9732 7.3566 2.1612
0.1885 1.9885 0.5840
0.1123 1.9508 0.5731
0.0401 1.9606 0.5766
-0.0351 2.1124 0.6223
-0.4312 8.0247 2.3697
-0.7280 8.0005 2.3697
-1.0243 7.9710 2.3697
-1.3204 7.9362 2.3697
-1.6867 8.2396 2.4728
-1.9957 8.1921 2.4728
-2.3051 8.1389 2.4728
-2.6150 8.0799 2.4728
-2.4015 6.5790 2.0298
-2.6344 6.4645 2.0122
-3.5503 7.8670 2.4728
-3.8646 7.7836 2.4728
-4.1805 7.6937 2.4728
-4.4984 7.5972 2.4728
-4.8183 7.4938 2.4728
-5.1406 7.3832 2.4728
-5.4656 7.2653 2.4728
-5.7934 7.1397 2.4728
-6.1243 7.0061 2.4728
-6.4586 6.8642 2.4728
-6.7966 6.7137 2.4728
-7.1386 6.5540 2.4728
-7.4849 6.3847 2.4728
-7.8358 6.2055 2.4728
-8.1917 6.0157 2.4728
-8.5529 5.8148 2.4728
-8.9198 5.6021 2.4728
-9.2928 5.3770 2.4728
-9.6723 5.1388 2.4728
-10.0588 4.8865 2.4728
-10.4527 4.6194 2.4728
-10.8546 4.3365 2.4728
-11.2650 4.0367 2.4728
-11.6844 3.7188 2.4728
-12.1135 3.3815 2.4728
-12.5529 3.0235 2.4728
-13.0033 2.6432 2.4728
-12.9032 2.1454 2.3695
-13.3583 1.7331 2.3695
-13.8262 1.2940 2.3695
-14.3080 0.8258 2.3695
-14.8047 0.3260 2.3695
-15.3173 -0.2080 2.3695
-8.5250 -0.4193 1.2747
-5.3932 -0.4578 0.7795
-5.2989 -0.6400 0.7402
-17.5531 -2.7551 2.3695
-12.9024 -2.4968 1.6830
-13.4640 -3.1042 1.6966
-13.2435 -3.5517 1.6118
-5.6322 -1.7264 0.6619
-5.3563 -1.8516 0.6075
-5.2669 -2.0320 0.5763
-5.1782 -2.2111 0.5464
-5.0898 -2.3896 0.5176
-5.0016 -2.5677 0.4899
-4.9133 -2.7459 0.4632
-4.8247 -2.9248 0.4374
-4.7356 -3.1048 0.4125
-4.6457 -3.2863 0.3885
-4.5047 -3.4317 0.3611
-3.9950 -3.2728 0.3067
-3.6638 -3.2244 0.2689
-3.3015 -3.1194 0.2313
-2.8607 -2.9011 0.1910
-2.5018 -2.7234 0.1588
-2.2032 -2.5755 0.1326
-1.9502 -2.4502 0.1110
-1.7327 -2.3425 0.0929
-1.5432 -2.2486 0.0777
-1.3763 -2.1659 0.0647
-1.2277 -2.0924 0.0536
-1.0944 -2.0263 0.0441
-0.9737 -1.9666 0.0359
-0.8638 -1.9121 0.0287
-0.7629 -1.8622 0.0225
-0.6698 -1.8161 0.0172
-0.5835 -1.7733 0.0125
-0.4901 -1.6891 0.0083
-0.4185 -1.6608 0.0050
-0.3728 -1.7375 0.0023
-0.3025 -1.7027 -0.0003
-0.2358 -1.6696 -0.0025
-0.1723 -1.6382 -0.0042
-0.1115 -1.6081 -0.0056
-0.0533 -1.5792 -0.0067
0.0033 -1.5512 0.0275
0.0573 -1.5245 0.0265
0.1096 -1.4986 0.0259
0.1604 -1.4734 0.0255
0.2099 -1.4489 0.0255
0.2582 -1.4249 0.0257
0.3056 -1.4015 0.0263
0.3522 -1.3784 0.0271
0.3980 -1.3557 0.0283
0.4433 -1.3333 0.0297
0.4881 -1.3111 0.0313
0.5326 -1.2891 0.0333
0.5768 -1.2671 0.0355
0.6210 -1.2453 0.0380
0.6195 -1.1396 0.0380
0.6607 -1.1191 0.0409
0.7206 -1.1274 0.0452
0.7634 -1.1062 0.0488
0.8067 -1.0848 0.0527
0.8505 -1.0631 0.0569
0.8950 -1.0411 0.0614
0.9403 -1.0186 0.0663
0.9865 -0.9957 0.0717
1.0338 -0.9723 0.0774
1.0824 -0.9483 0.0836
1.1324 -0.9235 0.0903
1.1840 -0.8979 0.0975
1.2374 -0.8715 0.1052
1.2930 -0.8439 0.1136
1.3509 -0.8153 0.1227
1.3957 -0.7765 0.1311
1.3537 -0.6918 0.1315
1.3156 -0.6148 0.1321
1.2853 -0.5462 0.1335
1.3195 -0.5066 0.1417
1.3824 -0.4755 0.1536
1.4498 -0.4421 0.1666
20.8002 -5.5483 2.4728
20.1066 -4.6093 2.4728
19.4347 -3.7380 2.4728
18.7835 -2.9286 2.4728
18.1521 -2.1759 2.4728
17.5397 -1.4754 2.4728
16.9454 -0.8227 2.4728
16.3685 -0.2142 2.4728
15.8079 0.3537 2.4728
15.2631 0.8839 2.4728
14.7332 1.3795 2.4728
14.2175 1.8428 2.4728
13.7153 2.2764 2.4728
13.2260 2.6822 2.4728
12.7489 3.0622 2.4728
12.2834 3.4182 2.4728
11.8290 3.7518 2.4728
11.3850 4.0645 2.4728
10.9511 4.3577 2.4728
10.5266 4.6325 2.4728
10.1111 4.8901 2.4728
9.7041 5.1316 2.4728
9.3053 5.3579 2.4728
8.9141 5.5699 2.4728
8.5303 5.7683 2.4728
8.1535 5.9540 2.4728
7.7832 6.1277 2.4728
7.4192 6.2898 2.4728
5.0021 4.5630 1.7518
4.9548 4.8614 1.8263
5.2466 5.5368 2.0394
4.5156 5.1276 1.8551
4.3897 5.3677 1.9104
5.1259 6.7580 2.3697
4.8110 6.8499 2.3697
4.4998 6.9342 2.3697
4.1922 7.0112 2.3696
3.8880 7.0812 2.3696
3.5870 7.1443 2.3696
3.2890 7.2009 2.3696
2.9937 7.2511 2.3695
2.7011 7.2953 2.3696
2.4109 7.3334 2.3696
2.1229 7.3656 2.3696
1.8370 7.3920 2.3696
1.5529 7.4128 2.3697
1.2705 7.4279 2.3697
0.9777 7.3476 2.3410
0.1898 1.9892 0.6334
0.1133 1.9513 0.6214
0.0408 1.9592 0.6245
-0.0346 2.1113 0.6740
-0.3970 7.4057 2.3697
-0.6719 7.3834 2.3697
-0.9463 7.3560 2.3697
-1.2203 7.3232 2.3697
-1.4943 7.2851 2.3697
-1.7681 7.2417 2.3697
-2.0421 7.1928 2.3697
-2.3164 7.1384 2.3697
-2.4047 6.5694 2.1993
-2.6395 6.4582 2.1823
-3.1421 6.9415 2.3697
-3.4188 6.8642 2.3697
-3.6965 6.7808 2.3697
-4.1484 6.9823 2.4728
-4.4407 6.8822 2.4728
-4.7345 6.7752 2.4728
-5.0300 6.6611 2.4728
-5.3274 6.5397 2.4728
-5.6267 6.4107 2.4728
-5.9282 6.2738 2.4728
-6.2321 6.1288 2.4728
-6.5385 5.9752 2.4728
-6.8476 5.8128 2.4728
-7.1596 5.6411 2.4728
-7.4747 5.4597 2.4728
-7.7930 5.2681 2.4728
-8.1149 5.0659 2.4728
-8.0885 4.6501 2.3697
-8.4042 4.4343 2.3697
-8.7239 4.2066 2.3697
-9.0477 3.9663 2.3697
-9.3758 3.7128 2.3697
-9.7086 3.4452 2.3697
-10.0462 3.1628 2.3697
-10.3889 2.8646 2.3697
-10.7362 2.5495 2.3695
-11.0897 2.2168 2.3695
-11.4491 1.8651 2.3695
-11.8145 1.4932 2.3695
-12.1862 1.0997 2.3695
-12.5646 0.6831 2.3695
-12.9497 0.2418 2.3695
-13.3420 -0.2259 2.3695
-8.5111 -0.4473 1.4676
-5.3807 -0.4750 0.9011
-5.2905 -0.6570 0.8607
-14.9877 -2.4038 2.3695
-13.0299 -2.5665 2.0023
-13.0094 -3.0448 1.9437
-12.9273 -3.5126 1.8782
-5.6011 -1.7369 0.7916
-5.3481 -1.8681 0.7353
-5.2589 -2.0483 0.7036
-5.1703 -2.2272 0.6733
-5.0820 -2.4053 0.6443
-4.9939 -2.5832 0.6166
-4.9057 -2.7613 0.5900
-4.8172 -2.9400 0.5645
-4.7282 -3.1198 0.5401
-4.6384 -3.3011 0.5166
-4.4865 -3.4378 0.4875
-3.9885 -3.2858 0.4230
-3.6854 -3.2610 0.3817
-3.1018 -2.9461 0.3139
-2.6905 -2.7424 0.2663
-2.4793 -2.7122 0.2403
-2.1849 -2.5664 0.2075
-1.9351 -2.4427 0.1804
-1.7201 -2.3363 0.1577
-1.5326 -2.2434 0.1384
-1.3673 -2.1615 0.1220
-1.2201 -2.0886 0.1078
-1.0879 -2.0231 0.0956
-0.9681 -1.9638 0.0850
-0.8590 -1.9097 0.0757
-0.7588 -1.8601 0.0677
-0.6663 -1.8143 0.0606
-0.5804 -1.7718 0.0545
-0.4875 -1.6878 0.0478
-0.4173 -1.6634 0.0436
-0.3708 -1.7365 0.0422
-0.3009 -1.7018 0.0386
-0.2344 -1.6689 0.0355
-0.1712 -1.6376 0.0328
-0.1107 -1.6076 0.0307
-0.0526 -1.5789 0.0289
0.0037 -1.5510 0.0625
0.0575 -1.5243 0.0609
0.1096 -1.4985 0.0597
0.1603 -1.4734 0.0589
0.2096 -1.4490 0.0585
0.2578 -1.4251 0.0584
0.3051 -1.4017 0.0586
0.3515 -1.3788 0.0592
0.3972 -1.3561 0.0601
0.4423 -1.3338 0.0613
0.4870 -1.3116 0.0629
0.5313 -1.2897 0.0647
0.5755 -1.2678 0.0669
0.6195 -1.2460 0.0694
0.6180 -1.1403 0.0672
0.6591 -1.1200 0.0702
0.7187 -1.1283 0.0754
0.7614 -1.1072 0.0790
0.8045 -1.0859 0.0831
0.8482 -1.0642 0.0875
0.8925 -1.0423 0.0923
0.9376 -1.0199 0.0975
0.9837 -0.9971 0.1031
1.0308 -0.9738 0.1093
1.0792 -0.9498 0.1159
1.1289 -0.9252 0.1230
1.1803 -0.8997 0.1308
1.2335 -0.8734 0.1391
1.2888 -0.8460 0.1482
1.3464 -0.8175 0.1580
1.4066 -0.7877 0.1687
1.3569 -0.6983 0.1664
1.3186 -0.6208 0.1655
1.2840 -0.5502 0.1651
1.3144 -0.5092 0.1732
1.3768 -0.4783 0.1861
1.4437 -0.4451 0.2003
17.3585 -4.6889 2.4728
16.8950 -3.9299 2.4728
16.4356 -3.2162 2.4728
15.9807 -2.5450 2.4728
15.5310 -1.9136 2.4728
15.0867 -1.3194 2.4728
14.6483 -0.7602 2.4728
14.2159 -0.2337 2.4728
13.7896 0.2621 2.4728
13.3696 0.7290 2.4728
12.9558 1.1689 2.4728
12.5483 1.5833 2.4728
12.1471 1.9739 2.4728
11.7520 2.3420 2.4728
11.3630 2.6890 2.4728
10.9800 3.0160 2.4728
10.6029 3.3242 2.4728
10.2314 3.6147 2.4728
9.8655 3.8884 2.4728
9.5050 4.1463 2.4728
9.1498 4.3892 2.4728
8.7997 4.6179 2.4728
8.4546 4.8331 2.4728
8.1141 5.0355 2.4728
7.7783 5.2258 2.4728
7.4469 5.4045 2.4728
7.1198 5.5722 2.4728
6.7968 5.7294 2.4728
5.0173 4.5516 1.9153
4.9330 4.8142 1.9794
5.2503 5.5120 2.2190
4.5449 5.1347 2.0277
4.4040 5.3586 2.0792
4.7300 6.2058 2.3697
4.4437 6.2969 2.3697
4.1601 6.3807 2.3697
3.8791 6.4575 2.3696
3.6006 6.5275 2.3696
3.3243 6.5909 2.3696
3.0503 6.6479 2.3696
2.7784 6.6987 2.3695
2.5084 6.7436 2.3695
2.2403 6.7825 2.3696
1.9738 6.8157 2.3696
1.7090 6.8432 2.3696
1.4455 6.8652 2.3696
1.1834 6.8816 2.3696
0.9226 6.8926 2.3696
0.1912 1.9899 0.6836
0.1143 1.9518 0.6704
0.0415 1.9577 0.6730
-0.0340 2.1102 0.7264
-0.3673 6.8682 2.3696
-0.6231 6.8476 2.3697
-0.8785 6.8219 2.3697
-1.1335 6.7910 2.3697
-1.3883 6.7548 2.3697
-1.6429 6.7133 2.3697
-1.8974 6.6665 2.3697
-2.1520 6.6143 2.3697
-2.4067 6.5566 2.3697
-2.6452 6.4532 2.3550
-2.9170 6.4245 2.3697
-3.1728 6.3499 2.3697
-3.4291 6.2694 2.3697
-3.6861 6.1829 2.3697
-3.9437 6.0903 2.3697
-4.2023 5.9914 2.3697
-4.4617 5.8859 2.3697
-4.7222 5.7738 2.3697
-4.9838 5.6547 2.3697
-5.2466 5.5286 2.3697
-5.5107 5.3950 2.3697
-5.7763 5.2539 2.3697
-6.0433 5.1048 2.3697
-6.3119 4.9475 2.3697
-6.5821 4.7815 2.3697
-6.8542 4.6067 2.3697
-7.1280 4.4226 2.3697
-7.4038 4.2287 2.3697
-7.6816 4.0247 2.3697
-7.9614 3.8100 2.3697
-8.2434 3.5842 2.3697
-8.5276 3.3467 2.3697
-8.8140 3.0969 2.3697
-9.1028 2.8342 2.3697
-9.3939 2.5579 2.3697
-9.6873 2.2673 2.3696
-9.9832 1.9617 2.3696
-10.2810 1.6400 2.3695
-10.5817 1.3017 2.3695
-10.8847 0.9456 2.3695
-11.1900 0.5707 2.3695
-11.4975 0.1759 2.3695
-8.6294 -0.1753 1.7318
-8.4972 -0.4754 1.6614
-5.3720 -0.4925 1.0239
-5.2821 -0.6741 0.9819
-13.0632 -2.1403 2.3695
-12.8011 -2.5661 2.2670
-12.5915 -2.9913 2.1781
-12.6277 -3.4762 2.1349
-5.5701 -1.7474 0.9209
-5.3398 -1.8848 0.8638
-5.2508 -2.0646 0.8315
-5.1623 -2.2433 0.8009
-5.0742 -2.4212 0.7717
-4.9862 -2.5989 0.7439
-4.8981 -2.7767 0.7175
-4.8097 -2.9552 0.6923
-4.7207 -3.1349 0.6683
-4.6310 -3.3161 0.6454
-4.2113 -3.2458 0.5785
-3.9820 -3.2990 0.5398
-3.6793 -3.2733 0.4929
-3.2301 -3.0841 0.4283
-2.8048 -2.8734 0.3688
-2.3338 -2.5657 0.3049
-2.0581 -2.4292 0.2677
-1.8692 -2.3707 0.2427
-1.7077 -2.3301 0.2220
-1.5222 -2.2382 0.1988
-1.3584 -2.1571 0.1789
-1.2125 -2.0848 0.1618
-1.0814 -2.0199 0.1469
-0.9626 -1.9610 0.1340
-0.8541 -1.9074 0.1226
-0.7546 -1.8581 0.1127
-0.6627 -1.8125 0.1040
-0.5773 -1.7702 0.0963
-0.4849 -1.6865 0.0873
-0.4160 -1.6660 0.0823
-0.3688 -1.7355 0.0822
-0.2992 -1.7010 0.0775
-0.2331 -1.6683 0.0734
-0.1701 -1.6371 0.0699
-0.1098 -1.6072 0.0670
-0.0520 -1.5786 0.0645
0.0042 -1.5507 0.0975
0.0578 -1.5242 0.0953
0.1097 -1.4985 0.0936
0.1602 -1.4735 0.0924
0.2094 -1.4491 0.0915
0.2574 -1.4253 0.0911
0.3045 -1.4020 0.0910
0.3508 -1.3791 0.0913
0.3963 -1.3565 0.0920
0.4413 -1.3342 0.0931
0.4859 -1.3122 0.0945
0.5301 -1.2903 0.0962
0.5741 -1.2685 0.0983
0.6179 -1.2468 0.1008
0.6164 -1.1411 0.0965
0.6574 -1.1208 0.0995
0.7169 -1.1293 0.1055
0.7594 -1.1082 0.1093
0.8024 -1.0869 0.1135
0.8459 -1.0654 0.1182
0.8901 -1.0435 0.1232
0.9350 -1.0212 0.1287
0.9809 -0.9985 0.1347
1.0278 -0.9753 0.1412
1.0760 -0.9514 0.1482
1.1255 -0.9269 0.1558
1.1767 -0.9016 0.1641
1.2296 -0.8753 0.1731
1.2846 -0.8481 0.1828
1.3419 -0.8197 0.1933
1.4018 -0.7901 0.2048
1.3602 -0.7049 0.2018
1.3216 -0.6270 0.1993
1.2863 -0.5557 0.1974
1.3092 -0.5117 0.2047
1.3712 -0.4810 0.2186
1.4375 -0.4482 0.2339
14.8774 -4.0693 2.4728
14.5523 -3.4342 2.4728
14.2234 -2.8313 2.4728
13.8915 -2.2591 2.4728
13.5578 -1.7161 2.4728
13.2229 -1.2009 2.4728
12.8875 -0.7123 2.4728
12.5521 -0.2488 2.4728
12.2174 0.1907 2.4728
11.8836 0.6074 2.4728
11.5513 1.0025 2.4728
11.2206 1.3769 2.4728
10.8919 1.7318 2.4728
10.5653 2.0682 2.4728
10.2410 2.3868 2.4728
9.9192 2.6886 2.4728
9.5999 2.9744 2.4728
9.2833 3.2450 2.4728
8.9694 3.5010 2.4728
8.6582 3.7432 2.4728
8.3499 3.9723 2.4728
8.0442 4.1887 2.4728
7.7413 4.3931 2.4728
7.4411 4.5860 2.4728
6.8459 4.5692 2.3697
6.5634 4.7334 2.3697
6.2833 4.8880 2.3697
6.0058 5.0333 2.3697
5.0327 4.5401 2.0811
4.9195 4.7751 2.1360
5.1872 5.4172 2.3697
4.5748 5.1421 2.2039
4.4186 5.3495 2.2504
4.3885 5.7296 2.3696
4.1264 5.8191 2.3696
3.8661 5.9016 2.3696
3.6077 5.9775 2.3696
3.3510 6.0468 2.3696
3.0960 6.1098 2.3696
2.8426 6.1666 2.3696
2.5907 6.2174 2.3695
2.3403 6.2624 2.3695
2.0913 6.3017 2.3696
1.8435 6.3353 2.3696
1.5970 6.3634 2.3696
1.3516 6.3860 2.3696
1.1072 6.4032 2.3696
0.8638 6.4151 2.3696
0.1926 1.9906 0.7345
0.1154 1.9523 0.7202
0.0423 1.9562 0.7221
-0.0334 2.1090 0.7796
-0.3412 6.3967 2.3696
-0.5804 6.3776 2.3696
-0.8191 6.3534 2.3696
-1.0573 6.3241 2.3696
-1.2953 6.2897 2.3696
-1.5330 6.2500 2.3696
-1.7705 6.2052 2.3696
-2.0080 6.1551 2.3697
-2.2453 6.0996 2.3697
-2.4827 6.0388 2.3697
-2.7202 5.9725 2.3697
-2.9578 5.9006 2.3697
-3.1956 5.8230 2.3697
-3.4337 5.7396 2.3697
-3.6721 5.6503 2.3697
-3.9108 5.5550 2.3697
-4.1500 5.4535 2.3697
-4.3897 5.3456 2.3697
-4.6299 5.2311 2.3697
-4.8706 5.1100 2.3697
-5.1120 4.9819 2.3697
-5.3540 4.8466 2.3697
-5.5966 4.7039 2.3697
-5.8400 4.5536 2.3697
-6.0841 4.3953 2.3697
-6.3290 4.2289 2.3697
-6.5746 4.0539 2.3697
-6.8210 3.8700 2.3697
-7.0682 3.6770 2.3697
-7.3161 3.4744 2.3696
-7.5648 3.2618 2.3696
-7.8142 3.0388 2.3696
-8.0642 2.8049 2.3696
-8.3148 2.5598 2.3696
-8.5660 2.3027 2.3696
-8.8176 2.0333 2.3696
-9.0695 1.7510 2.3696
-9.3217 1.4551 2.3696
-9.5739 1.1451 2.3696
-9.8257 0.8202 2.3695
-10.0775 0.4797 2.3695
-10.3287 0.1229 2.3695
-8.6312 -0.2048 1.9333
-8.4832 -0.5036 1.8564
-5.3632 -0.5102 1.1474
-5.2742 -0.6913 1.1039
-11.6565 -1.9504 2.3884
-11.8987 -2.4270 2.3884
-12.2614 -2.9565 2.4128
-12.3147 -3.4343 2.3774
-5.5391 -1.7578 1.0499
-5.3315 -1.9016 0.9930
-5.2426 -2.0811 0.9602
-5.1543 -2.2595 0.9292
-5.0663 -2.4372 0.8998
-4.9784 -2.6146 0.8720
-4.8904 -2.7923 0.8457
-4.8021 -2.9706 0.8208
-4.7132 -3.1500 0.7972
-4.6235 -3.3311 0.7750
-4.1431 -3.2120 0.6892
-3.9755 -3.3122 0.6574
-3.6732 -3.2856 0.6049
-3.1951 -3.0667 0.5250
-2.7773 -2.8598 0.4563
-2.4350 -2.6903 0.4010
-2.1488 -2.5485 0.3556
-1.8098 -2.3062 0.3019
-1.6102 -2.2074 0.2717
-1.4359 -2.1210 0.2460
-1.3496 -2.1527 0.2357
-1.2050 -2.0811 0.2156
-1.0749 -2.0167 0.1981
-0.9570 -1.9583 0.1829
-0.8494 -1.9050 0.1695
-0.7505 -1.8560 0.1577
-0.6591 -1.8108 0.1473
-0.5743 -1.7687 0.1382
-0.4824 -1.6853 0.1268
-0.4147 -1.6686 0.1213
-0.3668 -1.7345 0.1221
-0.2975 -1.7002 0.1164
-0.2317 -1.6676 0.1114
-0.1689 -1.6365 0.1070
-0.1089 -1.6068 0.1033
-0.0513 -1.5782 0.1001
0.0046 -1.5505 0.1326
0.0580 -1.5241 0.1299
0.1098 -1.4984 0.1277
0.1601 -1.4735 0.1259
0.2091 -1.4493 0.1247
0.2570 -1.4255 0.1239
0.3040 -1.4023 0.1235
0.3501 -1.3794 0.1236
0.3955 -1.3570 0.1240
0.4404 -1.3347 0.1249
0.4848 -1.3127 0.1262
0.5288 -1.2909 0.1278
0.5727 -1.2692 0.1298
0.6164 -1.2475 0.1323
0.6149 -1.1418 0.1259
0.6557 -1.1216 0.1289
0.7150 -1.1302 0.1358
0.7574 -1.1092 0.1397
0.8003 -1.0880 0.1441
0.8436 -1.0665 0.1489
0.8876 -1.0447 0.1542
0.9324 -1.0225 0.1600
0.9781 -0.9999 0.1663
1.0248 -0.9768 0.1732
1.0727 -0.9530 0.1806
1.1221 -0.9286 0.1888
1.1730 -0.9034 0.1976
1.2257 -0.8773 0.2071
1.2804 -0.8502 0.2175
1.3373 -0.8220 0.2287
1.3969 -0.7925 0.2410
1.3635 -0.7115 0.2376
1.3247 -0.6332 0.2335
1.2892 -0.5615 0.2302
1.3040 -0.5143 0.2362
1.3656 -0.4838 0.2511
1.4314 -0.4512 0.2675
1.9221 -0.5323 0.3656
12.7663 -3.0564 2.4728
12.5227 -2.5355 2.4728
12.2728 -2.0376 2.4728
12.0174 -1.5619 2.4728
11.7574 -1.1078 2.4728
11.4935 -0.6743 2.4728
11.2265 -0.2608 2.4728
10.9570 0.1335 2.4728
10.6854 0.5094 2.4728
10.4124 0.8675 2.4728
10.1383 1.2087 2.4728
9.8635 1.5335 2.4728
9.5884 1.8427 2.4728
9.3132 2.1369 2.4728
9.0382 2.4167 2.4728
8.7636 2.6827 2.4728
8.4897 2.9355 2.4728
8.2165 3.1755 2.4728
7.9442 3.4034 2.4728
7.3532 3.4686 2.3697
7.0943 3.6650 2.3697
6.8367 3.8510 2.3697
6.5803 4.0270 2.3697
6.3252 4.1935 2.3697
6.0714 4.3508 2.3697
5.8190 4.4992 2.3697
5.5680 4.6390 2.3697
5.0673 4.5455 2.2578
4.9350 4.7639 2.3065
4.8232 5.0102 2.3696
4.5777 5.1186 2.3696
4.3335 5.2199 2.3696
4.0907 5.3142 2.3696
3.8492 5.4017 2.3696
3.6089 5.4826 2.3696
3.3699 5.5571 2.3696
3.1321 5.6253 2.3696
2.8955 5.6874 2.3696
2.6600 5.7436 2.3696
2.4256 5.7939 2.3695
2.1923 5.8386 2.3695
1.9600 5.8778 2.3695
1.7286 5.9115 2.3696
1.4982 5.9398 2.3696
1.2686 5.9628 2.3696
1.0398 5.9804 2.3696
0.8118 5.9930 2.3696
0.1940 1.9913 0.7864
0.1165 1.9529 0.7709
0.0430 1.9547 0.7720
-0.0328 2.1079 0.8336
-0.3182 5.9793 2.3696
-0.5425 5.9615 2.3696
-0.7664 5.9387 2.3696
-0.9899 5.9109 2.3696
-1.2130 5.8781 2.3696
-1.4358 5.8402 2.3696
-1.6584 5.7972 2.3696
-1.8807 5.7491 2.3696
-2.1027 5.6958 2.3696
-2.3247 5.6373 2.3696
-2.5465 5.5734 2.3696
-2.7682 5.5042 2.3696
-2.9898 5.4295 2.3696
-3.2115 5.3492 2.3696
-3.4331 5.2632 2.3696
-3.6547 5.1715 2.3696
-3.8764 5.0738 2.3696
-4.0981 4.9701 2.3696
-4.3198 4.8601 2.3696
-4.5417 4.7438 2.3696
-4.7636 4.6209 2.3696
-4.9856 4.4914 2.3696
-5.2077 4.3549 2.3696
-5.4299 4.2112 2.3696
-5.6521 4.0603 2.3696
-5.8743 3.9017 2.3696
-6.0964 3.7353 2.3696
-6.3186 3.5608 2.3696
-6.5405 3.3779 2.3696
-6.7624 3.1864 2.3696
-6.9839 2.9858 2.3696
-7.2052 2.7759 2.3696
-7.4259 2.5564 2.3696
-7.6462 2.3269 2.3696
-7.8657 2.0869 2.3696
-8.0843 1.8361 2.3696
-8.3020 1.5741 2.3696
-8.5184 1.3004 2.3696
-8.7333 1.0145 2.3696
-8.9466 0.7160 2.3696
-9.1578 0.4045 2.3696
-9.3667 0.0793 2.3695
-8.6167 -0.2341 2.1328
-8.4532 -0.5311 2.0488
-5.3544 -0.5279 1.2718
-5.2807 -0.7106 1.2301
-10.4460 -1.7847 2.3884
-10.6339 -2.2068 2.3884
-10.8160 -2.6468 2.3884
-10.9916 -3.1052 2.3884
-5.5082 -1.7683 1.1788
-5.3232 -1.9185 1.1231
-5.2344 -2.0977 1.0898
-5.1462 -2.2758 1.0584
-5.0583 -2.4532 1.0289
-4.9705 -2.6304 1.0010
-4.8827 -2.8079 0.9748
-4.7944 -2.9860 0.9502
-4.7056 -3.1653 0.9271
-4.6161 -3.3462 0.9055
-4.0764 -3.1790 0.7975
-3.9689 -3.3255 0.7758
-3.6670 -3.2981 0.7176
-3.1605 -3.0496 0.6205
-2.7500 -2.8463 0.5430
-2.4131 -2.6794 0.4804
-2.1309 -2.5397 0.4290
-1.8906 -2.4207 0.3861
-1.6829 -2.3178 0.3498
-1.4260 -2.1161 0.3029
-1.3034 -2.0885 0.2842
-1.1974 -2.0774 0.2693
-1.0684 -2.0135 0.2493
-0.9514 -1.9555 0.2317
-0.8445 -1.9026 0.2163
-0.7463 -1.8540 0.2027
-0.6556 -1.8090 0.1907
-0.5712 -1.7672 0.1801
-0.4798 -1.6840 0.1663
-0.4134 -1.6712 0.1604
-0.3648 -1.7335 0.1621
-0.2958 -1.6993 0.1554
-0.2303 -1.6669 0.1494
-0.1678 -1.6359 0.1442
-0.1080 -1.6063 0.1397
